ply
format ascii 1.0
element vertex 842
property float x
property float y
property float z
end_header
-0.278123986629392 0.109691001386011 0.996228205935531
-0.252958160824288 -0.116237491569826 0.113263008871373
-0.252582627666821 -0.116237491569825 0.111098852856122
-0.245072751864295 -0.116237491569825 0.130720617823732
-0.248170094826521 -0.116237491569825 0.130016425085885
-0.246940352933417 -0.116237491569826 0.145698914701223
-0.250057271041823 -0.116237491569825 0.155315764515639
-0.252515801677837 -0.116237491569826 0.16655487947639
-0.247161347979638 -0.116237491569825 0.173302140874777
-0.250584333455468 -0.116237491569825 0.188385880455148
-0.253170283459957 -0.116237491569825 0.190305605955154
-0.253683394824533 -0.116237491569825 0.194719290912549
-0.249751966755358 -0.116237491569825 0.212127493481167
-0.245110392589288 -0.116237491569826 0.227471981903135
-0.253127011081052 -0.116237491569825 0.228387925575087
-0.245814086961038 -0.116237491569825 0.246887479095078
-0.246322828863457 -0.116237491569826 0.246809292486077
-0.251107944141742 -0.116237491569825 0.266866230276441
-0.251606644807283 -0.116237491569825 0.273388121131429
-0.246198572020847 -0.116237491569825 0.281158345841958
-0.246200797879218 -0.116237491569825 0.29088743821529
-0.245776937107468 -0.116237491569825 0.294331606639823
-0.254102528189227 -0.116237491569825 0.313479823965529
-0.247009339472754 -0.116237491569825 0.318889238911322
-0.245313604011529 -0.116237491569825 0.32433150393471
-0.244889321947886 -0.116237491569825 0.342631374273391
-0.247039151307267 -0.116237491569825 0.341486748965469
-0.252201027836832 -0.116237491569825 0.363444637940177
-0.250141946308272 -0.116237491569825 0.370916290765873
-0.246278274769552 -0.116237491569825 0.375949198592395
-0.249053451597044 -0.116237491569825 0.3899838180811
-0.250659472767323 -0.116237491569825 0.395725213685895
-0.245972174815208 -0.116237491569825 0.402735568571254
-0.252837055089848 -0.116237491569825 0.412544922606365
-0.247004959055121 -0.116237491569825 0.423002987172914
-0.248553311446199 -0.116237491569825 0.435001131048952
-0.253679524001256 -0.116237491569825 0.440913885934177
-0.246896544345199 -0.116237491569825 0.454028118035459
-0.253260605002649 -0.116237491569825 0.456272020537837
-0.253505992896282 -0.116237491569825 0.469566656523491
-0.252061111358399 -0.116237491569825 0.482882767076831
-0.245553050927199 -0.116237491569825 0.49115047923655
-0.249772737078139 -0.116237491569825 0.496378549781362
-0.251030243326194 -0.116237491569825 0.505469822868239
-0.245327734772934 -0.116237491569825 0.527387010249159
-0.249165986312549 -0.116237491569826 0.531492138646905
-0.253266152043707 -0.116237491569826 0.537550980882541
-0.254058313708316 -0.116237491569825 0.551110162707655
-0.254049434333932 -0.116237491569825 0.557018014601865
-0.254613142922989 -0.116237491569825 0.567425338684123
-0.246251885216961 -0.116237491569825 0.582602448388423
-0.247650925269218 -0.116237491569826 0.589774701284854
-0.249634640579678 -0.116237491569825 0.592278451982491
-0.252249822952388 -0.116237491569825 0.600498401773171
-0.25049509169828 -0.116237491569825 0.612119944357209
-0.247953403798232 -0.116237491569826 0.630161696265579
-0.247375594051382 -0.116237491569825 0.632311058922756
-0.2495491321 -0.116237491569826 0.645116945635762
-0.251907929107307 -0.116237491569825 0.654606983799058
-0.250492571192563 -0.116237491569825 0.662054826205374
-0.24513216335973 -0.116237491569825 0.669921612047004
-0.250817706997801 -0.116237491569825 0.68453267543344
-0.249575742802161 -0.116237491569825 0.699056412365839
-0.24585072440962 -0.116237491569825 0.701949303495573
-0.252255923197041 -0.116237491569826 0.711309464292806
-0.254201874113392 -0.116237491569825 0.724422950922236
-0.246135780027432 -0.116237491569825 0.73747536199401
-0.254271063737549 -0.116237491569825 0.741399067321656
-0.252264805542743 -0.116237491569825 0.751586841789754
-0.248794141034891 -0.116237491569825 0.75384042366623
-0.249013452886324 -0.116237491569825 0.766906622068756
-0.249316695184465 -0.116237491569825 0.783148962086515
-0.250674858176429 -0.116237491569825 0.794970440483641
-0.248692877345882 -0.116237491569825 0.793246554996703
-0.253785939378367 -0.116237491569826 0.807433430880792
-0.249147407085567 -0.116237491569825 0.81649227279171
-0.251037407064463 -0.116237491569825 0.828767187519804
-0.252914888648726 -0.116237491569825 0.838437803384697
-0.246867903857881 -0.116237491569825 0.842506556097948
-0.254511851463134 -0.116237491569825 0.850856879196631
-0.253274075443451 -0.116237491569825 0.870643660229877
-0.253911947378624 -0.116237491569825 0.87284394225734
-0.246987939260001 -0.116237491569826 0.889807633337964
-0.253524622555024 -0.116237491569825 0.896921991179787
-0.253254431423958 -0.116237491569825 0.90382371658144
-0.251416069729398 -0.116237491569825 0.918233605666097
-0.25054353690085 -0.116237491569826 0.92807660509239
-0.253597227630298 -0.116237491569825 0.936768186974226
-0.25434795053408 -0.116237491569825 0.938004804346066
-0.245488777464868 -0.116237491569825 0.949910152208328
-0.252348224487569 -0.116237491569825 0.963789980658123
-0.252562344773686 -0.116237491569825 0.972467676369463
-0.251047599780112 -0.116237491569825 0.985033715963238
-0.249946371540232 -0.116237491569825 0.990745772611879
-0.251669825602627 -0.102721679246496 0.996042795999302
-0.256506750194717 -0.0938819116092917 0.996040201515162
-0.255747858669726 -0.0713939332530573 0.996033456996398
-0.258522323378549 -0.0754917442614152 0.9960347151098
-0.256543352970944 -0.0485368366800521 0.996026619075822
-0.255679006474365 -0.0395314750529907 0.996023912028979
-0.25621429839684 -0.0185097744417909 0.999585261396468
-0.256110823959145 -0.0247334339400252 0.999748233655961
-0.258510865648164 0.00648090290392718 0.998930857479531
-0.257110535640464 0.0235634651662807 0.998483534843929
-0.260292436978057 0.0386804775904688 0.998087681942228
-0.259472327289632 0.0490221204833506 0.997816876492538
-0.270237447947702 0.0632357865357327 0.997444678548081
-0.263890445714078 0.0834481262647853 0.996915399805206
-0.269291303530015 0.0986009033050454 0.996518610374074
-0.272619565705706 0.106293308469963 0.996317177655747
-0.244184285827723 -0.116237491569825 0.109145203222577
-0.244890993762706 -0.116237491569825 0.116202292313916
-0.243811433364911 -0.116237491569825 0.124377143606979
-0.237423621977564 -0.116237491569825 0.139330221934855
-0.238642919017261 -0.116237491569825 0.15377818427239
-0.245247003516335 -0.116237491569825 0.152021563297497
-0.244778198072287 -0.116237491569825 0.163356316730125
-0.237935918668639 -0.116237491569825 0.177664833770199
-0.238192043578606 -0.116237491569825 0.189542162685477
-0.240242661506217 -0.116237491569825 0.189511693640183
-0.237896968072008 -0.116237491569825 0.200169102157071
-0.243000315483778 -0.116237491569825 0.212312729186063
-0.243742241300095 -0.116237491569825 0.223602593270925
-0.238784595970405 -0.116237491569825 0.229780270141576
-0.243747221531289 -0.116237491569825 0.243933331412563
-0.241638771870001 -0.116237491569825 0.248470089087705
-0.237431336449552 -0.116237491569825 0.262438583619288
-0.239058680901689 -0.116237491569825 0.263154874364103
-0.243169757636727 -0.116237491569825 0.275858402083625
-0.238693684310612 -0.116237491569825 0.293472926920206
-0.239863878273112 -0.116237491569825 0.297690401726894
-0.242714767998345 -0.116237491569826 0.30271300440443
-0.244650942433893 -0.116237491569826 0.320690628807584
-0.241436405575562 -0.116237491569825 0.327097373106849
-0.237101691058112 -0.116237491569825 0.333396339337974
-0.242503916769856 -0.116237491569825 0.34863921449953
-0.244194576836876 -0.116237491569825 0.355702942773165
-0.243984140369693 -0.116237491569825 0.372522318934031
-0.244635686416132 -0.116237491569825 0.382846797735185
-0.23643500438895 -0.116237491569825 0.393655292022376
-0.24464698522864 -0.116237491569825 0.387258856712354
-0.239813371664372 -0.116237491569825 0.408404818252916
-0.238492007428837 -0.116237491569825 0.410232165431984
-0.244628623980812 -0.116237491569825 0.42434098342278
-0.240752317943623 -0.116237491569825 0.434962978233974
-0.23598521947217 -0.116237491569825 0.443943550291003
-0.240689726532677 -0.116237491569825 0.452593260073443
-0.238602447316144 -0.116237491569825 0.461315608667319
-0.239890946555619 -0.116237491569825 0.469070083767028
-0.241421083968696 -0.116237491569825 0.478152800879432
-0.244401067755159 -0.116237491569825 0.490675215663447
-0.236710462387509 -0.116237491569825 0.501912370945332
-0.239710025830698 -0.116237491569825 0.514000338016155
-0.235352195771038 -0.116237491569825 0.519876530705232
-0.2432879062157 -0.116237491569825 0.533670130570084
-0.243211323713047 -0.116237491569825 0.539326956297515
-0.238136546355865 -0.116237491569825 0.551778928590942
-0.245238004366127 -0.116237491569825 0.553416103397693
-0.236816860294461 -0.116237491569825 0.563974807302411
-0.242648398761691 -0.116237491569825 0.577006769163016
-0.236542252266003 -0.116237491569825 0.592380267375735
-0.240844903030809 -0.116237491569826 0.598406302683258
-0.240941799248199 -0.116237491569825 0.606377059502659
-0.238591452463048 -0.116237491569825 0.615235745464037
-0.242050536387506 -0.116237491569825 0.627191368516503
-0.236623575971156 -0.116237491569825 0.632418899081085
-0.23557440501699 -0.116237491569825 0.645274482963033
-0.235341808058051 -0.116237491569825 0.656338080775757
-0.235715072417367 -0.116237491569825 0.659084045524531
-0.239352855388226 -0.116237491569825 0.672098875876746
-0.241528622628901 -0.116237491569825 0.679576132408447
-0.235591707713327 -0.116237491569825 0.690061594456348
-0.244560542036296 -0.116237491569825 0.704075883323823
-0.241842230058248 -0.116237491569825 0.713528672664841
-0.238902046903064 -0.116237491569825 0.725752397366114
-0.237660130508079 -0.116237491569825 0.730393034378886
-0.235961258110554 -0.116237491569825 0.741827625596121
-0.236448947191535 -0.116237491569825 0.747207557747663
-0.242008777237261 -0.116237491569825 0.755590714798752
-0.239848704138612 -0.116237491569825 0.77383819872031
-0.241151583994582 -0.116237491569825 0.777605492718234
-0.244355274256412 -0.116237491569825 0.792638739322341
-0.244527728194706 -0.116237491569825 0.801750810701437
-0.235803418166025 -0.116237491569825 0.814439765527711
-0.236013269323365 -0.116237491569825 0.819944719993556
-0.241680843054207 -0.116237491569825 0.828369024483762
-0.244521217460396 -0.116237491569825 0.836234130813978
-0.241337812122144 -0.116237491569825 0.846173195027376
-0.241001960653452 -0.116237491569825 0.854404421255176
-0.238489502695138 -0.116237491569826 0.8716961382597
-0.235132373662973 -0.116237491569825 0.880687478902536
-0.236115857525393 -0.116237491569825 0.887644695260537
-0.241615770329109 -0.116237491569825 0.894217187036511
-0.238034234792604 -0.116237491569825 0.906038218704709
-0.244847105413287 -0.116237491569826 0.910940434337432
-0.239147969950003 -0.116237491569826 0.921631801319267
-0.23947200951525 -0.116237491569825 0.931942762908206
-0.244428720443869 -0.116237491569825 0.943569001210465
-0.240114527729341 -0.116237491569825 0.950920213413092
-0.239244338968075 -0.116237491569825 0.958371461989533
-0.237413424675132 -0.116237491569825 0.968650444507263
-0.241971962939401 -0.116237491569825 0.975061507973581
-0.242570760807197 -0.116237491569825 0.993675050237814
-0.236975637031956 -0.116237491569825 0.994977041065204
-0.238796478075551 -0.0953299268495071 0.996040439682104
-0.242355769226679 -0.0832123519681821 0.996036849241479
-0.241745598439454 -0.0628530822488843 0.996030744006887
-0.244713627659453 -0.0563400351915624 0.996028825839353
-0.248684917479478 -0.046822431903722 0.996026018754294
-0.252771577645294 -0.0285641848008651 0.999848545397554
-0.245931135293653 -0.00994280553333021 0.999360927420545
-0.25542294435284 0.00288589145092559 0.99902499616748
-0.251995042695865 0.00952134664848753 0.998851240658101
-0.256031113584302 0.0362039017943739 0.998152533361785
-0.257028863436802 0.0458959644208423 0.997898737770004
-0.255307614829452 0.0763306061233544 0.997101778629396
-0.252867635464843 0.0809889896272358 0.996979794564325
-0.255036356697693 0.0944967333730191 0.996626081846021
-0.260173473009018 0.11507868254013 0.99608712453939
-0.22736206425285 -0.116237491569825 0.102870993969416
-0.230204679949993 -0.116237491569825 0.113219060821012
-0.228097696106926 -0.116237491569825 0.126914051508826
-0.228297520255758 -0.116237491569825 0.141613414801908
-0.232387705754334 -0.116237491569825 0.146376324297868
-0.22850614575765 -0.116237491569825 0.155719715297474
-0.232037045822179 -0.116237491569825 0.16467293487115
-0.230665070663676 -0.116237491569825 0.171333874014953
-0.22621229935614 -0.116237491569826 0.1909425326868
-0.233333425070453 -0.116237491569825 0.196755496718219
-0.234502613531921 -0.116237491569825 0.198078158885175
-0.232795172104706 -0.116237491569825 0.22058545999696
-0.234660528872199 -0.116237491569826 0.217288814068992
-0.233315290995192 -0.116237491569825 0.223737922707224
-0.226283034390932 -0.116237491569825 0.236784216392084
-0.227484212552464 -0.116237491569825 0.254574096775427
-0.230916920735234 -0.116237491569826 0.259700275775261
-0.232363951842889 -0.116237491569825 0.264103343002117
-0.230650809408809 -0.116237491569825 0.27769403848424
-0.233093206990931 -0.116237491569825 0.291150295283183
-0.234371660482801 -0.116237491569825 0.293139628253299
-0.235458379810738 -0.116237491569825 0.308301006552895
-0.228823593905585 -0.116237491569825 0.314086339426324
-0.232849115764053 -0.116237491569826 0.327893363276288
-0.226766593672907 -0.116237491569826 0.332753387969221
-0.227130906213897 -0.116237491569825 0.352645538953456
-0.234577558798658 -0.116237491569825 0.352191896701557
-0.235039574183299 -0.116237491569825 0.369928676381931
-0.226551522287198 -0.116237491569825 0.373748695378858
-0.227369175235689 -0.116237491569825 0.389676452903008
-0.231843345538551 -0.116237491569825 0.392882667579525
-0.235395007235349 -0.116237491569825 0.405242639387128
-0.234560224467854 -0.116237491569825 0.418194076536736
-0.235007515810449 -0.116237491569825 0.421617930145014
-0.228223408145179 -0.116237491569825 0.436605916653719
-0.232261028998792 -0.116237491569825 0.447864114369587
-0.227866024266432 -0.116237491569826 0.45858749521628
-0.232372313047432 -0.116237491569825 0.458900230308233
-0.234849290210096 -0.116237491569825 0.474006415354393
-0.2277363435423 -0.116237491569825 0.483237748308082
-0.22949162763303 -0.116237491569825 0.493511807987422
-0.227822034594714 -0.116237491569825 0.499019552476319
-0.228368215248833 -0.116237491569825 0.51529275935562
-0.234714171221863 -0.116237491569825 0.519719476306543
-0.234119346367141 -0.116237491569825 0.528291950551488
-0.226120960223362 -0.116237491569826 0.53896276348166
-0.228630436675938 -0.116237491569825 0.555758765877033
-0.233224853057356 -0.116237491569825 0.555733642453291
-0.229810073135708 -0.116237491569825 0.564674106691984
-0.225928421429644 -0.116237491569825 0.577237845813148
-0.230357113447719 -0.116237491569825 0.590507779942625
-0.235100643444651 -0.116237491569825 0.596331847120945
-0.226549852969107 -0.116237491569825 0.611737912700863
-0.229170121518602 -0.116237491569825 0.621521638743428
-0.230346859244016 -0.116237491569825 0.619713456417602
-0.23273008813749 -0.116237491569825 0.634181670944413
-0.233147770630535 -0.116237491569825 0.6429938527308
-0.235074886507975 -0.116237491569825 0.661353832301325
-0.227247240935877 -0.116237491569825 0.66460032703912
-0.227043768139462 -0.116237491569826 0.6766186799154
-0.235113978661371 -0.116237491569825 0.678997907297047
-0.227883600290777 -0.116237491569825 0.695541417738615
-0.229359826952245 -0.116237491569825 0.705998210865086
-0.231625022915569 -0.116237491569825 0.709751747489133
-0.226985790175167 -0.116237491569825 0.721367463083007
-0.226845261561922 -0.116237491569825 0.730754215692259
-0.230928951724794 -0.116237491569826 0.740896465982653
-0.230559519831117 -0.116237491569825 0.747360571406608
-0.230626813970122 -0.116237491569825 0.760761697504844
-0.226762879423555 -0.116237491569825 0.772090767048328
-0.232362758912235 -0.116237491569825 0.777360704251532
-0.227468256156717 -0.116237491569825 0.789320603665161
-0.233923938561889 -0.116237491569825 0.804750619519937
-0.23057022865293 -0.116237491569825 0.80784063474781
-0.235503351220672 -0.116237491569825 0.814439359643808
-0.235149151436311 -0.116237491569826 0.827145896833039
-0.235094622598247 -0.116237491569825 0.838395813313743
-0.231930845857227 -0.116237491569825 0.848088526814539
-0.229907930393634 -0.116237491569825 0.853041371619161
-0.232546754900081 -0.116237491569825 0.863533266790184
-0.232706312048752 -0.116237491569825 0.876416365023856
-0.227276801282029 -0.116237491569826 0.891386100341629
-0.226532659116535 -0.116237491569826 0.895354625726941
-0.232102777324651 -0.116237491569825 0.898452721310108
-0.233901865588544 -0.116237491569825 0.91312823367276
-0.229306262104076 -0.116237491569826 0.920074867620183
-0.228222704315999 -0.116237491569825 0.931434996653526
-0.234522549491927 -0.116237491569826 0.936169830559958
-0.232946244734497 -0.116237491569825 0.945839634227902
-0.232230663848513 -0.116237491569825 0.965635323497369
-0.229300338082454 -0.116237491569826 0.965700152688357
-0.22671524514142 -0.116237491569825 0.982350328298431
-0.230375221142074 -0.116237491569825 0.993491959377609
-0.228228968840799 -0.103685812186316 0.996042825938485
-0.22822801978634 -0.0985603447298085 0.996041290625159
-0.236808863210341 -0.0752219809246708 0.996034394518708
-0.238741928201236 -0.0696162988511071 0.996032736717609
-0.236093117136624 -0.0528140150640477 0.996027674443666
-0.235688557643322 -0.0452212004697872 0.996025395594261
-0.238090418720508 -0.027160521903953 0.999811789191026
-0.237488109504008 -0.0187594698948967 0.999591799902018
-0.243498247696331 0.00791187389157751 0.998893386185481
-0.243571288847149 0.0261245589548938 0.998416470242849
-0.238235455890645 0.0379905302685772 0.998105748848686
-0.241309970713423 0.0417423749316877 0.998007503338599
-0.246100955255302 0.0631611000627272 0.997446634282205
-0.250036040696732 0.081219528152026 0.996973757700596
-0.247619164030907 0.089716202547095 0.996751264451288
-0.21895539797283 -0.116237491569825 0.112393403308022
-0.22163866020157 -0.116237491569826 0.120553682631601
-0.222580208337164 -0.116237491569825 0.120621578484762
-0.225578020290209 -0.116237491569825 0.133144179608384
-0.217284816563703 -0.116237491569825 0.147904619079205
-0.225463624209648 -0.116237491569825 0.146892030527908
-0.218128368880271 -0.116237491569825 0.162361810769356
-0.21729055182362 -0.116237491569825 0.175391576304294
-0.22573449498535 -0.116237491569825 0.176053227302524
-0.222801812501401 -0.116237491569825 0.188706421774618
-0.22390549533136 -0.116237491569825 0.1965426463528
-0.222020116230864 -0.116237491569825 0.206017574642138
-0.220613176763381 -0.116237491569825 0.215680507077227
-0.217092234091987 -0.116237491569825 0.23089187670097
-0.223146557450412 -0.116237491569825 0.243352943871819
-0.223863131429237 -0.116237491569825 0.245602200071466
-0.22313663694295 -0.116237491569825 0.255399736566321
-0.219388221151796 -0.116237491569825 0.27048069169191
-0.219107009202945 -0.116237491569825 0.281945733228994
-0.216748830006353 -0.116237491569825 0.290742364732082
-0.224823446293404 -0.116237491569825 0.295326960517623
-0.219391831975613 -0.116237491569825 0.309163159746756
-0.220541719867234 -0.116237491569825 0.318570387079858
-0.218605415235029 -0.116237491569825 0.330749501890126
-0.217915085625907 -0.116237491569825 0.335491101855895
-0.223574473971836 -0.116237491569826 0.341445581314851
-0.218566614143474 -0.116237491569825 0.358811291736455
-0.22410924274553 -0.116237491569825 0.368510727931701
-0.225131412794259 -0.116237491569825 0.375787455270848
-0.219112016866042 -0.116237491569825 0.379147286883482
-0.217384311332574 -0.116237491569825 0.392763530740725
-0.218462244962071 -0.116237491569825 0.405626059796709
-0.220082367019834 -0.116237491569825 0.422161172007775
-0.217561359337812 -0.116237491569826 0.421123089848816
-0.224172459796106 -0.116237491569825 0.434812995690141
-0.222142658323203 -0.116237491569825 0.442638929603827
-0.21754483614632 -0.116237491569825 0.451926647442386
-0.224137916400166 -0.116237491569825 0.460163818170986
-0.216201801258917 -0.116237491569825 0.471380704376152
-0.219539458850167 -0.116237491569826 0.479475388647924
-0.2161459063124 -0.116237491569825 0.496509121423928
-0.224498309132134 -0.116237491569825 0.493361300263748
-0.219053649985361 -0.116237491569825 0.515615220441829
-0.220454361913189 -0.116237491569825 0.521171087865747
-0.219863758718125 -0.116237491569825 0.532963747259153
-0.223255061610871 -0.116237491569825 0.541739146059726
-0.216034380884072 -0.116237491569825 0.547319162867083
-0.224862615829249 -0.116237491569825 0.557703896623752
-0.220413043593751 -0.116237491569825 0.563294254844347
-0.223429713332972 -0.116237491569825 0.580760114399065
-0.219588678191795 -0.116237491569825 0.592168971252004
-0.223387707243771 -0.116237491569826 0.597039469822645
-0.219208360316899 -0.116237491569825 0.60317103648563
-0.221995439652266 -0.116237491569825 0.61272954995194
-0.224830869457563 -0.116237491569826 0.625361996460706
-0.219563769913031 -0.116237491569825 0.637759211128021
-0.216610967847182 -0.116237491569825 0.650151149700917
-0.222048429029553 -0.116237491569825 0.656047267093161
-0.221828296336707 -0.116237491569825 0.669001575189812
-0.216632549980065 -0.116237491569825 0.672966228477391
-0.223261337502925 -0.116237491569825 0.685654463265366
-0.219397199302157 -0.116237491569826 0.698338917830179
-0.221713839610959 -0.116237491569825 0.703371740085321
-0.219419228396568 -0.116237491569826 0.717846157913783
-0.225431314613577 -0.116237491569825 0.719903342126645
-0.22485965539919 -0.116237491569825 0.738492711960295
-0.218994276146578 -0.116237491569825 0.734434986974995
-0.216650036181737 -0.116237491569825 0.751317332420177
-0.225600004941504 -0.116237491569825 0.763946563022998
-0.218120117319615 -0.116237491569825 0.768404408281039
-0.220576644708925 -0.116237491569825 0.779059878087221
-0.218067360026382 -0.116237491569826 0.789441442713979
-0.225383290012146 -0.116237491569825 0.791481896626014
-0.221525921018163 -0.116237491569825 0.805930319488682
-0.224321936842955 -0.116237491569826 0.816234587601419
-0.216181870887106 -0.116237491569825 0.83352124430761
-0.217470780261912 -0.116237491569825 0.839480559871721
-0.226256127600901 -0.116237491569826 0.845658135884204
-0.22079344501122 -0.116237491569825 0.852687197031954
-0.225796704776945 -0.116237491569826 0.866298913206496
-0.216681557604602 -0.116237491569825 0.878998018680566
-0.218845204200755 -0.116237491569825 0.882137744927248
-0.21879994403194 -0.116237491569825 0.894756164516123
-0.219906615862557 -0.116237491569826 0.905639213271087
-0.218563405389705 -0.116237491569825 0.90835905786501
-0.217817694183146 -0.116237491569826 0.921650724529425
-0.224255038099283 -0.116237491569825 0.933916194988982
-0.218498329521772 -0.116237491569825 0.946126984298898
-0.223284729124096 -0.116237491569825 0.954687045991279
-0.225265563594424 -0.116237491569825 0.963261474652945
-0.22487475300522 -0.116237491569826 0.971142887761772
-0.221385433789455 -0.116237491569825 0.984178693322836
-0.217382330652952 -0.116237491569825 0.993527068599618
-0.219976671029878 -0.114509096698019 0.996045976856639
-0.221549760502507 -0.0905461080010019 0.996038816259856
-0.228907266296319 -0.0700657491202003 0.996032762742026
-0.223280527744188 -0.0726915322337921 0.996033487142565
-0.228478567707401 -0.0423697872703427 0.996024461849607
-0.229825844208889 -0.0363986257952231 0.996022688102405
-0.229469043582097 -0.0327036390755894 0.999956940822532
-0.230595905551034 -0.0147240204938864 0.999486127940507
-0.226979284258723 0.00376054977364484 0.999002092433241
-0.229669001773204 0.0170209309768085 0.998654857131078
-0.235854166571746 0.0245417427047756 0.998457917745033
-0.230802246662313 0.0431911266588002 0.997969566439499
-0.232158375008241 0.0620653952962277 0.997475326321284
-0.23386294902303 0.0854195386904033 0.996863776554048
-0.239523470087954 0.108735926116293 0.996253215461637
-0.213633536073719 -0.116237491569825 0.108064007481651
-0.214471999134881 -0.116237491569825 0.111103340651792
-0.208866205269063 -0.116237491569825 0.119461740755761
-0.210277317370894 -0.116237491569825 0.131097500288593
-0.210154999086288 -0.116237491569826 0.142723569290464
-0.212847586175952 -0.116237491569825 0.15183908093132
-0.208114465334579 -0.116237491569826 0.156461133468128
-0.207276096403539 -0.116237491569825 0.171259503747583
-0.211339945296853 -0.116237491569825 0.183071879829025
-0.214572057768078 -0.116237491569825 0.194230130144314
-0.21357593289586 -0.116237491569825 0.203349981546492
-0.214550744342166 -0.116237491569825 0.221824627349668
-0.213326226502468 -0.116237491569826 0.218367640317567
-0.214574078775051 -0.116237491569826 0.231750445888157
-0.208679621369641 -0.116237491569825 0.236582801321495
-0.210231170949591 -0.116237491569825 0.24963887363619
-0.207808845510164 -0.116237491569825 0.257145295545182
-0.209573030423243 -0.116237491569825 0.273561075952502
-0.21330030611836 -0.116237491569825 0.280011737404307
-0.212177617122206 -0.116237491569825 0.293016374384365
-0.211028702490118 -0.116237491569825 0.290925246718642
-0.208546137384754 -0.116237491569825 0.305094312826927
-0.208404829014268 -0.116237491569825 0.323627934145463
-0.208495051835389 -0.116237491569825 0.325365382701929
-0.213902251692876 -0.116237491569825 0.330968324009418
-0.214939462524459 -0.116237491569825 0.347179050394936
-0.208643113568343 -0.116237491569825 0.352533853520249
-0.20986470315352 -0.116237491569825 0.362640125556877
-0.214687963393943 -0.116237491569825 0.377058366416227
-0.207457973778094 -0.116237491569825 0.381527934042665
-0.210512119293212 -0.116237491569825 0.390635486805018
-0.207536452130553 -0.116237491569825 0.402925992083506
-0.215052468817454 -0.116237491569825 0.407200776744736
-0.21595787656888 -0.116237491569825 0.427738688383388
-0.2121403855094 -0.116237491569825 0.435562874029086
-0.208659676819979 -0.116237491569825 0.445255771986991
-0.212476065111057 -0.116237491569825 0.458824955547272
-0.2131832887168 -0.116237491569825 0.456839312001665
-0.212843366055473 -0.116237491569825 0.473272840489437
-0.214402693329607 -0.116237491569825 0.479938321230292
-0.210721165488012 -0.116237491569825 0.490970965727508
-0.210339113826336 -0.116237491569825 0.506031922373107
-0.212909861987161 -0.116237491569825 0.506408736235321
-0.212877555730663 -0.116237491569825 0.525391337880724
-0.209694647130937 -0.116237491569825 0.526600469034316
-0.20776422639727 -0.116237491569825 0.537763889229122
-0.207889394837271 -0.116237491569826 0.542802056017349
-0.20927311274222 -0.116237491569826 0.555706135615549
-0.210023985256897 -0.116237491569825 0.56896751856235
-0.20866353124777 -0.116237491569825 0.574016370508577
-0.212211566199701 -0.116237491569825 0.595031286207048
-0.209048827343212 -0.116237491569825 0.591255727618602
-0.210178218161124 -0.116237491569825 0.605929965327979
-0.20980333738729 -0.116237491569826 0.613840036021417
-0.207571662499996 -0.116237491569825 0.622327448267348
-0.21564243558439 -0.116237491569825 0.632084004654596
-0.214849632514216 -0.116237491569826 0.648924237305372
-0.211199621350901 -0.116237491569826 0.651224808822207
-0.209591397238315 -0.116237491569825 0.66649363984981
-0.212902297927984 -0.116237491569826 0.67349110548656
-0.207045386379108 -0.116237491569826 0.686530960794444
-0.213981326181765 -0.116237491569825 0.688883074006672
-0.212852905358457 -0.116237491569825 0.705293067589417
-0.215560357043576 -0.116237491569825 0.711528213372432
-0.207561134671378 -0.116237491569825 0.726541662589478
-0.215232267077716 -0.116237491569825 0.73086606507458
-0.216025608385289 -0.116237491569826 0.744022308313214
-0.212178860334148 -0.116237491569825 0.751489297304375
-0.210396665915157 -0.116237491569825 0.760017223895069
-0.215600199837959 -0.116237491569825 0.771268982503272
-0.213952110154833 -0.116237491569826 0.772528649926374
-0.212473339127005 -0.116237491569825 0.787865356669191
-0.215774678513909 -0.116237491569825 0.795508964842954
-0.208404427136207 -0.116237491569825 0.807888203426332
-0.207653747842442 -0.116237491569825 0.820377071358509
-0.215712069653506 -0.116237491569825 0.82899432973037
-0.207967054252264 -0.116237491569825 0.834482773014404
-0.212558301711897 -0.116237491569825 0.845493060633086
-0.20740674614357 -0.116237491569825 0.850365460913724
-0.214820942250153 -0.116237491569825 0.870046599042061
-0.206775579274671 -0.116237491569825 0.872238823651027
-0.212499356028747 -0.116237491569825 0.881976790168313
-0.2147542095653 -0.116237491569825 0.895981769919468
-0.20714137729572 -0.116237491569825 0.897188941311296
-0.212951074526847 -0.116237491569825 0.911058856508574
-0.206824086876428 -0.116237491569825 0.927418646419884
-0.211113794216266 -0.116237491569825 0.934331290458982
-0.214976780845273 -0.116237491569826 0.948321993543188
-0.208158446754945 -0.116237491569826 0.952356186258323
-0.208185994315812 -0.116237491569825 0.967466306663764
-0.216093419964389 -0.116237491569825 0.9721008109837
-0.209950825773772 -0.116237491569825 0.980047042126293
-0.207482069139846 -0.116237491569826 0.992752298749538
-0.214091473190913 -0.103931648112221 0.996042743454593
-0.217778476971154 -0.0967364872210761 0.996040628903725
-0.211439023463271 -0.0808214678650791 0.99603579164815
-0.216947120316825 -0.0601660760333851 0.996029665276946
-0.214460390809478 -0.0553284097356721 0.996028188721861
-0.215242413051381 -0.0344342462740431 0.99670649161211
-0.219700957595246 -0.0326044631819249 0.999954343810359
-0.219597646851534 -0.008797300222298 0.999330931308313
-0.221603589313372 -9.14347512678115e-005 0.999102960197897
-0.224248883181184 0.0133084511504648 0.998752071836638
-0.227098535560154 0.0433292670117846 0.99796594910705
-0.223068515830279 0.0412855203704125 0.998019466496309
-0.225037758304468 0.0609895045010355 0.997503499513264
-0.22344544688234 0.0875859474898621 0.996807047143139
-0.230125287111767 0.0922493578446375 0.996684931445343
-0.22476843223785 0.11341286060307 0.996130745621982
-0.2039053923264 -0.116237491569825 0.102260021632735
-0.205217350670368 -0.116237491569825 0.119956336885296
-0.201420819156624 -0.116237491569826 0.123062699696789
-0.202609050971723 -0.116237491569826 0.136344510802737
-0.206057660885603 -0.116237491569825 0.145099955230412
-0.1992529603919 -0.116237491569825 0.148279005909695
-0.198768570163591 -0.116237491569826 0.16119938687416
-0.196869743791999 -0.116237491569825 0.177693262218573
-0.205600988073898 -0.116237491569825 0.184941213047422
-0.199189714475193 -0.116237491569825 0.189294088339901
-0.205126705822048 -0.116237491569825 0.20919494264085
-0.205309511099397 -0.116237491569825 0.210246488135315
-0.202056239272904 -0.116237491569825 0.221417017950265
-0.203759083907431 -0.116237491569825 0.233180875695305
-0.204528097675969 -0.116237491569825 0.239409455239708
-0.200805266442537 -0.116237491569825 0.256124634363541
-0.202819061616487 -0.116237491569825 0.266225643540449
-0.202005537651705 -0.116237491569825 0.263118718667609
-0.198269687136586 -0.116237491569825 0.280218981385094
-0.200355769450979 -0.116237491569825 0.286167626222364
-0.2021360714943 -0.116237491569825 0.306879681988975
-0.206542484935656 -0.116237491569825 0.307239713763403
-0.198189382784341 -0.116237491569825 0.311069040122174
-0.197347322033272 -0.116237491569825 0.324303084232359
-0.205091003529392 -0.116237491569825 0.338351695932151
-0.199584281356488 -0.116237491569826 0.348795716642046
-0.202527507740618 -0.116237491569825 0.356388277960151
-0.205251687959793 -0.116237491569825 0.371177785777283
-0.203144290407826 -0.116237491569825 0.378764964133999
-0.200524562918187 -0.116237491569825 0.384961748701506
-0.202027722016813 -0.116237491569825 0.389318555573839
-0.197418262129277 -0.116237491569826 0.411219985279428
-0.198376407798667 -0.116237491569825 0.412294422176056
-0.19901198555978 -0.116237491569825 0.423440583212138
-0.20076164168494 -0.116237491569825 0.428803294009138
-0.205667530861355 -0.116237491569826 0.438746640028661
-0.202951930352744 -0.116237491569825 0.44975426210976
-0.19955820226355 -0.116237491569825 0.462730932200969
-0.198523031600234 -0.116237491569825 0.473370527794377
-0.200941820006574 -0.116237491569825 0.481641121196367
-0.204837130767436 -0.116237491569825 0.493711876351924
-0.206675522747766 -0.116237491569825 0.500035779039688
-0.205165253417623 -0.116237491569826 0.510659590960524
-0.200286580186892 -0.116237491569825 0.519369421530197
-0.197745258982788 -0.116237491569825 0.535106074876247
-0.201518637846068 -0.116237491569825 0.544950834604073
-0.201882566364224 -0.116237491569825 0.551542577702135
-0.199508186595594 -0.116237491569825 0.55787483381665
-0.203100371564243 -0.116237491569825 0.571122150830835
-0.20363783654967 -0.116237491569825 0.576921760239012
-0.201095398218637 -0.116237491569825 0.591397262852382
-0.19807235266656 -0.116237491569825 0.593978274855374
-0.203062220879795 -0.116237491569826 0.609299536822717
-0.202772119999284 -0.116237491569825 0.612990440436786
-0.200950995418433 -0.116237491569825 0.620149932214494
-0.200229638307382 -0.116237491569825 0.631151970910285
-0.197540712175688 -0.116237491569825 0.640054205275053
-0.2042834797994 -0.116237491569825 0.652274402835259
-0.199188030342636 -0.116237491569825 0.660184499476085
-0.203473599055979 -0.116237491569825 0.671969727486004
-0.200350451627592 -0.116237491569825 0.683925834432609
-0.204838619705617 -0.116237491569825 0.693045856847718
-0.204709360186451 -0.116237491569825 0.709816179697441
-0.201513875121399 -0.116237491569825 0.717018408616492
-0.203783976641419 -0.116237491569825 0.727062852732218
-0.197731001367004 -0.116237491569826 0.729641259874843
-0.204637576158318 -0.116237491569825 0.744303855012998
-0.198499572743498 -0.116237491569825 0.751594332152734
-0.197376153086443 -0.116237491569825 0.756281191011932
-0.202706086087757 -0.116237491569825 0.763360601915643
-0.197452119614807 -0.116237491569825 0.780822626157666
-0.204969655736314 -0.116237491569826 0.782804215190207
-0.205360181374094 -0.116237491569825 0.80043193151258
-0.199880042783081 -0.116237491569825 0.811008374406477
-0.20115107607547 -0.116237491569825 0.817017386625744
-0.198540674471002 -0.116237491569825 0.825855306929712
-0.19716172492257 -0.116237491569825 0.842893109288466
-0.203570705066414 -0.116237491569825 0.843596860698527
-0.206713153101608 -0.116237491569825 0.851135736005059
-0.200561591436716 -0.116237491569825 0.872780060287234
-0.201919240476438 -0.116237491569825 0.876129736297833
-0.205544345249315 -0.116237491569825 0.884102973074935
-0.206127884553486 -0.116237491569825 0.893544514651932
-0.200717358090523 -0.116237491569825 0.907042259805285
-0.202820453511943 -0.116237491569826 0.915360354708225
-0.196907810507976 -0.116237491569825 0.924646273247193
-0.204720227891273 -0.116237491569825 0.932224867960389
-0.200856688686633 -0.116237491569826 0.945817337481474
-0.206811968360132 -0.116237491569825 0.947596907904138
-0.206179225470655 -0.116237491569825 0.964442720533313
-0.203697974729523 -0.116237491569826 0.967797081376246
-0.206460974011888 -0.116237491569825 0.980403455613285
-0.202494696829904 -0.116237491569825 0.991598436183916
-0.203887043399121 -0.112625187226345 0.996045234862669
-0.201521351397214 -0.100281191312601 0.996041511168482
-0.207411551831045 -0.083549139104835 0.996036564229615
-0.202425956253562 -0.0626837109754508 0.99603025905983
-0.20203379905097 -0.0426216208033827 0.996024245251135
-0.207062899216382 -0.0344366973833039 0.996612887525861
-0.210027332005512 -0.0319852217989345 0.999938128404071
-0.205860269925164 -0.024750027928394 0.999748668184839
-0.214990196562808 0.00233128102540022 0.999039519152584
-0.209519622117088 0.00947550770232401 0.99885244099315
-0.215217993984344 0.0276728919224471 0.998375925717197
-0.213600574416873 0.0508805314127382 0.997768212289698
-0.21198447637488 0.0690436253885282 0.997292594935395
-0.212029280583227 0.0769370173658468 0.997085899192162
-0.214596232924997 0.103175813541009 0.996398812133449
-0.192452945885567 -0.116237491569825 0.10780533795951
-0.18751746200384 -0.116237491569825 0.117130113798339
-0.189570950474505 -0.116237491569825 0.121218054403991
-0.188795712610739 -0.116237491569826 0.140693682462716
-0.196642409061286 -0.116237491569825 0.145556886732169
-0.192213218031578 -0.116237491569825 0.160053867188561
-0.191720836514339 -0.116237491569825 0.162394698410045
-0.193288067490534 -0.116237491569825 0.177724697247341
-0.187518366394754 -0.116237491569825 0.187108016825489
-0.195911618348408 -0.116237491569826 0.192976375480979
-0.196191062071069 -0.116237491569825 0.197846367189152
-0.19307427879395 -0.116237491569825 0.211091023327211
-0.192978971370592 -0.116237491569825 0.218239343854027
-0.190261679556838 -0.116237491569826 0.235846479655179
-0.188794276483126 -0.116237491569825 0.242634032472404
-0.188737210209558 -0.116237491569825 0.246043774795646
-0.19559108412845 -0.116237491569826 0.259840197886568
-0.190006853469871 -0.116237491569826 0.267240107894427
-0.191497090997911 -0.116237491569826 0.281167235385732
-0.1926419104316 -0.116237491569825 0.283450916746606
-0.196467908815147 -0.116237491569825 0.305412601096871
-0.187609329097091 -0.116237491569825 0.311626227717249
-0.189446999914538 -0.116237491569826 0.323302221492977
-0.190965785318185 -0.116237491569825 0.329675698495865
-0.195536447905826 -0.116237491569825 0.334957920155696
-0.190651807666679 -0.116237491569825 0.349116024995034
-0.193924695244228 -0.116237491569826 0.359064234676996
-0.187212071769544 -0.116237491569826 0.365699519663002
-0.187750020617466 -0.116237491569825 0.368662028262904
-0.190625084415649 -0.116237491569825 0.378373024006096
-0.196686205496709 -0.116237491569825 0.393469966936152
-0.189698524895729 -0.116237491569825 0.404815728616958
-0.188322278709641 -0.116237491569825 0.414392680855878
-0.191341815429811 -0.116237491569825 0.425715210486218
-0.195176770443572 -0.116237491569825 0.429452911254319
-0.192820368334426 -0.116237491569825 0.434763634405304
-0.195689090955921 -0.116237491569825 0.456295099273982
-0.194786869443945 -0.116237491569825 0.464023413899633
-0.190642165947761 -0.116237491569825 0.475227832391035
-0.19205990678189 -0.116237491569825 0.485594276946582
-0.195300828860311 -0.116237491569825 0.492413008220374
-0.194590157005256 -0.116237491569825 0.49415998833982
-0.194665919326103 -0.116237491569825 0.511999526655236
-0.1905711737032 -0.116237491569825 0.521663720768901
-0.196887421593793 -0.116237491569825 0.531468526038911
-0.189464906620291 -0.116237491569826 0.54150452440675
-0.193497643091416 -0.116237491569826 0.550268082684404
-0.196585496904933 -0.116237491569826 0.563128027010734
-0.196389553649786 -0.116237491569825 0.570404705126405
-0.192193038436577 -0.116237491569825 0.582281098871568
-0.195938688466354 -0.116237491569825 0.584611321816958
-0.19478835864183 -0.116237491569826 0.6003708640308
-0.195384606332986 -0.116237491569825 0.606420781216083
-0.195464261336695 -0.116237491569825 0.614934858200749
-0.187368117023149 -0.116237491569826 0.629306619749287
-0.189174105184514 -0.116237491569825 0.640767350314267
-0.194733315313342 -0.116237491569825 0.643678552002157
-0.194457688243058 -0.116237491569825 0.656442790611547
-0.191164507586593 -0.116237491569826 0.66172728145504
-0.193106975500494 -0.116237491569825 0.669638720194648
-0.18974761958621 -0.116237491569825 0.685741346879433
-0.194862211772101 -0.116237491569825 0.693282167190436
-0.189638488883898 -0.116237491569825 0.704748986568641
-0.191664583150823 -0.116237491569825 0.719842214437261
-0.194033130049699 -0.116237491569826 0.719656026043137
-0.188089907478584 -0.116237491569826 0.738089798124228
-0.18754615689852 -0.116237491569825 0.741001358103408
-0.195686671697806 -0.116237491569825 0.750840595818797
-0.190757017156864 -0.116237491569825 0.760754191538526
-0.194071671075191 -0.116237491569825 0.765733217270664
-0.194375739596388 -0.116237491569825 0.777701656429024
-0.1929376149037 -0.116237491569825 0.793120396012743
-0.195505330109422 -0.116237491569826 0.796501393000666
-0.192443644257113 -0.116237491569825 0.807998051436213
-0.192826846700595 -0.116237491569826 0.816487940866521
-0.19349773103651 -0.116237491569825 0.823463875488935
-0.191700270268512 -0.116237491569825 0.835818072173731
-0.188078140688966 -0.116237491569825 0.844130456990824
-0.191661573063627 -0.116237491569825 0.857252540669207
-0.188698290703396 -0.116237491569825 0.864454631696529
-0.187543490220569 -0.116237491569826 0.869425239578283
-0.192776707612658 -0.116237491569825 0.887850996140467
-0.188427954279992 -0.116237491569825 0.891955278740463
-0.192607216463204 -0.116237491569826 0.899552449551441
-0.191424795458091 -0.116237491569825 0.920729817108981
-0.1898492707768 -0.116237491569825 0.924639177061873
-0.196391263383844 -0.116237491569826 0.940218056773438
-0.190270461824382 -0.116237491569826 0.939428456116948
-0.191842850749879 -0.116237491569825 0.95879052302703
-0.193571207694297 -0.116237491569825 0.958126435144652
-0.190511669376417 -0.116237491569825 0.972206366396573
-0.192260679955245 -0.116237491569825 0.982589144299752
-0.188688977130577 -0.116237491569826 0.994545334945554
-0.189426984815719 -0.109775535824249 0.996044221582116
-0.189982795143052 -0.0891092829899038 0.996038037268695
-0.191295022089774 -0.0746233675954992 0.996033712591283
-0.192517516240414 -0.0768498207386858 0.996034393012079
-0.200558927482218 -0.0519801088624411 0.996027032242522
-0.198111852330824 -0.0386799336370238 0.996023021231865
-0.199445056144929 -0.0257570640993596 0.99977503835503
-0.203153231034947 -0.0190257903600594 0.999598773748832
-0.199061011316171 -0.00655858674061565 0.999272308532665
-0.205740508732991 0.0195225210422129 0.998589350689827
-0.205987402737464 0.0330308296644197 0.998235623179714
-0.20468708267971 0.0595270498584621 0.997541795235833
-0.204819686585852 0.0561761308061315 0.997629542139322
-0.207072214452604 0.0860848473665405 0.996846354833236
-0.204392900930737 0.0925029834929746 0.996678290024008
-0.185386212047581 -0.116237491569825 0.110108937980271
-0.182190966923831 -0.116237491569826 0.116401779217949
-0.185881696617459 -0.116237491569825 0.128132242326688
-0.180852207063242 -0.116237491569825 0.13495219227001
-0.179836744115595 -0.116237491569825 0.142179183855664
-0.180639054072965 -0.116237491569825 0.158858540184396
-0.184503193992698 -0.116237491569825 0.162696218159044
-0.181781077656684 -0.116237491569825 0.174126501897068
-0.17790032427872 -0.116237491569825 0.190213581673669
-0.187444118110349 -0.116237491569826 0.184431558233281
-0.181325044788526 -0.116237491569825 0.203607256493003
-0.182209409003938 -0.116237491569825 0.212622406724836
-0.178800797247787 -0.116237491569825 0.221346067644237
-0.178570083141318 -0.116237491569825 0.235833451409267
-0.186794624785826 -0.116237491569825 0.23484730023489
-0.18439614257402 -0.116237491569825 0.251154265452294
-0.180705359991272 -0.116237491569825 0.262637684022939
-0.180612167201165 -0.116237491569825 0.273088730372212
-0.187078767361101 -0.116237491569825 0.285398753426654
-0.183683364809113 -0.116237491569825 0.289051757330742
-0.178932237667086 -0.116237491569825 0.301111995361884
-0.18406976767328 -0.116237491569825 0.303090128202624
-0.181704029915336 -0.116237491569825 0.313353214766385
-0.181531586539347 -0.116237491569825 0.332563209666798
-0.179085930197349 -0.116237491569825 0.332020699285907
-0.181667708673293 -0.116237491569825 0.347650796329569
-0.177759700666795 -0.116237491569825 0.358213650570523
-0.181294011988731 -0.116237491569825 0.369369889572978
-0.186916803330101 -0.116237491569825 0.373978741244628
-0.179634908107286 -0.116237491569825 0.386234451827177
-0.182624159053924 -0.116237491569826 0.395227047815588
-0.182013752424513 -0.116237491569826 0.397683368276955
-0.180827131148046 -0.116237491569825 0.412850802884254
-0.187515261539612 -0.116237491569826 0.417115328156614
-0.183815230523028 -0.116237491569825 0.42884873690402
-0.17845377079586 -0.116237491569825 0.447130964638071
-0.181225759655829 -0.116237491569825 0.451925276361749
-0.187000807521264 -0.116237491569825 0.462761503965921
-0.182957964425171 -0.116237491569825 0.475555612663222
-0.186307040566957 -0.116237491569825 0.476324600527873
-0.181206570269402 -0.116237491569825 0.489805496971965
-0.180562472902328 -0.116237491569825 0.503583505314432
-0.181365979707106 -0.116237491569825 0.508480800213205
-0.177847206084495 -0.116237491569825 0.522197940172485
-0.185032324016848 -0.116237491569825 0.530090395589909
-0.180055857766009 -0.116237491569825 0.538479959902293
-0.179553214917004 -0.116237491569826 0.541626901503181
-0.179800629173855 -0.116237491569825 0.557756052705579
-0.182242480115965 -0.116237491569825 0.57105110448107
-0.185243469135755 -0.116237491569825 0.578103634703431
-0.18680216258062 -0.116237491569826 0.592115630398796
-0.185686203816317 -0.116237491569825 0.591276397099728
-0.1838350844372 -0.116237491569825 0.605299344916887
-0.187339348208518 -0.116237491569825 0.615162116711674
-0.182368972607686 -0.116237491569825 0.621545201489593
-0.178703023517687 -0.116237491569825 0.631113212639599
-0.178103432908918 -0.116237491569826 0.645737046198676
-0.179192346933983 -0.116237491569826 0.657295763457599
-0.179830398776687 -0.116237491569825 0.66407683683578
-0.180638932339291 -0.116237491569825 0.674655084774219
-0.18775230934935 -0.116237491569825 0.679857248688102
-0.181569696087949 -0.116237491569825 0.699741494762779
-0.183199067908896 -0.116237491569826 0.703692480483251
-0.179721573380563 -0.116237491569825 0.711232567444475
-0.18650155427682 -0.116237491569825 0.717684752753922
-0.179247704529749 -0.116237491569826 0.734688098459714
-0.180983067854626 -0.116237491569825 0.744806041413142
-0.178349386754534 -0.116237491569826 0.751644788181658
-0.178852836316754 -0.116237491569825 0.752399912770605
-0.18126031072366 -0.116237491569825 0.765219254376384
-0.186553603078587 -0.116237491569825 0.779952547016559
-0.183794599937836 -0.116237491569825 0.790345445895631
-0.184791593639006 -0.116237491569826 0.796314620931053
-0.182502196792529 -0.116237491569825 0.805748875822782
-0.186468271479696 -0.116237491569825 0.81485538585847
-0.181355974976614 -0.116237491569826 0.831738470493942
-0.178488472998312 -0.116237491569825 0.839169943694189
-0.184097317028843 -0.116237491569826 0.846396984162735
-0.179771817382404 -0.116237491569825 0.863971067026039
-0.179104076073635 -0.116237491569826 0.86795434305035
-0.185322181130955 -0.116237491569825 0.877023356803148
-0.187401058326814 -0.116237491569825 0.885936305937465
