ply
format ascii 1.0
element vertex 1071
property float x
property float y
property float z
end_header
-0.0843036837946101 -0.125 0.264725439624936
-0.0859029728689116 -0.125 0.270886918070933
-0.0867331905684444 -0.125 0.285955286364788
-0.0899525767797225 -0.125 0.295843091259959
-0.0836342550431702 -0.125 0.303389647709923
-0.0859271591741254 -0.125 0.309891482356354
-0.0862393759107847 -0.125 0.325226228310267
-0.0842429647350236 -0.125 0.327448542841392
-0.0834305228764501 -0.125 0.331547157782509
-0.0846541651298743 -0.125 0.35269662854674
-0.0755505182679724 -0.125 0.354158638301048
-0.08431483821317 -0.125 0.358796111880422
-0.0760674911723057 -0.125 0.371419824923677
-0.081338183061531 -0.125 0.390853677645125
-0.0861839931787066 -0.125 0.396454590777923
-0.0821735137633227 -0.125 0.401365296399075
-0.0912304557805608 -0.125 0.423073932026457
-0.0912919755521849 -0.125 0.430307437146107
-0.0842158501512751 -0.125 0.432922317684798
-0.0807354195347517 -0.125 0.442603563628174
-0.0853866737774496 -0.125 0.4495711019472
-0.0785430515929209 -0.125 0.462143249054916
-0.0854938589527335 -0.125 0.473061040096718
-0.0848570054001688 -0.125 0.487520063643792
-0.0865853159505297 -0.125 0.491532352622845
-0.0811990504252034 -0.125 0.501035562627303
-0.0814395822867545 -0.125 0.507559737077249
-0.0885551019670464 -0.125 0.525480665265644
-0.0850818966104404 -0.125 0.528455408527582
-0.0859641654606507 -0.125 0.542608628562868
-0.09336415271473 -0.125 0.556845746548176
-0.0859025361319979 -0.125 0.555303837940611
-0.0849304748044553 -0.125 0.562340488781269
-0.0825633928270544 -0.125 0.572604403655245
-0.0821737593588412 -0.125 0.586493277457453
-0.0830548142328383 -0.125 0.592679069205665
-0.0779503855399178 -0.125 0.599066063922934
-0.0779660971120735 -0.125 0.605935201557067
-0.0884200361753278 -0.125 0.621662609996018
-0.0825551887717669 -0.125 0.630379174625239
-0.0871573996287825 -0.125 0.648915019617186
-0.082573101815175 -0.125 0.654656821122555
-0.0813214088513319 -0.125 0.662946274092925
-0.083809461363142 -0.125 0.669920335743134
-0.0780667995300602 -0.125 0.677878346162788
-0.0793007863948412 -0.125 0.686711985727449
-0.0863184197011773 -0.125 0.697879706002646
-0.0830353960280666 -0.125 0.712713700900526
-0.0808920784118992 -0.125 0.716080272619319
-0.0795727938956273 -0.125 0.720776167379725
-0.0842684962158554 -0.125 0.741705928488452
-0.0858351335293271 -0.125 0.750443013233618
-0.0873491709026149 -0.125 0.763547554288141
-0.0888143673200604 -0.125 0.773029989906802
-0.0858777216429259 -0.125 0.77862228111124
-0.086414410489569 -0.125 0.786305771813598
-0.079396813610519 -0.125 0.797153824175759
-0.087963946054483 -0.125 0.802638447902989
-0.0782851270832282 -0.125 0.80868116906772
-0.0797046769244636 -0.125 0.820899595508519
-0.0856061045523489 -0.125 0.831841100276869
-0.083724905541144 -0.125 0.841086095327236
-0.0854328079828668 -0.125 0.848632487968584
-0.0851635565449543 -0.125 0.86706730937142
-0.0821440603497151 -0.125 0.868689961476161
-0.092703166637608 -0.125 0.881619827789525
-0.0807545422278824 -0.125 0.894637726608812
-0.086964351462715 -0.125 0.897140014648369
-0.0839748202246354 -0.125 0.906389228243561
-0.0828255355052088 -0.125 0.919345849295838
-0.0840053101839061 -0.125 0.930514330223641
-0.0884603026547453 -0.125 0.935929345005129
-0.087743999417254 -0.125 0.946433161618412
-0.0811343078150229 -0.125 0.953119977659635
-0.0899689763867083 -0.125 0.96667974790718
-0.0922697980421492 -0.125 0.978116091523889
-0.0866870501600948 -0.125 0.9860248640729
-0.083619111857145 -0.124236018441499 1.0
-0.0848443940504434 -0.122127941491732 1.0
-0.0701952292368918 -0.112864753375115 1.0
-0.0659149894057146 -0.109474198383647 1.0
-0.051064954561042 -0.0969671239492853 1.0
-0.0364476360834063 -0.0829004975003702 1.0
-0.0334272716595941 -0.0752507003345668 1.0
-0.0222149859791703 -0.0621285915515339 1.0
-0.0068760488964999 -0.0480808051786474 1.0
0.00863476885919606 -0.0332529800702615 1.0
0.01666197537015 -0.0350298124130268 1.0
0.0173476888836199 -0.0284864467160881 1.0
0.026547866687387 -0.0150373903348817 1.0
0.0396233413579554 0.00171578694048467 1.0
0.0572969679136878 0.00648568433661011 1.0
0.0731711161836927 0.0287402741440039 1.0
0.0705310950860074 0.0366347172354424 1.0
0.0952958304008815 0.0533447366576363 1.0
0.0978969915380619 0.0550906226018299 1.0
0.107188092899364 0.0636630735076062 1.0
0.12932358036517 0.0788637637478246 1.0
0.133156661994648 0.0893630252432049 1.0
0.152168999248903 0.102621601535021 1.0
0.160297379206241 0.110201516737332 1.0
-0.0950416639837575 -0.125 0.139866770821109
-0.0943473232768919 -0.125 0.153939789908926
-0.0987264471039958 -0.125 0.16958282636566
-0.0915562226285305 -0.125 0.16748288819115
-0.0976137731737322 -0.125 0.184446229158304
-0.100143982059355 -0.125 0.192126793901699
-0.106606609627958 -0.125 0.213265847118095
-0.0944638365669191 -0.125 0.210086766436036
-0.0951513000958669 -0.125 0.217605666494372
-0.0956226363819038 -0.125 0.231180667791758
-0.0931672721300303 -0.125 0.238644404644881
-0.0977490341648988 -0.125 0.25431549607931
-0.0963094413331609 -0.125 0.267870087927499
-0.0984225371342627 -0.125 0.271840221684925
-0.101243789011871 -0.125 0.285963151147091
-0.0996469747526439 -0.125 0.297992010915235
-0.0932974111122405 -0.125 0.297068204170935
-0.100298169016314 -0.125 0.31283084965847
-0.0987415965471224 -0.125 0.319854115475879
-0.103640600757853 -0.125 0.334715759213119
-0.102724564227666 -0.125 0.339839421217428
-0.0957550451890468 -0.125 0.34280314357625
-0.0952800858094709 -0.125 0.356529551579035
-0.0987653695484783 -0.125 0.365379579884581
-0.105632964640358 -0.125 0.379546014974454
-0.0913173387552849 -0.125 0.386374402696379
-0.103945483223888 -0.125 0.396360080093961
-0.0984346793690568 -0.125 0.403142635577807
-0.0992660523600031 -0.125 0.418219084822204
-0.0968103162944681 -0.125 0.42338734620827
-0.0970246922532861 -0.125 0.427008787481954
-0.101262587310093 -0.125 0.442980847383137
-0.093060514368593 -0.125 0.449098266582486
-0.10152195157503 -0.125 0.468224173539247
-0.103772190346646 -0.125 0.478068382538521
-0.0981699207798324 -0.125 0.483741167869739
-0.0930410203591721 -0.125 0.487395841292992
-0.0909172697694656 -0.125 0.498378107347974
-0.0969830966231103 -0.125 0.511212714359207
-0.0970579374008725 -0.125 0.519293510599802
-0.100622536770684 -0.125 0.524352737653844
-0.0957168454260736 -0.125 0.542821253206395
-0.10382140029606 -0.125 0.554525232637837
-0.0997656284316797 -0.125 0.552172868193292
-0.0899956722983282 -0.125 0.561966201575642
-0.0971911594915796 -0.125 0.573302045569934
-0.0948721709238308 -0.125 0.582229346005956
-0.0973798497448173 -0.125 0.585762755452433
-0.0987065918976109 -0.125 0.604882483442077
-0.0994900570815616 -0.125 0.612231927867539
-0.10047688387203 -0.125 0.623105947634206
-0.0940264868664898 -0.125 0.629293295017737
-0.0939589594201765 -0.125 0.645862952604098
-0.0989594158115419 -0.125 0.655756960436176
-0.0912984397028085 -0.125 0.660134687531479
-0.103943954126825 -0.125 0.670277928387213
-0.0937550104468362 -0.125 0.676352738262778
-0.102029851061929 -0.125 0.689829461157599
-0.100483962236237 -0.125 0.70405725126219
-0.102629272860039 -0.125 0.712303367353351
-0.100965122186811 -0.125 0.721001411631276
-0.103683401189547 -0.125 0.73038251844228
-0.0973592257234342 -0.125 0.735456769011344
-0.0972559017430528 -0.125 0.744426155113989
-0.0986230272809521 -0.125 0.755024980229953
-0.105137261267272 -0.125 0.765155568388685
-0.10246127401617 -0.125 0.777178429550739
-0.105139376653759 -0.125 0.783845623672785
-0.0946116355137017 -0.125 0.789309079134859
-0.0925933468815297 -0.125 0.80118461103757
-0.0946186423723306 -0.125 0.807161130695163
-0.0995925801139049 -0.125 0.817093990372512
-0.100038314426846 -0.125 0.83070038201845
-0.101551470343205 -0.125 0.848400654061107
-0.0958570018000927 -0.125 0.848544791281694
-0.10112042620932 -0.125 0.862205416098051
-0.0976970820419747 -0.125 0.869089512543346
-0.0963185735147181 -0.125 0.86958608956508
-0.098074433655206 -0.125 0.886812424287309
-0.0926442441274805 -0.125 0.898365849630474
-0.0960527233054074 -0.125 0.90332665803857
-0.0970691565040154 -0.125 0.914940795322312
-0.0954814782127831 -0.125 0.927901356890282
-0.0972517737334422 -0.125 0.934175779017662
-0.0931289988572357 -0.125 0.938781422855797
-0.0955143551931142 -0.125 0.953502934930022
-0.0927113589922995 -0.125 0.958043890080002
-0.0972918081197741 -0.125 0.969654711501141
-0.1035266162787 -0.125 0.986713941987202
-0.103024998970475 -0.125 0.997584505997046
-0.0958796401934539 -0.125 0.999157878055386
-0.0898113883374455 -0.118660309467714 1.0
-0.074873167923224 -0.102331810198002 1.0
-0.0643276289645356 -0.093313795886806 1.0
-0.0572941732387351 -0.0801068520192816 1.0
-0.0478324186159345 -0.0717847316318969 1.0
-0.0445553406522117 -0.0677788058617472 1.0
-0.0344585356789287 -0.0628105459178201 1.0
-0.0188928953448815 -0.0442265355966582 1.0
-0.00034409604629998 -0.0294833742277207 1.0
0.00438459862378421 -0.0230351147968206 1.0
0.0190105249596217 -0.0143906014812627 1.0
0.0204306578558957 -0.00461867900291324 1.0
0.0448343396789558 0.0137533761748907 1.0
0.0450661165966006 0.0147413134317298 1.0
0.0641362561133287 0.034423269782645 1.0
0.067821444983414 0.0451389033677629 1.0
0.0811075069385496 0.0551251096038698 1.0
0.0912235614144805 0.0640336397868308 1.0
0.102260687319716 0.081265218898519 1.0
0.112706886310098 0.0814315849340929 1.0
0.122818911464247 0.0934339521505065 1.0
0.141660707691929 0.101990331851734 1.0
0.140667827805264 0.109433854501467 1.0
-0.118156794228171 -0.125 0.161143881804656
-0.116184928546615 -0.125 0.164718131285531
-0.109055225038374 -0.125 0.172612415003873
-0.103969206226167 -0.125 0.17933466410763
-0.112780159301971 -0.125 0.19330561147594
-0.105114364043634 -0.125 0.202778168777016
-0.107109245362675 -0.125 0.207244170681357
-0.113062492930011 -0.125 0.230974513698165
-0.110696044441748 -0.125 0.231751810507371
-0.106735579673188 -0.125 0.23407045915075
-0.116938494089932 -0.125 0.261430334936122
-0.113975283984896 -0.125 0.257715596267641
-0.10921636899753 -0.125 0.268023583396652
-0.110151521950781 -0.125 0.289636360325481
-0.106129937344906 -0.125 0.285360554411702
-0.109301869170864 -0.125 0.294438818361585
-0.118633952015989 -0.125 0.314458088957799
-0.114114445512144 -0.125 0.315357620544539
-0.110630992752669 -0.125 0.323694836349223
-0.103831113369878 -0.125 0.334944476185842
-0.104833434513586 -0.125 0.345033526111824
-0.114880312648992 -0.125 0.358603017061138
-0.111744767008714 -0.125 0.363981402330547
-0.114626382923008 -0.125 0.378513611353129
-0.114716100258417 -0.125 0.388050264943578
-0.10970634785452 -0.125 0.393681274964943
-0.114553483969819 -0.125 0.407492898900616
-0.110553329390341 -0.125 0.412217773856627
-0.113009108097327 -0.125 0.429483159993355
-0.113582980655342 -0.125 0.436439780182839
-0.11661722210181 -0.125 0.443869009452652
-0.109682335244795 -0.125 0.447475398777088
-0.114304470468185 -0.125 0.458176430289172
-0.105207750544135 -0.125 0.469460188702652
-0.115018655146005 -0.125 0.481526330088386
-0.111066579071086 -0.125 0.493845575178244
-0.112295001314838 -0.125 0.503578267370348
-0.105170738931223 -0.125 0.506894127048705
-0.117933687159466 -0.125 0.522819175652645
-0.112874468548434 -0.125 0.529758031670192
-0.112211312195153 -0.125 0.539405549876073
-0.108951299454077 -0.125 0.540159416763251
-0.120349490201923 -0.125 0.557675057769319
-0.106632554741836 -0.125 0.556807385442396
-0.113964404058941 -0.125 0.574510440784927
-0.115181245578978 -0.125 0.589943715741337
-0.110158536013405 -0.125 0.596349652880757
-0.109361794347701 -0.125 0.605133991320733
-0.111358224947845 -0.125 0.612310042083036
-0.117222672575729 -0.125 0.619781209022672
-0.118215092047201 -0.125 0.6340558628686
-0.113999570944219 -0.125 0.643157449276738
-0.110768671042119 -0.125 0.652339978583495
-0.112094517547954 -0.125 0.653120597427224
-0.104569185461713 -0.125 0.662954804159923
-0.119866252736371 -0.125 0.67840949381102
-0.106856922160025 -0.125 0.685072960329674
-0.109575211901968 -0.125 0.694087627743959
-0.112592971006942 -0.125 0.708869332033852
-0.111535590720429 -0.125 0.712867805346215
-0.113236204329928 -0.125 0.728246115851167
-0.105479745596495 -0.125 0.733706623457986
-0.110963908924107 -0.125 0.742912347963783
-0.107411145462783 -0.125 0.746365089636325
-0.10995482435286 -0.125 0.766906638145544
-0.116378353668331 -0.125 0.77305895469324
-0.112625226283278 -0.125 0.787865263461395
-0.103674836200026 -0.125 0.783433334840312
-0.114823120149244 -0.125 0.804320042727737
-0.108989071425586 -0.125 0.809424251488117
-0.119303995182599 -0.125 0.819759441773812
-0.11795448591591 -0.125 0.832194694227745
-0.117860264471978 -0.125 0.841260655530046
-0.113350122305357 -0.125 0.847901074273319
-0.109626608042952 -0.125 0.849294344202211
-0.106886729350173 -0.125 0.867294039245394
-0.106034821776178 -0.125 0.871252013201712
-0.114453446396989 -0.125 0.890855432759942
-0.11358039910725 -0.125 0.89678543696396
-0.117676035561141 -0.125 0.91095955535665
-0.113347188414389 -0.125 0.917577359600569
-0.106888458489516 -0.125 0.923693084289174
-0.105721199424768 -0.125 0.933592197985099
-0.11276871426186 -0.125 0.946215292096112
-0.10887167303999 -0.125 0.953073422440075
-0.110531508780612 -0.125 0.959159797039652
-0.109502596186075 -0.125 0.970217764531722
-0.117774984111218 -0.125 0.981200398886854
-0.109827745963824 -0.125 0.985812276716263
-0.112771116321271 -0.125 0.993382792193876
-0.108026829864639 -0.120806473874716 1.0
-0.0925300093990767 -0.0984190473806476 1.0
-0.0772271017818436 -0.0944977253393415 1.0
-0.0772289702981555 -0.0965849832084204 1.0
-0.0561724474536911 -0.070745871228572 1.0
-0.0556692380101148 -0.0663093266097352 1.0
-0.0387225901877333 -0.0573177642784568 1.0
-0.0335269550740823 -0.0515118534216925 1.0
-0.0305930190969788 -0.0394115675606814 1.0
-0.00842501405084622 -0.0303594858538312 1.0
-0.00247953788286776 -0.0134816618499629 1.0
0.00413283743165443 -0.0135160646325088 1.0
0.0266654093309681 0.00990358992900742 1.0
0.0292014656663339 0.0158883521071882 1.0
0.0422252995256182 0.0325289308321399 1.0
0.0490295935011073 0.0277887961475405 1.0
0.0672300631620901 0.0510755920346351 1.0
0.0720000714561868 0.0612292420016498 1.0
0.0765595943829123 0.0621749389342878 1.0
0.0883929436550495 0.0752684385142346 1.0
0.0996125778612673 0.0847866648034858 1.0
0.112488529693163 0.100164744473175 1.0
0.137617368874972 0.115440795843692 1.0
0.136735822645799 0.122497446017783 1.0
-0.119949437748963 -0.125 0.170175017258648
-0.124694166480459 -0.125 0.178622794394212
-0.127690999534678 -0.125 0.191037781264428
-0.121825658851379 -0.125 0.200383167458661
-0.130645971923306 -0.125 0.212583426110846
-0.13109843497755 -0.125 0.221646952965911
-0.132786296138368 -0.125 0.233309222351517
-0.124881410827156 -0.125 0.231256702943975
-0.126047692019162 -0.125 0.24451232552083
-0.119619442038985 -0.125 0.246651930450934
-0.12746475096533 -0.125 0.257895495663643
-0.120948648837637 -0.125 0.26241679023372
-0.12047811925007 -0.125 0.28058550535313
-0.124135694357423 -0.125 0.297459826543032
-0.128935348319575 -0.125 0.296238724070253
-0.119458591714411 -0.125 0.308370164520715
-0.125243389855809 -0.125 0.322081531348019
-0.118317782948519 -0.125 0.320075224717306
-0.119489657316459 -0.125 0.33192304351314
-0.12655299376916 -0.125 0.353041789635803
-0.125887413844442 -0.125 0.360465734782438
-0.129991630623963 -0.125 0.364419496854098
-0.127394622823785 -0.125 0.380393482821033
-0.125883143365101 -0.125 0.383554475662188
-0.124475233050063 -0.125 0.3992540870728
-0.123795695130088 -0.125 0.405251147439912
-0.122385746779792 -0.125 0.407635727178166
-0.121892234399889 -0.125 0.42134284116299
-0.126461368081226 -0.125 0.432582982578261
-0.124170553335123 -0.125 0.444006250754179
-0.1240637701695 -0.125 0.455088887644864
-0.123510310066629 -0.125 0.454441826988308
-0.128906148695404 -0.125 0.468734721171013
-0.132068570845388 -0.125 0.479950659986812
-0.130949889707867 -0.125 0.485833107427072
-0.119853018119313 -0.125 0.497081800106667
-0.125311284709971 -0.125 0.510031011135727
-0.124246414680693 -0.125 0.513769593833876
-0.124124522508979 -0.125 0.52747295157977
-0.129006750829982 -0.125 0.539302645868226
-0.130392459237825 -0.125 0.543710812474439
-0.128156519878836 -0.125 0.558203975769608
-0.129121053371266 -0.125 0.567140540089112
-0.124206395297723 -0.125 0.576647649598779
-0.118761384206952 -0.125 0.57946535117094
-0.120184238340404 -0.125 0.586097755971042
-0.121997791833897 -0.125 0.604704927891662
-0.127771666727314 -0.125 0.612310423640575
-0.121851074428603 -0.125 0.616919267854556
-0.129493001881849 -0.125 0.629290475259312
-0.11866982549427 -0.125 0.631434228404465
-0.122268676260267 -0.125 0.646721984986192
-0.131534846220487 -0.125 0.65916193021213
-0.128884493238624 -0.125 0.663121861125149
-0.132681423026889 -0.125 0.682877259803723
-0.12266280402323 -0.125 0.680704796318033
-0.120138144621334 -0.125 0.689891692784344
-0.126626800107599 -0.125 0.705765500936642
-0.129001689115183 -0.125 0.71325342125951
-0.129606363613385 -0.125 0.72489716787686
-0.12387684468644 -0.125 0.731363073084164
-0.122763327833385 -0.125 0.74860922742791
-0.127238398985748 -0.125 0.75791567301003
-0.127641504789301 -0.125 0.766881128845278
-0.126297271138062 -0.125 0.772683547458535
-0.122766990616144 -0.125 0.783597050345934
-0.119665555662137 -0.125 0.781955925355981
-0.122100407661111 -0.125 0.799636173678622
-0.121393279476667 -0.125 0.802447500650378
-0.116145245599758 -0.125 0.809276109220672
-0.129429901598399 -0.125 0.829455123380713
-0.124907301541777 -0.125 0.836924933104485
-0.124168516582162 -0.125 0.851217729299915
-0.12786573980325 -0.125 0.852292605513582
-0.123534915274601 -0.125 0.857712708655265
-0.128719947512622 -0.125 0.873869201374612
-0.117420874337566 -0.125 0.882792580085833
-0.126751184459269 -0.125 0.88831312200309
-0.12461525599203 -0.125 0.90395484677218
-0.119263899062484 -0.125 0.908746966497097
-0.127475938438998 -0.125 0.92141538245181
-0.125745894197122 -0.125 0.930766620312711
-0.126822708983757 -0.125 0.94558957576072
-0.122167434878284 -0.125 0.946425426905381
-0.126698365140339 -0.125 0.9592948319377
-0.127441526010273 -0.125 0.970327772886719
-0.129412735315655 -0.125 0.972840115905999
-0.12364870240924 -0.125 0.979037044020168
-0.130273119736755 -0.125 0.992969870334051
-0.120137910878019 -0.120638795525217 1.0
-0.110259213555693 -0.107879155837523 1.0
-0.0957069991103819 -0.102173178594763 1.0
-0.0854447107423094 -0.0841949929844765 1.0
-0.0748622730027129 -0.0780868102621546 1.0
-0.0658482160135288 -0.0740252254258702 1.0
-0.0565024877322485 -0.0598805555000612 1.0
-0.0537280359878643 -0.0528565665882636 1.0
-0.0415135219226604 -0.0389982350695894 1.0
-0.0240476409851614 -0.0287165906486364 1.0
-0.0177880259044728 -0.0184972989281595 1.0
-0.0127594892228241 -0.00806064344442037 1.0
-0.00589669069714166 -0.000803447228566956 1.0
0.0157853519550323 0.0184252326226328 1.0
0.022470772577662 0.0134780713762024 1.0
0.0320737746806565 0.0267465028313132 1.0
0.0418423850169529 0.0437011848022859 1.0
0.0564494582984487 0.050650135509628 1.0
0.0654391437313486 0.0700149274305204 1.0
0.080672642011673 0.0796215139523566 1.0
0.0937384951344589 0.0930307636967886 1.0
0.0951435546812913 0.100301260563471 1.0
0.106056500589611 0.107582492041549 1.0
0.11488435964369 0.123096373678739 1.0
-0.135526677451625 -0.125 0.174929393144344
-0.139777138860072 -0.125 0.184348185390118
-0.134301940729117 -0.125 0.19234245639857
-0.139307685098444 -0.125 0.195608184278413
-0.134626669074354 -0.125 0.20672925507941
-0.142186434215708 -0.125 0.223699855333081
-0.13251007039657 -0.125 0.230580703208763
-0.135972841146171 -0.125 0.241938148317056
-0.135914209365877 -0.125 0.251435784220048
-0.14166753466049 -0.125 0.255903238385198
-0.135532664723872 -0.125 0.268807474800961
-0.142647000289833 -0.125 0.285161100951002
-0.132978458871792 -0.125 0.286316349477892
-0.138425215701562 -0.125 0.289500906339641
-0.14345805724651 -0.125 0.308313488140652
-0.137009273404088 -0.125 0.317422733911725
-0.142825070510659 -0.125 0.327829098497906
-0.139367479786449 -0.125 0.334488180408992
-0.135736808014684 -0.125 0.343479061907298
-0.142179924842848 -0.125 0.358520095943426
-0.132728236874469 -0.125 0.357281346997754
-0.144923161703752 -0.125 0.376373810785563
-0.141876534169781 -0.125 0.390478821334182
-0.136176214271359 -0.125 0.394507739979612
-0.141281361430212 -0.125 0.410046999625137
-0.134396631017644 -0.125 0.408841542441746
-0.135375345530749 -0.125 0.416807672587522
-0.133029525894212 -0.125 0.427828515567147
-0.145621919830535 -0.125 0.444087174152066
-0.138627942041341 -0.125 0.450507757079727
-0.133391566997188 -0.125 0.458139438341623
-0.132502087587688 -0.125 0.466072779072838
-0.143002973694667 -0.125 0.478587098438969
-0.137706476509213 -0.125 0.481507969057758
-0.143263003250956 -0.125 0.495756744432303
-0.14548043271738 -0.125 0.50772288947248
-0.139954815098369 -0.125 0.51498410825811
-0.140443009768982 -0.125 0.528226423966716
-0.132918326997498 -0.125 0.528542242812694
-0.14061439846961 -0.125 0.547175430785634
-0.133915589061408 -0.125 0.553152927516251
-0.13074129482519 -0.125 0.555679753564655
-0.138489206675107 -0.125 0.564192124225237
-0.141245408716414 -0.125 0.582810328372352
-0.133735321800194 -0.125 0.587663064411888
-0.141583125184161 -0.125 0.60158215092732
-0.140707396854635 -0.125 0.61114478941214
-0.131076292195252 -0.125 0.61571727693654
-0.137494696861906 -0.125 0.624321130694364
-0.133964951580777 -0.125 0.631847698517432
-0.13364499140378 -0.125 0.644582615546332
-0.143733178784005 -0.125 0.663350513781017
-0.139588746931513 -0.125 0.663508580163554
-0.137044045555174 -0.125 0.675718287515866
-0.144581488332392 -0.125 0.686207429283429
-0.132202650925756 -0.125 0.688524781077599
-0.134525029513361 -0.125 0.705567526306901
-0.140773642046253 -0.125 0.711846408595998
-0.134793646888421 -0.125 0.712170439668718
-0.145875022119363 -0.125 0.733804057721484
-0.132075377466395 -0.125 0.741473865432736
-0.143908540616901 -0.125 0.752207893516601
-0.135346056834156 -0.125 0.75274736312422
-0.132794102041078 -0.125 0.759345515054723
-0.139185751337617 -0.125 0.775743129781532
-0.134473812575211 -0.125 0.781183708255397
-0.142711608479917 -0.125 0.798315789366399
-0.14175450958095 -0.125 0.803924344692863
-0.131001118243988 -0.125 0.806171296383924
-0.131406068398502 -0.125 0.82073150406252
-0.133313298505706 -0.125 0.829224368318596
-0.140643679332589 -0.125 0.844375048485819
-0.1306339896825 -0.125 0.847340691995153
-0.139651330377648 -0.125 0.859328234694477
-0.145631070708624 -0.125 0.870674191297833
-0.140730883192762 -0.125 0.884910245392917
-0.129795055107828 -0.125 0.883026753252545
-0.139421121138692 -0.125 0.900343307643204
-0.143224077446157 -0.125 0.90900879565555
-0.133674870750811 -0.125 0.918637553195699
-0.139461190680901 -0.125 0.927631829451419
-0.132164009035126 -0.125 0.933861794478246
-0.137979694279299 -0.125 0.940116035808266
-0.140292427509501 -0.125 0.953854449605791
-0.139733973528495 -0.125 0.966151951343896
-0.138719196446572 -0.125 0.974349784636086
-0.143888972686338 -0.125 0.990827300448109
-0.141073882195337 -0.125 0.992474505214473
-0.137368487155162 -0.125 0.995537747194806
-0.127260498832153 -0.108639716720982 1.0
-0.112111442447008 -0.0980186889763974 1.0
-0.107467760102042 -0.095058401347917 1.0
-0.0944466205214046 -0.0814965000954637 1.0
-0.0816533092018391 -0.0666141369492305 1.0
-0.0791334213431428 -0.0658214936286314 1.0
-0.067768787320516 -0.0594436885502927 1.0
-0.0610036407956103 -0.0455597860113048 1.0
-0.0447142468680735 -0.025905226931707 1.0
-0.0426679737033178 -0.0289981390255618 1.0
-0.0288812459037274 -0.0183274208098259 1.0
-0.0210006639477998 -0.00612522143927219 1.0
-0.00357288885605961 0.00745704418713533 1.0
-0.00421858524624424 0.0121446719926057 1.0
0.0170401101509405 0.0265949315158269 1.0
0.0294163281120068 0.040121201462326 1.0
0.0335221789363502 0.0469770982804887 1.0
0.0439920335136046 0.0580340327784698 1.0
0.0540936249794854 0.0759579762736164 1.0
0.0677010932464381 0.0892446529428006 1.0
0.0809819269127754 0.0886305862002316 1.0
0.087289178543231 0.108894129072773 1.0
0.113082016897365 0.120395896464038 1.0
-0.150305803040562 -0.125 0.184360280323275
-0.150736434485082 -0.125 0.195803097259159
-0.154200323641029 -0.125 0.202843863403117
-0.151613359841918 -0.125 0.218717572235131
-0.153206028396519 -0.125 0.224895438628364
-0.149115743453847 -0.125 0.23052972518458
-0.149140253335031 -0.125 0.246299944097391
-0.151662067120892 -0.125 0.25488505725291
-0.14953710089134 -0.125 0.265938120794005
-0.146654063564872 -0.125 0.265987189262211
-0.154865535685746 -0.125 0.280323220555967
-0.151091279257622 -0.125 0.282167728430404
-0.151293636549708 -0.125 0.302728738831126
-0.150467291018955 -0.125 0.30729157363712
-0.154116349593913 -0.125 0.314222426527596
-0.156026502489196 -0.125 0.328259364810391
-0.156651253367971 -0.125 0.335527924364903
-0.156609239244186 -0.125 0.353590707701686
-0.157919610389403 -0.125 0.361441710820676
-0.151841540971238 -0.125 0.364064252817957
-0.150785893619862 -0.125 0.371442295863814
-0.14499785642556 -0.125 0.376387329993447
-0.152798002335706 -0.125 0.389916934902408
-0.159123893849143 -0.125 0.403728647019884
-0.156203594652681 -0.125 0.415574044789433
-0.157835777653672 -0.125 0.425228129958105
-0.147227509808126 -0.125 0.427688957594284
-0.150261042449503 -0.125 0.432425052221701
-0.149025645713755 -0.125 0.446916349206037
-0.147933091828246 -0.125 0.456233558131136
-0.151156966232993 -0.125 0.458479043389718
-0.156372004194475 -0.125 0.486212410585366
-0.151938408152643 -0.125 0.479736091191081
-0.146176754927091 -0.125 0.492842577395496
-0.152464866941812 -0.125 0.499677144794794
-0.150288615634809 -0.125 0.506961462292964
-0.157878983273713 -0.125 0.523421524772466
-0.145182566160109 -0.125 0.524766090103055
-0.151867043299063 -0.125 0.544301705528667
-0.150642043106848 -0.125 0.553015978797894
-0.152222975589639 -0.125 0.561139046570774
-0.148337445787163 -0.125 0.573158621932499
-0.150915085777088 -0.125 0.577279483968995
-0.157431779181377 -0.125 0.587067980825171
-0.14603445715412 -0.125 0.591118967454033
-0.149735238104346 -0.125 0.605671268455672
-0.153127593533316 -0.125 0.617592017554454
-0.151098514353227 -0.125 0.6314155258479
-0.146966289224194 -0.125 0.631746498638551
-0.14808945799738 -0.125 0.6418391218777
-0.150917234331468 -0.125 0.647715144157244
-0.149484581754385 -0.125 0.656740467004449
-0.146898652743181 -0.125 0.663164257356002
-0.147254052849786 -0.125 0.683932404250664
-0.158369188984679 -0.125 0.698221483784589
-0.146311098859417 -0.125 0.69732697854566
-0.15840493927426 -0.125 0.708831357243955
-0.143408007920645 -0.125 0.709290977248327
-0.153937483601063 -0.125 0.730341286245968
-0.148459574156387 -0.125 0.737031454727278
-0.145697512847923 -0.125 0.743031251925835
-0.155309115963834 -0.125 0.763819258020289
-0.149072917149509 -0.125 0.767478567154948
-0.15483183570132 -0.125 0.774181005504553
-0.152990882049708 -0.125 0.782611505627519
-0.153254007063303 -0.125 0.791693842629293
-0.157737454862695 -0.125 0.811198460053528
-0.15403922211268 -0.125 0.811260134236074
-0.153857534755119 -0.125 0.828173063321956
-0.155923563445567 -0.125 0.831121840632381
-0.153230153806304 -0.125 0.847922847319396
-0.158094396543012 -0.125 0.854966687760434
-0.151747215590431 -0.125 0.855978207006533
-0.152242470694958 -0.125 0.870396690077164
-0.145978423894003 -0.125 0.87587473868472
-0.154949978064896 -0.125 0.890257787289627
-0.157576201160011 -0.125 0.900133296190586
-0.159911593994469 -0.125 0.908522039027547
-0.149747380691372 -0.125 0.920207877060195
-0.147652274067989 -0.125 0.924081082054633
-0.152574871223907 -0.125 0.931218350969544
-0.142318274248774 -0.125 0.937719078823658
-0.146329971470756 -0.125 0.94958409746722
-0.152059435429773 -0.125 0.959393020827362
-0.14959829154188 -0.125 0.972407051784578
-0.158162909413206 -0.125 0.984887551149351
-0.148624479170829 -0.125 0.989827748238998
-0.143864510734737 -0.125 0.996902470989844
-0.140005281108624 -0.11256031142182 1.0
-0.137735511620358 -0.113275192211861 1.0
-0.12823531342823 -0.105243392083139 1.0
-0.11347894110312 -0.0868256868343771 1.0
-0.111596653611046 -0.0830953496509488 1.0
-0.0877774653433719 -0.0647889728179951 1.0
-0.08391459243337 -0.0609613941270632 1.0
-0.0784027410691195 -0.0513785829621831 1.0
-0.0598525870639622 -0.0369220192736956 1.0
-0.0488238627241527 -0.0213535384123595 1.0
-0.0372367530960638 -0.00837474831102722 1.0
-0.0417606464059289 -0.00679905109756215 1.0
-0.0319386374633411 0.00523954467779177 1.0
-0.0224133800220306 0.0128397474620314 1.0
-0.00731610531386334 0.0265815899642519 1.0
0.00330793468827467 0.0307074146038708 1.0
0.013942846303248 0.0410930517312931 1.0
0.030480297771196 0.061330735146957 1.0
0.0384307099949206 0.0676709377257874 1.0
0.050795086405345 0.0747598813872035 1.0
0.068097621226388 0.0900095336696629 1.0
0.0794582098605612 0.10834912991628 1.0
0.0916802851377634 0.116678161787031 1.0
-0.171013226661343 -0.125 0.20088843353895
-0.167134611076676 -0.125 0.202493286264161
-0.163649795876542 -0.125 0.204794291890796
-0.165078201538965 -0.125 0.220720638538393
-0.15983677731882 -0.125 0.23179334734944
-0.165134806906796 -0.125 0.243478884358989
-0.170865897754426 -0.125 0.258711043782714
-0.157522187695114 -0.125 0.258725016655485
-0.172812965320665 -0.125 0.273046983920915
-0.166691300495121 -0.125 0.282500687610334
-0.157392256916706 -0.125 0.282509926653048
-0.164096876292604 -0.125 0.30306301516422
-0.166945711065871 -0.125 0.307311279779803
-0.157066735683587 -0.125 0.316936128192721
-0.162636395658323 -0.125 0.320696263832715
-0.166650898294673 -0.125 0.332509987786643
-0.160441360394396 -0.125 0.335782916022059
-0.168752546513082 -0.125 0.357907278175116
-0.161259658996024 -0.125 0.362531078288071
-0.170857260481673 -0.125 0.377035140484562
-0.160388749653288 -0.125 0.37739418388743
-0.161876091129365 -0.125 0.383540456128868
-0.169404927207537 -0.125 0.405692180996548
-0.161316984092743 -0.125 0.407900977333783
-0.167922825654549 -0.125 0.427782727267497
-0.166375366094626 -0.125 0.429868035695062
-0.167178400986885 -0.125 0.444138802266409
-0.163242367296398 -0.125 0.4523613027107
-0.168064813290757 -0.125 0.461764536804734
-0.166952137466998 -0.125 0.466750482363057
-0.160339136531399 -0.125 0.474980808184821
-0.158639319764038 -0.125 0.476052855079551
-0.16548659444656 -0.125 0.494842030318037
-0.163826756017823 -0.125 0.50326030250418
-0.164782789497797 -0.125 0.514913090866056
-0.169539143979738 -0.125 0.520403768928206
-0.169013814383932 -0.125 0.533532656769466
-0.166278966719719 -0.125 0.53862267720698
-0.158176366271947 -0.125 0.548838854562768
-0.160952820811649 -0.125 0.555449194736768
-0.164220281139818 -0.125 0.573816875714289
-0.156349242013162 -0.125 0.571406311937299
-0.161972992709629 -0.125 0.589964542398274
-0.164884582070369 -0.125 0.590512354674226
-0.165231278751768 -0.125 0.612041513635241
-0.171868612833877 -0.125 0.615066785418015
-0.164428474876157 -0.125 0.629900471809813
-0.161419508527613 -0.125 0.630199221207859
-0.166676215151812 -0.125 0.643953620227161
-0.161973637762903 -0.125 0.651940988817525
-0.160409724657129 -0.125 0.657826057645686
-0.161458900202486 -0.125 0.669456757493671
-0.163629325301723 -0.125 0.681421244055589
-0.165814117076565 -0.125 0.694235821322111
-0.171002688135334 -0.125 0.701263010780411
-0.164663181173135 -0.125 0.70674312727026
-0.170531975661371 -0.125 0.716694216503086
-0.165528404971782 -0.125 0.729614502841375
-0.159162996420547 -0.125 0.729682707912521
-0.16312511968164 -0.125 0.749147715438794
-0.165314267765683 -0.125 0.758012398945624
-0.160507436903797 -0.125 0.761462730167388
-0.161852969789126 -0.125 0.774355460697669
-0.160534367275625 -0.125 0.780728691389109
-0.161724034735658 -0.125 0.794437302417305
-0.166028507464884 -0.125 0.802013685468655
-0.171511700888262 -0.125 0.815267133902671
-0.160844560473533 -0.125 0.81708136072645
-0.15866886688378 -0.125 0.828683108702404
-0.165362875085321 -0.125 0.840575894425978
-0.165054096753587 -0.125 0.850723785509498
-0.158036717850222 -0.125 0.856385008577568
-0.162753682550945 -0.125 0.864656413895255
-0.172329520748094 -0.125 0.876026886105153
-0.158620603042723 -0.125 0.878769331631426
-0.159798437298033 -0.125 0.889599570310718
-0.170050675716617 -0.125 0.903003428512993
-0.163676772735948 -0.125 0.910226386050699
-0.170992433474385 -0.125 0.92681171753502
-0.169337262407893 -0.125 0.939169849945004
-0.163962173709431 -0.125 0.944409498131612
-0.169295372453166 -0.125 0.955516657863556
-0.163520291837861 -0.125 0.964744264238807
-0.166216666962275 -0.125 0.967170159469233
-0.158724480125619 -0.125 0.972821933558814
-0.162485198624896 -0.125 0.981837975015072
-0.161330343856846 -0.125 0.988878078005175
-0.161267199086866 -0.11573749081316 1.0
-0.146101885371104 -0.103206658519689 1.0
-0.13702525396435 -0.101645376657926 1.0
-0.131443646515469 -0.0865661761057929 1.0
-0.124791548127588 -0.0820054775392842 1.0
-0.105857753677289 -0.0695435264840389 1.0
-0.0985380028603818 -0.0528722470603284 1.0
-0.0873715228829824 -0.0415276992791025 1.0
-0.078209199557537 -0.0378496263165617 1.0
-0.0773250137972399 -0.0300925701590833 1.0
-0.0624597983841016 -0.0223112716112812 1.0
-0.046220189448849 -0.00262818113410376 1.0
-0.0379192403775775 -0.00222610591566716 1.0
-0.0371821005315587 0.000632658025943048 1.0
-0.0247435905952669 0.0225820468678753 1.0
-0.0074870705236072 0.0345134741142203 1.0
-0.000549234011622879 0.0394167647720063 1.0
0.01176369633035 0.0643523349907262 1.0
0.0235929184254311 0.0674371469201507 1.0
0.0296012626071693 0.0799513607527316 1.0
0.0428734227242473 0.0857618541810394 1.0
0.052653830177706 0.104526074647864 1.0
0.0693488542875693 0.115231068852708 1.0
0.0688563084047624 0.115677327009894 1.0
-0.17601864340792 -0.125 0.207745292337529
-0.182336662624211 -0.125 0.216477605770595
-0.17971367655486 -0.125 0.227664125911069
-0.175052746082675 -0.125 0.235198167225519
-0.179342317217481 -0.125 0.246480163087538
-0.181377993851684 -0.125 0.25079006983701
-0.178541659937315 -0.125 0.263710250502308
-0.175120307098391 -0.125 0.27105365338595
-0.181312614342045 -0.125 0.2801737271105
-0.174564374890782 -0.125 0.280757154389327
-0.179993052955274 -0.125 0.295564623457812
-0.180207168745861 -0.125 0.301972952416771
-0.17260325866926 -0.125 0.306178469938808
-0.181942608211227 -0.125 0.327352123441741
-0.173053245189435 -0.125 0.331581413636709
-0.18266592237818 -0.125 0.345854192701558
-0.178162765735015 -0.125 0.352959897769638
-0.172873422518452 -0.125 0.364764186188643
-0.184028042401871 -0.125 0.375238317553192
-0.172484191234841 -0.125 0.37800428630702
-0.175977637153694 -0.125 0.38254820765267
-0.185194124070759 -0.125 0.405091473967861
-0.175757360202466 -0.125 0.404408085038094
-0.178356146566974 -0.125 0.41546020360099
-0.183225216959856 -0.125 0.435061197852566
-0.170711142805765 -0.125 0.431896211257834
-0.175911721878684 -0.125 0.451968400142866
-0.178449394781398 -0.125 0.462300796715595
-0.175653615254867 -0.125 0.462452882106416
-0.181271110158185 -0.125 0.473848790577242
-0.18235906723041 -0.125 0.481794139503423
-0.179196171612058 -0.125 0.490435226571893
-0.179139324246754 -0.125 0.49736014758698
-0.174544314496946 -0.125 0.508569323567618
-0.174142809427049 -0.125 0.513555139763713
-0.173812517617727 -0.125 0.526775695101478
-0.179513360235999 -0.125 0.543140001515119
-0.176278499292115 -0.125 0.547100404089742
-0.185761247449443 -0.125 0.558461223988041
-0.180823891560962 -0.125 0.570263971166473
-0.181493069991059 -0.125 0.571616390519429
-0.176055531599648 -0.125 0.57995327057461
-0.177548354450158 -0.125 0.59465781422639
-0.177451675824286 -0.125 0.59949410190842
-0.174622945279343 -0.125 0.605291053345229
-0.180241336362761 -0.125 0.621789129779804
-0.180143001380597 -0.125 0.639416421521147
-0.1800307238775 -0.125 0.646806361977049
-0.174627784743364 -0.125 0.647120944150351
-0.173737022668193 -0.125 0.654847602041384
-0.176998238791345 -0.125 0.666165960093022
-0.182078794854797 -0.125 0.685166963238208
-0.179896009191744 -0.125 0.688083554098485
-0.185592782783717 -0.125 0.706327302470323
-0.183826291163887 -0.125 0.705352405280718
-0.174285683405173 -0.125 0.715852810732954
-0.178806109148645 -0.125 0.731989949238749
-0.176421731463457 -0.125 0.737882111968204
-0.180084952551013 -0.125 0.73992500188151
-0.175698433667584 -0.125 0.749738744179602
-0.178158290590407 -0.125 0.759943945739579
-0.17865879173471 -0.125 0.773331044369978
-0.175835911930739 -0.125 0.775885327613286
-0.174760834222352 -0.125 0.784907061303854
-0.177753078240057 -0.125 0.801479392721176
-0.178713839873654 -0.125 0.808786166465768
-0.169956545174011 -0.125 0.815544922614895
-0.176409823139945 -0.125 0.823100571554745
-0.184388570158444 -0.125 0.836244192282641
-0.17337628682158 -0.125 0.844968233435707
-0.184144662231408 -0.125 0.861428864702474
-0.178653429271979 -0.125 0.868410676538472
-0.182180805888498 -0.125 0.875922377135494
-0.179671597794227 -0.125 0.88824215104743
-0.175928512542837 -0.125 0.890276246375383
-0.175915038556049 -0.125 0.894974228030829
-0.183510813185703 -0.125 0.914180395701413
-0.172529090863807 -0.125 0.915507013855358
-0.1790933373493 -0.125 0.923520427104178
-0.181043722231946 -0.125 0.934702168663032
-0.177588947088149 -0.125 0.948500591001577
-0.178982756300496 -0.125 0.956174333604965
-0.174225598146882 -0.125 0.963467631990122
-0.179192048559302 -0.125 0.976242634678907
-0.177889438068501 -0.125 0.986501870914593
-0.177297433173005 -0.125 0.988723886907241
-0.175202224350027 -0.121468824747782 1.0
-0.169324351204264 -0.119522727095818 1.0
-0.157885956287651 -0.100037263975898 1.0
-0.141091571833801 -0.0879608185384159 1.0
-0.14529210724112 -0.0845372959074719 1.0
-0.124379846999272 -0.0730480762417618 1.0
-0.116004361671774 -0.0627818264973623 1.0
-0.110315842829202 -0.0611790659226807 1.0
-0.101916887986401 -0.0457595677601996 1.0
-0.0824016124425505 -0.0270971260613288 1.0
-0.0764138812937026 -0.0182322830519714 1.0
-0.0623480938445398 -0.0118907807473527 1.0
-0.0540543640444172 0.00204190541033757 1.0
-0.0523583385750306 0.0093055722089699 1.0
-0.0463705557581525 0.0169847543891977 1.0
-0.0308574114299849 0.0291542841291119 1.0
-0.0145921124288852 0.0434297983815215 1.0
-0.00970201720227282 0.0504695639736621 1.0
-0.00115163304404886 0.0574424899302879 1.0
0.0126532357391946 0.0651556559916098 1.0
0.0227222788200332 0.0829257678897517 1.0
0.0407703262084009 0.0998998947251137 1.0
0.0425810336931529 0.10441788424475 1.0
0.0559769429307382 0.115073931608723 1.0
-0.184325403069503 -0.125 0.213223400973561
-0.191850572220395 -0.125 0.215605182595517
-0.190872509079428 -0.125 0.228479342360983
-0.189644139321275 -0.125 0.237460999496919
-0.187893986667066 -0.125 0.250749596917517
-0.199237435957827 -0.125 0.26682330862372
-0.186081621459037 -0.125 0.259549716761257
-0.191456399810219 -0.125 0.284850142094883
-0.197020067932801 -0.125 0.290256000409275
-0.186619628768567 -0.125 0.296058976648636
-0.186695899899503 -0.125 0.302044921998855
-0.186230773230681 -0.125 0.313987718746804
-0.187443929146025 -0.125 0.318454118277752
-0.184146990124974 -0.125 0.331186057186161
-0.190635493252609 -0.125 0.339803790214122
-0.193306827161413 -0.125 0.352292472560676
-0.193002893083786 -0.125 0.362393686294373
-0.183264920541908 -0.125 0.364281292515997
-0.198553995696666 -0.125 0.385859897411585
-0.188042749254246 -0.125 0.389123881744447
-0.191570465807652 -0.125 0.400628061682886
-0.187405273921532 -0.125 0.407888075536095
-0.190447429508872 -0.125 0.419501795219176
-0.187851627791226 -0.125 0.431679480667403
-0.184111689025849 -0.125 0.427980149844306
-0.190620462688088 -0.125 0.44662336926155
-0.192568233558272 -0.125 0.449614516695605
-0.18545897563957 -0.125 0.460385972567615
-0.188380107485344 -0.125 0.477743417062866
-0.190828079413646 -0.125 0.486177903270778
-0.193589322851701 -0.125 0.496052158724656
-0.193947257242238 -0.125 0.506553864862318
-0.190590638076146 -0.125 0.517194160703501
-0.185935890583262 -0.125 0.516637706457521
-0.187994580494771 -0.125 0.524621026340012
-0.196348054766294 -0.125 0.539980585215358
-0.195636348812348 -0.125 0.550698146787532
-0.191675017892191 -0.125 0.55841818140782
-0.189942252514841 -0.125 0.560396855613063
-0.192485009017595 -0.125 0.578622946309834
-0.191135847313724 -0.125 0.593839174203782
-0.188142078185062 -0.125 0.59347622874076
-0.191952322709737 -0.125 0.606370229680199
-0.193222585856607 -0.125 0.607681592831659
-0.189050881651662 -0.125 0.617158858755972
-0.195204082642348 -0.125 0.635414259439116
-0.190837659540239 -0.125 0.631829061186615
-0.193379503519972 -0.125 0.644280488967603
-0.187747536255176 -0.125 0.654858824378008
-0.182637173879311 -0.125 0.66426051938587
-0.191995263004214 -0.125 0.670902692744744
-0.195029910894151 -0.125 0.683651869089537
-0.189973544563181 -0.125 0.692800943596775
-0.185046518134821 -0.125 0.703355820320212
-0.192051110141161 -0.125 0.717638681791333
-0.195572272320299 -0.125 0.720929122842536
-0.196219644617931 -0.125 0.737906970590302
-0.194478148134763 -0.125 0.741023032649792
-0.188863302241639 -0.125 0.746132977554185
-0.19107602019984 -0.125 0.757211338383415
-0.19510874825091 -0.125 0.77361763261462
-0.192449499939216 -0.125 0.773183117267103
-0.189350434046163 -0.125 0.785704096450335
-0.187995952223353 -0.125 0.798112862232228
-0.1827154443752 -0.125 0.805219829216008
-0.184563673999321 -0.125 0.813179654746269
-0.19738945093637 -0.125 0.830015498180079
-0.193937199589977 -0.125 0.840225830669137
-0.196747480115781 -0.125 0.847647503739213
-0.186408558690776 -0.125 0.855038083692498
-0.184447701415075 -0.125 0.860527309075741
-0.191480821286132 -0.125 0.870927504281325
-0.193044086639649 -0.125 0.884114876141394
-0.186226896515845 -0.125 0.887673288006015
-0.190875551788645 -0.125 0.895541068117489
-0.19029155821817 -0.125 0.902446798219263
-0.190218547389878 -0.125 0.916503276390348
-0.195605643284967 -0.125 0.925357926606412
-0.190936569071414 -0.125 0.927504595873271
-0.183899727770107 -0.125 0.941323128764328
-0.187191392642078 -0.125 0.946352493121423
-0.188808342868804 -0.125 0.963946007569261
-0.193437297330518 -0.125 0.968564372642501
-0.185015356308367 -0.125 0.978616429352362
-0.189878257362971 -0.125 0.997546560756951
-0.190014883889809 -0.124765748241773 1.0
-0.175296793019775 -0.108770538266327 1.0
-0.177323100596879 -0.109245067947585 1.0
-0.170537580406259 -0.104528168749492 1.0
-0.158427852087647 -0.0859850095555167 1.0
-0.138067925418712 -0.0681331811400962 1.0
-0.134415156811969 -0.0667839120223416 1.0
-0.129282678472429 -0.0637188110661459 1.0
-0.115014417133753 -0.0505637977957143 1.0
-0.0976944943913934 -0.033403755471252 1.0
-0.0900916818080822 -0.0225202521217613 1.0
-0.0895273954132981 -0.0213103483855659 1.0
-0.0777804369754267 -0.00437956979808882 1.0
-0.0689772732939984 0.00021468488407142 1.0
-0.049941673373851 0.0175830718012478 1.0
-0.0485295201630401 0.0306996333507517 1.0
-0.0343519463187336 0.0431560047705002 1.0
-0.0236785852415284 0.0535091872111808 1.0
-0.0181924207047217 0.0565265577333634 1.0
0.00322043517556292 0.0673334819847815 1.0
0.00607488107752241 0.0754031799743959 1.0
0.0239927834099412 0.099702494367842 1.0
0.0287891610129298 0.105482532441004 1.0
0.0389269654548574 0.109844185040574 1.0
-0.203144636918135 -0.125 0.215551055394107
-0.205750455324928 -0.125 0.233550199852358
-0.199870129029622 -0.125 0.243541676355681
-0.209297496582586 -0.125 0.254191935802116
-0.199349667160046 -0.125 0.258229876482106
-0.20468514423306 -0.125 0.270066577103937
-0.201218340503233 -0.125 0.272843414449829
-0.208499345579875 -0.125 0.286781485614198
-0.195549289057657 -0.125 0.291180928385345
-0.20646989168886 -0.125 0.305692621308833
-0.200787484326118 -0.125 0.316656992521283
-0.209730059467438 -0.125 0.331164172105126
-0.2044706739005 -0.125 0.329733798227023
-0.202863898163892 -0.125 0.343194818158612
-0.206553394944964 -0.125 0.351635752616461
-0.195613635556748 -0.125 0.351700251321956
-0.210057547220237 -0.125 0.375557866659729
-0.203009801402436 -0.125 0.380910590970359
-0.207262808250722 -0.125 0.38718065505603
-0.20529929020035 -0.125 0.396547180903989
-0.211791641554578 -0.125 0.411122933396882
-0.202950768115856 -0.125 0.419204861026854
-0.20154427524624 -0.125 0.422551167114333
-0.20442652805737 -0.125 0.432265444772604
-0.207553404330454 -0.125 0.448589806356451
-0.206213238467345 -0.125 0.454482302431147
-0.206132133982151 -0.125 0.466772635348509
-0.199449340011118 -0.125 0.467263740769549
-0.200061779156249 -0.125 0.485578498321531
-0.202855072612808 -0.125 0.485713866894219
-0.204176667635842 -0.125 0.502166087796834
-0.205504813723903 -0.125 0.515593057470739
-0.203245539631745 -0.125 0.524415324600556
-0.202885267292135 -0.125 0.521424479732496
-0.200003212801312 -0.125 0.538015099333323
-0.203993322436597 -0.125 0.547259880435422
-0.206753653127092 -0.125 0.561997374185704
-0.204596960115701 -0.125 0.564841490983153
-0.209850224995055 -0.125 0.579859839622042
-0.198152356661712 -0.125 0.581533509181978
-0.201559384008669 -0.125 0.59265204552912
-0.196554623246282 -0.125 0.594010616178131
-0.201942076365451 -0.125 0.604686340508838
-0.203264879872961 -0.125 0.621887772554588
-0.204354518799887 -0.125 0.627929405610841
-0.203424642126647 -0.125 0.642512901356586
-0.211882135266975 -0.125 0.657407984138119
-0.200363213037667 -0.125 0.655805572311511
-0.202086026638213 -0.125 0.664829255532013
-0.204867059493953 -0.125 0.679462038305725
-0.199774603360131 -0.125 0.678277457326688
-0.197553877416583 -0.125 0.69019470834529
-0.201117353059903 -0.125 0.695228677576945
-0.198163776057389 -0.125 0.704897685424305
-0.20818534455632 -0.125 0.724321502807517
-0.210634069426475 -0.125 0.735698514003313
-0.202502542678101 -0.125 0.738693165773571
-0.205060686153045 -0.125 0.754134732962274
-0.200200955934516 -0.125 0.754305721658364
-0.197277506750845 -0.125 0.759238769601598
-0.201230482412345 -0.125 0.768782864779403
-0.204653863931419 -0.125 0.791728553404348
-0.197432173790976 -0.125 0.786912798540742
-0.210148295103792 -0.125 0.805142939244945
-0.205937369422548 -0.125 0.80999158595395
-0.194481889254874 -0.125 0.819406464146054
-0.199887654501096 -0.125 0.830945817198151
-0.208032695514958 -0.125 0.845262471375081
-0.209605587519042 -0.125 0.851330623049189
-0.199758564648618 -0.125 0.859162278698106
-0.209083011107361 -0.125 0.86892587147615
-0.205033843994413 -0.125 0.882023731973174
-0.202055848886972 -0.125 0.888638620362156
-0.203336304480515 -0.125 0.891704127927542
-0.208800402632106 -0.125 0.90579982717128
-0.202538550589771 -0.125 0.917319283464596
