ply
format ascii 1.0
element vertex 853
property float x
property float y
property float z
end_header
-0.1127533936588 -0.254682686443929 0.999213638872379
-0.108462855524815 -0.253274037863837 0.999203689437298
-0.0892859693459841 -0.275337805038795 0.99935952817682
-0.083160076516949 -0.292080493423803 0.99947778356963
-0.0659868471798367 -0.302859418706726 0.999553916267921
-0.0642476077481195 -0.30020485160209 0.999535166777488
-0.0545324302759962 -0.319404617402374 0.999670776770003
-0.0360908043665842 -0.34236101892226 0.999832920281057
-0.0391144879406817 -0.339201788839831 0.999810606302215
-0.12264252394928 -0.229108247089823 0.0112047608090657
-0.12264252394928 -0.216175973203531 0.0226341103571004
-0.12264252394928 -0.222977412090197 0.0275246456315775
-0.12264252394928 -0.224507998488228 0.0426740827888497
-0.12264252394928 -0.221973897756972 0.0532123852228636
-0.12264252394928 -0.229116641981831 0.055779810910617
-0.12264252394928 -0.224967811732186 0.0663695781536778
-0.12264252394928 -0.223396534490493 0.0902416189353097
-0.12264252394928 -0.223815895829934 0.0941936070168595
-0.12264252394928 -0.223131648848208 0.103954217087557
-0.12264252394928 -0.228299527645501 0.111713371030246
-0.12264252394928 -0.228153673546904 0.117551999397567
-0.12264252394928 -0.226019185753279 0.130021946434609
-0.12264252394928 -0.227078285416229 0.136187452862152
-0.12264252394928 -0.220901029580225 0.159362531387782
-0.12264252394928 -0.229591235667865 0.162291730657643
-0.12264252394928 -0.219918870421233 0.178549696346343
-0.12264252394928 -0.222938413894756 0.185758049076354
-0.12264252394928 -0.220073484854436 0.190752707715005
-0.12264252394928 -0.219500955648722 0.207417096835198
-0.12264252394928 -0.21941246414646 0.216473187157911
-0.12264252394928 -0.223508872054463 0.225698980623736
-0.12264252394928 -0.222484834261849 0.240142093171593
-0.12264252394928 -0.221896433765343 0.250223970117057
-0.12264252394928 -0.22910817964537 0.251430546399089
-0.12264252394928 -0.220226995929714 0.272690439839445
-0.12264252394928 -0.221114419126952 0.273378168574067
-0.12264252394928 -0.233640546250073 0.28134541211539
-0.12264252394928 -0.226254138270815 0.292118328245561
-0.12264252394928 -0.22933700239372 0.300203101425538
-0.12264252394928 -0.221809810650948 0.328491440044447
-0.12264252394928 -0.220857077985711 0.330272209009752
-0.12264252394928 -0.220189241905277 0.335800427381586
-0.12264252394928 -0.227825450656602 0.344467689074573
-0.12264252394928 -0.222430439079017 0.354939568539918
-0.12264252394928 -0.229679773445484 0.362625147798086
-0.12264252394928 -0.230643051639569 0.376061155478332
-0.12264252394928 -0.219152475897275 0.389379774354422
-0.12264252394928 -0.218121028795911 0.403956521890534
-0.12264252394928 -0.226486291822096 0.41268320809329
-0.12264252394928 -0.218748118734481 0.424844941829229
-0.12264252394928 -0.224584322919023 0.434440717492052
-0.12264252394928 -0.221106052001139 0.437258177291656
-0.12264252394928 -0.222543338122982 0.444107059434819
-0.12264252394928 -0.224689536117933 0.462846121254134
-0.12264252394928 -0.218940734541018 0.475941471658964
-0.12264252394928 -0.218381374395835 0.484062705126952
-0.12264252394928 -0.21947010201018 0.490779825881463
-0.12264252394928 -0.226897016674323 0.500802516994452
-0.12264252394928 -0.217752405536598 0.520919735300224
-0.12264252394928 -0.223446567590445 0.525096121828646
-0.12264252394928 -0.219110613368918 0.535243120379181
-0.12264252394928 -0.224409847301703 0.549054003652009
-0.12264252394928 -0.217568459214987 0.560089332350647
-0.12264252394928 -0.220432241793658 0.567875735285716
-0.12264252394928 -0.226092776764302 0.573222339475317
-0.12264252394928 -0.21920247985792 0.58307028177912
-0.12264252394928 -0.21637155029668 0.597805238905572
-0.12264252394928 -0.23350007880597 0.603846214490458
-0.12264252394928 -0.222322899079432 0.622308867371506
-0.12264252394928 -0.228248822359785 0.622101284761097
-0.12264252394928 -0.230506571890859 0.624681379785297
-0.12264252394928 -0.228664908769127 0.64341778109699
-0.12264252394928 -0.22605634362671 0.652913675611902
-0.12264252394928 -0.230642299072637 0.654896335300635
-0.12264252394928 -0.22833675310544 0.676718538278316
-0.12264252394928 -0.219057726062502 0.691158361034543
-0.12264252394928 -0.223507435679852 0.695891724139865
-0.12264252394928 -0.233862542079592 0.705706864649627
-0.12264252394928 -0.221860556215337 0.721255623730201
-0.12264252394928 -0.233717029204992 0.724463574906085
-0.12264252394928 -0.229973437584885 0.73565120484141
-0.12264252394928 -0.215303755108865 0.75199247346182
-0.12264252394928 -0.229845033841565 0.754045555154033
-0.12264252394928 -0.231696912381269 0.75945045463173
-0.12264252394928 -0.229438681194265 0.777463169420714
-0.12264252394928 -0.23086936620494 0.778133502283774
-0.12264252394928 -0.23272313779659 0.790089517171675
-0.12264252394928 -0.222651022419326 0.806023345166869
-0.12264252394928 -0.227596162931078 0.820358857293556
-0.12264252394928 -0.220843127859804 0.823370619605965
-0.12264252394928 -0.223672415378983 0.841114702373857
-0.12264252394928 -0.227449572012926 0.85021135349776
-0.12264252394928 -0.225960372230351 0.863554784619048
-0.12264252394928 -0.217522841925574 0.874267221763487
-0.12264252394928 -0.22680586231836 0.876744296804379
-0.12264252394928 -0.222598020529868 0.891409141452246
-0.12264252394928 -0.227606737609062 0.892500404942398
-0.12264252394928 -0.228237876122661 0.910478294912179
-0.12264252394928 -0.230334992376538 0.916101694082401
-0.12264252394928 -0.228329793547387 0.933554202266737
-0.12264252394928 -0.225289780323576 0.942554664446687
-0.12264252394928 -0.224664643996198 0.951957661841994
-0.12264252394928 -0.221750690373417 0.967175925588226
-0.12264252394928 -0.234994402417492 0.972093312436791
-0.12264252394928 -0.2267634534838 0.989161109998631
-0.12264252394928 -0.218385592700591 0.997264742666642
-0.12264252394928 -0.229020904980114 0.999054019648037
-0.104836064999587 -0.24765038156476 0.999163968953384
-0.0978253347536747 -0.262564176769515 0.999269306678703
-0.0940820324766416 -0.259812956828318 0.999249874518983
-0.0703083955988952 -0.281750387021248 0.999404820926935
-0.0670553604244173 -0.292242373846413 0.99947892694831
-0.0548054051016936 -0.298498881536475 0.999523117329061
-0.0484863652624345 -0.309851749032549 0.999603303842385
-0.0336152507817728 -0.325200253343784 0.999711711964463
-0.0250717043623199 -0.338055536129033 0.99980251019713
-0.00514761818447099 -0.359211145197982 0.999951934519141
-0.12264252394928 -0.207186844621487 0.0125568648914892
-0.12264252394928 -0.215031424540658 0.017914804990934
-0.12264252394928 -0.205852441366043 0.0306543742472666
-0.12264252394928 -0.212109361583766 0.03845606909605
-0.12264252394928 -0.210521788102299 0.0458756645439565
-0.12264252394928 -0.206364267844152 0.0716505929368196
-0.12264252394928 -0.21240018599117 0.0741624048764648
-0.12264252394928 -0.218371606452466 0.0754850915180206
-0.12264252394928 -0.211468596494832 0.0903198387355164
-0.12264252394928 -0.210840270641024 0.0988181710132203
-0.12264252394928 -0.202398589988002 0.119579577229895
-0.12264252394928 -0.208717433656992 0.115937970842842
-0.12264252394928 -0.19935615070812 0.14071681172205
-0.12264252394928 -0.21000206866373 0.143753649863091
-0.12264252394928 -0.208539082250943 0.152740646932395
-0.12264252394928 -0.212502557111297 0.160753345993719
-0.12264252394928 -0.20840883584557 0.177765282403292
-0.12264252394928 -0.209686911835748 0.186217712031382
-0.12264252394928 -0.202585131866504 0.195908203405572
-0.12264252394928 -0.208982756034551 0.204768332842848
-0.12264252394928 -0.206800346920624 0.208273634113011
-0.12264252394928 -0.216340511377725 0.217407378073067
-0.12264252394928 -0.212086425824264 0.234810339761004
-0.12264252394928 -0.211917269345385 0.237709025601991
-0.12264252394928 -0.207256083454801 0.262719930143586
-0.12264252394928 -0.19929994623603 0.267832222798876
-0.12264252394928 -0.208814996871658 0.273790041759137
-0.12264252394928 -0.214921057724821 0.283090724999444
-0.12264252394928 -0.211608283306784 0.30097513850738
-0.12264252394928 -0.202677782260416 0.303938130802869
-0.12264252394928 -0.205124959862984 0.324855514906002
-0.12264252394928 -0.218117198799484 0.32075333040768
-0.12264252394928 -0.209431114631722 0.332889249263321
-0.12264252394928 -0.215259101823904 0.341744774690397
-0.12264252394928 -0.201026142262005 0.360384572889129
-0.12264252394928 -0.212239240301648 0.364498289812006
-0.12264252394928 -0.205174958748105 0.379715889689719
-0.12264252394928 -0.205284000851806 0.395726295788989
-0.12264252394928 -0.210319235294229 0.39649874568886
-0.12264252394928 -0.210634966606405 0.408711600327361
-0.12264252394928 -0.204626404295706 0.413315103388571
-0.12264252394928 -0.205840603424302 0.431002138153057
-0.12264252394928 -0.202625819782125 0.449293922197456
-0.12264252394928 -0.205922472294577 0.447113429692638
-0.12264252394928 -0.213085579622697 0.459363060563861
-0.12264252394928 -0.213008770710983 0.467884541844813
-0.12264252394928 -0.211136341855348 0.477901175259217
-0.12264252394928 -0.214724410517673 0.483660309509202
-0.12264252394928 -0.213798484567279 0.49300673891219
-0.12264252394928 -0.206342349721677 0.506268949710353
-0.12264252394928 -0.204201714204271 0.526894224729624
-0.12264252394928 -0.202578471138785 0.532630517965682
-0.12264252394928 -0.205178419707272 0.542856771033815
-0.12264252394928 -0.211019407488209 0.549443893544834
-0.12264252394928 -0.212125424947975 0.55698806918644
-0.12264252394928 -0.204519725150374 0.575792170796943
-0.12264252394928 -0.20304862495146 0.589469588948653
-0.12264252394928 -0.211332782081282 0.594847101353968
-0.12264252394928 -0.207993633903475 0.608470315973893
-0.12264252394928 -0.202497308208216 0.618742501311159
-0.12264252394928 -0.211899832660569 0.623435664377817
-0.12264252394928 -0.214789655010088 0.632062649923712
-0.12264252394928 -0.211818592527225 0.637608171038736
-0.12264252394928 -0.218005625123323 0.644524034401651
-0.12264252394928 -0.211060503954409 0.664714045298452
-0.12264252394928 -0.202248469221166 0.676874320048941
-0.12264252394928 -0.205068490590912 0.685801721193135
-0.12264252394928 -0.212232240666097 0.693441637199221
-0.12264252394928 -0.202920969791805 0.70394911064127
-0.12264252394928 -0.206338129644878 0.715908938624494
-0.12264252394928 -0.211754877982106 0.720616692065797
-0.12264252394928 -0.216737824071625 0.732542643423122
-0.12264252394928 -0.210496627260087 0.740298982583107
-0.12264252394928 -0.214185296270725 0.754587916014481
-0.12264252394928 -0.213408944132916 0.770242500268784
-0.12264252394928 -0.214092464233801 0.774340896307815
-0.12264252394928 -0.201308344628628 0.793292315159448
-0.12264252394928 -0.209984414046947 0.793200965170573
-0.12264252394928 -0.214056649172194 0.800816654459248
-0.122642523949281 -0.207012153941688 0.823220426030511
-0.12264252394928 -0.209122528800224 0.824258325814025
-0.12264252394928 -0.213134433204551 0.835812685471208
-0.12264252394928 -0.208554521430338 0.851024995689533
-0.12264252394928 -0.206479945118846 0.861235245990014
-0.12264252394928 -0.21071540106042 0.869864540692118
-0.12264252394928 -0.212113878845479 0.878716443304814
-0.12264252394928 -0.206859144876503 0.884065338291651
-0.12264252394928 -0.207680647084925 0.891038211488974
-0.12264252394928 -0.217030258233317 0.902208706734341
-0.12264252394928 -0.202674954991322 0.921904178375119
-0.12264252394928 -0.205577158217461 0.933390677440932
-0.12264252394928 -0.210533858849393 0.93688461835908
-0.12264252394928 -0.203645236398887 0.952083789704598
-0.12264252394928 -0.20970661512729 0.958481305576104
-0.12264252394928 -0.213066140619447 0.963152387975016
-0.12264252394928 -0.2073758650621 0.985832487341789
-0.12264252394928 -0.210043076326521 0.988422786211169
-0.122441824134922 -0.201295341644826 0.998836558365049
-0.114568526021887 -0.218777367305987 0.998960035775853
-0.0946216570272112 -0.233830157131307 0.999066355234994
-0.0890881389559011 -0.250306044194268 0.999182726181626
-0.0836329154403343 -0.258048801789991 0.999237414103891
-0.0656299262826641 -0.26916883666136 0.999315956095567
-0.057658878481152 -0.29185519375353 0.999476192254042
-0.052785700393828 -0.301397929282467 0.999543593612325
-0.0370567638937753 -0.30328253812267 0.999556904805459
-0.024687154273829 -0.315972759099546 0.999646537188979
-0.011082753699444 -0.341952661642511 0.99983003601006
-0.0050911835660984 -0.347749984043253 0.999870983116162
0.0120771803567153 -0.362959880656294 0.999978412237293
-0.12264252394928 -0.197452892104735 0.00981914490006312
-0.12264252394928 -0.188529417851085 0.0212966769700164
-0.12264252394928 -0.182906146173711 0.0352077665704344
-0.12264252394928 -0.199584811590716 0.0346591871762285
-0.12264252394928 -0.196480775829061 0.0508365115814463
-0.12264252394928 -0.19972128582028 0.0584170232467861
-0.12264252394928 -0.199153157851191 0.0622279597547278
-0.12264252394928 -0.184652082175513 0.0846140708665677
-0.12264252394928 -0.197431297659502 0.0904514990808715
-0.12264252394928 -0.194656260005157 0.099958030184304
-0.12264252394928 -0.195858297924826 0.108985146841948
-0.12264252394928 -0.19637998981595 0.116509776817649
-0.12264252394928 -0.187219419099107 0.133196916546116
-0.12264252394928 -0.190563862917785 0.14326183411369
-0.12264252394928 -0.204733195642887 0.150732683260338
-0.12264252394928 -0.192021954664227 0.17003053248628
-0.12264252394928 -0.195627406699619 0.175064653130556
-0.12264252394928 -0.194900671493989 0.183626379540046
-0.12264252394928 -0.193398549580359 0.198409871570429
-0.12264252394928 -0.19674957332234 0.210543355776579
-0.12264252394928 -0.193108914784509 0.219235234973567
-0.12264252394928 -0.198757960580816 0.220679966678655
-0.12264252394928 -0.191057473430361 0.237445229269653
-0.12264252394928 -0.189678595818934 0.243074630615196
-0.12264252394928 -0.191365824454482 0.249502954178661
-0.12264252394928 -0.189076136037344 0.26930749465585
-0.12264252394928 -0.19364107856333 0.268022265982376
-0.12264252394928 -0.19794105338781 0.283724301021919
-0.12264252394928 -0.189320903075785 0.29929535236465
-0.12264252394928 -0.199140255556648 0.299948405025147
-0.12264252394928 -0.18382650324264 0.325217462047585
-0.12264252394928 -0.187635208128342 0.329314937437161
-0.12264252394928 -0.189329097066864 0.342280441686485
-0.12264252394928 -0.198287903731156 0.342333777997146
-0.12264252394928 -0.190931726601588 0.353330075390088
-0.12264252394928 -0.191552463307063 0.359649724990549
-0.12264252394928 -0.19312773533179 0.382700924409018
-0.12264252394928 -0.191595921950278 0.389283759063798
-0.12264252394928 -0.192279030773312 0.393712796571455
-0.12264252394928 -0.190031376629308 0.410472242428065
-0.12264252394928 -0.186088248210096 0.42717233984822
-0.12264252394928 -0.193083358572461 0.426647126100649
-0.12264252394928 -0.19154596341159 0.441255549643347
-0.12264252394928 -0.195597951205107 0.450367140071225
-0.12264252394928 -0.194578131762647 0.457432726447281
-0.12264252394928 -0.189741076744472 0.466934834975256
-0.12264252394928 -0.197219626091376 0.476104931104774
-0.12264252394928 -0.187718360009454 0.494850652450283
-0.12264252394928 -0.194373417449884 0.498995844321439
-0.12264252394928 -0.199807135451896 0.500383549103515
-0.12264252394928 -0.202274721055714 0.508701585271665
-0.12264252394928 -0.191098755623611 0.533611436443554
-0.12264252394928 -0.192166377575061 0.532974266289489
-0.12264252394928 -0.199325445801362 0.546553413044742
-0.12264252394928 -0.187902591021577 0.561023167289807
-0.12264252394928 -0.190407499722271 0.568749224572212
-0.12264252394928 -0.1929951657317 0.580554176457206
-0.12264252394928 -0.202252089702331 0.587812814863093
-0.12264252394928 -0.193864013936274 0.602746184207242
-0.12264252394928 -0.188632379994175 0.617239702388668
-0.12264252394928 -0.195414335578097 0.62418977225085
-0.12264252394928 -0.185399207312947 0.638450750905869
-0.12264252394928 -0.196922548656538 0.645292083774715
-0.12264252394928 -0.192912077972269 0.648581163926879
-0.12264252394928 -0.187638013996111 0.662677994115857
-0.12264252394928 -0.192708177607108 0.674723891246075
-0.12264252394928 -0.192371222297654 0.682827887772613
-0.12264252394928 -0.199898299847371 0.689511242462554
-0.12264252394928 -0.196972899026168 0.704607900503974
-0.12264252394928 -0.196698121037271 0.712499701009172
-0.12264252394928 -0.192580314380532 0.730603853358477
-0.12264252394928 -0.196097029419244 0.723234468516016
-0.12264252394928 -0.189856166037008 0.740155207663857
-0.12264252394928 -0.196623371853183 0.753959386795234
-0.12264252394928 -0.200038180427868 0.756624567437757
-0.12264252394928 -0.19223774525485 0.777346201377161
-0.12264252394928 -0.190549029882689 0.792527517200534
-0.12264252394928 -0.199823241613183 0.786638282200482
-0.12264252394928 -0.194043978654747 0.806659815551369
-0.12264252394928 -0.189055197941015 0.810666146473455
-0.12264252394928 -0.197323139552676 0.828718673539216
-0.122642523949281 -0.199196891167116 0.831112171080608
-0.12264252394928 -0.188173971469935 0.844520508242637
-0.12264252394928 -0.194126845588945 0.850210997620101
-0.12264252394928 -0.197845221386516 0.859793832152463
-0.12264252394928 -0.190412343253865 0.879369878544303
-0.12264252394928 -0.187310694786264 0.891581976803513
-0.12264252394928 -0.20006966153425 0.895307577619231
-0.12264252394928 -0.19842477246403 0.905673768563316
-0.12264252394928 -0.198301112880683 0.913188777789025
-0.12264252394928 -0.193109820096667 0.928997725058313
-0.12264252394928 -0.190454430999553 0.946402664898322
-0.12264252394928 -0.195699612539605 0.947084613259059
-0.122642523949281 -0.200656272858107 0.9549752550179
-0.12264252394928 -0.197248357039926 0.965955503090154
-0.12264252394928 -0.196441450453552 0.973357641253111
-0.12264252394928 -0.190296490875627 0.988174435773963
-0.12264252394928 -0.192735921090109 0.988952421819927
-0.117006978462027 -0.200925638188368 0.998833947110126
-0.112736615536762 -0.207705716172479 0.998881835523674
-0.100545747303591 -0.221355920024658 0.998978248368575
-0.0762467909637507 -0.240688001556263 0.999114792921204
-0.0795919436208004 -0.243040349210291 0.999131407803441
-0.0656865044264467 -0.255484695040312 0.999219303544588
-0.0527738908919605 -0.272693164139245 0.999340848796232
-0.0399021270718214 -0.290734338722715 0.999468275535478
-0.0361736315859466 -0.298939947930886 0.999526232628022
-0.021267438650549 -0.313391518710963 0.999628305612957
-0.00545694289972133 -0.331923461130074 0.999759198697742
0.00819405672864996 -0.340641429295362 0.999820774636216
0.0118635298213838 -0.349314671283951 0.999882034668937
0.0174771607864535 -0.358309945025027 0.999945569246253
-0.12264252394928 -0.176289118101171 0.0198276810427769
-0.12264252394928 -0.179014636819848 0.0244092229317772
-0.12264252394928 -0.171961745999759 0.0369651284538159
-0.12264252394928 -0.178276357997587 0.0422753510430083
-0.12264252394928 -0.180653677510009 0.0497121953096341
-0.12264252394928 -0.177171868874524 0.0668058911325394
-0.12264252394928 -0.173526580052312 0.0808171161131488
-0.12264252394928 -0.179575095726324 0.0809917959135752
-0.12264252394928 -0.179418252476477 0.0970778291167282
-0.12264252394928 -0.177808351311772 0.105272718532828
-0.12264252394928 -0.184136646380471 0.108115076929625
-0.12264252394928 -0.175340489631799 0.125796810385042
-0.12264252394928 -0.178135962788761 0.138717762430349
-0.12264252394928 -0.184993202504074 0.141220466137106
-0.12264252394928 -0.171856068562179 0.158042799373786
-0.12264252394928 -0.170487455139183 0.167036262528343
-0.12264252394928 -0.179447346476408 0.169527223584388
-0.12264252394928 -0.177083568888059 0.17771436323494
-0.12264252394928 -0.176187675106839 0.197028449264771
-0.12264252394928 -0.17160114161364 0.210566950718679
-0.12264252394928 -0.173059431862166 0.217064934063572
-0.12264252394928 -0.178531072862918 0.222930053646075
-0.12264252394928 -0.172686859703329 0.2412008150524
-0.12264252394928 -0.183129682385925 0.246147596589871
-0.12264252394928 -0.174193604985266 0.256886314694117
-0.12264252394928 -0.175358668776057 0.265182535484663
-0.12264252394928 -0.182484921233251 0.273020017158658
-0.12264252394928 -0.182592274287952 0.279680860997638
-0.12264252394928 -0.178620118131363 0.29410674324833
-0.12264252394928 -0.181343289202844 0.298470790438379
-0.12264252394928 -0.177891750746147 0.313344214262976
-0.12264252394928 -0.174821012789349 0.319751373875373
-0.12264252394928 -0.176921831430927 0.333546218984482
-0.12264252394928 -0.176974828370523 0.34069285145625
-0.12264252394928 -0.173578922144999 0.354677098021998
-0.12264252394928 -0.183598145901232 0.364494851497224
-0.12264252394928 -0.174930782615403 0.381373309984772
-0.12264252394928 -0.173988764012926 0.388838572690005
-0.12264252394928 -0.185365389642558 0.393690940211733
-0.12264252394928 -0.176391999068919 0.413437604458681
-0.12264252394928 -0.180066891233895 0.415168482332382
-0.12264252394928 -0.180034060454703 0.420976264006659
-0.12264252394928 -0.187173924373732 0.431981855195696
-0.12264252394928 -0.17556553030128 0.448835612850099
-0.12264252394928 -0.169548763990239 0.465084598197418
-0.12264252394928 -0.184357898578808 0.463924785798684
-0.12264252394928 -0.184911330987038 0.467544941441277
-0.12264252394928 -0.17738327230183 0.493423500046845
-0.12264252394928 -0.173239491215997 0.498260708584331
-0.12264252394928 -0.1801593184996 0.499529799592482
-0.12264252394928 -0.182842665911228 0.506452136086446
-0.12264252394928 -0.181475857430551 0.527542853918674
-0.12264252394928 -0.181359800140548 0.538345359322677
-0.12264252394928 -0.187840463079878 0.543401592361752
-0.12264252394928 -0.176784262969236 0.558099707365071
-0.12264252394928 -0.179096821822402 0.565172623634628
-0.12264252394928 -0.179664899740929 0.573291825327297
-0.12264252394928 -0.172420542815587 0.592667781756295
-0.12264252394928 -0.186288227080423 0.596228491375234
-0.12264252394928 -0.180301985512365 0.610412379370184
-0.12264252394928 -0.175323196009224 0.621089545887893
-0.12264252394928 -0.178070509280065 0.634707239004496
-0.12264252394928 -0.179290855664891 0.641702701140699
-0.12264252394928 -0.178751230463336 0.643122075328474
-0.12264252394928 -0.174576247436698 0.660892400496799
-0.12264252394928 -0.172617490428657 0.671837235410364
-0.12264252394928 -0.175744377891397 0.681491888533816
-0.122642523949281 -0.182243777057711 0.689210821790885
-0.12264252394928 -0.170705280167038 0.701583018196254
-0.12264252394928 -0.176428886557748 0.719387347311147
-0.12264252394928 -0.185923625474571 0.710049202625052
-0.12264252394928 -0.18071203767706 0.730554862815801
-0.12264252394928 -0.175799577462709 0.737353710936765
-0.12264252394928 -0.179311508484143 0.756683335639595
-0.12264252394928 -0.18048865591519 0.761318682309461
-0.12264252394928 -0.181484109658762 0.773305719025656
-0.12264252394928 -0.182459412084791 0.776362942878849
-0.12264252394928 -0.181753953547441 0.789772672868717
-0.12264252394928 -0.175732850567082 0.804316557622333
-0.12264252394928 -0.178884983537373 0.811093414824276
-0.12264252394928 -0.184557957275465 0.823891666701644
-0.12264252394928 -0.185833056092977 0.833857532738537
-0.12264252394928 -0.176741648213506 0.839732074997897
-0.12264252394928 -0.174322275546004 0.854220227942966
-0.12264252394928 -0.179793212505642 0.861894837782906
-0.12264252394928 -0.178759749642377 0.871827654942749
-0.12264252394928 -0.169682201943549 0.889317364981248
-0.12264252394928 -0.176460143281463 0.897262658537279
-0.12264252394928 -0.175492356814658 0.907329625408321
-0.122642523949281 -0.169574846761775 0.918217808104578
-0.12264252394928 -0.177381956372366 0.918806790669689
-0.12264252394928 -0.181460756752018 0.929663063459134
-0.12264252394928 -0.177140270257377 0.944600512257217
-0.12264252394928 -0.18420158504784 0.946704948020863
-0.12264252394928 -0.178324120708442 0.968411922272121
-0.12264252394928 -0.173076264123 0.975793656780938
-0.12264252394928 -0.178193696742673 0.979967719906285
-0.12264252394928 -0.184434712696977 0.991158354481681
-0.12264252394928 -0.182596719411845 0.995628832410925
-0.110885970189482 -0.19514311506614 0.998793104532905
-0.10012512515651 -0.203614044166224 0.998852935608128
-0.0820741988304553 -0.222536876293845 0.998986589588592
-0.0671795949986514 -0.24222072144937 0.999125618685195
-0.0687168766975482 -0.238656454198822 0.999100443885659
-0.0593446729073787 -0.247328681670866 0.99916169675274
-0.0441602966591622 -0.271381404966736 0.999331583701365
-0.0291885726990444 -0.280404556415861 0.999395315181905
-0.0128455701163833 -0.296471879298435 0.999508800396178
-0.0125460871219989 -0.304008323296956 0.999562031103513
0.000169485853129663 -0.323270283766253 0.999698080383605
0.00826485694084725 -0.33345617763735 0.999770024437818
0.0155888136179989 -0.335758698247433 0.999786287386332
0.033563656330556 -0.355367346624613 0.999924785360075
-0.12264252394928 -0.16410590966232 0.00624474860581884
-0.12264252394928 -0.159697376631204 0.0253504027136695
-0.12264252394928 -0.154479879117062 0.0337242432015562
-0.12264252394928 -0.166258646577826 0.0355577204846741
-0.12264252394928 -0.162366489780861 0.0587577705009454
-0.12264252394928 -0.153692927307976 0.0698335890989609
-0.12264252394928 -0.169047453791911 0.0679622185149939
-0.12264252394928 -0.154739615444478 0.0901070921485385
-0.12264252394928 -0.153000665036863 0.0945682486977698
-0.12264252394928 -0.164766990067892 0.0933678408292215
-0.12264252394928 -0.153557739199417 0.117062244379005
-0.12264252394928 -0.159769235801852 0.129146975261489
-0.12264252394928 -0.162264865965914 0.136122401387298
-0.12264252394928 -0.16238055473624 0.146497452586284
-0.12264252394928 -0.162832256087514 0.145922255700851
-0.12264252394928 -0.157175378305082 0.168699838366331
-0.12264252394928 -0.172124396839923 0.168896105816498
-0.12264252394928 -0.171857220551772 0.175353444455103
-0.12264252394928 -0.164313972948375 0.201587945917427
-0.12264252394928 -0.169493469441001 0.202035660357878
-0.12264252394928 -0.162963207459939 0.217875600159105
-0.12264252394928 -0.160360762334438 0.218944591525131
-0.12264252394928 -0.161650727037829 0.233952211807716
-0.12264252394928 -0.16252532708924 0.246146101631779
-0.12264252394928 -0.168100804861342 0.249181379840326
-0.12264252394928 -0.155455822759851 0.264390222568973
-0.12264252394928 -0.168238313610004 0.26694936409848
-0.12264252394928 -0.163225909057356 0.276545344855709
-0.12264252394928 -0.153103036260431 0.300041455447098
-0.12264252394928 -0.159602243057904 0.312126469148266
-0.12264252394928 -0.159635532538804 0.318729146063868
-0.12264252394928 -0.166743280980166 0.32265226012421
-0.12264252394928 -0.167140272830633 0.332773610923763
-0.12264252394928 -0.157061519532099 0.34852570377744
-0.12264252394928 -0.15737278828895 0.358013413875727
-0.12264252394928 -0.161392790649112 0.362797150959752
-0.12264252394928 -0.170361815914801 0.367995011056663
-0.12264252394928 -0.162707403792423 0.378471193006152
-0.12264252394928 -0.162152560566335 0.391635652164795
-0.12264252394928 -0.16284369652423 0.408839720408031
-0.12264252394928 -0.165038748245627 0.408881786056504
-0.12264252394928 -0.158919747036607 0.434366671004416
-0.12264252394928 -0.153832992222641 0.440231129910482
-0.12264252394928 -0.163029732329126 0.44899053766369
-0.12264252394928 -0.158370493717944 0.463064126281401
-0.12264252394928 -0.164845817767321 0.471932770622642
-0.12264252394928 -0.162200314465661 0.473194037793992
-0.12264252394928 -0.157153469419925 0.493845098170406
-0.12264252394928 -0.157625277830363 0.505512323513037
-0.12264252394928 -0.158911550895023 0.510515843078867
-0.12264252394928 -0.166379545749471 0.514851146500829
-0.12264252394928 -0.16506271754865 0.527687962001311
-0.12264252394928 -0.16046113111097 0.54274707902417
-0.12264252394928 -0.160219731459306 0.54349473456031
-0.12264252394928 -0.163367351272883 0.551632459123558
-0.12264252394928 -0.167577444878375 0.562232853371404
-0.12264252394928 -0.165756745677302 0.570842082340608
-0.12264252394928 -0.165030262743058 0.585470812441713
-0.12264252394928 -0.154643555401658 0.605069365811495
-0.12264252394928 -0.162513720893061 0.602901056853723
-0.12264252394928 -0.162638584806579 0.615475403534472
-0.12264252394928 -0.159304756815703 0.631765063295403
-0.12264252394928 -0.160595641412505 0.638348148295327
-0.12264252394928 -0.1640381312888 0.646778728050194
-0.12264252394928 -0.160232021744882 0.659151524085335
-0.12264252394928 -0.166669775988483 0.668834055960436
-0.12264252394928 -0.163669199611873 0.678561375216782
-0.12264252394928 -0.172240126749647 0.679844561681617
-0.12264252394928 -0.158331021472274 0.700901980017322
-0.12264252394928 -0.168199396714642 0.708132841422551
-0.12264252394928 -0.162439084719685 0.722374839443402
-0.12264252394928 -0.172914039731755 0.723538580242824
-0.12264252394928 -0.156163830462911 0.748437480147764
-0.12264252394928 -0.158252142643478 0.753780290340845
-0.12264252394928 -0.160956146817003 0.761883077327497
-0.12264252394928 -0.165554443351846 0.762914357208407
-0.12264252394928 -0.162916482365854 0.775360331712001
-0.12264252394928 -0.163446149610397 0.787849581438914
-0.12264252394928 -0.171814391032829 0.800158032412889
-0.12264252394928 -0.163711577683911 0.809701565760815
-0.12264252394928 -0.166126447544532 0.814849597938949
-0.12264252394928 -0.163633638873095 0.828737546856364
-0.12264252394928 -0.163435155312009 0.83448617697216
-0.12264252394928 -0.163943401064858 0.844373780071878
-0.12264252394928 -0.167298144366839 0.853680558357645
-0.12264252394928 -0.171002478268853 0.866611423451876
-0.12264252394928 -0.160034095071741 0.882147532067079
-0.12264252394928 -0.168170248997495 0.888091583395328
-0.12264252394928 -0.171397896585934 0.900589722212904
-0.12264252394928 -0.166412889079058 0.900240442544164
-0.12264252394928 -0.154832957887001 0.928961739586203
-0.12264252394928 -0.166446764641242 0.928468214613871
-0.12264252394928 -0.157023299292063 0.94855452044855
-0.12264252394928 -0.15688855219413 0.952383437392648
-0.12264252394928 -0.167806289692059 0.953810895701746
-0.12264252394928 -0.17024269396839 0.96630710866245
-0.12264252394928 -0.165609590118664 0.983186169050213
-0.12264252394928 -0.160717787184549 0.996565541970246
-0.118622516920267 -0.174639391759261 0.998648284549521
-0.107778151169253 -0.180755036004504 0.998691479996744
-0.0996939380540137 -0.197103644667848 0.998806951962471
-0.0918144553735548 -0.198984522636833 0.998820236804066
-0.0781550787262715 -0.203660401442358 0.998853263034511
-0.0736776352778723 -0.223520165041861 0.998993534661836
-0.0589806276815872 -0.245141017835003 0.999146245049866
-0.0480019151367038 -0.249629933304771 0.99917795073834
-0.0383722764630356 -0.258686422665872 0.999241917688107
-0.0281667554524879 -0.276738687210026 0.999369422756928
-0.0123461896804332 -0.292906206174735 0.99948361566681
-0.000867489150632537 -0.306456722667837 0.999579324409266
0.00876493742876832 -0.302478353452242 0.999551224763408
0.0176064841486855 -0.329628319705071 0.999742987869198
0.0255762518005337 -0.334976097538492 0.999780759794101
0.0471449934261345 -0.350107683039286 0.999887635795498
-0.12264252394928 -0.143138950281798 0.00972086080190615
-0.12264252394928 -0.146214744799653 0.0157745874950261
-0.12264252394928 -0.143954565143836 0.0246045073042846
-0.12264252394928 -0.146843818474407 0.0420538356371326
-0.12264252394928 -0.14795352879808 0.039072797729642
-0.12264252394928 -0.143527382182042 0.0522196632409738
-0.12264252394928 -0.146030210445001 0.0669945453105194
-0.12264252394928 -0.145933167743713 0.0751744312736628
-0.12264252394928 -0.142094789807197 0.0851052432977018
-0.12264252394928 -0.141409521277341 0.0977792938425306
-0.12264252394928 -0.147809878916787 0.107605419357226
-0.12264252394928 -0.147360198111194 0.112351641922466
-0.12264252394928 -0.150720928122759 0.119652139046629
-0.12264252394928 -0.148498593221124 0.133416454922684
-0.12264252394928 -0.152705123669509 0.137258043922988
-0.12264252394928 -0.153064544514152 0.156335325570075
-0.12264252394928 -0.142448582070634 0.172315538289417
-0.12264252394928 -0.152570196611102 0.16855831021885
-0.12264252394928 -0.149906001147717 0.186962313818581
-0.12264252394928 -0.143995563598262 0.199735072684072
-0.12264252394928 -0.153884877585442 0.197049998840181
-0.12264252394928 -0.14706744592448 0.217441708273524
-0.12264252394928 -0.138607579594404 0.233295180626812
-0.12264252394928 -0.154483174951471 0.234484517143658
-0.12264252394928 -0.151520277537431 0.239559123275806
-0.12264252394928 -0.15558969266906 0.248118459490019
-0.12264252394928 -0.141396069547907 0.274146373103492
-0.12264252394928 -0.149851386366429 0.265878779595533
-0.12264252394928 -0.156467262143183 0.277224986140088
-0.12264252394928 -0.153323083157329 0.294014080657066
-0.12264252394928 -0.154229986055663 0.302042180215272
-0.12264252394928 -0.157177255374766 0.304095248102684
-0.12264252394928 -0.148796347279184 0.333153290569193
-0.12264252394928 -0.145628532042708 0.32971500206288
-0.12264252394928 -0.144671586572692 0.351184798616575
-0.12264252394928 -0.150783547582695 0.354566918951312
-0.12264252394928 -0.143326503109508 0.360757978349922
-0.12264252394928 -0.148975562736616 0.369870158114892
-0.12264252394928 -0.140872418255683 0.389143516331711
-0.12264252394928 -0.139776418213027 0.395633167907637
-0.12264252394928 -0.152304818997661 0.401635501819726
-0.12264252394928 -0.153490891446239 0.409205123897384
-0.12264252394928 -0.149878220020575 0.416556374111389
-0.12264252394928 -0.154978309073437 0.433618991796803
-0.12264252394928 -0.154145705705555 0.438339773907268
-0.12264252394928 -0.153533648466408 0.447611698426275
-0.12264252394928 -0.155400159238721 0.453855443276887
-0.12264252394928 -0.144688732535755 0.48138760654649
-0.12264252394928 -0.148839925896765 0.489369236410489
-0.12264252394928 -0.137799467518042 0.502901133076418
-0.12264252394928 -0.151028054271916 0.510654051264969
-0.12264252394928 -0.143843470435515 0.520588104878129
-0.12264252394928 -0.149700275787311 0.517328865969869
-0.12264252394928 -0.147522129369405 0.532714059776533
-0.12264252394928 -0.150577039378077 0.544399323200254
-0.12264252394928 -0.153276440519663 0.555254319157349
-0.12264252394928 -0.149353436754518 0.561598248388388
-0.122642523949281 -0.153337138368894 0.573813654070432
-0.12264252394928 -0.139459233425419 0.593083494794639
-0.12264252394928 -0.151186562158688 0.585092552147068
-0.12264252394928 -0.150725932335859 0.607285001858666
-0.12264252394928 -0.144058229405077 0.619790468252272
-0.12264252394928 -0.142928586560789 0.633078394214906
-0.12264252394928 -0.146425818477542 0.645467911671379
-0.12264252394928 -0.152245253591569 0.644517253790649
-0.12264252394928 -0.150140650092198 0.654809176996609
-0.12264252394928 -0.140878613703542 0.672746902444459
-0.12264252394928 -0.152267167980506 0.668878281216509
-0.12264252394928 -0.143227810712543 0.686941873940134
-0.12264252394928 -0.142785803801389 0.70189679650556
-0.12264252394928 -0.148329899041106 0.706094442691211
-0.12264252394928 -0.148307406751984 0.715549964577744
-0.12264252394928 -0.149053306881025 0.729954734713395
-0.12264252394928 -0.149288428040043 0.730611033809985
-0.12264252394928 -0.147659723755466 0.748942002478449
-0.12264252394928 -0.145294974567591 0.75230628603171
-0.12264252394928 -0.150158324667157 0.762698770570653
-0.12264252394928 -0.146694083148989 0.778866178288462
-0.12264252394928 -0.147339573817104 0.790600576424941
-0.12264252394928 -0.153431816096695 0.797248029897235
-0.12264252394928 -0.143866639086666 0.806816046863502
-0.12264252394928 -0.153669570316219 0.813910366245827
-0.12264252394928 -0.144088617298396 0.831639789320585
-0.12264252394928 -0.143841097378587 0.836582640398963
-0.12264252394928 -0.156818894033257 0.837536180212494
-0.12264252394928 -0.142525567140901 0.855255146275669
-0.12264252394928 -0.141210597401736 0.877011897880103
-0.12264252394928 -0.146499117415396 0.884326479117895
-0.12264252394928 -0.155429710044071 0.878531840341621
-0.12264252394928 -0.143866464298641 0.89817533299901
-0.12264252394928 -0.147053421199648 0.914472077059221
-0.12264252394928 -0.152975312132637 0.917648506467797
-0.12264252394928 -0.153377760845395 0.928312819633411
-0.12264252394928 -0.147114163109561 0.939874920086213
-0.12264252394928 -0.14716807884585 0.953386639261644
-0.12264252394928 -0.145529776837804 0.961926893584773
-0.12264252394928 -0.152102754552401 0.970547820668372
-0.122642523949281 -0.151823034630831 0.969707014710373
-0.12264252394928 -0.154416732444536 0.984450656263643
-0.12264252394928 -0.152375516587261 0.99652596432811
-0.118118673622924 -0.155832696011387 0.998515450852688
-0.105245891962603 -0.163074630040296 0.998566601404713
-0.0879718228303136 -0.189537398328967 0.998753510758029
-0.0803890430748441 -0.19677280383793 0.998804615198423
-0.0763370125603355 -0.204904726998961 0.99886205183856
-0.0581365987701429 -0.217795135848045 0.99895309817036
-0.0518213090360216 -0.234572423356438 0.999071597940467
-0.0430955907926057 -0.244133123140506 0.999139126182199
-0.0260589181301402 -0.252245403041001 0.999196424079893
-0.0138892682192239 -0.273060156958391 0.999343440905635
-0.00962606289304408 -0.274396997766883 0.99935288315477
0.00664842215135502 -0.291536735119357 0.999473942946762
0.0134357168353804 -0.296946880230763 0.999512155378397
0.0294294741387631 -0.311388696775749 0.999614159468131
0.0355333139137969 -0.327122320183514 0.999725287727442
0.049624576494042 -0.350761692573837 0.999892255134557
0.0647258588644741 -0.362178615490399 0.999972894078145
-0.12264252394928 -0.13271992354938 0.00626515767643295
-0.12264252394928 -0.138900516333237 0.0125058361448751
-0.12264252394928 -0.140017334750649 0.0207444760293374
-0.12264252394928 -0.135961499966152 0.0330626689520201
-0.12264252394928 -0.135583153375791 0.0439815258273204
-0.12264252394928 -0.135192458408901 0.0571827317535166
-0.12264252394928 -0.136030954554777 0.0634371897796852
-0.12264252394928 -0.132308165226954 0.0754229398138651
-0.12264252394928 -0.131253251163578 0.0857949291148938
-0.12264252394928 -0.134610101658918 0.0976601283265954
-0.12264252394928 -0.132501672253619 0.105183014176443
-0.12264252394928 -0.127664509482304 0.115344216379373
-0.12264252394928 -0.12632629515976 0.133895947720483
-0.12264252394928 -0.130649974084283 0.137145997973058
-0.12264252394928 -0.130455158408756 0.150379948237125
-0.12264252394928 -0.129487856551735 0.149709742088618
-0.12264252394928 -0.131441474745055 0.166605856043681
-0.12264252394928 -0.12917125924622 0.175413092080361
-0.12264252394928 -0.135374089211451 0.182410838870764
-0.12264252394928 -0.126208204604562 0.198594633404177
-0.12264252394928 -0.126148061525843 0.206747709533236
-0.12264252394928 -0.137202328405676 0.212441431362585
-0.12264252394928 -0.140649685973558 0.222468392058132
-0.12264252394928 -0.13526730883374 0.228487988696544
-0.12264252394928 -0.133761236561206 0.249504798753478
-0.12264252394928 -0.140158058198313 0.248888311534002
-0.12264252394928 -0.129698131191932 0.264261189428982
-0.12264252394928 -0.13879600063696 0.271226748423947
-0.12264252394928 -0.131548309998317 0.283853393368363
-0.12264252394928 -0.131573062568928 0.28769920657213
-0.12264252394928 -0.136667939700761 0.297105403986325
-0.12264252394928 -0.126706329819093 0.312958459658891
-0.12264252394928 -0.123253593023273 0.333983548462424
-0.12264252394928 -0.136854890494061 0.32752584688536
-0.12264252394928 -0.136909357127514 0.336522479590107
-0.12264252394928 -0.127138131149552 0.357042589816875
-0.12264252394928 -0.137557521045992 0.362687612132392
-0.12264252394928 -0.130016196841214 0.374965856179827
-0.12264252394928 -0.131846633388905 0.378504814646753
-0.12264252394928 -0.129249109328391 0.401691286510687
-0.12264252394928 -0.139764833248973 0.396868537417819
-0.12264252394928 -0.133245122301236 0.410921570978657
-0.12264252394928 -0.127327134894864 0.42628215938443
-0.12264252394928 -0.134004355522494 0.440870030542108
-0.12264252394928 -0.129847004911342 0.437867136378405
-0.12264252394928 -0.140848082908311 0.4496367695384
-0.12264252394928 -0.138176547206168 0.458326504755431
-0.12264252394928 -0.133383610302548 0.46943773097944
-0.12264252394928 -0.129578868738175 0.487294113944259
-0.12264252394928 -0.12228393391532 0.499595614185055
-0.12264252394928 -0.142498146660785 0.494960282989718
-0.12264252394928 -0.132717638734266 0.506547932526846
-0.12264252394928 -0.122885721404885 0.533559712016055
-0.12264252394928 -0.131580833103571 0.533715209087832
-0.12264252394928 -0.138494479093737 0.54555119491004
-0.12264252394928 -0.127235697547156 0.554907523034454
-0.12264252394928 -0.138031496693478 0.560020718609672
-0.12264252394928 -0.132361303327755 0.570772056809378
-0.12264252394928 -0.130320833408572 0.590089202969711
-0.12264252394928 -0.124546548781913 0.5973410290015
-0.12264252394928 -0.127916037413723 0.602904336152381
-0.12264252394928 -0.137813270554879 0.610869412644488
-0.12264252394928 -0.13922685971807 0.6195172015334
-0.12264252394928 -0.125972181718919 0.643562629135131
-0.12264252394928 -0.138244004047413 0.639849982257522
-0.12264252394928 -0.136029756228119 0.652275008150841
-0.12264252394928 -0.128231098971087 0.662919389586589
-0.12264252394928 -0.134043506952939 0.682221694211822
-0.12264252394928 -0.132883843302282 0.68570472999747
-0.12264252394928 -0.136446212487768 0.689532932329372
-0.12264252394928 -0.123081089512855 0.706034327425151
-0.12264252394928 -0.123446430060631 0.714928590958567
-0.122642523949281 -0.134203354852733 0.730042824735005
-0.12264252394928 -0.129367765386873 0.741754428545363
-0.12264252394928 -0.131278855536418 0.745522914120158
-0.12264252394928 -0.133843842446124 0.750967977658018
-0.12264252394928 -0.131412760166322 0.764480011691647
-0.12264252394928 -0.130236475587705 0.781150333432501
-0.12264252394928 -0.132263138817341 0.791025719008496
-0.12264252394928 -0.131237368211303 0.802410813843495
-0.12264252394928 -0.13518204158707 0.809318401402791
-0.12264252394928 -0.123218519864586 0.822807223529165
-0.12264252394928 -0.129329604823959 0.826904455502472
-0.12264252394928 -0.129599982547014 0.837437788500088
-0.12264252394928 -0.133026655574384 0.841189352404404
-0.12264252394928 -0.133713461752761 0.857747281804214
-0.12264252394928 -0.129579654538208 0.868770220999328
-0.12264252394928 -0.134437329541269 0.875617537985501
-0.12264252394928 -0.127442370321551 0.885189855744701
-0.12264252394928 -0.129029514560795 0.898352961661868
-0.12264252394928 -0.140141996321721 0.905211618110019
-0.12264252394928 -0.12605466260795 0.915818278976671
-0.12264252394928 -0.125294054954515 0.930752257333337
-0.12264252394928 -0.127507425407464 0.933632121810145
-0.12264252394928 -0.127382176392784 0.952877031228164
-0.12264252394928 -0.141099700249264 0.946207208856369
-0.12264252394928 -0.123573917585293 0.968128964075537
-0.12264252394928 -0.129154868214284 0.970701240589967
-0.122642523949281 -0.126894758362257 0.990810875930328
-0.12264252394928 -0.136827414970873 0.988694454548251
-0.118011922703014 -0.13928792990581 0.998398593406036
-0.113043747889192 -0.14689904628573 0.998452351532361
-0.0927402208015815 -0.166191458380737 0.998588615895531
-0.0832360225417466 -0.169666631072321 0.9986131614107
-0.0748629252958412 -0.184055716647291 0.998714793055972
-0.0665710491738188 -0.19486421819411 0.998791134654567
-0.0582937199934359 -0.205399692032939 0.998865547829358
-0.0455481739414139 -0.219977537241588 0.998968512704044
-0.0312897199874331 -0.235129736215678 0.9990755343006
-0.0184803439480502 -0.245219320884245 0.99914679811265
-0.0101461376708301 -0.251771373988068 0.999193075962161
-0.00459154580462755 -0.262386039913641 0.999268048479102
0.0154872943862844 -0.283580439853006 0.999417746785166
0.0235365795517094 -0.301639009486439 0.999545296387504
0.0290005680837313 -0.307673234065243 0.999587916758944
0.0497141342304948 -0.32889096251215 0.999737779836744
0.0573236555598949 -0.337361286626324 0.999797606638886
0.0635143044386206 -0.347540109182686 0.99986950074765
0.0777668156301893 -0.358925666154587 0.999949918150226
-0.12264252394928 -0.111974418712703 0.00665076415650443
-0.12264252394928 -0.119062784296579 0.016989402061675
-0.12264252394928 -0.119124189883494 0.0214888797885728
-0.12264252394928 -0.108666730852356 0.040309327881209
-0.12264252394928 -0.115973532131022 0.0525973302645049
-0.12264252394928 -0.125288455881657 0.050538128318361
-0.12264252394928 -0.118681413606389 0.0590226062443557
-0.12264252394928 -0.121252380172072 0.0646769220177831
-0.12264252394928 -0.115553861260922 0.0935445986080301
-0.12264252394928 -0.110967644903046 0.0941190166207602
-0.12264252394928 -0.124579247750781 0.10268036887904
-0.12264252394928 -0.123658107602655 0.108509701323131
-0.12264252394928 -0.11770790333414 0.122878206842327
-0.12264252394928 -0.110832237278475 0.136510514684748
-0.12264252394928 -0.11016184550931 0.146071567905967
-0.12264252394928 -0.119319702186482 0.151970655907791
-0.12264252394928 -0.115358273645706 0.161331899569169
-0.12264252394928 -0.107851345875676 0.176480372300035
-0.12264252394928 -0.114790280809429 0.180294674788593
-0.12264252394928 -0.113218695838773 0.190924568052546
-0.12264252394928 -0.122257042750789 0.200220247526809
-0.12264252394928 -0.12157243085175 0.20933914993873
-0.12264252394928 -0.121214504293419 0.216176594928119
-0.12264252394928 -0.119792454239165 0.229178736051352
-0.12264252394928 -0.109821688919837 0.245842371953738
-0.12264252394928 -0.124521246265323 0.243062314707528
-0.12264252394928 -0.112892275300668 0.26907607717364
-0.12264252394928 -0.121775055136212 0.270232124207387
-0.12264252394928 -0.11646788349087 0.286167739712637
-0.12264252394928 -0.110137346312768 0.300509647436989
-0.12264252394928 -0.119157099801279 0.300988039468979
-0.12264252394928 -0.123254106065123 0.312410929687486
-0.12264252394928 -0.123539486236037 0.321747981005964
-0.12264252394928 -0.123644537740487 0.325849234197324
-0.12264252394928 -0.119338117897484 0.341374836582735
-0.12264252394928 -0.112734634258679 0.357026021389691
-0.12264252394928 -0.126043609028975 0.355548581094283
-0.12264252394928 -0.121186278117777 0.374028498169422
-0.12264252394928 -0.114545383006382 0.390455804443358
-0.12264252394928 -0.120516331634735 0.394067421127732
-0.12264252394928 -0.118720235124582 0.41224013567504
-0.12264252394928 -0.114025440798954 0.419437241931376
-0.12264252394928 -0.120054396246442 0.422443277364861
-0.12264252394928 -0.114586569335594 0.427668894620579
-0.12264252394928 -0.115362653319177 0.445364071233736
-0.12264252394928 -0.119188207758416 0.454098652778671
-0.12264252394928 -0.126386299007482 0.453821663836039
-0.12264252394928 -0.117118898096741 0.473305336540413
-0.12264252394928 -0.123222777170607 0.4796454985672
-0.12264252394928 -0.12021503826333 0.489237668076889
-0.12264252394928 -0.116833240033997 0.508108922167554
