ply
format ascii 1.0
element vertex 897
property float x
property float y
property float z
end_header
-0.374999999999997 0.103714481255429 0.54577998936361
-0.374999999999997 0.093838952209523 0.547468750235543
-0.374999999999997 0.105418999363152 0.56420963616389
-0.374999999999997 0.102151053422268 0.568408888315461
-0.374999999999997 0.0942382192139413 0.570208238621939
-0.374999999999997 0.0971694481489385 0.580867670955363
-0.374999999999997 0.0967630178293759 0.591705432835945
-0.374999999999997 0.0995482802370054 0.600618573693764
-0.374999999999997 0.103610504719098 0.610495514853977
-0.374999999999997 0.102445934174159 0.622599876013542
-0.374999999999997 0.103330926439196 0.63694610873254
-0.374999999999997 0.101591899263556 0.642760225696154
-0.374999999999997 0.0929566990585966 0.643449625209152
-0.374999999999997 0.0913817946098315 0.648004727285242
-0.374999999999997 0.0989620102715191 0.658160252547058
-0.374999999999997 0.102540549364223 0.674002811864996
-0.374999999999997 0.104601232659455 0.683843854881805
-0.374999999999997 0.093831813903697 0.688383353389032
-0.374999999999997 0.0954714396011589 0.692056749212886
-0.374999999999997 0.0901555399550327 0.698745751165912
-0.374999999999997 0.0990214939457689 0.713446897677046
-0.374999999999997 0.0958646920308913 0.723532166164439
-0.374999999999997 0.0975679145508345 0.741478492127299
-0.374999999999997 0.0901743486036233 0.739609244181286
-0.374999999999997 0.0955460441555685 0.747623062254644
-0.374999999999997 0.0914974474196557 0.759342932968993
-0.374999999999997 0.0949133038703955 0.766920019568517
-0.374999999999997 0.101412865533888 0.783643282272974
-0.374999999999997 0.0979956216004201 0.786578781349728
-0.374999999999997 0.101038770012378 0.796236538618927
-0.374999999999997 0.0975979168690836 0.806674450343732
-0.374999999999997 0.0986052758811544 0.814373866000718
-0.374999999999997 0.104593738484707 0.826096459274316
-0.374999999999997 0.094162065200205 0.824577196803548
-0.374999999999997 0.101993974084098 0.844537955628398
-0.374999999999997 0.0959683664507326 0.844268504387712
-0.374999999999997 0.101410510392303 0.859958936641105
-0.374999999999997 0.101373090196734 0.877404763682924
-0.374999999999997 0.0921161549430505 0.871097435632086
-0.374999999999997 0.0985611545308519 0.887647865836953
-0.374999999999997 0.102440140085139 0.901993039142741
-0.374999999999997 0.102600868473038 0.899656451987406
-0.374999999999997 0.0973224484539263 0.909235626710606
-0.374999999999997 0.104125831195904 0.924415395499491
-0.374999999999997 0.0977601033162508 0.926530773766301
-0.374999999999997 0.0991438088550319 0.935242206376909
-0.374999999999997 0.0978255708827925 0.943603408205816
-0.374999999999997 0.096856227882299 0.956567943544741
-0.374999999999997 0.103796066797031 0.971553455371754
-0.374999999999997 0.0952562444964346 0.973875025135603
-0.374999999999997 0.0978100529667507 0.977752087135912
-0.374999999999997 0.104455140360644 0.999150629330748
-0.371246517205375 0.096617480063551 1.0
-0.363301976766358 0.0839944371891046 1.0
-0.353894559103296 0.074690600509771 1.0
-0.355678943342909 0.0714778080549032 1.0
-0.342308724376793 0.0601340812250089 1.0
-0.33314024651797 0.0451456966730823 1.0
-0.325446212187206 0.0406989885957111 1.0
-0.325155960610615 0.0340752107576346 1.0
-0.31111484356319 0.0289497858302986 1.0
-0.306428267620375 0.0177500649577502 1.0
-0.294177446863806 0.00852714652900711 1.0
-0.289704607268959 -0.00511160121723345 1.0
-0.274996418654854 -0.0167629312689697 1.0
-0.269479950361578 -0.0228973578689513 1.0
-0.253838618632388 -0.0439893621002279 1.0
-0.256460749942681 -0.0431424090747594 1.0
-0.237562004956335 -0.0651754119854774 1.0
-0.231837916865094 -0.0717281737524951 1.0
-0.222410680311132 -0.0790469285924494 1.0
-0.208519815911708 -0.0871460269567004 1.0
-0.198170832605191 -0.102423799079805 0.999999999999999
-0.374999999999997 0.110678321351551 0.340076059213825
-0.373829978784025 0.111842105263157 0.349644813633204
-0.374999999999997 0.109767874052162 0.344743489912437
-0.373312820986829 0.111842105263157 0.365016687360872
-0.374177022156352 0.111842105263157 0.369003848384057
-0.369908813283106 0.111842105263157 0.375405129486203
-0.374766260710313 0.111842105263157 0.391251088078786
-0.374999999999997 0.108251046396895 0.393004058943302
-0.368754870531049 0.111842105263157 0.403403998989584
-0.374513492646452 0.111842105263157 0.414562088082123
-0.374999999999997 0.10883414124983 0.417519876401362
-0.374999999999997 0.10823588451142 0.431548178628931
-0.374999999999997 0.109269546465326 0.437573336648233
-0.370304730749719 0.111842105263157 0.442860217763791
-0.374999999999997 0.111449418432635 0.464168323848141
-0.374999999999997 0.103581529953698 0.463285087319026
-0.374229391742131 0.111842105263157 0.476787026918851
-0.374999999999997 0.11125558703102 0.483404249358627
-0.374999999999997 0.108133501289558 0.494818423482614
-0.374268061894332 0.111842105263157 0.5018115762387
-0.369506128524524 0.111842105263157 0.513306061844673
-0.374999999999997 0.107221242548971 0.516781824910531
-0.374690687974689 0.111842105263157 0.530568668390211
-0.374999999999997 0.109525133546475 0.532168297645558
-0.371798187572718 0.111842105263157 0.545549605098498
-0.374999999999997 0.109327637035419 0.552933085294519
-0.371601091526567 0.111842105263157 0.558866689038483
-0.374999999999997 0.109494304990306 0.567131828563382
-0.374999999999997 0.111235507279411 0.581150624263815
-0.374999999999997 0.107673166410402 0.58863319569709
-0.374999999999997 0.106516175373614 0.595440133892132
-0.373922067111819 0.111842105263157 0.600759386870958
-0.369410024455357 0.111842105263157 0.618301016741072
-0.368984424654092 0.111842105263157 0.621738555609657
-0.374999999999997 0.110183187702476 0.636464991131763
-0.374999999999997 0.108510893405915 0.641112695466469
-0.3741191174793 0.111842105263157 0.65237900845559
-0.374999999999997 0.111277897456819 0.661353897706413
-0.374999999999997 0.110389691014687 0.673027125238555
-0.368855897330261 0.111842105263157 0.682324716772856
-0.369626538989945 0.111842105263157 0.69114855074647
-0.374999999999997 0.107046127973464 0.692706871037726
-0.374999999999997 0.110155115209155 0.706317854775082
-0.374999999999997 0.110494830865972 0.719056501452914
-0.371401138522938 0.111842105263157 0.72407920309812
-0.371402288555115 0.111842105263157 0.738183382764505
-0.374999999999997 0.111463250565091 0.743685572162864
-0.374999999999997 0.110823488780357 0.747893694875936
-0.374999999999997 0.108522809134929 0.757532465208657
-0.374999999999997 0.111464614183271 0.76906944571105
-0.372302957204401 0.111842105263157 0.778160690484638
-0.370042175353534 0.111842105263157 0.783307875543294
-0.374314466661012 0.111842105263157 0.802491946039674
-0.371649445914135 0.111842105263157 0.802966710934047
-0.374999999999997 0.110893657510756 0.808800936441121
-0.373646913169095 0.111842105263157 0.826519539755139
-0.371574375712013 0.111842105263157 0.829999065408561
-0.374016418918797 0.111842105263157 0.845981013268588
-0.372605298975335 0.111842105263157 0.84346768374502
-0.374999999999997 0.111658066555122 0.850123822666197
-0.368911752571057 0.111842105263157 0.86536995027142
-0.373321717999735 0.111842105263157 0.877271425141198
-0.374999999999997 0.111722869196989 0.884014158386642
-0.374999999999997 0.111252298255234 0.887843251812632
-0.374999999999997 0.104640337249426 0.897472968248942
-0.371476772012271 0.111842105263157 0.904204005678977
-0.374999999999997 0.108192123229657 0.914879691743477
-0.374407859647324 0.111842105263157 0.933998709739488
-0.369238161417937 0.111842105263157 0.932959378964298
-0.370469049199654 0.111842105263157 0.942778419839936
-0.37236355244025 0.111842105263157 0.952348351909137
-0.372419587164585 0.111842105263157 0.958731754588338
-0.374999999999997 0.109367960712427 0.97053303042328
-0.372263093868432 0.111842105263157 0.980430346031562
-0.37113733709908 0.111842105263157 0.984995828684341
-0.374999999999997 0.109962510675087 0.997312921008174
-0.36675727141498 0.0973040338118731 1.0
-0.362018228860825 0.0928425221671227 1.0
-0.34830785546773 0.0827785793077016 1.0
-0.346871637882304 0.0793897916960285 1.0
-0.331794295068269 0.0633130508338077 1.0
-0.334802664690897 0.0619213509664638 1.0
-0.31957495953342 0.0468070539177561 1.0
-0.305045509172328 0.0319205406843619 1.0
-0.305929657595064 0.0311328190563016 1.0
-0.290920898629263 0.0129414689381568 1.0
-0.283526287796185 0.00566654715852097 1.0
-0.282075928922153 0.0030017653524783 1.0
-0.271169314548236 -0.0148037387904114 0.999999999999999
-0.257440765992936 -0.026266799032715 1.0
-0.251432201398042 -0.0363537009166978 1.0
-0.237782155291318 -0.0445677709515136 1.0
-0.229754216023231 -0.0605377572551613 1.0
-0.230586921922325 -0.0586059506810975 1.0
-0.213804591264995 -0.0676374855598712 0.999999999999999
-0.211331134787569 -0.0728771723664225 1.0
-0.199278764726496 -0.0902242444865627 0.999999999999999
-0.191370321546641 -0.101884785300155 1.0
-0.180273589306266 -0.106885097054607 1.0
-0.365758024922614 0.111842105263157 0.32660371110024
-0.358135700771318 0.111842105263157 0.331987031649738
-0.358916577766243 0.111842105263157 0.342125386765505
-0.360499894446211 0.111842105263157 0.354743130702368
-0.365346185863856 0.111842105263157 0.365229432519986
-0.363630517223357 0.111842105263157 0.376312499318216
-0.363387562692212 0.111842105263157 0.385533286109977
-0.360676205772673 0.111842105263157 0.385241794847412
-0.359870402761754 0.111842105263157 0.395810804210147
-0.363411732291598 0.111842105263157 0.403397400404144
-0.364696396608445 0.111842105263157 0.414860869909562
-0.360515766555784 0.111842105263157 0.422680416463164
-0.362786410622044 0.111842105263157 0.427379797262062
-0.360723274225752 0.111842105263157 0.441466852055726
-0.356899172562895 0.111842105263157 0.445764913988348
-0.368372830408707 0.111842105263157 0.465451415595294
-0.362713964997697 0.111842105263157 0.469756468711039
-0.361717994067747 0.111842105263157 0.477129552912704
-0.359652461766625 0.111842105263157 0.483364989776808
-0.363733727201951 0.111842105263157 0.48740890957741
-0.366404440344397 0.111842105263157 0.512247733569288
-0.360412605078003 0.111842105263157 0.511984036769737
-0.359131146448375 0.111842105263157 0.518397046744837
-0.358230946651488 0.111842105263157 0.532150347130382
-0.359616212983971 0.111842105263158 0.535773072983891
-0.368063831283855 0.111842105263157 0.554869856134293
-0.367091361281743 0.111842105263157 0.558791205824641
-0.369119973094001 0.111842105263158 0.572188468815036
-0.365491389228827 0.111842105263157 0.572916755459902
-0.358555490232099 0.111842105263157 0.579873102074544
-0.369908260331747 0.111842105263157 0.597737326798897
-0.360935840317988 0.111842105263157 0.599379470989873
-0.367428695370284 0.111842105263157 0.614334787236182
-0.36213235928858 0.111842105263157 0.616029605522273
-0.360066936801195 0.111842105263157 0.629233242378673
-0.36020259078084 0.111842105263157 0.636322722528773
-0.367012167797887 0.111842105263157 0.644834417119769
-0.358445211153865 0.111842105263157 0.654853025273292
-0.358466707957263 0.111842105263157 0.666360927351434
-0.361363432734249 0.111842105263157 0.673701710839297
-0.359196994942363 0.111842105263157 0.68171803057719
-0.36382790740562 0.111842105263157 0.697156998376892
-0.361465278434169 0.111842105263157 0.6933815059432
-0.368440202055399 0.111842105263157 0.711576364062394
-0.365157926956644 0.111842105263157 0.720259408520381
-0.358612723235712 0.111842105263157 0.723047122171064
-0.36656426240866 0.111842105263157 0.742522342803085
-0.362767379222193 0.111842105263157 0.742362459363246
-0.362750900648218 0.111842105263157 0.754281138389343
-0.368999984992332 0.111842105263157 0.767970722020122
-0.359884948139648 0.111842105263157 0.770562536549777
-0.365508317283135 0.111842105263157 0.781726070248724
-0.360991452169327 0.111842105263158 0.789293092237083
-0.369426040878898 0.111842105263157 0.799055498156827
-0.366811212485259 0.111842105263157 0.808357535401307
-0.362598489995127 0.111842105263157 0.812605358039545
-0.357594901528389 0.111842105263157 0.819726903621006
-0.368262628936456 0.111842105263157 0.838558601614214
-0.364926728509116 0.111842105263157 0.843621574127141
-0.36536228483179 0.111842105263157 0.848284160672474
-0.368181333274414 0.111842105263157 0.865824088227351
-0.366961440097437 0.111842105263157 0.866709440047208
-0.363747767316508 0.111842105263157 0.87822731008387
-0.360423176274879 0.111842105263157 0.881238610679515
-0.36123451620008 0.111842105263157 0.896528984130989
-0.360194894147722 0.111842105263157 0.907501206136805
-0.364877214063819 0.111842105263157 0.916363046626946
-0.364673172437356 0.111842105263158 0.927285011679676
-0.365946814027141 0.111842105263157 0.931975464173838
-0.364638608707301 0.111842105263157 0.93607669169632
-0.369508648164194 0.111842105263157 0.949919387785483
-0.363409831033624 0.111842105263157 0.958163717574873
-0.36077099419298 0.111842105263157 0.964164101839325
-0.365631627117221 0.111842105263157 0.974114917016893
-0.366488798063496 0.111842105263157 0.982936426972187
-0.364514183541497 0.111842105263157 0.992541008941671
-0.359622320660186 0.111842105263157 0.999737526145858
-0.350252514995638 0.0949426859948515 1.0
-0.347401653292888 0.0958589861903421 1.0
-0.340052030333526 0.0786272278088311 1.0
-0.332098080381416 0.0798986890910361 1.0
-0.327168518777604 0.0631563485378864 1.0
-0.311620642181774 0.0543083631092167 1.0
-0.308785268572678 0.0454939641533663 1.0
-0.290166666543612 0.0367425662158495 1.0
-0.281982430885171 0.0225332002953145 1.0
-0.276961459973848 0.012487909378898 1.0
-0.276328439204878 0.00886294252595494 1.0
-0.264478078029108 -0.00265884136168599 1.0
-0.247150755064016 -0.018464813038859 1.0
-0.23886226209971 -0.0220726379879177 1.0
-0.239671193163157 -0.0288297766055006 1.0
-0.228476759705463 -0.0400990521485046 1.0
-0.22036935221127 -0.0504291036753818 1.0
-0.208828489156781 -0.0618317079255688 1.0
-0.200845918721217 -0.0702780591798201 1.0
-0.198821147557102 -0.0833607474846514 1.0
-0.1784804481726 -0.0978964939140619 1.0
-0.170011065888201 -0.103686266022034 1.0
-0.352886016335826 0.111842105263157 0.312367480083299
-0.355041341802029 0.111842105263157 0.335887934150601
-0.352632631359349 0.111842105263157 0.342091191730708
-0.355344790184331 0.111842105263157 0.346942788532981
-0.350771028615128 0.111842105263157 0.350440411439053
-0.347905100351161 0.111842105263157 0.354574078931325
-0.350044339801811 0.111842105263157 0.376253275257111
-0.35320845214088 0.111842105263157 0.384436590877931
-0.345186285877195 0.111842105263157 0.383910443387511
-0.348194803576345 0.111842105263157 0.400604176772158
-0.349387101182202 0.111842105263157 0.414818449895569
-0.347275129316563 0.111842105263157 0.418437006965792
-0.347830593584695 0.111842105263157 0.424218216832657
-0.350683989011595 0.111842105263157 0.433938482976681
-0.348857400880556 0.111842105263157 0.442221036011983
-0.358364396563331 0.111842105263157 0.458087805274079
-0.347800050017241 0.111842105263157 0.465110383276331
-0.347463160228608 0.111842105263157 0.46981037621873
-0.355796968934182 0.111842105263157 0.484243399070978
-0.355766224623268 0.111842105263157 0.488311181977066
-0.347108881381777 0.111842105263157 0.489160133225197
-0.347351747598045 0.111842105263157 0.504654816138069
-0.346315004612606 0.111842105263158 0.505744253027931
-0.351046152981514 0.111842105263157 0.515639408880148
-0.35392746327093 0.111842105263157 0.533297855507683
-0.351370390036198 0.111842105263157 0.541287696195334
-0.348015267463475 0.111842105263157 0.551646858473009
-0.349138657767174 0.111842105263157 0.554643236760673
-0.350553814025891 0.111842105263157 0.569995866445917
-0.34975821903892 0.111842105263157 0.572689201531058
-0.346995541551962 0.111842105263157 0.583945360585913
-0.351407324336191 0.111842105263157 0.590838621764547
-0.350550194711843 0.111842105263157 0.601449376359287
-0.347562717546594 0.111842105263157 0.615649349329768
-0.349576679019272 0.111842105263157 0.621912646539501
-0.353556849715879 0.111842105263157 0.63233774313678
-0.354134163325286 0.111842105263157 0.639050989309817
-0.351039610257683 0.111842105263157 0.649833408616681
-0.355716266476022 0.111842105263157 0.663627959946736
-0.352508678481303 0.111842105263157 0.66663900233646
-0.354201951318541 0.111842105263157 0.679502088793581
-0.349865569926287 0.111842105263157 0.682439492944645
-0.352237149472664 0.111842105263157 0.696695472827191
-0.352191932554434 0.111842105263157 0.697078659145442
-0.345847518913009 0.111842105263157 0.712117750368544
-0.3528775922268 0.111842105263157 0.717795219776056
-0.351100069620345 0.111842105263157 0.724575616637533
-0.348004700209673 0.111842105263157 0.738002963973916
-0.355327247647473 0.111842105263157 0.750627375628665
-0.351942925640072 0.111842105263157 0.753908411910167
-0.352014037926237 0.111842105263157 0.769006352148705
-0.350207230406406 0.111842105263157 0.779843126845895
-0.349560807123558 0.111842105263157 0.784802843099403
-0.351039583644407 0.111842105263157 0.790577911055305
-0.356182597775984 0.111842105263157 0.800462557689823
-0.345255700812171 0.111842105263157 0.804406167056074
-0.351883704404957 0.111842105263157 0.81390677582078
-0.355549605460095 0.111842105263157 0.834396459555873
-0.356598207118743 0.111842105263157 0.840670201122315
-0.352962025596683 0.111842105263157 0.849025132982404
-0.354798235008056 0.111842105263157 0.859353726465604
-0.35551564782149 0.111842105263157 0.862917588693472
-0.354492856257963 0.111842105263157 0.873243458140385
-0.35495543931903 0.111842105263157 0.881552728099105
-0.352411783414406 0.111842105263157 0.888087601890565
-0.350934512510874 0.111842105263157 0.902347615705388
-0.347070770649347 0.111842105263157 0.906223971167282
-0.351058012439536 0.111842105263157 0.917486409328499
-0.354023991248019 0.111842105263157 0.924522186418407
-0.345773063448791 0.111842105263157 0.927082431086207
-0.354387091848286 0.111842105263157 0.942849778541542
-0.344364696557504 0.111842105263157 0.945671648319298
-0.349909640316479 0.111842105263157 0.956754751033852
-0.350581876329046 0.111842105263157 0.97476720988465
-0.358146497510747 0.111842105263157 0.976903877519341
-0.346230798315337 0.111842105263157 0.983377982631194
-0.344129679731406 0.111842105263157 0.988926625799995
-0.3507318095629 0.111842105263157 0.997745976518417
-0.337075243654395 0.0934681968447025 1.0
-0.334102069999336 0.0922255410479536 1.0
-0.323334159624486 0.0827887157274837 0.999999999999999
-0.318390447276135 0.0700423759848775 1.0
-0.306232393822651 0.0669513002123458 1.0
-0.298856262131327 0.0557839353788925 1.0
-0.291640179079336 0.045350640649684 1.0
-0.281358123203784 0.0340314664563827 0.999999999999999
-0.276525320663203 0.0301143110665889 1.0
-0.262645505110687 0.0155243984427769 0.999999999999999
-0.250586837412882 0.00111899850394979 1.0
-0.252815726540604 0.000817632726108509 1.0
-0.237958879511447 -0.0128314933261905 1.0
-0.22041757053003 -0.0275479052591628 1.0
-0.221742741811201 -0.038200791364212 1.0
-0.211721636068701 -0.0450114653163189 1.0
-0.208956509253878 -0.0524151256128398 1.0
-0.19285926846179 -0.0658126816795589 1.0
-0.180473607419156 -0.079591816474291 1.0
-0.179570723142611 -0.0910339925922558 1.0
-0.157363212873296 -0.107516445073311 1.0
-0.161126090861084 -0.109873811607547 1.0
-0.341428100211981 0.111842105263157 0.310492291833018
-0.333113210510201 0.111842105263157 0.313643321697173
-0.334850832557429 0.111842105263157 0.330108226296041
-0.334507315795075 0.111842105263157 0.339718073926823
-0.341694609284384 0.111842105263157 0.341516016105527
-0.336767158956001 0.111842105263157 0.347701197835247
-0.341979380386788 0.111842105263157 0.365806394350051
-0.344311932652777 0.111842105263157 0.380699440721802
-0.337024822785987 0.111842105263157 0.377222003295408
-0.337425323312059 0.111842105263157 0.384276753460804
-0.333625798268485 0.111842105263157 0.397189869858797
-0.341099913833376 0.111842105263157 0.406859502705643
-0.34096374308885 0.111842105263157 0.427279664723204
-0.334598649296835 0.111842105263157 0.423100814550962
-0.336344223575816 0.111842105263157 0.430693661662556
-0.342016840745129 0.111842105263157 0.44497538855705
-0.340951249614424 0.111842105263157 0.454720421885374
-0.342529425387285 0.111842105263157 0.458127468333916
-0.336466893639723 0.111842105263157 0.46643480020404
-0.340418944632405 0.111842105263157 0.48328422561988
-0.339079863686009 0.111842105263157 0.496093803721644
-0.336558321374692 0.111842105263157 0.502852662663989
-0.344578649333703 0.111842105263157 0.513076774792704
-0.332287533691339 0.111842105263158 0.512850527589632
-0.334908610854286 0.111842105263157 0.519581344707926
-0.342305285079836 0.111842105263157 0.535869674946955
-0.343244915913538 0.111842105263157 0.54825078115022
-0.345901992826216 0.111842105263157 0.557020422635081
-0.344226754459515 0.111842105263157 0.561787838360581
-0.336630040646123 0.111842105263157 0.564407813315637
-0.342148448140711 0.111842105263157 0.576481939018066
-0.341326250631746 0.111842105263157 0.58669603015455
-0.33810951003603 0.111842105263157 0.594769712519659
-0.339720668468151 0.111842105263157 0.605973664244751
-0.337228670478092 0.111842105263157 0.613913017197299
-0.341121798160155 0.111842105263157 0.626547753933337
-0.336222663086609 0.111842105263157 0.631845637304799
-0.339401117897862 0.111842105263157 0.64866212034518
-0.338706599641609 0.111842105263157 0.653207156286369
-0.332911171763205 0.111842105263157 0.653432477866113
-0.335889948705575 0.111842105263157 0.666684723263541
-0.340584208313287 0.111842105263157 0.677822480130716
-0.342495591137696 0.111842105263158 0.693258330870538
-0.343148713227534 0.111842105263157 0.697057343106711
-0.337805641088865 0.111842105263157 0.703203488921989
-0.338662232327222 0.111842105263157 0.712661098899162
-0.338839653239016 0.111842105263157 0.722012602723411
-0.342379790599424 0.111842105263157 0.725093667085431
-0.340095797545919 0.111842105263157 0.736395396035562
-0.337603650506889 0.111842105263157 0.750100336960945
-0.338041167358681 0.111842105263157 0.750087601457418
-0.340678606340604 0.111842105263157 0.769887097716256
-0.347588618250019 0.111842105263157 0.777016661317859
-0.342116319926867 0.111842105263157 0.786452762598637
-0.343109788773902 0.111842105263157 0.797918748482361
-0.338921711471136 0.111842105263157 0.795961177755636
-0.340959372849929 0.111842105263157 0.805075182705147
-0.334198462282277 0.111842105263157 0.81741691610747
-0.335465747128769 0.111842105263157 0.828650057549234
-0.343696908921301 0.111842105263157 0.836392922325607
-0.34712461877455 0.111842105263157 0.8468911652519
-0.345346389172886 0.111842105263158 0.858226553553216
-0.335748100545729 0.111842105263157 0.868624733082354
-0.337986588181915 0.111842105263157 0.874278929935933
-0.338726953001685 0.111842105263157 0.878317559324363
-0.331163413439357 0.111842105263157 0.888604146171894
-0.337833927785632 0.111842105263157 0.900483655041637
-0.347257507881875 0.111842105263157 0.910641881517253
-0.334169040629081 0.111842105263157 0.911044106771754
-0.336977294724657 0.111842105263157 0.925628997705015
-0.339786594045815 0.111842105263157 0.934657260470367
-0.345033286885704 0.111842105263157 0.943659116759807
-0.338019560000097 0.111842105263157 0.958935352105675
-0.341176170150518 0.111842105263157 0.966163736763516
-0.339907367108984 0.111842105263157 0.972635032970682
-0.33427363088074 0.111842105263157 0.980584107707688
-0.342329222602835 0.111842105263157 0.990595984513855
-0.33639431160269 0.111842105263157 0.999298976820639
-0.336367330377646 0.101680742828757 1.0
-0.325308613513964 0.0997839673475481 1.0
-0.311860810630786 0.0869145918405917 1.0
-0.3035125368815 0.0734218659990315 1.0
-0.3083472222954 0.0732337714017206 1.0
-0.291758167002867 0.0604668606176651 1.0
-0.282127859211346 0.0445001323082593 1.0
-0.280471454134936 0.0459315342055376 1.0
-0.266642610343812 0.030947441644403 1.0
-0.265823646033108 0.022080467861945 1.0
-0.255489525749895 0.0125905382451859 1.0
-0.233759407130157 0.00225508838812964 0.999999999999999
-0.230843106366199 -0.0147187314765448 1.0
-0.223281372495854 -0.0195480640215321 1.0
-0.208356740661086 -0.0321642000196983 1.0
-0.202702623061652 -0.0391965926353129 1.0
-0.201741189139712 -0.0493150435833537 1.0
-0.189299735611976 -0.060491388407902 1.0
-0.1796804288371 -0.0665168028673383 1.0
-0.174264693908861 -0.0837369265905285 1.0
-0.159839932128138 -0.0913669942113833 1.0
-0.152781078924749 -0.101122468233459 0.999999999999999
-0.331996335365439 0.111842105263157 0.300423348327646
-0.32807511852603 0.111842105263157 0.307768065673978
-0.327152931634622 0.111842105263157 0.326253039399
-0.324254988973358 0.111842105263157 0.328102644344436
-0.326054817260703 0.111842105263157 0.334219372644211
-0.324119767703981 0.111842105263157 0.349360413553924
-0.325956693440866 0.111842105263157 0.360104022195163
-0.324993920641262 0.111842105263157 0.363021679547268
-0.321173477280716 0.111842105263157 0.369466734495595
-0.325392799894043 0.111842105263157 0.382185806723723
-0.3333521629733 0.111842105263157 0.393109334134354
-0.325748579637043 0.111842105263157 0.400246415010515
-0.325611969100361 0.111842105263157 0.400962267160031
-0.32006996804025 0.111842105263157 0.413572204994657
-0.332537899816214 0.111842105263157 0.430981341623479
-0.32677003939429 0.111842105263157 0.43731657270451
-0.326204536431817 0.111842105263157 0.44696749602765
-0.321420632959599 0.111842105263158 0.450470811116123
-0.329207878300326 0.111842105263157 0.469286573623966
-0.322520865115907 0.111842105263157 0.470675159673104
-0.326958054608808 0.111842105263157 0.481923313532143
-0.324274508676668 0.111842105263157 0.488028452995572
-0.325937526493089 0.111842105263157 0.495072728845656
-0.328776629430968 0.111842105263157 0.508046406924614
-0.330553580370106 0.111842105263157 0.515904215804473
-0.332998087060017 0.111842105263157 0.523778347780651
-0.327823907765779 0.111842105263157 0.538177623741885
-0.333076438547303 0.111842105263157 0.553126878711473
-0.321644728872624 0.111842105263157 0.545359051803882
-0.328371641868954 0.111842105263157 0.556895544963502
-0.327273610907385 0.111842105263157 0.567103956551087
-0.325121789742328 0.111842105263157 0.575440451897805
-0.323858271077071 0.111842105263157 0.58456048770888
-0.320877328049792 0.111842105263157 0.591465292384424
-0.324424688794566 0.111842105263157 0.605464430763384
-0.328367340256446 0.111842105263157 0.615938948165144
-0.329255186343751 0.111842105263157 0.624644882850779
-0.328266419058221 0.111842105263157 0.639483897691822
-0.327556735346091 0.111842105263157 0.6394541140195
-0.325037621604267 0.111842105263157 0.65094669736164
-0.320823958725779 0.111842105263157 0.653658096053785
-0.327921915300814 0.111842105263157 0.671010917316282
-0.328869574156755 0.111842105263157 0.679586269267181
-0.325330029144733 0.111842105263157 0.689679818192775
-0.323575175206313 0.111842105263157 0.69375664714284
-0.330820583591367 0.111842105263157 0.704789986474019
-0.325883212478615 0.111842105263157 0.713411242276081
-0.327869724903314 0.111842105263157 0.724983360875391
-0.330566535664084 0.111842105263157 0.73053369703136
-0.327169490668482 0.111842105263157 0.736969771799787
-0.334769987084391 0.111842105263157 0.757585819674298
-0.330024928160958 0.111842105263157 0.756560261305494
-0.321229275663774 0.111842105263157 0.764723328700886
-0.329166480367476 0.111842105263157 0.780596234090529
-0.323939013027519 0.111842105263157 0.782489544077461
-0.321086211845986 0.111842105263157 0.794473426118336
-0.333201402071376 0.111842105263157 0.806968270567976
-0.322821620480353 0.111842105263157 0.815198659776393
-0.332778701731736 0.111842105263157 0.820977181672028
-0.320290473307196 0.111842105263157 0.824835483567646
-0.327710591119256 0.111842105263157 0.844105724052201
-0.329394349400997 0.111842105263157 0.844956174715406
-0.321920329417522 0.111842105263157 0.853960734266731
-0.322761003045577 0.111842105263157 0.859657657981197
-0.328649490086438 0.111842105263157 0.871206811089043
-0.32406138766463 0.111842105263157 0.878538817050308
-0.331202735484037 0.111842105263157 0.900154450021694
-0.32697145164499 0.111842105263157 0.905378018723644
-0.321958269559712 0.111842105263157 0.909509327948344
-0.330309115322896 0.111842105263157 0.919543983981404
-0.321718437984693 0.111842105263157 0.929272217098557
-0.330014134980797 0.111842105263157 0.938736101795175
-0.328843949123813 0.111842105263157 0.945055495827845
-0.3279602575574 0.111842105263157 0.961104061586622
-0.323930462114791 0.111842105263157 0.963874393795322
-0.321220272019692 0.111842105263157 0.972082539493349
-0.323157106075499 0.111842105263157 0.980869128516471
-0.322222334885104 0.111842105263157 0.989742863572558
-0.324918381494905 0.111842105263157 0.995508796425767
-0.314455746378753 0.0956230096831188 0.999999999999999
-0.311269310188207 0.0952783241409576 1.0
-0.298569027623298 0.0851424006910547 1.0
-0.289575363577336 0.0733394471644994 1.0
-0.290884618280175 0.069005865177759 1.0
-0.275009007744932 0.0501700409512841 1.0
-0.261191339218371 0.0461897401704087 1.0
-0.259036917039084 0.0383277360562553 1.0
-0.258783644376319 0.034947909525961 1.0
-0.242671397742243 0.0139628264432919 0.999999999999999
-0.232751883999663 0.0127293378604024 1.0
-0.220338409890566 -0.0015726385101017 1.0
-0.220334982751413 -0.0120799841868097 1.0
-0.200886726894633 -0.0276655072586016 1.0
-0.197925432976759 -0.034628728830632 1.0
-0.186850341884128 -0.0446261274005864 1.0
-0.178703357300792 -0.0541098499572363 1.0
-0.17047003591711 -0.0641209234844789 0.999999999999999
-0.156686181992574 -0.0806478291034793 1.0
-0.148427554659033 -0.0930334008994053 1.0
-0.13865345594137 -0.0965279000030997 1.0
-0.316232228123741 0.111842105263157 0.298536282223236
-0.319382813759253 0.111842105263157 0.306887158849838
-0.31767277473329 0.111842105263157 0.317812215090492
-0.316602666377334 0.111842105263157 0.328376767330772
-0.308950572398236 0.111842105263157 0.321789914530187
-0.318611472153473 0.111842105263157 0.343156338973277
-0.315975876286083 0.111842105263157 0.351569047556606
-0.316710119907754 0.111842105263157 0.361116679920623
-0.315440134600313 0.111842105263157 0.366194997785782
-0.317177296346905 0.111842105263157 0.37621381424657
-0.317267770069333 0.111842105263157 0.385398376629435
-0.316145072138255 0.111842105263157 0.390778663563513
-0.311925114180027 0.111842105263157 0.397829400312866
-0.312664062737755 0.111842105263157 0.402264252847042
-0.316115854550613 0.111842105263157 0.422777619066156
-0.310960399235206 0.111842105263157 0.423850048863386
-0.318022796678088 0.111842105263157 0.443044880112697
-0.313984602665265 0.111842105263157 0.44899884127682
-0.317792140706803 0.111842105263157 0.457442327798409
-0.322588065065618 0.111842105263157 0.465673189620672
-0.316584845480646 0.111842105263157 0.475077555095571
-0.317942267222754 0.111842105263157 0.475474670144266
-0.319460854448583 0.111842105263157 0.492767953036005
-0.311589124134271 0.111842105263157 0.493716121788892
-0.320385332635279 0.111842105263157 0.512758945104763
-0.315874889753985 0.111842105263157 0.512408913507519
-0.310626550237361 0.111842105263157 0.52167759710876
-0.314231452117552 0.111842105263157 0.530221596067716
-0.312212238874751 0.111842105263157 0.542245272111131
-0.314823966580584 0.111842105263157 0.55771528424015
-0.316087965274825 0.111842105263157 0.560341344807979
-0.316722885626011 0.111842105263157 0.571357934599292
-0.315530798774314 0.111842105263157 0.582222717049302
-0.314135450371924 0.111842105263157 0.591675634348526
-0.315614889546402 0.111842105263158 0.593302987293539
-0.311021930547095 0.111842105263157 0.609709910351921
-0.315693453294413 0.111842105263157 0.624588216692748
-0.320916762150916 0.111842105263158 0.628243628725504
-0.317301143510038 0.111842105263157 0.636329424498518
-0.317394624108049 0.111842105263157 0.652129372609209
-0.316854521256261 0.111842105263157 0.652518841102743
-0.313576350375904 0.111842105263157 0.666473066172927
-0.320281668315003 0.111842105263157 0.671461369999557
-0.32096929869837 0.111842105263157 0.686214298062737
-0.314461859713835 0.111842105263157 0.686941635044938
-0.316855888022537 0.111842105263157 0.701997270819806
-0.313471682134381 0.111842105263157 0.702823390536851
-0.319443932956521 0.111842105263157 0.719290881229801
-0.313792660812566 0.111842105263157 0.725886486784862
-0.3124779563248 0.111842105263157 0.726260065507657
-0.314413071646263 0.111842105263157 0.743964514900689
-0.320175343390498 0.111842105263157 0.75649521586395
-0.322052958736785 0.111842105263157 0.76319189735392
-0.317399896062714 0.111842105263157 0.767500673287812
-0.317613376693924 0.111842105263157 0.786797396870995
-0.31488496967109 0.111842105263157 0.784565980012268
-0.317459841581818 0.111842105263157 0.797831940685281
-0.31441379667872 0.111842105263157 0.799455793054436
-0.312008508889181 0.111842105263157 0.812724795502909
-0.319775712283536 0.111842105263158 0.828542858814591
-0.314701504515962 0.111842105263157 0.830526752037754
-0.321107749849241 0.111842105263157 0.844388550169766
-0.317241975055074 0.111842105263157 0.856782095006703
-0.317422642658129 0.111842105263158 0.864121317999896
-0.318665469210284 0.111842105263157 0.871961685820749
-0.317503974970161 0.111842105263157 0.873545701231055
-0.318918364983736 0.111842105263157 0.88633034536078
-0.320943132156649 0.111842105263157 0.896175735252674
-0.318737499014617 0.111842105263157 0.905080623559705
-0.320348770386986 0.111842105263157 0.917459460445417
-0.320503882611924 0.111842105263157 0.920801400185099
-0.321815618307761 0.111842105263157 0.939240888714401
-0.315122757085307 0.111842105263157 0.932363116808126
-0.314494807664362 0.111842105263157 0.94398623888356
-0.315608772561709 0.111842105263157 0.961859933422184
-0.315846905666625 0.111842105263157 0.966606032516281
-0.322938931301861 0.111842105263157 0.977711914257176
-0.311919652653093 0.111842105263157 0.987531818066439
-0.313983893293261 0.111842105263157 0.994159366949392
-0.312667698270966 0.111300317857517 1.0
-0.298692983695715 0.100172094938375 1.0
-0.303946229938434 0.0976821869883836 1.0
-0.289268914686757 0.0811856953230771 1.0
-0.281619873872295 0.0720351838337713 1.0
-0.264275327662231 0.0606715932328462 1.0
-0.266126741827897 0.0496889701992647 0.999999999999999
-0.259977196989709 0.051064766021533 1.0
-0.243492043804144 0.0250044162230596 1.0
-0.234089753603958 0.0253055362079372 1.0
-0.230648554534742 0.0135565834854827 1.0
-0.220908990651137 0.00105851403181695 0.999999999999999
-0.203552978322366 -0.0138448185148566 0.999999999999999
-0.207333363805224 -0.0148770596967756 1.0
-0.191097857213211 -0.0225269269148561 1.0
-0.178627376254984 -0.0345802737393134 1.0
-0.174575355085175 -0.0416868907432176 1.0
-0.16343858274177 -0.060749517201323 1.0
-0.153953368181573 -0.0654335004189667 1.0
-0.140191963860065 -0.0768109084981931 1.0
-0.137253053334511 -0.0895311064113817 1.0
-0.11903936459135 -0.104354746066992 1.0
-0.305081593338598 0.111842105263157 0.28589601314245
-0.310597439780194 0.111842105263157 0.296193180939578
-0.298664509001525 0.111842105263157 0.30178568825544
-0.306305264161959 0.111842105263157 0.31083839024013
-0.298646007929488 0.111842105263157 0.313727447280991
-0.301760186202649 0.111842105263157 0.33346466943819
-0.305241717961528 0.111842105263157 0.338729762008257
-0.301237071422047 0.111842105263157 0.345175553101458
-0.303932549686274 0.111842105263157 0.350992556460293
-0.299471879525259 0.111842105263157 0.365082245067783
-0.298238221227403 0.111842105263157 0.372780910974143
-0.309905479091248 0.111842105263157 0.390662318101263
-0.306934119868397 0.111842105263157 0.393073865901278
-0.301232446094512 0.111842105263157 0.408971629827607
-0.305564927336564 0.111842105263157 0.41738491129695
-0.30759817205951 0.111842105263157 0.420859441104866
-0.302065275392175 0.111842105263157 0.435283078878145
-0.298052107966589 0.111842105263157 0.433090283838206
-0.298277097822351 0.111842105263157 0.446030907311313
-0.304796463624721 0.111842105263157 0.456947116787331
-0.302442878120882 0.111842105263157 0.462337987208018
-0.30587189790665 0.111842105263157 0.472974543863511
-0.298175096723516 0.111842105263157 0.477276202149401
-0.309358803962502 0.111842105263157 0.499696298856807
-0.309430113091403 0.111842105263157 0.509849151033571
-0.300295760411508 0.111842105263157 0.503687783054455
-0.309513031471645 0.111842105263157 0.519602644094973
-0.29906264158287 0.111842105263157 0.52218817832837
-0.29806899961829 0.111842105263157 0.530941213168128
-0.295863365803796 0.111842105263157 0.540797762999737
-0.300403712777204 0.111842105263157 0.55879649930493
-0.309919163087308 0.111842105263157 0.563854577928536
-0.30592964465517 0.111842105263157 0.577061108597474
-0.305343642960064 0.111842105263157 0.586115771800283
-0.298842685101031 0.111842105263157 0.590869900686956
-0.299464549868639 0.111842105263157 0.598409509647858
-0.299913994018473 0.111842105263158 0.609324813798578
-0.309116631671041 0.111842105263157 0.621172765583258
-0.308781918656958 0.111842105263157 0.632616321574349
-0.305862247284429 0.111842105263158 0.642510095602041
-0.298434881652449 0.111842105263157 0.644805972507971
-0.300131210075465 0.111842105263157 0.650686451918563
-0.307936149492079 0.111842105263158 0.672263707564492
-0.299187303575662 0.111842105263157 0.668497858488326
-0.303689799005693 0.111842105263157 0.679870547604829
-0.306210578680076 0.111842105263157 0.685508367606471
-0.306813329830051 0.111842105263157 0.697972183324634
-0.302768819783161 0.111842105263157 0.709758851028756
-0.303412569555245 0.111842105263157 0.7130985143354
-0.303968076246431 0.111842105263157 0.721347214450838
-0.301876427944284 0.111842105263157 0.735255188798349
-0.303947045709786 0.111842105263157 0.742444028072196
-0.302908203175078 0.111842105263157 0.744759553302434
-0.301564388935818 0.111842105263157 0.759778950160982
-0.300739328486041 0.111842105263157 0.76425428750007
-0.303546633082375 0.111842105263157 0.77958344992603
-0.307141304653827 0.111842105263157 0.79459510600229
-0.303606501754811 0.111842105263157 0.80631036429775
-0.30968331439592 0.111842105263157 0.813819413167752
-0.301448063553182 0.111842105263157 0.819282955322388
-0.304593175536907 0.111842105263157 0.823043410122237
-0.30197914031584 0.111842105263157 0.835860357026265
-0.302370787550065 0.111842105263157 0.84290847008813
-0.298398491938574 0.111842105263157 0.85060354131746
-0.297008272164154 0.111842105263157 0.855366777231752
-0.304339125244882 0.111842105263157 0.870650433364276
-0.302451552367038 0.111842105263157 0.882668235577746
-0.30885985269227 0.111842105263157 0.894579767963568
-0.307588389641768 0.111842105263158 0.896441089517615
-0.295015439632876 0.111842105263157 0.903137360096454
-0.302367964330419 0.111842105263157 0.912906091287709
-0.302592019132097 0.111842105263157 0.93098752624086
-0.302317108132765 0.111842105263157 0.933925850559643
-0.30018010458127 0.111842105263157 0.947544579232332
-0.30149371091681 0.111842105263157 0.954717232102515
-0.300631409071785 0.111842105263157 0.955856783907785
-0.30450088733764 0.111842105263157 0.976362527616601
-0.29912116766482 0.111842105263157 0.973344562742255
-0.300538058688041 0.111842105263157 0.987105194476524
-0.303184588404142 0.111842105263157 0.996896715827836
-0.295090506184147 0.100264274580857 1.0
-0.281183003028082 0.094425813880168 1.0
-0.28365428669085 0.0902580216363 1.0
-0.269325265922527 0.0726045057239004 1.0
-0.258038431281681 0.0689719650267017 1.0
-0.257723285406072 0.0624739169410094 1.0
-0.251409682896821 0.0476936145408499 1.0
-0.235919609931311 0.0347910865764229 1.0
-0.231682966624263 0.0313355260811632 1.0
-0.21618033006736 0.0211031901795626 1.0
-0.206789298571132 0.00981175877783238 1.0
-0.205208928370375 0.00851639171671566 1.0
-0.18877672687204 -0.0159824873167895 1.0
-0.188731004257842 -0.015298246250666 1.0
-0.175219812167041 -0.0315685472056414 1.0
-0.162834569000235 -0.0365382828611224 1.0
-0.155937948965145 -0.044546045174372 1.0
-0.15072165597032 -0.0559181907180784 1.0
-0.140728383898695 -0.0699508672371236 1.0
-0.129026500200042 -0.0811096396940102 1.0
-0.120578929904008 -0.0951160812274656 1.0
-0.105325807015469 -0.103016802980417 1.0
-0.289933328778957 0.111842105263157 0.279005631909382
-0.287628812995093 0.111842105263157 0.277134408621198
-0.288128592553302 0.111842105263157 0.290959428381726
-0.285905813948471 0.111842105263157 0.299634473249803
-0.287010379332889 0.111842105263157 0.305695163095111
-0.292475243614217 0.111842105263157 0.317248188373901
-0.286679345225642 0.111842105263157 0.32952088702256
-0.295642796694717 0.111842105263157 0.337831227618998
-0.285844780350861 0.111842105263157 0.338038682795295
-0.290303844633558 0.111842105263157 0.356518397990679
-0.296778187218027 0.111842105263157 0.371964829184474
-0.296429021115768 0.111842105263157 0.376591170444248
-0.292441736052444 0.111842105263157 0.389605157782358
-0.292966747968333 0.111842105263157 0.397756901976913
-0.292360124750966 0.111842105263157 0.405700893357564
-0.29332724759791 0.111842105263157 0.404680009317065
-0.282620158826202 0.111842105263157 0.414639396430478
-0.2936440442736 0.111842105263157 0.435823235446687
-0.296907622974213 0.111842105263158 0.447555767049944
-0.290629741156455 0.111842105263157 0.441749511747642
-0.291258736993363 0.111842105263157 0.46224056151101
-0.290449634306887 0.111842105263157 0.460277694739116
-0.288998697236898 0.111842105263157 0.473031767027326
-0.294265793455572 0.111842105263157 0.493535529818842
-0.292516295395455 0.111842105263157 0.494541006170442
-0.290196527784431 0.111842105263157 0.493995391970411
-0.289358627475666 0.111842105263157 0.509165895229014
-0.291383811871711 0.111842105263157 0.518889123999426
-0.291001037198159 0.111842105263157 0.523339195684135
-0.296329055432142 0.111842105263157 0.540024680011259
-0.287527410691081 0.111842105263157 0.543533227771797
-0.287067970527858 0.111842105263157 0.548021806279266
-0.29184659374595 0.111842105263157 0.564628538677473
-0.294962271065719 0.111842105263157 0.581812002779436
-0.290528994725574 0.111842105263157 0.584955593873841
-0.291208649619076 0.111842105263157 0.601859788408611
-0.289353617888692 0.111842105263157 0.606423136054835
-0.293274856740484 0.111842105263157 0.615078390633704
-0.2900478059662 0.111842105263157 0.627155852820735
-0.297740193599555 0.111842105263157 0.632434443826026
-0.283888337353134 0.111842105263157 0.63404196159426
-0.286352594427309 0.111842105263157 0.643653603244888
-0.289858701673895 0.111842105263157 0.657535877434995
-0.295337167004021 0.111842105263157 0.662333399466628
-0.291193147576107 0.111842105263158 0.664656283611203
-0.292455812466841 0.111842105263157 0.683871805311397
-0.291776540339082 0.111842105263157 0.691641396338344
-0.286722047935455 0.111842105263157 0.705941927514171
-0.295050498548779 0.111842105263157 0.717176408796938
-0.292828865499947 0.111842105263157 0.720898583407486
-0.292607775545523 0.111842105263157 0.724105259248617
-0.292357380265642 0.111842105263157 0.736395736642667
-0.287386678219496 0.111842105263157 0.742831130374341
-0.295055597543553 0.111842105263157 0.756995216711348
-0.296817215665474 0.111842105263157 0.770123190874741
-0.290750480578452 0.111842105263157 0.77969565023285
-0.290815054095151 0.111842105263157 0.782826578044406
-0.294924383965496 0.111842105263157 0.788235915999186
-0.28530618955742 0.111842105263157 0.793733525081868
-0.291749162477957 0.111842105263157 0.804398332845674
-0.286576910651877 0.111842105263157 0.816683812514169
-0.293828612854023 0.111842105263157 0.836954070585655
-0.290462411389925 0.111842105263157 0.839334283243056
-0.286559026100004 0.111842105263157 0.843573454251283
-0.296092890609877 0.111842105263157 0.854097991001065
-0.290572530486591 0.111842105263157 0.862052911316354
-0.290188728844437 0.111842105263157 0.874470523517022
-0.29225826634976 0.111842105263157 0.887191493362116
-0.287127946721253 0.111842105263157 0.88505384994609
-0.285745021884073 0.111842105263157 0.897598826021464
-0.29785925442832 0.111842105263158 0.910553854464344
-0.293447140852539 0.111842105263157 0.921596366617572
-0.293029064176172 0.111842105263157 0.921583399204029
-0.297279837464948 0.111842105263157 0.936161417228164
-0.290047618199677 0.111842105263157 0.952407576762783
-0.297300773757377 0.111842105263157 0.95933870687239
-0.296221065703946 0.111842105263157 0.967720058589605
-0.289724754908443 0.111842105263157 0.977243358973798
-0.298169246440751 0.111842105263157 0.989331524695913
-0.285585028525683 0.111842105263157 0.98688434062762
-0.286462531962887 0.109316757238549 1.0
-0.28419195663629 0.103804885924157 0.999999999999999
-0.272841009650222 0.0932701656255256 1.0
-0.264346377795647 0.0771435647362517 1.0
-0.25337902029525 0.0724888894649861 1.0
-0.248763600193244 0.0631958647754908 0.999999999999999
-0.244283603041831 0.0571858978197182 1.0
-0.227186033713194 0.0424759218021495 1.0
-0.223057932450446 0.0382242483750774 1.0
-0.207398639866216 0.0247032894580112 1.0
-0.198821319460514 0.0172101761825882 1.0
-0.203045676084365 0.00885405342440897 1.0
-0.187217693228475 -0.00856581654867071 1.0
-0.178013543887674 -0.010820389145008 0.999999999999999
-0.165002601810618 -0.0276192572630373 1.0
-0.154500325530037 -0.0378655090392906 1.0
-0.14831949459899 -0.0452259728267709 1.0
-0.139675669909958 -0.0530696388728684 1.0
-0.122502202960873 -0.0680177403761583 1.0
-0.115904309041789 -0.0804110306600183 1.0
-0.100438172749163 -0.0917969854858931 1.0
-0.101616331002914 -0.103484789939124 1.0
-0.285293192980184 0.111842105263157 0.273243403010918
-0.276833942240479 0.111842105263157 0.274516576833628
-0.283680937919665 0.111842105263157 0.286667373942766
-0.279867474850846 0.111842105263157 0.297291576996728
-0.281610456325446 0.111842105263157 0.301929181891672
-0.276744379030199 0.111842105263157 0.313160685963684
-0.270294540837709 0.111842105263157 0.312031220177791
-0.281172889909577 0.111842105263157 0.327441660149744
-0.275437146295199 0.111842105263157 0.342590948925125
-0.272982931178538 0.111842105263157 0.342863982002264
-0.279832775736904 0.111842105263157 0.358896321369386
-0.28000337104237 0.111842105263157 0.37224913880126
-0.28444102397189 0.111842105263157 0.378548336169599
-0.281811946372731 0.111842105263157 0.387675268430653
-0.277638756990828 0.111842105263157 0.397325319114586
-0.27964267151789 0.111842105263157 0.400075515416833
-0.281540292308763 0.111842105263157 0.407160217708182
-0.27338191238851 0.111842105263157 0.412939495526404
-0.277574336716821 0.111842105263157 0.436010222676534
-0.281130830009692 0.111842105263157 0.438242562568101
-0.272378835966152 0.111842105263157 0.441850271770067
