ply
format ascii 1.0
element vertex 1079
property float x
property float y
property float z
end_header
0.375 -0.0631219376154032 0.458032555925602
0.375 -0.061543370322991 0.462373181833093
0.375 -0.06089965820638 0.475845993686171
0.375 -0.0623741242303285 0.478989590102468
0.375 -0.0574217299161282 0.491358150345851
0.375 -0.0657283458993596 0.498770398241459
0.375 -0.0624978578791243 0.500482867273806
0.375 -0.0578722988621215 0.517412309477295
0.375 -0.058820216263968 0.528939097874572
0.375 -0.0617588604283073 0.532923649325187
0.375 -0.061238110507836 0.542708323020626
0.375 -0.0611860098797193 0.551446205153147
0.375 -0.0641485187040654 0.562793242830422
0.375 -0.0593528343566185 0.571133354310511
0.375 -0.0570251373122161 0.573472920150629
0.375 -0.0583694362698821 0.585943601019059
0.375 -0.0571450677143132 0.594067706815746
0.375 -0.0569553418627803 0.605937558435268
0.375 -0.0639806323591677 0.617988264719573
0.375 -0.0586639949197183 0.617980385688574
0.375 -0.059175112418516 0.627085315801645
0.375 -0.0591558178011032 0.644258482165453
0.375 -0.063299397033346 0.64941799340736
0.375 -0.0625044678034722 0.656510588782914
0.375 -0.0630459294608852 0.661549515313374
0.375 -0.0614113919190914 0.672015572211449
0.375 -0.0599985575541128 0.680880241702913
0.375 -0.0637319704628463 0.685090967955336
0.375 -0.0596225836591524 0.701105144602464
0.375 -0.0614387674441292 0.707654081244806
0.375 -0.0636101792166351 0.721512922244074
0.375 -0.0627724677229258 0.725772591839962
0.375 -0.0611431024600739 0.736469107980395
0.375 -0.0598622831113401 0.741546615133154
0.375 -0.0602728348464021 0.752508092578676
0.375 -0.0646500868406662 0.755776553848456
0.375 -0.0623263301845367 0.769842280122794
0.375 -0.0646762546733904 0.784086963732646
0.375 -0.0598428981401274 0.790653565704388
0.375 -0.0634326660975742 0.797497746203269
0.375 -0.0604096437659764 0.801527181002941
0.375 -0.0591952057498294 0.815661121706172
0.375 -0.0612865416406519 0.818549903067424
0.375 -0.0606259152648891 0.831321856562151
0.375 -0.0615628804915295 0.834950007888089
0.375 -0.0609787043448964 0.848288755190552
0.375 -0.0592906436907845 0.858357239863596
0.375 -0.0647076178259969 0.868696847465576
0.375 -0.0630620662871389 0.872982353245702
0.375 -0.0612116379170891 0.878048200020297
0.375 -0.0608573032633468 0.888620472462428
0.375 -0.0571782673954489 0.899218677655023
0.375 -0.0575165516628127 0.912584745756307
0.375 -0.064524462498997 0.912274275191379
0.375 -0.0616796520924053 0.919858822423378
0.375 -0.0656467079201263 0.933937114533992
0.375 -0.0600126648219808 0.940706027848643
0.375 -0.0617931144352493 0.953092197118847
0.375 -0.0643464231761419 0.965138096307644
0.375 -0.0605401375149112 0.964190853498374
0.375 -0.0594244694228989 0.975448647401019
0.375 -0.0610813209020044 0.991612071033435
0.375 -0.0641728041891016 0.996077267173799
0.371207085764441 -0.0593154604443648 1.0
0.354443333054593 -0.0605263906522871 1.0
0.353579127688667 -0.0659923068442849 1.0
0.326785294067414 -0.0614333375296708 1.0
0.319135782143431 -0.0597674864435905 1.0
0.309420463754121 -0.0636326292145669 1.0
0.296100259545979 -0.0587691259528239 1.0
0.282617907163284 -0.0652978638138031 1.0
0.273650263361975 -0.0672447103279198 1.0
0.261239482926345 -0.0684730169556474 1.0
0.252820235216654 -0.0647478621140951 1.0
0.234215301723542 -0.060483810186589 1.0
0.225132198199328 -0.063642629465982 1.0
0.20734236893833 -0.0640946218926489 1.0
0.192512786671952 -0.0624729072299653 1.0
0.186814246235205 -0.0650445246841873 1.0
0.178998672807961 -0.0691169599220512 1.0
0.16055541799162 -0.0671717132220321 1.0
0.145480708462382 -0.0709553058808121 1.0
0.129870648529726 -0.0672671014214626 1.0
0.114517900560002 -0.069906399334617 1.0
0.0987565606707767 -0.0665855091263826 1.0
0.0871906765378898 -0.0636422797208656 1.0
0.0693833485850836 -0.0673620018915305 1.0
0.0514792904847918 -0.0696444089663404 1.0
0.0434507206956311 -0.069887094593133 1.0
0.0340852661677049 -0.0686317326396272 1.0
0.0182412174855959 -0.0689102825750892 1.0
-0.00127403287508271 -0.0679189391500337 1.0
-0.0166159091411516 -0.0733404797488215 1.0
-0.0361853761389566 -0.0703171987120778 1.0
-0.0524222693499708 -0.0677834729162153 1.0
-0.0643519034534857 -0.0710331628063113 1.0
-0.0847370350501371 -0.0735063516222152 1.0
-0.095417009140153 -0.0730532397984881 1.0
-0.109519255009367 -0.0712640717637196 1.0
-0.130789909417732 -0.0704925362298734 1.0
-0.144339940807562 -0.0750568220268458 1.0
-0.160895256807431 -0.0765757343564445 1.0
-0.17407170316425 -0.0779041185662923 1.0
-0.185022502458352 -0.0755716983190458 1.0
-0.22124450380227 -0.0796721492807731 1.0
-0.226458193986319 -0.078585479769032 1.0
-0.243203294288422 -0.0705736573480811 1.0
-0.261502962132842 -0.0730322509273582 1.0
-0.276563114436221 -0.076662777747821 1.0
-0.302545226823676 -0.0801780217105677 1.0
-0.316915623820641 -0.081438057063947 1.0
0.375 -0.055754239038394 0.364135939036597
0.375 -0.0502183342580013 0.370589065673658
0.375 -0.0540599627983627 0.383450311857596
0.375 -0.0564414551397581 0.390674184320438
0.375 -0.0481845230963729 0.396062497228379
0.375 -0.0489759523145868 0.410561691247686
0.375 -0.0506690410098811 0.421564417641658
0.375 -0.0536248015987058 0.430012973458776
0.375 -0.0550846070363723 0.431339456585036
0.375 -0.0497008379338596 0.44163207751151
0.375 -0.0532594976880844 0.448242840453203
0.375 -0.0495778493173881 0.460202358059609
0.375 -0.0524413088468958 0.467548649013794
0.375 -0.0486266093980601 0.483800480180156
0.375 -0.0492718355881497 0.49081633042938
0.375 -0.055273705506399 0.49689394597246
0.375 -0.0495386552561834 0.508611867311194
0.375 -0.0520037857510002 0.508431526345797
0.375 -0.0505031341749977 0.528199753263884
0.375 -0.0518837562408511 0.539380811586707
0.375 -0.055410956350197 0.538799362016852
0.375 -0.0502998416807159 0.546147120366081
0.375 -0.0482825509039443 0.559279273663928
0.375 -0.0518434843514766 0.564058718018787
0.375 -0.0526030527403971 0.573131119598334
0.375 -0.0511619057402416 0.586596628886769
0.375 -0.053450101631605 0.593681460683928
0.375 -0.0543264251129179 0.603366205116165
0.375 -0.0538573218585389 0.6058237926136
0.375 -0.0496790398223498 0.624231366213879
0.375 -0.0509466923150355 0.629430952056262
0.375 -0.052710120726884 0.629903443986008
0.375 -0.0509373193135501 0.65094855723965
0.375 -0.0567066569209726 0.653016252486948
0.375 -0.0545277374431666 0.66549773044167
0.375 -0.0489675982247422 0.676789336554983
0.375 -0.0556753030439299 0.680261758635225
0.375 -0.0510421489253683 0.685042153557245
0.375 -0.0529815704427152 0.695045042041686
0.375 -0.0520322417265764 0.708447799026827
0.375 -0.0550443208811721 0.714993071608107
0.375 -0.0518950678182793 0.728127596099559
0.375 -0.0494108904824191 0.73269454343483
0.375 -0.0542361176322187 0.743837970358415
0.375 -0.0540492504927806 0.746792672001843
0.375 -0.0564703540401341 0.763253849613978
0.375 -0.0510961985072439 0.767442534342544
0.375 -0.0505326272757885 0.776953334596852
0.375 -0.05164176346391 0.784590011287316
0.375 -0.0494844359648843 0.788518779776471
0.375 -0.0553148822674901 0.80189995411969
0.375 -0.0527910088915558 0.809863135506815
0.375 -0.0516697909010646 0.82075313512329
0.375 -0.0515754795807774 0.832710481352039
0.375 -0.0496665683894255 0.839543625345298
0.375 -0.0515759287105322 0.844002014930068
0.375 -0.0487285839966707 0.856641047489476
0.375 -0.050403155496713 0.859866346420692
0.375 -0.0542629096917888 0.873722616013953
0.375 -0.0486841260181386 0.881874581386968
0.375 -0.0498263530611095 0.887734204676803
0.375 -0.0485792705004173 0.900499662264328
0.375 -0.054341613281411 0.91031777711859
0.375 -0.0507101187976088 0.915310045890148
0.375 -0.0559238451043267 0.92130090862818
0.375 -0.0555626192958482 0.932303621837863
0.375 -0.0485892449521499 0.939043104177382
0.375 -0.0512463062222435 0.953305322832462
0.375 -0.0517715733159419 0.963105685947077
0.375 -0.0539360963985819 0.968766930344991
0.375 -0.0563850131099396 0.977421408090315
0.375 -0.0565352356893408 0.994578602370037
0.375 -0.0548359215291181 0.993418655914794
0.363665602795976 -0.0538745648901785 1.0
0.36062384115074 -0.0538088047294893 1.0
0.345760486601744 -0.0490333450090112 1.0
0.330005891767536 -0.0565584865462355 1.0
0.325870805746511 -0.0516884673032449 1.0
0.31191467095663 -0.0535113137658559 1.0
0.296400038446552 -0.0552785388715921 1.0
0.276537173079312 -0.0574752250102244 1.0
0.270126690559614 -0.058927472849462 1.0
0.2602601371592 -0.0574044563922045 1.0
0.245327454977729 -0.059621059494899 1.0
0.237715069204969 -0.0524512171929442 1.0
0.221329750390575 -0.0572782209895822 1.0
0.204725300419297 -0.0595569402134524 1.0
0.199738435208891 -0.053841599571208 1.0
0.187705021962078 -0.0604597669717864 1.0
0.171116983859913 -0.0576614748675165 1.0
0.159394686589056 -0.0530382803178883 1.0
0.144489750828086 -0.0607706692243426 1.0
0.129173420940518 -0.0608699150942718 1.0
0.10663092124596 -0.0537452120223681 1.0
0.0963597300734284 -0.0605381505888079 1.0
0.0927457422611546 -0.0581327835068886 1.0
0.0708034503214949 -0.0555435691307503 1.0
0.0519392093499169 -0.0544326765657255 1.0
0.0463843586115468 -0.0586508543701716 1.0
0.0307105443819954 -0.0640841296219122 1.0
0.0158605858008442 -0.0596721260654054 1.0
-0.00431542432554727 -0.058825204965381 1.0
-0.00923916248005924 -0.0619457005992499 1.0
-0.0290894011475152 -0.0639691170095727 1.0
-0.0393532770715584 -0.0630033421728608 1.0
-0.0556819115483474 -0.0648304618191587 1.0
-0.0795003763153722 -0.0598355752271168 1.0
-0.0915299527076057 -0.0580299290506262 1.0
-0.107786505381236 -0.0651335341068345 1.0
-0.130602207191597 -0.0600091392401143 1.0
-0.135889164734775 -0.0577421546198964 1.0
-0.1581602303569 -0.0608041034823653 1.0
-0.18242454353982 -0.0674442192045712 1.0
-0.195673692305151 -0.0603646348576532 1.0
-0.198064062937821 -0.0694294679739849 1.0
-0.23393200987818 -0.0614175115981902 1.0
-0.247293983206998 -0.0669559961791135 1.0
-0.252408757991753 -0.0602493906492892 1.0
-0.278493012853879 -0.0658834019937916 1.0
-0.30332314987834 -0.0612269761894403 1.0
-0.312430953740572 -0.0660892782760926 1.0
0.375 -0.0411188226370124 0.366446997752324
0.375 -0.0458001950044134 0.368356974696383
0.375 -0.0481891843869937 0.380140537623227
0.375 -0.0437927009555934 0.398472531133345
0.375 -0.0442429242376369 0.407954480153253
0.375 -0.0454952226837655 0.407659869999464
0.375 -0.0443131907853844 0.415006917078746
0.375 -0.0465329685955565 0.424945809218266
0.375 -0.0459919389773805 0.431366504245967
0.375 -0.0443272846351069 0.446842868472638
0.375 -0.0445907366322209 0.448225362264008
0.375 -0.0465848408664892 0.462550995411699
0.375 -0.0402979657440325 0.471998888790963
0.375 -0.0440879068643409 0.477756919749679
0.375 -0.0478072100959606 0.487163383034865
0.375 -0.0408987749293814 0.496926762063237
0.375 -0.0468884814275801 0.507305432573256
0.375 -0.0422423201276427 0.513454085394487
0.375 -0.0452917125385535 0.519694027034084
0.375 -0.0428806462124449 0.52800569222808
0.375 -0.0437475445629365 0.54129303227418
0.375 -0.0460593966955773 0.556474747575788
0.375 -0.0471649820914301 0.55508851230692
0.375 -0.0450646475591334 0.567951916943536
0.375 -0.0462154215555944 0.581921529070497
0.375 -0.0419374409353188 0.585439919160312
0.375 -0.0406612933215549 0.601141144489421
0.375 -0.0407895329179649 0.604335128279747
0.375 -0.0429434417248166 0.609051013518093
0.375 -0.0455700099595157 0.620484801752767
0.375 -0.0408838204632284 0.632588750916413
0.375 -0.0401289983254282 0.635727419876023
0.375 -0.0467543447921343 0.643164355053113
0.375 -0.043809605088208 0.653165638964699
0.375 -0.044659186138521 0.664759178821432
0.375 -0.0449694151246965 0.676120807566924
0.375 -0.0405242319442821 0.686125950193381
0.375 -0.0446928403103966 0.690817873160607
0.375 -0.047384129050357 0.695251242497486
0.375 -0.0407972806307401 0.703146140284203
0.375 -0.0396583903608948 0.715420203151987
0.375 -0.0394862579069281 0.726538567486883
0.375 -0.0447163695033149 0.7338578793788
0.375 -0.0406049061866284 0.736462819537896
0.375 -0.0440569672258665 0.748181974195173
0.375 -0.0479822755038795 0.756774583759604
0.375 -0.0438098551086822 0.77132400637168
0.375 -0.0481440684566242 0.773380325079061
0.375 -0.0472318524759643 0.785059973982525
0.375 -0.0423295934171696 0.799136862129104
0.375 -0.0423604457930961 0.804095935012164
0.375 -0.0412065486789877 0.811877941363108
0.375 -0.0414586612840256 0.824242917316845
0.375 -0.0454535474024187 0.831658925147199
0.375 -0.0419708863671573 0.837460368602658
0.375 -0.0481235710041625 0.849767309305463
0.375 -0.0465272718927488 0.856491087155611
0.375 -0.0438052035046803 0.859608233196451
0.375 -0.0448682308903982 0.879318822675092
0.375 -0.0434045220922415 0.884303089322896
0.375 -0.0417974207127464 0.888880704262168
0.375 -0.0443828274130881 0.898220977812746
0.375 -0.0467860519993287 0.908982144110093
0.375 -0.0416623830176018 0.911330655614258
0.375 -0.0445815521748946 0.923209183538154
0.375 -0.039550200135264 0.936141784524653
0.375 -0.0396848651725024 0.946254997839354
0.375 -0.0394062719258297 0.946917368978891
0.375 -0.0395565231407725 0.960684288928188
0.375 -0.0408204980609682 0.963920399647956
0.375 -0.043413075962327 0.982007441442547
0.375 -0.0457571861742103 0.984277964527308
0.375 -0.0400525819603146 0.996347340758287
0.364932288579775 -0.0463709627177737 1.0
0.360662864935949 -0.0480282262089573 1.0
0.34229096063313 -0.0404655109930287 1.0
0.336854018145086 -0.0483137295761463 1.0
0.313402934129258 -0.0464208540438358 1.0
0.316057219357046 -0.044386106112103 1.0
0.305090191063636 -0.048213021797795 1.0
0.286346233853538 -0.0439024652174997 1.0
0.275590458304534 -0.0442314191415978 1.0
0.256681302204655 -0.0430378430894005 1.0
0.249532734960182 -0.048135730993493 1.0
0.233525498979666 -0.0480972345647762 1.0
0.221849115852039 -0.0493682289354436 1.0
0.20898376448368 -0.0482628242317041 1.0
0.197610917668628 -0.0468960621666475 1.0
0.180185826119279 -0.0491948514221262 1.0
0.165254407020847 -0.0470182108220321 1.0
0.163818442387651 -0.0479243392018206 1.0
0.145396209857358 -0.0500142484205905 1.0
0.126932782265334 -0.0439412784507193 1.0
0.114762120114426 -0.0485018883910971 1.0
0.102282684694028 -0.0524598589503237 1.0
0.088967757603811 -0.04734567580464 1.0
0.0687515260029281 -0.0498280304677578 1.0
0.061226840199799 -0.0473285013070422 1.0
0.0476681607274094 -0.0477104621205354 1.0
0.0339704049179463 -0.050996008563472 1.0
0.0106949023888271 -0.0478956823143635 1.0
0.000948077078342491 -0.0455712416566299 1.0
-0.0068297458669338 -0.0522369357157323 1.0
-0.032750221619907 -0.0541560998894161 1.0
-0.0379396850385799 -0.0549640798967794 1.0
-0.066645757917911 -0.0532496611785209 1.0
-0.0729643806773988 -0.0464915096725887 1.0
-0.0928664527951187 -0.0472715938070582 1.0
-0.10267751671457 -0.0559069476543801 1.0
-0.119168613130439 -0.0572561715497523 1.0
-0.149249561008741 -0.0513231148901014 1.0
-0.163375943726643 -0.0530108802666214 1.0
-0.18134800515859 -0.0557307754003254 1.0
-0.190818131819642 -0.0578997783002664 1.0
-0.208851986916762 -0.0496686363593508 1.0
-0.22505743571193 -0.0526919662705458 1.0
-0.256320467786501 -0.0520967141376358 1.0
-0.259696923155792 -0.0501752612291265 1.0
-0.282528930595971 -0.0590315985198099 1.0
-0.286970095733223 -0.0533298379479929 1.0
-0.317208549568317 -0.0506056510127079 1.0
0.375 -0.0387287129670539 0.372878394389069
0.375 -0.0325251225962667 0.367196123985183
0.375 -0.0386200548731281 0.388713579935276
0.375 -0.0344159375828382 0.393959978173989
0.375 -0.0372424124677661 0.401899175512953
0.375 -0.0356158287708881 0.406788099868247
0.375 -0.0394448245674608 0.420477114148412
0.375 -0.0332420003668757 0.42949703920076
0.375 -0.0324589567504167 0.438296330012551
0.375 -0.0317773583606356 0.445108549145657
0.375 -0.0339195771787845 0.456353197734115
0.375 -0.0393558642198563 0.461727153062565
0.375 -0.0327169955192898 0.46657263111245
0.375 -0.0308122561917914 0.481163335176842
0.375 -0.036198574482791 0.491554192401678
0.375 -0.0376277928256947 0.498630886870497
0.375 -0.0383592379327455 0.508680550699494
0.375 -0.0338003223859541 0.507865908732728
0.375 -0.0376714099462435 0.526987469832857
0.375 -0.0387055467097386 0.534092521429109
0.375 -0.0341209472463275 0.546232211780204
0.375 -0.0326294716461805 0.544543884595435
0.375 -0.035036711235606 0.560959050579126
0.375 -0.0332664140538986 0.567400057888587
0.375 -0.0320993860558307 0.580080698378461
0.375 -0.0387875467372609 0.584635657809953
0.375 -0.0360844416929513 0.587317858112509
0.375 -0.0324953393606426 0.606016369575018
0.375 -0.0349887942167455 0.609550411739044
0.375 -0.0325326417575539 0.621041605879333
0.375 -0.0379498041924441 0.629767776454952
0.375 -0.0316411189664912 0.634814421527853
0.375 -0.0316046249278149 0.64897378901921
0.375 -0.0362063549396315 0.656741820354368
0.375 -0.0389423501275536 0.665811719688485
0.375 -0.0312397827543113 0.67329023954601
0.375 -0.036233785713997 0.683284681400922
0.375 -0.0391526583717193 0.690285513213618
0.375 -0.0320535166768016 0.700949415942839
0.375 -0.0318281101387687 0.712089351854921
0.375 -0.0372573689773979 0.716847280242729
0.375 -0.0312153750574623 0.724016599492817
0.375 -0.0353071715154567 0.728909707819358
0.375 -0.0381348638601673 0.745441336847175
0.375 -0.0323445753473253 0.750977636753837
0.375 -0.0353987655832032 0.756636958026684
0.375 -0.0385152125475567 0.767608978458961
0.375 -0.0347849759328884 0.777808808642338
0.375 -0.0380279211748293 0.789225894366807
0.375 -0.0329835080262814 0.794972628738454
0.375 -0.0329260464485068 0.803635239488607
0.375 -0.0324078741986508 0.806652992601299
0.375 -0.0313781844045498 0.821171275043484
0.375 -0.034018508513438 0.828312284485526
0.375 -0.038520320414003 0.835863509402136
0.375 -0.0329222271106696 0.850139963649615
0.375 -0.039161661388032 0.856684002744843
0.375 -0.0306503147112465 0.862986029297103
0.375 -0.0391372449605868 0.872518790060444
0.375 -0.0352044743777396 0.886441618810545
0.375 -0.0317207272441143 0.886894918723626
0.375 -0.0321634770434631 0.896374442745321
0.375 -0.0343592217451925 0.911467378840364
0.375 -0.0365053770303078 0.914155909656938
0.375 -0.0306001449567746 0.926704047013871
0.375 -0.0352242851372188 0.933991628514423
0.375 -0.0315748648844744 0.951353417016445
0.375 -0.0360042620830607 0.950273985527394
0.375 -0.0348082433204981 0.962636441902101
0.375 -0.0364817905996528 0.972460930725892
0.375 -0.0327017406580525 0.972216858741541
0.375 -0.0390782307911578 0.987302411298848
0.375 -0.0383965664180523 0.993078338395073
0.362408087153361 -0.0336846736653638 1.0
0.354363748623659 -0.0321916956335533 1.0
0.348421787046004 -0.0396428239310604 1.0
0.33840696431848 -0.037441752958404 1.0
0.323509906486471 -0.0319700465169792 1.0
0.310754243019552 -0.0330489852956542 1.0
0.303745567057255 -0.0394203662984713 1.0
0.279944700584939 -0.0360728931431178 1.0
0.268645445300552 -0.03715368048284 1.0
0.262964949835441 -0.0354514058568089 1.0
0.241923437774629 -0.0374347956182026 1.0
0.241200556382396 -0.0324184192031097 1.0
0.228793276136916 -0.0342831396321194 1.0
0.213598699993263 -0.0335146370165008 1.0
0.201663338662209 -0.0353748499953944 1.0
0.189484275492733 -0.0380982378720611 1.0
0.168107292085 -0.0418579891604049 1.0
0.159949457130105 -0.0354799851601922 1.0
0.146463828149224 -0.037655495957871 1.0
0.13156624768758 -0.0404339343795473 1.0
0.115901320949529 -0.0358607558596157 1.0
0.111222491393174 -0.0376148177861703 1.0
0.088225787488152 -0.0379542066682743 1.0
0.0728180740970869 -0.037762680098195 1.0
0.0517875202597437 -0.0441421731104495 1.0
0.0461524899913641 -0.0401970173676588 1.0
0.0208788312822374 -0.0437648386161953 1.0
0.0130684188672489 -0.0433425210546383 1.0
0.000574019587848917 -0.0377441538178943 1.0
-0.0175991176107089 -0.0390611268913015 1.0
-0.0259519757110583 -0.0422245092873375 1.0
-0.0504263098219875 -0.035536029736392 1.0
-0.0579541357897103 -0.0455205396000222 1.0
-0.0764173396511887 -0.0432172812874092 1.0
-0.0904903119305872 -0.0422832295403117 1.0
-0.105085475976043 -0.0368684547751902 1.0
-0.129308602571196 -0.0457856339224478 1.0
-0.141529813151742 -0.0371907996998737 1.0
-0.15759519324877 -0.0408329873114852 1.0
-0.170293056580944 -0.0422941668365562 1.0
-0.189243488160816 -0.040529500036646 1.0
-0.208955624459313 -0.0479182675535553 1.0
-0.230693150951845 -0.0398853363380129 1.0
-0.244327148512911 -0.0385120516939802 1.0
-0.26517864277805 -0.0439028265851064 1.0
-0.274197841154244 -0.0428077643054161 1.0
-0.302577570146321 -0.0402167726798695 1.0
-0.308600299759827 -0.0423360473312177 1.0
0.375 -0.0303281592021102 0.362210689312714
0.375 -0.0222402189995415 0.371223158310726
0.375 -0.0221866536367371 0.379519353834225
0.375 -0.0284259149018528 0.393178265394071
0.375 -0.0259541205112622 0.403482579202646
0.375 -0.0255020592741778 0.404868544662603
0.375 -0.0286825757389645 0.425086683320399
0.375 -0.0242711841542488 0.429439893425501
0.375 -0.0301256751506629 0.434923118740953
0.375 -0.0293943877967655 0.443988558323126
0.375 -0.029038931517842 0.458969750169695
0.375 -0.0223675692240067 0.458277036338452
0.375 -0.0304492723047907 0.47489425349635
0.375 -0.0228970488657311 0.483924676706658
0.375 -0.0258922454102611 0.485617175153107
0.375 -0.0275555630804321 0.502358363521695
0.375 -0.0254287746381423 0.503275500440223
0.375 -0.026436696274247 0.51604517452907
0.375 -0.0303763161335022 0.524766567822025
0.375 -0.029824532372856 0.535991490462373
0.375 -0.0235419467895467 0.545908451070152
0.375 -0.0259001463978325 0.54984097563535
0.375 -0.0302152188103751 0.55801480918408
0.375 -0.0253641731600228 0.566551240908226
0.375 -0.026005007700629 0.57626894256622
0.375 -0.0231006239968763 0.584610915320376
0.375 -0.0227772431860019 0.600440058871397
0.375 -0.0240917477166108 0.605887819285659
0.375 -0.0301931968198796 0.611706882405514
0.375 -0.0250848366815816 0.616998956416072
0.375 -0.0292977644755395 0.632255215852871
0.375 -0.028573803830614 0.63541400446608
0.375 -0.0248266431897477 0.644278627027752
0.375 -0.026737310744795 0.653330751251076
0.375 -0.0298991640647621 0.668682604745565
0.375 -0.0260066139805148 0.672611529321461
0.375 -0.0237368512689465 0.686960894082756
0.375 -0.024877380157411 0.686194353936851
0.375 -0.0234314970330519 0.701734506257914
0.375 -0.0290009801814405 0.706092108425447
0.375 -0.025853794039532 0.723778303835734
0.375 -0.0273113704199606 0.725223906197363
0.375 -0.0258894665311223 0.730221656313479
0.375 -0.0288514418299011 0.737297400989027
0.375 -0.0300926304228323 0.74639622240814
0.375 -0.0227313325249004 0.760652895173281
0.375 -0.0233626119859243 0.767555742644037
0.375 -0.0281725943337492 0.781632861597876
0.375 -0.0306116540101562 0.781308872238369
0.375 -0.0298895392916582 0.789371158367641
0.375 -0.0235763181709491 0.802299304301376
0.375 -0.0265763492292547 0.815341309224747
0.375 -0.0220427924611383 0.816897000342496
0.375 -0.0241501739462283 0.834524855809929
0.375 -0.0230978434242852 0.843936947796311
0.375 -0.0230288023290541 0.849833379640654
0.375 -0.0294525265203352 0.851255731988374
0.375 -0.0228948037970938 0.862684101638634
0.375 -0.0300964869554085 0.879381285324446
0.375 -0.0218444071928477 0.879945245796645
0.375 -0.0262995632503486 0.895017819246134
0.375 -0.0244084383815233 0.8963104047246
0.375 -0.0268265343130518 0.910830666308811
0.375 -0.0276210825636551 0.915766515584009
0.375 -0.0302456722338242 0.928453846310283
0.375 -0.0262907771969262 0.938895051111229
0.375 -0.0218258587306268 0.948614925899587
0.375 -0.0304917515176588 0.948317480960799
0.375 -0.0282653332563604 0.962090239412657
0.375 -0.0256388510230551 0.972166257815606
0.375 -0.024825437531437 0.979239441745916
0.375 -0.0306737149622554 0.983070708735872
0.375 -0.0246653093011244 0.996573083772692
0.3622726546042 -0.0288644903037401 1.0
0.360064475617937 -0.0228673337937466 1.0
0.342925603497539 -0.0225193179072838 1.0
0.337264242461344 -0.0260975229324055 1.0
0.311873553355717 -0.0282392307052481 1.0
0.316789366294496 -0.030731121016291 1.0
0.302859714430821 -0.0266631113978433 1.0
0.285268316022325 -0.0278782542148491 1.0
0.273887684557617 -0.0237055445280653 1.0
0.265198401022455 -0.0255068451157601 1.0
0.244008651930926 -0.0242487946682654 1.0
0.230585858237551 -0.0253790335448349 1.0
0.224281659882455 -0.0298950425268524 1.0
0.204432259767095 -0.0325576432475308 1.0
0.192073808940924 -0.0295919329674863 1.0
0.191561769748835 -0.0245226094339579 1.0
0.161261601844695 -0.0237891215643278 1.0
0.158106080424063 -0.026313631555454 1.0
0.151078321493133 -0.0255407439280828 1.0
0.127553519577924 -0.0307372792143586 1.0
0.112014539200028 -0.0290019090520965 1.0
0.100638183249885 -0.0269229009847686 1.0
0.0829474334321775 -0.0291448774742422 1.0
0.0658901820020294 -0.0265111473060739 1.0
0.0524991285961933 -0.0335907073110435 1.0
0.0441437157394828 -0.0335535629791324 1.0
0.0315425676117948 -0.032511719884402 1.0
0.0219842019329994 -0.0312655290340647 1.0
-0.00637881894177555 -0.0310840733545255 1.0
-0.0237483181191887 -0.0299222027318325 1.0
-0.0286453591754357 -0.031505009953391 1.0
-0.0505345247056158 -0.0331500454510903 1.0
-0.0497449043731884 -0.0317430827569265 1.0
-0.0826562937914677 -0.0300819549996258 1.0
-0.0935972404369148 -0.0331607395418838 1.0
-0.107566569496876 -0.0349028497605814 1.0
-0.124520803860019 -0.0362738465172281 1.0
-0.136801188394513 -0.0288276659548325 1.0
-0.157248773370582 -0.031836122665999 1.0
-0.176363571694945 -0.0367002638263227 1.0
-0.19104916373036 -0.0330652538251145 1.0
-0.205976385954023 -0.0342126183717998 1.0
-0.215377938883009 -0.0374297533709294 1.0
-0.246106360914577 -0.0362813849038744 1.0
-0.263600966836916 -0.0348818107039043 1.0
-0.273262162061946 -0.0318302656587724 1.0
-0.291720256253229 -0.030743203260501 1.0
-0.320125620651274 -0.0384062594381678 1.0
0.375 -0.0180200411625811 0.369358462170249
0.375 -0.0206352559974259 0.376542380435656
0.375 -0.0208392952842851 0.382347380874457
0.375 -0.0202685702848376 0.390704611385985
0.375 -0.0216304289890314 0.402780909245481
0.375 -0.0156897795234087 0.410769518755003
0.375 -0.0198419865652841 0.419753339100211
0.375 -0.0149314528671795 0.432505593629066
0.375 -0.0188943448327882 0.430309559471764
0.375 -0.0176928883984591 0.440234530293363
0.375 -0.0151731322223648 0.448560097929926
0.375 -0.0153493725365949 0.457006264109069
0.375 -0.0179929078291644 0.472952461773642
0.375 -0.0212468354793924 0.472890752560714
0.375 -0.0137314856026176 0.488780122973119
0.375 -0.0210450125366919 0.500802266452601
0.375 -0.0141707204941788 0.504505101497426
0.375 -0.0167766949024425 0.51617101459496
0.375 -0.0168693100526313 0.526509353017303
0.375 -0.0189143048172548 0.53326037676664
0.375 -0.0181019895194872 0.545397133961301
0.375 -0.013775732455994 0.556265554388341
0.375 -0.0202851585342021 0.558648902792659
0.375 -0.0160375166478609 0.571607833099978
0.375 -0.01612472133329 0.572274236746284
0.375 -0.0151000784481037 0.589769909331452
0.375 -0.0141642128624772 0.592402702500306
0.375 -0.0180983625599868 0.595918296769084
0.375 -0.0210138427455809 0.609559221186855
0.375 -0.0161542784502873 0.623188897159397
0.375 -0.0155606859382639 0.629515619292652
0.375 -0.0171824855046293 0.635995057401532
0.375 -0.0214580707180346 0.641740782142469
0.375 -0.0215870387172255 0.657821838682592
0.375 -0.0208467867530536 0.662329402265858
0.375 -0.0145975714628361 0.677154132913142
0.375 -0.0199519585101073 0.679898768482542
0.375 -0.0205788757252493 0.689337110460384
0.375 -0.0173531834175137 0.703538473161117
0.375 -0.0162574570392754 0.706367059233762
0.375 -0.0213177611668046 0.71615225415264
0.375 -0.0207568558924065 0.721225930209718
0.375 -0.0214578183062429 0.731918261425829
0.375 -0.0212688754312134 0.740311831504375
0.375 -0.0184779953917477 0.754455788508039
0.375 -0.0212125432360395 0.754755277239015
0.375 -0.0137670420343014 0.765344013640539
0.375 -0.0136071309536598 0.783464976520148
0.375 -0.0199205345504493 0.78854955787817
0.375 -0.0196107285957323 0.797046801209729
0.375 -0.0137532672574906 0.803377123719852
0.375 -0.0142411078160996 0.810358874192544
0.375 -0.021227347889769 0.817210029635093
0.375 -0.0206749902410429 0.833343996131581
0.375 -0.0209608114524671 0.840260019894964
0.375 -0.0188916193417238 0.851267869422745
0.375 -0.0144684245272812 0.856055783078266
0.375 -0.0175638096006082 0.864077854464444
0.375 -0.0141802421221603 0.870568545104004
0.375 -0.0165599529583133 0.877548043363766
0.375 -0.0214805912107515 0.894350410370531
0.375 -0.0156604024102463 0.899523353067643
0.375 -0.0186158027592486 0.910814845559598
0.375 -0.0132024037974762 0.912980257967483
0.375 -0.0196964697432082 0.931677094059012
0.375 -0.015813133025264 0.932405702197126
0.375 -0.0212780091111778 0.948510087209642
0.375 -0.0158973819686088 0.954024061693752
0.375 -0.014562503609889 0.958238174157824
0.375 -0.0131783843363146 0.973663615453245
0.375 -0.0196261623200082 0.984745567573437
0.375 -0.0178356287292214 0.988285074425999
0.375 -0.0134510612345227 0.999636551360013
0.365176321639404 -0.021459057017124 1.0
0.36412990439141 -0.0137868304459995 1.0
0.343728644209507 -0.0189455004790898 1.0
0.331403212835312 -0.0180289310605926 1.0
0.325662163640759 -0.0138981375061701 1.0
0.310662743696924 -0.0155315127680964 1.0
0.298078191681247 -0.0216602564160253 1.0
0.28938753699612 -0.0139566456914477 1.0
0.268941821332948 -0.0181610860060134 1.0
0.266803723547544 -0.0170344456106537 1.0
0.249915596693098 -0.0181976118357677 1.0
0.237969001339418 -0.0212049053853098 1.0
0.216197271522977 -0.0223477040535202 1.0
0.206967399566385 -0.017157573558457 1.0
0.193817445936195 -0.0161668337190345 1.0
0.186001572009906 -0.0188365425692332 1.0
0.168705667846286 -0.0205974938681792 1.0
0.15462703964202 -0.0230521914257255 1.0
0.139088884171433 -0.0177703834158218 1.0
0.128072142326862 -0.0198578582436778 1.0
0.112282051074634 -0.0173387638598743 1.0
0.103677933094973 -0.0172374478466786 1.0
0.0802209784720071 -0.0185957101457062 1.0
0.0753622477518711 -0.0180213519160615 1.0
0.0573448897859201 -0.0159278117101757 1.0
0.0455628415767175 -0.0241842256894183 1.0
0.0331497698559379 -0.0239441224168356 1.0
0.0106355337284411 -0.0160709735191352 1.0
0.010905169966151 -0.0214090371468765 1.0
-0.0185676173493659 -0.0203273399617608 1.0
-0.02496012567843 -0.0252089381710302 1.0
-0.0545349139064003 -0.0161515400333826 1.0
-0.0701242032772771 -0.0229239321880706 1.0
-0.0773795258018999 -0.0214575488704938 1.0
-0.0939166190481875 -0.0223939014278879 1.0
-0.119280150073568 -0.0156756280418389 1.0
-0.123343875058422 -0.0167318376116972 1.0
-0.141636742896913 -0.0182337966254091 1.0
-0.154838218718444 -0.0215559573789799 1.0
-0.172693460651859 -0.0196381674001542 1.0
-0.185455247388074 -0.0246476604520602 1.0
-0.204387597902011 -0.0183069426957224 1.0
-0.221694127792852 -0.0179177712710515 1.0
-0.246610453927906 -0.0250426263082532 1.0
-0.261110825214768 -0.0224622259165302 1.0
-0.281537209595678 -0.0252175855177544 1.0
-0.292427253622534 -0.0174539423024143 1.0
-0.307123223648454 -0.0226814178387886 1.0
0.375 -0.00772133714280079 0.36697146149988
0.375 -0.00788526390108713 0.379726259835353
0.375 -0.00601910093941521 0.379141001004005
0.375 -0.0111968180595208 0.384946515062609
0.375 -0.00737728378735117 0.400290550650567
0.375 -0.0079575334847948 0.413321803414532
0.375 -0.0047466303365509 0.421059532003593
0.375 -0.00983154006159706 0.427934355556042
0.375 -0.00984496670911605 0.437347615614243
0.375 -0.0131195434916911 0.44819749811259
0.375 -0.00891399515849964 0.456194239416324
0.375 -0.00875761246560303 0.461843621153774
0.375 -0.0114111687830989 0.470140793986715
0.375 -0.010112228913491 0.472223457918077
0.375 -0.00911449309557949 0.486654442485931
0.375 -0.0110874436524176 0.496876949446862
0.375 -0.012168426849431 0.506720437134255
0.375 -0.0119703740283597 0.51251523111559
0.375 -0.0076371056777163 0.516455375116043
0.375 -0.00515719989414432 0.535173409522541
0.375 -0.0111081633637002 0.537752315957881
0.375 -0.00887233727285419 0.549403206791593
0.375 -0.00740792786778585 0.563370342451972
0.375 -0.0074380146425537 0.575001244629326
0.375 -0.0129494715790387 0.579397220598794
0.375 -0.00714117503268907 0.589572936475089
0.375 -0.0117220066610914 0.600550938194628
0.375 -0.00775509889665727 0.598652821329674
0.375 -0.00609106322149733 0.611205399046048
0.375 -0.0121986141501216 0.627930219436643
0.375 -0.0129837304746774 0.62528362844736
0.375 -0.00493461784999241 0.638508094409305
0.375 -0.00588173364256223 0.647734390346445
0.375 -0.00558897659037691 0.653677838207003
0.375 -0.0088167307488026 0.668592646446308
0.375 -0.00679859333947105 0.671398399752749
0.375 -0.00953003387673806 0.685287738887093
0.375 -0.010154972206533 0.690669450130335
0.375 -0.00499099894754326 0.695072291953597
0.375 -0.00702773433972115 0.709489750211935
0.375 -0.0104422420160259 0.713220318237063
0.375 -0.0124132733103916 0.721403326161447
0.375 -0.00960802000147895 0.73039446005365
0.375 -0.00450700928595679 0.741696879412798
0.375 -0.011562902779348 0.757527958624243
0.375 -0.0119473034908658 0.758792368007831
0.375 -0.00720348389530512 0.763217141791144
0.375 -0.00982260662393006 0.772718466290902
0.375 -0.00460053364147969 0.790901957636158
0.375 -0.0131297753257831 0.791318701265545
0.375 -0.0112532304000239 0.80233618221368
0.375 -0.0113395527342712 0.818403649519775
0.375 -0.0113220724621773 0.818041869367603
0.375 -0.00554117915316879 0.828677352349154
0.375 -0.012888945393372 0.838135957457926
0.375 -0.00479269721691583 0.849737283546903
0.375 -0.00456474104663965 0.857649466271294
0.375 -0.00656682751867679 0.865635181746645
0.375 -0.0048783263216686 0.875794954372644
0.375 -0.00918050953920296 0.883880585472768
0.375 -0.0048942782052192 0.887031637556783
0.375 -0.00959772569971598 0.896527348000336
0.375 -0.0101400530553643 0.904286529581811
0.375 -0.00769036332863254 0.921553062413218
0.375 -0.00441712951420897 0.928635702051528
0.375 -0.00815322857824802 0.93984908341324
0.375 -0.00463825421731154 0.941740660659716
0.375 -0.00612873780500145 0.948711663359989
0.375 -0.0125494693613952 0.954124569058769
0.375 -0.0121389502211564 0.971751815998959
0.375 -0.0127871403041461 0.976728860757855
0.375 -0.0110327409226673 0.98554507805619
0.375 -0.00783206333205558 0.997785835056333
0.369821523120035 -0.00804674533984776 1.0
0.357297777777573 -0.00732522608302438 1.0
0.343338683335307 -0.00520062369341484 1.0
0.334745038443024 -0.0106076511355686 1.0
0.320878611551441 -0.00894822210993812 1.0
0.309800317234475 -0.0125993905618657 1.0
0.297996848504579 -0.0100602993945091 1.0
0.288340797644888 -0.0052312518305673 1.0
0.276527917238875 -0.0072931116733729 1.0
0.263997904931845 -0.0134791835269355 1.0
0.247894795781378 -0.00712570346140687 1.0
0.238793502979759 -0.0126899220334201 1.0
0.224881966993569 -0.00891754341153816 1.0
0.215278252340933 -0.0135114491621073 1.0
0.199906831437139 -0.00695342224358775 1.0
0.181192668186921 -0.012326460278312 1.0
0.161230720517741 -0.0101866961789055 1.0
0.162731194456901 -0.0110584824477329 1.0
0.147432661062 -0.0106332684497366 1.0
0.124982999948297 -0.00495638114196503 1.0
0.11933652593992 -0.0117897971561045 1.0
0.0945636602387418 -0.00800709473358002 1.0
0.0920888518281843 -0.00534903184853466 1.0
0.0774742822819605 -0.0146486579341928 1.0
0.058154099970848 -0.00582352884777734 1.0
0.0462086835709549 -0.0138416985880785 1.0
0.0312644615127903 -0.0109414800138008 1.0
0.0171840741636972 -0.00701304062422581 1.0
0.00183808032672855 -0.0108857433738135 1.0
-0.0159325418634074 -0.00569149755015949 1.0
-0.0244973973975942 -0.0111525341654481 1.0
-0.0376852979759695 -0.00720054288367972 1.0
-0.0626924379348731 -0.0100846794055282 1.0
-0.0739371281538369 -0.0107248643029362 1.0
-0.101305035047285 -0.00725175384496188 1.0
-0.11546459946518 -0.013777801285231 1.0
-0.125817271486046 -0.00988490590652025 1.0
-0.14967824038109 -0.00937274010345032 1.0
-0.14987492149662 -0.00656553539005508 1.0
-0.177732014881538 -0.00566003726802941 1.0
-0.19845991888869 -0.0152022057946884 1.0
-0.220174943869915 -0.0102315244930835 1.0
-0.231828889179438 -0.0129234759257558 1.0
-0.24089897309511 -0.00612886480463515 1.0
-0.263859005814924 -0.00717548140152255 1.0
-0.286915707836359 -0.011600460091193 1.0
-0.295074198138881 -0.00761755276868034 1.0
-0.308347255308867 -0.0117386804319597 1.0
0.375 -0.00086266416703612 0.373010618609057
0.375 -0.00158722380412157 0.379346223570959
0.375 0.00147629587023523 0.381787149777945
0.375 -0.00122143966998106 0.390543610420473
0.375 -0.00434472291717225 0.396213386853964
0.375 -0.00331229509302386 0.409068882972491
0.375 0.00269747052766618 0.423475115067882
0.375 0.00228324481737875 0.428615030472135
0.375 -0.000721119468375525 0.437710429737778
0.375 0.00362578032734834 0.445696635629981
0.375 -0.00173431547714697 0.456041240212255
0.375 0.00229632314134937 0.460204537571777
0.375 0.000130705929651698 0.475220075540927
0.375 0.00404521894582288 0.484608958102083
0.375 -0.000250094519241878 0.483215058216215
0.375 0.00248419216154919 0.49914852591675
0.375 0.000248519541574732 0.511347402068632
0.375 0.000609023164146363 0.518251419083554
0.375 0.000431670240660834 0.519700167706714
0.375 -0.00336638174445833 0.539491385411269
0.375 -0.00182475217669051 0.54588313689584
0.375 -0.00221499141289225 0.553997401069295
0.375 0.000650443853093041 0.554299086566679
0.375 0.00263495584327146 0.565324383456391
0.375 0.000859297827956324 0.575359568192681
0.375 0.0018418751344948 0.588318362066614
0.375 -0.00384418363402905 0.594291661580208
0.375 -0.000454721095259153 0.603845950758569
0.375 0.00409707964546355 0.614694736777659
0.375 -0.00112444924905999 0.618785357585395
0.375 0.00433237534773973 0.628599510079197
0.375 0.00385140605944224 0.643005814518929
0.375 0.00171938970885292 0.650524305715685
0.375 -0.00288190863849799 0.657534278038614
0.375 -0.00374928605467251 0.668806369030809
0.375 -0.0043580138308327 0.677111822851498
0.375 0.002650169123965 0.680458643653702
0.375 -0.001804268757406 0.684007691442675
0.375 0.00159374059089339 0.700671715160462
0.375 -0.00388648764169761 0.702966517234176
0.375 -0.00404521236252836 0.712454987226912
0.375 -0.000889418389528746 0.720542412915372
0.375 0.00435645620520912 0.735749108636316
0.375 -0.00307647892131085 0.739388818467546
0.375 -0.00425043951142173 0.751621732250683
0.375 -0.000269627884034812 0.753860872667136
0.375 -0.00287065945251977 0.775437357913234
0.375 -0.00175841964017814 0.777632743965529
0.375 -0.00201552121428239 0.785170936665691
0.375 -0.00257775253494247 0.796125509091648
0.375 -0.00435569527916982 0.808930337465523
0.375 -0.00053133570640565 0.817916277441941
0.375 0.00263767904849148 0.82405554264711
0.375 -0.00388169542695443 0.831487225612044
0.375 0.00177239285688993 0.841308773242084
0.375 0.00169106839910713 0.841507975038923
0.375 -0.00391784682544791 0.852252633548992
0.375 0.00327687278988342 0.866374502150772
0.375 0.00364608035395274 0.872476307336914
0.375 -0.00315700371830036 0.879871507363712
0.375 0.0028524217972212 0.893966136457658
0.375 -0.00216859669110656 0.902211790871101
0.375 0.00149180503858669 0.902156993148059
0.375 0.00316706204743612 0.919430787551853
0.375 -0.00106550951180215 0.925321201228628
0.375 0.00140343382713273 0.931430576219514
0.375 0.00427371377631142 0.943979557109578
0.375 -0.00306008902448515 0.949859974504897
0.375 -0.00310006112807268 0.959208091293213
0.375 -0.00386736122562153 0.975673551294934
0.375 0.000525979297840817 0.97562114284549
0.375 0.000798829018295283 0.990616143241613
0.375 0.000287306768612355 0.993628309429
0.374547167416175 0.00100488088706657 1.0
0.350745412189133 0.00213333049271609 1.0
0.34451580270561 0.0042481050933026 1.0
0.333659112485105 0.00347036090845698 1.0
0.315911602217878 -0.00242478307287386 1.0
0.310343960514154 0.000390510434086944 1.0
0.297257525958296 -0.00390063153497208 1.0
0.290235836929648 -0.00176892541902923 1.0
0.264330560763818 0.00433127580002651 1.0
0.267743277632654 -5.00101916371121e-005 1.0
0.249656456118427 0.00296094266045681 1.0
0.237913659798444 -0.00292214131199825 1.0
0.212629698634666 0.00109838656104344 1.0
0.206018548657373 -0.00357122107250851 1.0
0.205776007237816 0.0045899280315255 1.0
0.177653734480394 0.000958774742604224 1.0
0.169801232728703 -0.00363034911210147 1.0
0.158467603256627 -0.00134231637951246 1.0
0.138243965625628 -0.000557848141975653 1.0
0.121061083808431 0.00214262206573083 1.0
0.110735517091637 0.000881806988334857 1.0
0.104428305716812 0.00178716233104896 1.0
0.0852400544925808 0.00127026608083183 1.0
0.0714809108411404 0.00300707861636142 1.0
0.0659443543529869 -0.00378399571857749 1.0
0.0393197213404001 -0.00165872466223305 1.0
0.0288037681174908 -0.00241789020055222 1.0
0.00467285265425671 -0.00167250129473781 1.0
-0.0121795228238937 -0.00328854245323495 1.0
-0.0118472612858001 0.000637505419285464 1.0
-0.0284080473340712 -0.0050640769649406 1.0
-0.0536747145557719 0.00396841317201521 1.0
-0.0530709263406646 0.00358065582267646 1.0
-0.079819305512852 -0.00488352454897351 1.0
-0.0892893619909386 -0.00196143437466836 1.0
-0.101652058838294 0.00127664543902054 1.0
-0.119417825142523 -0.0046192576132825 1.0
-0.133991081312282 0.00189121154752402 1.0
-0.164628658702208 -0.00475662029103699 1.0
-0.169410367445122 0.00199540721036492 1.0
-0.192160018542566 -0.00289392484760129 1.0
-0.207509982690948 0.00227213026258224 1.0
-0.223730661630049 0.001364531941032 1.0
-0.243152524681622 0.000137519943420969 1.0
-0.256581057866725 0.00203595126139342 1.0
-0.273285238219711 -0.00215066850126136 1.0
-0.295904589795132 0.00353057812415036 1.0
-0.308515514050757 -0.00532846618775654 1.0
0.375 0.00596090431458285 0.368563396236509
0.375 0.00434231432619378 0.371670178877347
0.375 0.00905418146549854 0.382846603650628
0.375 0.00871910832257985 0.391146894202453
0.375 0.00445244026040956 0.400799732015519
0.375 0.00522275746413924 0.404911923901143
0.375 0.00472343502537403 0.419711048779156
0.375 0.00637054716042852 0.427637212777255
0.375 0.00668425538020448 0.433424142979703
0.375 0.00896415641783456 0.440782834370647
0.375 0.00741417577999014 0.460696532209523
0.375 0.00626243060127796 0.464168968886261
0.375 0.0090481521668563 0.47272120162102
0.375 0.00839433557152454 0.474508606758367
0.375 0.0057234296425601 0.485933120436335
0.375 0.0110213029069728 0.501885494911373
0.375 0.00667581568470925 0.507509991937106
0.375 0.0124147904123318 0.518953214878419
0.375 0.00546514111651472 0.524255856615804
0.375 0.00514600957329181 0.540612054072412
0.375 0.00723975042295441 0.54058938196677
0.375 0.00870099698286247 0.551018879300846
0.375 0.0111157565509689 0.558287908506752
0.375 0.00548951678980192 0.570528413031405
0.375 0.0112718882312646 0.576113464225153
0.375 0.011069443991449 0.581752802139672
0.375 0.0104060033923711 0.591715708676345
0.375 0.0126821466159433 0.603772593472689
0.375 0.0114848535297297 0.611802365711528
0.375 0.0109450441750127 0.6215451607149
0.375 0.00496653620015532 0.626908506808622
0.375 0.00559933291054911 0.641123556356847
0.375 0.00967756382622453 0.645987404851192
0.375 0.00539991063473233 0.65409955822201
0.375 0.00715620054817864 0.668356099194437
0.375 0.0103117321421168 0.679931903536104
0.375 0.0128184080188407 0.677144320887665
0.375 0.00652388944049415 0.690335165864334
0.375 0.0127845457321297 0.696712851933647
0.375 0.00496412226973889 0.709141822290007
0.375 0.0117816844531971 0.71483146362012
0.375 0.0102976042077364 0.728968636638692
0.375 0.00503468760855909 0.730299054097709
0.375 0.0057576123506172 0.73853508717949
0.375 0.0096526587141284 0.756020247640882
0.375 0.00849787254114198 0.76163430014208
0.375 0.00702765304227185 0.766349710708758
0.375 0.00731330098983096 0.771410056918826
0.375 0.00571525416780132 0.786826008470949
0.375 0.0053555886439243 0.797449252145443
0.375 0.0125922153216881 0.797491940630439
0.375 0.00562231668153367 0.811128428957648
0.375 0.00983832536231589 0.820751644679248
0.375 0.00998987937383677 0.831071724031592
0.375 0.00643240512374509 0.842106788463119
0.375 0.00644815787973675 0.853138346671608
0.375 0.0110923519907575 0.851868981108553
0.375 0.00989030309252517 0.8667933506275
0.375 0.00619065964114252 0.873369221125191
0.375 0.00467721317969932 0.878701748679169
0.375 0.0120280374311125 0.890905851523601
0.375 0.0114409420506536 0.898569340426739
0.375 0.00885679424149506 0.911313476876229
0.375 0.00726065094128972 0.914342712824461
0.375 0.0112933001703782 0.930952970317534
0.375 0.0119983599993662 0.934000809018568
0.375 0.0107764719761588 0.944702077975048
0.375 0.00765129302925222 0.94875206279388
0.375 0.00502659221542748 0.95826858960849
0.375 0.00976055200916667 0.969819854684838
0.375 0.0122279720895793 0.979043659518084
0.375 0.00451278035905801 0.990132837923461
0.375 0.0061984409392466 0.998277865875605
0.371627824849385 0.00814623035428048 1.0
0.361506970320999 0.0107523213543194 1.0
0.353256237720191 0.00542361976537596 1.0
0.333804185265049 0.00634477016358205 1.0
0.324947886036143 0.00826687943710579 1.0
0.30429398791575 0.0114119167057176 1.0
0.298953824750069 0.0101557521595131 1.0
0.284098256852654 0.0121608385910229 1.0
0.277424430331507 0.00752157944174936 1.0
0.267101380588428 0.00577615558001846 1.0
0.237287499380446 0.00756457533903912 1.0
0.243108128058432 0.00699495740482531 1.0
0.219782634446236 0.00595237636480636 1.0
0.208967130884058 0.012978671542355 1.0
0.197146611613905 0.00624262000523368 1.0
0.188674393355754 0.00753105733858785 1.0
0.165458624019577 0.00853440089155755 1.0
0.160813266043351 0.00509013795437686 1.0
0.144170843455822 0.00512653251805785 1.0
0.130234813351845 0.010228489135386 1.0
0.117278120528483 0.0052562190502336 1.0
0.102550378543201 0.00822785917917286 1.0
0.087303786794965 0.0140328765985298 1.0
0.069141242610581 0.00986042732104568 1.0
0.057549236902243 0.0137007441563447 1.0
0.0386112238722229 0.00995449802881263 1.0
0.0295810589466993 0.014032464627821 1.0
0.0190294637192991 0.0124592961247477 1.0
0.00352996882161122 0.0109359719687695 1.0
-0.0196179049874999 0.0141743198812335 1.0
-0.0250671936374727 0.0105672101931286 1.0
-0.0439359747817366 0.00637935342956163 1.0
-0.0636519096270778 0.0128190712539745 1.0
-0.0704278610108267 0.0103782380784364 1.0
-0.0960515642646982 0.00995153514471095 1.0
-0.103791500988068 0.0116624466361202 1.0
-0.117703238394707 0.00903469823365415 1.0
-0.13711592115073 0.00692439080341194 1.0
-0.161691724964635 0.0149978060237942 1.0
-0.167647004067613 0.0125493173845667 1.0
-0.200606889068258 0.0104855532374281 1.0
-0.205348926019692 0.0102110128196395 1.0
-0.225495764323407 0.0115922085135311 1.0
-0.234253153262036 0.00705849994550445 1.0
-0.259629914552255 0.0162381019032527 1.0
-0.276684828391319 0.00764548989298085 1.0
-0.29527528812474 0.0157453205881284 1.0
-0.311628975981222 0.00577951753332877 1.0
