ply
format ascii 1.0
element vertex 1110
property float x
property float y
property float z
end_header
0.0537955021344034 0.125 0.551141491201587
0.0600001882134932 0.125 0.560634392521892
0.0550160794863471 0.125 0.573237754351254
0.0566977536700439 0.125 0.580190929431429
0.0529458248015829 0.125 0.59987023441843
0.0602141249041742 0.125 0.606847287459097
0.0578600798903816 0.125 0.617884919355807
0.0531384036567955 0.125 0.627038756525805
0.0550392601132678 0.125 0.626971144670543
0.0563632400087947 0.125 0.6450323849628
0.0526865029415981 0.125 0.649673478012461
0.0580756827677966 0.125 0.661100539015103
0.0551102003812616 0.125 0.672458324447637
0.0560478505823575 0.125 0.681698676164283
0.0567054143748467 0.125 0.685564956648326
0.0603211984987396 0.125 0.706491690172119
0.0564008944247673 0.125 0.714875846269492
0.0564963972104195 0.125 0.7147723445846
0.0604598354079189 0.125 0.728682163633559
0.0550729785023522 0.125 0.736801144988916
0.0564882592622008 0.125 0.749635658132835
0.0573225079703216 0.125 0.760800915758826
0.0556683700337128 0.125 0.767990477855701
0.0528453916367818 0.125 0.773855610503152
0.0611566814619355 0.125 0.785808006056918
0.0531424295941879 0.125 0.78984491294489
0.0557160706687797 0.125 0.811653660103192
0.0586625503897141 0.125 0.816594926065184
0.0592354640893545 0.125 0.825742903072394
0.0609731004430452 0.125 0.840170755473228
0.0607647147240324 0.125 0.848902885146848
0.0549105552332935 0.125 0.85087069037069
0.053473861696884 0.125 0.867631009357147
0.0579886728700628 0.125 0.876669712750338
0.0529488783875638 0.125 0.880491687167559
0.0551575521900708 0.125 0.895313378738092
0.0612383131014995 0.125 0.895921807089342
0.0606514734658165 0.125 0.914983034777414
0.0569877758994506 0.125 0.914846301062083
0.0580281716762287 0.125 0.929783353100429
0.054643046498712 0.125 0.9423025521818
0.0556201935938317 0.125 0.94885881025508
0.0588525721386879 0.125 0.963987081475161
0.0564013910630276 0.125 0.968099638182203
0.0559381232933205 0.125 0.97974037581529
0.0614125695505737 0.125 0.982072732785373
0.0530373577549605 0.118886923083472 1.0
0.0534761424419499 0.123350891170816 1.0
0.0556386380562613 0.10018353683213 1.0
0.0587766509275435 0.0900919627736809 1.0
0.0587383574767938 0.0762741685764183 1.0
0.0581971762066097 0.0576188054815487 1.0
0.0634620640237307 0.049043616013785 1.0
0.0624846384711863 0.0321748190242887 1.0
0.0633602465932068 0.0144508380381487 1.0
0.0563761893506383 0.00220772283899072 1.0
0.0610904275903053 -0.0173763204436921 1.0
0.0625622473973874 -0.0352297379597975 1.0
0.0604826029522346 -0.0351787035412406 1.0
0.0658161216208812 -0.0563178565516789 1.0
0.0651864795169298 -0.0845924476303064 1.0
0.0635157290132936 -0.0889184726946582 1.0
0.0629750272614381 -0.111463868735763 1.0
0.0588582537585357 -0.122849459271672 1.0
0.0650912095788432 0.125 0.120178906232209
0.063927426085182 0.125 0.130708653279166
0.0636401147353258 0.125 0.134725573563204
0.0624987386279799 0.125 0.145452851900944
0.0659228282143673 0.125 0.153505892352176
0.069996113864543 0.125 0.163459577139073
0.0627298918158886 0.125 0.169865745390812
0.0642458619836164 0.125 0.184803969270705
0.0653839628032321 0.125 0.192975117562828
0.0658547374330797 0.125 0.197369283027777
0.0627092010683422 0.125 0.208218979800258
0.0672984739174914 0.125 0.222456931928586
0.0670320423974052 0.125 0.227279081352736
0.0719463051015228 0.125 0.238584921295768
0.06531303297451 0.125 0.250805466208968
0.0686911614702508 0.125 0.259864384107972
0.0679156996472088 0.125 0.273212799301348
0.0626121903037937 0.125 0.277140849069645
0.0624099425298124 0.125 0.287212381207323
0.0632258591902245 0.125 0.294334610803666
0.0696722006241421 0.125 0.306056925387751
0.0625195893848369 0.125 0.315272027518817
0.0660033664376963 0.125 0.319349293752448
0.0704135154048126 0.125 0.335096095406441
0.0671962489460631 0.125 0.33768016801056
0.0625828511713293 0.125 0.354701213664004
0.0703253774319271 0.125 0.368665389733511
0.0648483371295053 0.125 0.37311290789802
0.0634887694485963 0.125 0.391177404784922
0.0633279188393243 0.125 0.391123820994423
0.0709510122513467 0.125 0.408927161455739
0.0635031485110359 0.125 0.406126651222733
0.0689311366881918 0.125 0.423252039203187
0.0698455711791215 0.125 0.429542412700992
0.0654203010964819 0.125 0.446947401484548
0.071713716614567 0.125 0.44576512961201
0.0662912166250661 0.125 0.455252589094399
0.0636553908515528 0.125 0.474105940275317
0.0691882304393761 0.125 0.473772873231468
0.0695868497648714 0.125 0.49783729106268
0.0657349816107144 0.125 0.499105521324272
0.0674342688738254 0.125 0.508009591580738
0.0688620826781421 0.125 0.516722302466066
0.0673062139453999 0.125 0.528082114008959
0.0690450461590873 0.125 0.542135760849223
0.0656327028082809 0.125 0.545376711718317
0.071153599617018 0.125 0.559603815706089
0.0674572724993952 0.125 0.571546902873368
0.0693072816121875 0.125 0.575111846559267
0.0623136440484621 0.125 0.587472715872604
0.071413706800338 0.125 0.595908773579011
0.0700244943333828 0.125 0.608832524342219
0.0641667823170274 0.125 0.617037479728719
0.0646236802627054 0.125 0.622913010943031
0.0716080735591338 0.125 0.630974327672195
0.0673349159059989 0.125 0.644344194138787
0.0704411058119528 0.125 0.64943173439866
0.0642159457287653 0.125 0.663576688907267
0.0633696822564719 0.125 0.671587517180878
0.071943836756432 0.125 0.675473706070367
0.067390508515661 0.125 0.68946025588815
0.0646685992307909 0.125 0.70126897345643
0.0704424243704966 0.125 0.704854826316744
0.0657296344517603 0.125 0.721197133830115
0.0640871268683544 0.125 0.731589371031821
0.0705791507367523 0.125 0.742589403941543
0.0641839556096371 0.125 0.747021531983871
0.0689416986090745 0.125 0.755139550116377
0.0661697593296261 0.125 0.77041146056933
0.0697243812737774 0.125 0.773855922339063
0.0709758415747085 0.125 0.779034086861838
0.0636290248012914 0.125 0.795355856626195
0.0695281682680768 0.125 0.811126917189483
0.0632661914536173 0.125 0.818490898399944
0.0699012920837258 0.125 0.830811793822297
0.0668108648004641 0.125 0.830500786652122
0.0672185396053088 0.125 0.841019938939707
0.0638724601231927 0.125 0.854855434287895
0.0711937360442675 0.125 0.859635584068448
0.063847185228084 0.125 0.86953173753361
0.0684669059744935 0.125 0.878436213588922
0.0705357654527865 0.125 0.889248487680326
0.0643533223185615 0.125 0.897955100017788
0.0634941730835838 0.125 0.915238002436288
0.0696577131964656 0.125 0.921767750676696
0.0628978716346479 0.125 0.930175741311198
0.0639587060491073 0.125 0.939005181421589
0.0641119182694723 0.125 0.948420753539548
0.0654058020957198 0.125 0.957549331818591
0.0706537190903153 0.125 0.969269896903363
0.0636135716712531 0.125 0.982861520278128
0.0654212729550853 0.125 0.986299795277925
0.0684293894453228 0.125 0.992788989867369
0.0676801945871264 0.105716409126874 1.0
0.0693383869435687 0.0956089733354988 1.0
0.070171215821237 0.0818963051953454 1.0
0.0704441694970409 0.0758635024592244 1.0
0.064483441672214 0.0518046449281617 1.0
0.0730128019565369 0.055472668309926 1.0
0.0693278824867761 0.0207323984314387 1.0
0.073769835776842 0.0195207375608679 1.0
0.0667504252543451 0.00642808725071563 1.0
0.0695432704235627 -0.0092669880341312 1.0
0.0698913215961738 -0.02860779058696 1.0
0.0718004286337483 -0.0420817775737592 1.0
0.0669451630441141 -0.0615360243538299 1.0
0.0678145889334127 -0.0766057269153455 1.0
0.0699885997267542 -0.0861265894029355 1.0
0.0771094291404612 -0.106582134732464 1.0
0.0777865472661427 -0.124573997005618 1.0
0.0726191323310795 0.125 0.115410255663126
0.0755426689856672 0.125 0.122324696192978
0.0808224862991278 0.125 0.127258892272864
0.0815054327717941 0.125 0.136513124692191
0.0722347043618216 0.125 0.155022673438578
0.0794334788784671 0.125 0.168070123935224
0.0744743551992751 0.125 0.167975534247518
0.0812601847160603 0.125 0.184601376417957
0.072614478172975 0.125 0.188279416924406
0.0790722522534931 0.125 0.202590835090275
0.0748509203744567 0.125 0.213174387757502
0.0785129146455389 0.125 0.214703033450489
0.0725106954193832 0.125 0.224227446401972
0.0765004606130719 0.125 0.237552652551702
0.0778675219037531 0.125 0.253789247346658
0.08098505769131 0.125 0.265435366347275
0.0786564039708053 0.125 0.268079748312978
0.0780528885970565 0.125 0.276295422395752
0.0787506899668078 0.125 0.284622122545431
0.0810468094745608 0.125 0.294129921717814
0.0762547474110037 0.125 0.31138173566176
0.0750848214792184 0.125 0.318472337426507
0.0804554871642719 0.125 0.33030295288941
0.0754715640262206 0.125 0.337008200004167
0.0791927728271743 0.125 0.347721096244506
0.076708780596193 0.125 0.352915165756487
0.0752154028212093 0.125 0.364457942099647
0.0727312832900721 0.125 0.372095927192616
0.0721679849071948 0.125 0.382418706916626
0.0764107480941879 0.125 0.390611273819023
0.0752020742645432 0.125 0.404545467068666
0.0801115034608034 0.125 0.408708043271229
0.0769350322342324 0.125 0.42381918606823
0.0730951509365256 0.125 0.431307403230976
0.0793717897665576 0.125 0.441360384008827
0.072655617932934 0.125 0.449925902656266
0.0764950754281352 0.125 0.454702302263976
0.0767741595499997 0.125 0.473597308295366
0.0749318753930671 0.125 0.481442688174241
0.0757717321243024 0.125 0.493530956980065
0.076212957896994 0.125 0.506523256837168
0.0782460091965922 0.125 0.5034974440525
0.0720009313599052 0.125 0.519848551092668
0.0742108622272346 0.125 0.531063279136462
0.0718277795357604 0.125 0.537878034182454
0.0783097694420675 0.125 0.552826153248989
0.079321607929371 0.125 0.552276960962757
0.0764572308171647 0.125 0.563030050078596
0.0730565681267176 0.125 0.573271690970212
0.0749489506856448 0.125 0.590738464214249
0.0754976295159029 0.125 0.592746754821885
0.0720957297346861 0.125 0.596832723972654
0.0720823614238907 0.125 0.609911233223196
0.072583656154965 0.125 0.625847302067917
0.0725774934844095 0.125 0.632867555132962
0.078293408547109 0.125 0.636157425769348
0.0808905884026054 0.125 0.65162764050494
0.0798702583888578 0.125 0.666199894180814
0.0770141105498764 0.125 0.673891104625277
0.0753190265088153 0.125 0.678612803618886
0.0813766287139227 0.125 0.69006055688077
0.0811215305973272 0.125 0.705673302441622
0.0763105120055177 0.125 0.708517443679928
0.0782578937801697 0.125 0.718851633932196
0.0743303160585785 0.125 0.730376544640359
0.0784761131899258 0.125 0.739219931466491
0.0757475568396082 0.125 0.748202572447003
0.0722586853533354 0.125 0.756096092142681
0.0806350875185031 0.125 0.770804968135073
0.0767347593619043 0.125 0.779222198097789
0.0732238596454249 0.125 0.792078409418657
0.0727987149240819 0.125 0.797016189624981
0.0733524156742062 0.125 0.801452704463074
0.0770459771675462 0.125 0.819673730636404
0.0779830753837431 0.125 0.820122089924478
0.0738791867448329 0.125 0.838523796420812
0.0752046486159916 0.125 0.839477249682728
0.0736041212251993 0.125 0.848667618029823
0.0796019366061441 0.125 0.859374494035148
0.075226661859779 0.125 0.869154365954832
0.0794690870744517 0.125 0.878232124067516
0.0791342128200131 0.125 0.885802920411168
0.0758392952122474 0.125 0.906361844442605
0.0722430462160205 0.125 0.914488352279045
0.0766751274966676 0.125 0.922926149494391
0.0812047488828815 0.125 0.92596042943204
0.0785103194655402 0.125 0.944100066655763
0.0771388314992189 0.125 0.948879869768263
0.0770020080680627 0.125 0.951469426737976
0.0749894433501614 0.125 0.971382310536105
0.0790980902059579 0.125 0.978450816306254
0.076328632795692 0.125 0.990675863357965
0.0727156959338098 0.125 0.993806653252863
0.0760309968872234 0.121612794627813 1.0
0.0784357568971087 0.103606247921751 1.0
0.0791772812106301 0.0951977724887918 1.0
0.0822826618589029 0.0740603896234915 1.0
0.0813145613156806 0.0557222364437599 1.0
0.0818140841731412 0.0417668881317388 1.0
0.0822833289460127 0.027516915723214 1.0
0.0817294978664665 0.0253933464103824 1.0
0.0756024127705879 0.00644048902305759 1.0
0.0754322845889294 -0.0171184779197922 1.0
0.0819294496764205 -0.024208351164682 1.0
0.0859535351142146 -0.0382913165719163 1.0
0.0867727956453691 -0.0645888552327212 1.0
0.0802465165955136 -0.0790353675094209 1.0
0.0807016239250424 -0.0873389626009655 1.0
0.0785351326785164 -0.109545454865726 1.0
0.0891536385372937 0.125 0.114719051530807
0.084384961566441 0.125 0.133513769116681
0.0910756425407823 0.125 0.134605789138503
0.0846338815553394 0.125 0.148511157221105
0.0897009608615815 0.125 0.156681761745322
0.0856585570138495 0.125 0.165712279172906
0.0841790594417083 0.125 0.168055828262288
0.0816142915656788 0.125 0.183471253114428
0.0861675428602232 0.125 0.197746444537346
0.0904268004677601 0.125 0.194506063944278
0.0898016228459306 0.125 0.207230515280925
0.0833485923046067 0.125 0.221373187047018
0.0876027167775741 0.125 0.229722917062974
0.0882910139930704 0.125 0.242802032164771
0.0875856696927031 0.125 0.245642467585424
0.0860495185010948 0.125 0.260332824243561
0.0881019365269727 0.125 0.261749159436815
0.0877225767205768 0.125 0.273542271115267
0.086332732109037 0.125 0.28834374322952
0.0861912832214131 0.125 0.300089651344082
0.0866704814035503 0.125 0.303567422781626
0.0905490312778866 0.125 0.317321907628143
0.0891428302763883 0.125 0.33232807246768
0.0907739706296507 0.125 0.343301012214225
0.0856932035931826 0.125 0.345098149264075
0.0883874464391405 0.125 0.356938806956344
0.090124310415132 0.125 0.367120033160171
0.083291593073426 0.125 0.375980689267937
0.0910371994273823 0.125 0.389174218788332
0.0900920007405881 0.125 0.395598756691927
0.089581818319273 0.125 0.405674517770828
0.0850346835672575 0.125 0.405212859970107
0.0852983099312389 0.125 0.422638193417662
0.0873902750886578 0.125 0.429421159944346
0.0832473416401449 0.125 0.443551217079617
0.0821185421231178 0.125 0.452865004860083
0.0820287944666158 0.125 0.456930477405907
0.0826892777855499 0.125 0.47798476413765
0.0854143598010992 0.125 0.472506169892728
0.08908918746766 0.125 0.491158035530068
0.0887887731498159 0.125 0.50241854733083
0.087734709111915 0.125 0.506292256572012
0.0898725516479066 0.125 0.513997865112692
0.0817255846297077 0.125 0.528192482165982
0.0874350240729861 0.125 0.537647730757894
0.0910067627453588 0.125 0.547335118036037
0.0853604371734553 0.125 0.558537476484365
0.0831924393029176 0.125 0.570091504151943
0.0878190810476274 0.125 0.574232910019544
0.0826210627107416 0.125 0.588830417982984
0.0863112529307642 0.125 0.597566423704058
0.0816207727986759 0.125 0.599032842285458
0.0878975210390091 0.125 0.615006805587504
0.0858775661934532 0.125 0.62222982575835
0.0865121832997688 0.125 0.628491085850072
0.0862880744181257 0.125 0.640817912694946
0.0854430762836833 0.125 0.651571340722019
0.0905156794751287 0.125 0.663329296608674
0.0823265153478167 0.125 0.66906052194907
0.0880544597867516 0.125 0.673591135290797
0.0837848545427493 0.125 0.691517409630109
0.0833230195473604 0.125 0.705596105342666
0.0816400719916734 0.125 0.705069521648914
0.0856937912723407 0.125 0.717950291395019
0.0906081921808205 0.125 0.728838476392627
0.0823426164713142 0.125 0.73436032788944
0.0887504477884746 0.125 0.746740734095462
0.0821247161194307 0.125 0.765094951695111
0.0858832690131512 0.125 0.762053517604322
0.0856011196364861 0.125 0.775177286344998
0.0835654009436477 0.125 0.789866025307443
0.0872338978032906 0.125 0.800100946167128
0.0870340048067041 0.125 0.804831369461772
0.0910658472951399 0.125 0.817470224388786
0.085070120806272 0.125 0.819496716193754
0.0860753669388696 0.125 0.836144428061465
0.0822470129000314 0.125 0.843569276255415
0.0848981964270292 0.125 0.853365245332338
0.0848978350955352 0.125 0.861968429218183
0.0860335193003805 0.125 0.870780471358093
0.0904907313106018 0.125 0.881187700617653
0.0874120362921151 0.125 0.896852295756138
0.0890215178112584 0.125 0.897773279707176
0.0852084800741241 0.125 0.910472855089784
0.0910009041635684 0.125 0.91865372559558
0.0828893374876308 0.125 0.927256206328903
0.0890647397592365 0.125 0.944465787069797
0.0879894876276508 0.125 0.945617992151156
0.0853932092468783 0.125 0.952423992863189
0.089824241161589 0.125 0.969369091460245
0.0868197984137526 0.125 0.97869594573043
0.0840390660665331 0.125 0.9846704777086
0.0883442052528003 0.125 0.991900976352428
0.0889850100050416 0.110098033692903 1.0
0.0870648761637594 0.0987022323043396 1.0
0.0900658307038126 0.0856155474613111 1.0
0.0880489885583065 0.0798060548791759 1.0
0.0898511433357156 0.0650616414443252 1.0
0.0912378654988688 0.0409250920954522 1.0
0.0923550471150376 0.0255620596821564 1.0
0.0876148467885443 0.018304457670355 1.0
0.0924989674949915 0.000469934137870859 1.0
0.0942598465930439 -0.0144762835759798 1.0
0.0919366620510425 -0.0328793028422849 1.0
0.0944377315421041 -0.0560659113419955 1.0
0.0902060272213077 -0.0562281707605146 1.0
0.0944352114498758 -0.0750979831034116 1.0
0.0958031987091902 -0.100806136993223 1.0
0.0885267928283845 -0.10559944748271 1.0
0.099509517808851 0.125 0.117154034508527
0.0949637175211564 0.125 0.125045740228177
0.0999534034958353 0.125 0.140921713795159
0.0954633114370952 0.125 0.151286152552695
0.0946578253872195 0.125 0.150374348747953
0.0993448278733921 0.125 0.166863382786142
0.0946253859714504 0.125 0.171628590907044
0.0909834994005406 0.125 0.17816246762364
0.0926069365636953 0.125 0.191293414332115
0.0923483414727989 0.125 0.20476731232091
0.0944957735741683 0.125 0.211820429992815
0.0964685528066402 0.125 0.225498854909194
0.099928095466014 0.125 0.233213203004028
0.0997633068456487 0.125 0.239758510306674
0.0960996887756961 0.125 0.246734304927736
0.0984818642856961 0.125 0.251221073809559
0.0961037601165967 0.125 0.262781921417142
0.0989346616706042 0.125 0.27681283924549
0.0988466485274865 0.125 0.285057859579698
0.0948380325342507 0.125 0.295913557530458
0.0949000000378502 0.125 0.308638053889548
0.0915935827808633 0.125 0.311414941807826
0.0956504476441572 0.125 0.325497698124704
0.0927277398487906 0.125 0.336054675821587
0.0942830359141658 0.125 0.348207529875712
0.0984517747682181 0.125 0.363239098841983
0.0965237035228775 0.125 0.371257624690087
0.0919300219699925 0.125 0.36850299063305
0.0927818941784695 0.125 0.388676260351945
0.0954036057482535 0.125 0.395490627408514
0.0949902413684629 0.125 0.400972431922256
0.0956381690226652 0.125 0.416274788706797
0.099082476216716 0.125 0.42250798050742
0.0989610948747535 0.125 0.434366490392818
0.0945683738229788 0.125 0.43369571173555
0.0922919070338778 0.125 0.450532498734262
0.0930142669129487 0.125 0.457386694481424
0.0939296523467701 0.125 0.468564739989481
0.0988080878075597 0.125 0.47816824385814
0.0945585062834146 0.125 0.480465758317506
0.099409057684195 0.125 0.500167751773004
0.093528954862531 0.125 0.500074243814166
0.097493296762694 0.125 0.513503914295259
0.100509176688719 0.125 0.535690937406236
0.0930659563423378 0.125 0.536936899971951
0.0979449506497157 0.125 0.545844811181676
0.0961732658960585 0.125 0.559313870984913
0.0916910851774899 0.125 0.561973582978989
0.0997424070580572 0.125 0.579157057296773
0.0923142377936975 0.125 0.58473007998044
0.0926685722155577 0.125 0.590056957696507
0.100404140878063 0.125 0.601621449459208
0.100683710770049 0.125 0.608427927181964
0.0936894762858377 0.125 0.623300386394583
0.0925840131968097 0.125 0.634120055844279
0.094003922233988 0.125 0.642304441702146
0.0944594541974356 0.125 0.647796554517423
0.0977719139430943 0.125 0.665489646494553
0.0924379250142393 0.125 0.669599040454369
0.0964186955203681 0.125 0.673282560918218
0.0941667404406193 0.125 0.690994449114245
0.0960834140207293 0.125 0.701019034944477
0.093369044850459 0.125 0.713378814139249
0.0954327922594818 0.125 0.713235837237988
0.093445950448237 0.125 0.731701653902725
0.0974691196834063 0.125 0.737300092437165
0.0908847372858477 0.125 0.749745374483014
0.0954562302622396 0.125 0.758728973396438
0.0981512340273121 0.125 0.768738038433513
0.0930766848344731 0.125 0.774632738629736
0.0953950060913216 0.125 0.786164809895323
0.0967735972605545 0.125 0.801777516049527
0.0955269151664583 0.125 0.809117238821361
0.10078920944519 0.125 0.815362072784356
0.0910867740913914 0.125 0.818753061927231
0.0999602844603065 0.125 0.837838223820037
0.100341040336426 0.125 0.839613669537952
0.0949564012930236 0.125 0.858328576442805
0.0943086504190438 0.125 0.870183077331656
0.0989558203842865 0.125 0.877214409291252
0.0948148098266781 0.125 0.884506436333831
0.0951727962990508 0.125 0.896017959245489
0.0979729138309292 0.125 0.898855029088818
0.0959121629547389 0.125 0.904435544645195
0.0990523376207282 0.125 0.919626995407556
0.100352439816955 0.125 0.924867857853008
0.091135226496469 0.125 0.93917147564461
0.0964358491839337 0.125 0.943936127690618
0.0980816716367738 0.125 0.960410502586656
0.0989034211393937 0.125 0.967414589114018
0.0927556425900781 0.125 0.973757869711871
0.0937965258631431 0.125 0.989169987831344
0.0940169623255782 0.125 0.992738719545633
0.0955241225991534 0.119816720675024 1.0
0.0924904382899553 0.106872387352725 1.0
0.0931429337209211 0.0922235286120241 1.0
0.0932154042176263 0.0827543364669143 1.0
0.0966086276462361 0.0639368767696258 1.0
0.103250375837663 0.0494995890862477 1.0
0.0944358521029121 0.0299464466208694 1.0
0.102553838629837 0.0100021443351674 1.0
0.101123975110536 0.00237536686796688 1.0
0.0999763826121216 -0.0212670773726127 1.0
0.101160248116559 -0.0244027617671856 1.0
0.0980335570527192 -0.0423787556525413 1.0
0.0979560604760135 -0.0634050940565803 1.0
0.106424133730073 -0.0786698692659287 1.0
0.104669410997698 -0.094548340097453 1.0
0.105796245983811 -0.11034152591275 1.0
0.107833519668858 -0.117602211872933 1.0
0.105361764568814 0.125 0.119524196811409
0.101695102250231 0.125 0.12481324056112
0.107248217799107 0.125 0.130797379801566
0.106881340304402 0.125 0.145816192265681
0.107117286567642 0.125 0.150499897809105
0.103986193571529 0.125 0.162144224466302
0.104609553148858 0.125 0.181402905553853
0.10740002225719 0.125 0.189852900365329
0.102977995734976 0.125 0.200145927656712
0.101427221450893 0.125 0.206450613809842
0.10714901538809 0.125 0.211959962819794
0.109802621629969 0.125 0.218773945029556
0.106995995843081 0.125 0.224766360072552
0.105843064456935 0.125 0.237546358929429
0.107723113608724 0.125 0.245964726053178
0.103921903902107 0.125 0.258414654700913
0.105363583709565 0.125 0.266897224976047
0.101518259324232 0.125 0.281155621603393
0.101390243410904 0.125 0.288559653380235
0.109507235206872 0.125 0.304361735419872
0.109330232103721 0.125 0.305496033852078
0.102767238440132 0.125 0.315473992383633
0.101938500233618 0.125 0.323135715038076
0.109567388832707 0.125 0.337429835413788
0.105866738883621 0.125 0.345054150219628
0.108039966905497 0.125 0.358431934004628
0.106121942126913 0.125 0.362536788112497
0.102537719984687 0.125 0.374845833229509
0.108393916164472 0.125 0.378632774470835
0.110089197179885 0.125 0.397859122608185
0.10326594984254 0.125 0.403395411407567
0.108356132802418 0.125 0.414311719468722
0.105667865226949 0.125 0.42425442538249
0.104840306825274 0.125 0.437007113175081
0.102832094544657 0.125 0.436707723485324
0.106593267133139 0.125 0.444518019416715
0.101553998725717 0.125 0.464419701610458
0.102340551166649 0.125 0.468174312860381
0.108894935418821 0.125 0.478787833602762
0.103308327551794 0.125 0.49023717968652
0.109107165804783 0.125 0.501256455813768
0.103270578851222 0.125 0.510625622007295
0.109294924600235 0.125 0.519717705386758
0.109148879043337 0.125 0.532304087518057
0.104332845174734 0.125 0.536884323065641
0.108987843218087 0.125 0.552425842306434
0.109488529583176 0.125 0.559151416386079
0.108808319238627 0.125 0.567186190081467
0.109269356385077 0.125 0.582782927416954
0.104290151970387 0.125 0.584173383968924
0.105585740659191 0.125 0.595502068044911
0.104809392020902 0.125 0.596888691405639
0.108572508595923 0.125 0.610858538797368
0.103762581033903 0.125 0.625739931318443
0.106635569935582 0.125 0.627387881301849
0.106723174196593 0.125 0.648832317692389
0.101845360047189 0.125 0.654040421718312
0.107702927344019 0.125 0.65945620789644
0.105911663575309 0.125 0.665044223483252
0.101765845433579 0.125 0.68325516876949
0.107899669704545 0.125 0.694040512967885
0.103863854441136 0.125 0.694405718497824
0.110119235699578 0.125 0.707126447053847
0.10663065433387 0.125 0.726133831204823
0.109354090997432 0.125 0.725278560072907
0.10237631219643 0.125 0.738411006373773
0.100755277813788 0.125 0.75301240290605
0.104840210238156 0.125 0.756908039138933
0.106372721360505 0.125 0.769825501886347
0.101479827278192 0.125 0.771240107503772
0.104683073667492 0.125 0.780872120254485
0.108036363110825 0.125 0.795669765322099
0.106608591151236 0.125 0.813721098301601
0.101316131159318 0.125 0.821169829861923
0.102783723150063 0.125 0.824051823507522
0.101552794739597 0.125 0.841461442487195
0.109736860682039 0.125 0.847939649333266
0.10341720368473 0.125 0.858354855693341
0.108886836344945 0.125 0.857991860338045
0.102297951062019 0.125 0.874706352287558
0.109531891555705 0.125 0.886218954694497
0.110043602609711 0.125 0.896156333637327
0.10082603950173 0.125 0.904172863892312
0.107801965830366 0.125 0.907745315602513
0.109175056800708 0.125 0.916690968403236
0.100626719674645 0.125 0.932447748995286
0.109485022063865 0.125 0.93428566179645
0.104198461977035 0.125 0.951692324665899
0.105900738146233 0.125 0.961137498756543
0.101625786977071 0.125 0.967746610622165
0.106105428975461 0.125 0.981383624321378
0.103482047402372 0.125 0.987621677435342
0.108199873246967 0.125 0.990530302023847
0.105079034997252 0.123082637014947 1.0
0.104651903697462 0.107247477034606 1.0
0.101885461671367 0.0919914824232721 1.0
0.102607821726685 0.0651969362305662 1.0
0.105754289496313 0.070009240030541 1.0
0.111703281012104 0.051969659433964 1.0
0.110955592641173 0.0326266538212572 1.0
0.112793668026559 0.00643167724027147 1.0
0.10578078804099 0.00313458920075857 1.0
0.109695217411449 -0.0112471831040671 1.0
0.109495757097276 -0.0368488816827033 1.0
0.113300480457068 -0.0497547553371885 1.0
0.112044851768956 -0.0630980564499715 1.0
0.113500920426806 -0.0669564953014561 1.0
0.108540419112543 -0.0815940314927657 1.0
0.115348660332153 -0.112189982980342 1.0
0.111422820889252 -0.11380681405868 1.0
0.119083016508065 0.125 0.111233846291996
0.110433195668775 0.125 0.118077703312875
0.113833114484617 0.125 0.140577841594891
0.118755434471717 0.125 0.138937865979442
0.113820438670568 0.125 0.15153492865377
0.112380110973725 0.125 0.164005651140031
0.113812262258604 0.125 0.16553479985451
0.118078484420083 0.125 0.18085621070404
0.113770062194458 0.125 0.18756496327925
0.112857325425018 0.125 0.202988077946762
0.119243867572074 0.125 0.210435353186715
0.110862210515515 0.125 0.222724249226555
0.11428035212086 0.125 0.227391831771329
0.116851104504663 0.125 0.242948547258218
0.111854241709855 0.125 0.251318385255967
0.110150707437127 0.125 0.264142011593163
0.110357291350351 0.125 0.274978598716323
0.114748302833097 0.125 0.277804493034584
0.11326023076907 0.125 0.287746730271049
0.11289997548606 0.125 0.302756418985967
0.115814337103782 0.125 0.311757011599421
0.11302580590704 0.125 0.308924813158833
0.110166631043104 0.125 0.333029752935995
0.118229747142628 0.125 0.329303944523332
0.119108771817891 0.125 0.346334977064334
0.117092085061967 0.125 0.354045082948012
0.11834217046895 0.125 0.364864789407824
0.114723395431522 0.125 0.374417554457984
0.113772483365207 0.125 0.390024870706795
0.11639307707131 0.125 0.393490304700154
0.119702422414588 0.125 0.401860576983805
0.119781100059911 0.125 0.405544648535868
0.112285767230226 0.125 0.420256151282524
0.112370723681173 0.125 0.42831699175154
0.116204294724757 0.125 0.44216269195279
0.117470407555767 0.125 0.444916695997077
0.11158866977506 0.125 0.463034932048362
0.114439597619455 0.125 0.466066149183792
0.114118010491548 0.125 0.479439611224608
0.116946762270613 0.125 0.488828982322217
0.11838774531643 0.125 0.501164421644684
0.116683375130015 0.125 0.502757675247051
0.111267279431166 0.125 0.512148314722917
0.114475480771328 0.125 0.530160757156303
0.118639761386786 0.125 0.531648626865436
0.111245232766977 0.125 0.542761850571917
0.115369399783424 0.125 0.548653558704008
0.118357557114306 0.125 0.566879666175446
0.111410141281472 0.125 0.58177278422951
0.116170497261493 0.125 0.58815752911646
0.111113981529729 0.125 0.595908421280353
0.111095572323827 0.125 0.607904617896392
0.117114749369975 0.125 0.613356954235279
0.116969986258466 0.125 0.624460183980531
0.11268375510991 0.125 0.63707017855851
0.118323378549896 0.125 0.639539217890361
0.113379351159198 0.125 0.655879811178577
0.119500108335624 0.125 0.655946422004689
0.113072099163262 0.125 0.674173991376555
0.117470843885297 0.125 0.682743654670178
0.11948087986591 0.125 0.694545463300936
0.114950823901089 0.125 0.694790687318443
0.110468201242379 0.125 0.707227888035876
0.119679577705216 0.125 0.717440595583858
0.111718951742738 0.125 0.72929713335715
0.119101911553691 0.125 0.73718604793797
0.112282375942076 0.125 0.75034510730235
0.115277107128176 0.125 0.755891438318392
0.119032187492714 0.125 0.765367718684196
0.119701614890331 0.125 0.776345859914578
0.11776691556673 0.125 0.785457137453412
0.112679224170087 0.125 0.795168848689626
0.112561771376543 0.125 0.80585495024052
0.115078001033752 0.125 0.814566872624613
0.115510002190035 0.125 0.822414694840766
0.111109967946456 0.125 0.836178228669322
0.118068958520048 0.125 0.838043677789635
0.111834457410126 0.125 0.857220464901895
0.115423780109654 0.125 0.859793595042033
0.116301414580325 0.125 0.874388963438435
0.117471540346525 0.125 0.877281793883315
0.119570058238587 0.125 0.893396193217203
0.115334268203414 0.125 0.897830987086287
0.112115191528063 0.125 0.90994161051157
0.111972494090265 0.125 0.921276722348614
0.111075433611294 0.125 0.936196003711003
0.118869053719307 0.125 0.937054621636616
0.115019574945641 0.125 0.950092416307786
0.118696060995777 0.125 0.960511767235874
0.118260594958351 0.125 0.969053191454738
0.115634727129201 0.125 0.97976617726954
0.117721021452038 0.125 0.985282740269946
0.11895601798563 0.125 0.992188396439385
0.117617425548481 0.117151806237668 1.0
0.113056781287856 0.0967895114544292 1.0
0.112381842572972 0.0896532906780902 1.0
0.119638860847926 0.0663949347969139 1.0
0.117678241646564 0.0633718922530439 1.0
0.115803752941225 0.0355755489433145 1.0
0.117505020239882 0.02964374373961 1.0
0.118072285121785 0.0132122286911626 1.0
0.118748445209161 0.000296867976316201 1.0
0.118036615700928 -0.0137760931070639 1.0
0.118441672212114 -0.0265286624683294 1.0
0.118882649177756 -0.0431849581813824 1.0
0.11876556980505 -0.059085666770768 1.0
0.123677824700826 -0.0855723040698342 1.0
0.127562001672901 -0.091215192004801 1.0
0.121505396511892 -0.114897582116376 1.0
0.127362996124467 -0.124965406662751 1.0
0.124822912460491 0.125 0.118218788183181
0.123421277094463 0.125 0.126367457046846
0.120699318129817 0.125 0.135397087266428
0.128988479542286 0.125 0.14878390162707
0.12899560548476 0.125 0.14967856078318
0.128090974489039 0.125 0.164449655718381
0.128130734197858 0.125 0.178013690965883
0.124044597988872 0.125 0.182201380758204
0.125949459904178 0.125 0.195903313504165
0.127498314878866 0.125 0.20330827687038
0.125816851357389 0.125 0.216584681110136
0.128204339962116 0.125 0.21688550204469
0.128071104475973 0.125 0.225114878153448
0.127519424516911 0.125 0.233303212636911
0.121728527286518 0.125 0.248603347405638
0.122728836842648 0.125 0.261060164039444
0.121285038235716 0.125 0.266279843253679
0.128128892990424 0.125 0.275296958998543
0.121722737568266 0.125 0.287474413406233
0.120902307174763 0.125 0.290263785065522
0.124917338870833 0.125 0.307002793359849
0.120126753413383 0.125 0.322508078821237
0.127119423174667 0.125 0.331046176401933
0.120665329353851 0.125 0.33442320880564
0.121853930882352 0.125 0.352653229697187
0.124038428075227 0.125 0.352489479233327
0.123118677741916 0.125 0.360196638320629
0.128032311606824 0.125 0.379378319974218
0.120360642535816 0.125 0.384698740445508
0.127668071995805 0.125 0.394736538779069
0.123057178600571 0.125 0.400515139085615
0.121277243498454 0.125 0.411395801901325
0.126787074995393 0.125 0.425125846966191
0.120559843947937 0.125 0.428721132350649
0.125410570554885 0.125 0.443313269773619
0.122297349427791 0.125 0.444337955026228
0.128511387161638 0.125 0.463081751914008
0.124331193666464 0.125 0.468675247925944
0.127995022985147 0.125 0.485791859190762
0.12485360835251 0.125 0.492154015342827
0.120077393494427 0.125 0.498692637609562
0.129457631176729 0.125 0.501224875358086
0.127435833791254 0.125 0.512296372894146
0.122570766355682 0.125 0.526492638104382
0.125715189577613 0.125 0.538286313088532
0.124315401562699 0.125 0.543615049570292
0.128359332958017 0.125 0.55392140285669
0.123247449229929 0.125 0.560275037047834
0.122846793589122 0.125 0.58056265556544
0.128527835576456 0.125 0.593169767271089
0.125995809494311 0.125 0.59455349605817
0.126918772168617 0.125 0.598109420992817
0.127886207737481 0.125 0.619596726830768
0.124110971350005 0.125 0.62443755093231
0.12440604192209 0.125 0.637225161603405
0.124781467171048 0.125 0.640737009616983
0.12217582810449 0.125 0.657723982667478
0.122275535620139 0.125 0.668272345645756
0.121950904273555 0.125 0.674537542387658
0.128088267929896 0.125 0.682500524166788
0.125262009754535 0.125 0.692575621487823
0.12019952440846 0.125 0.700803052249132
0.122522918371571 0.125 0.705833438606739
0.128251134394837 0.125 0.725330624881601
0.119798858276491 0.125 0.731910548635529
0.127345662462505 0.125 0.739244105473592
0.125351476802545 0.125 0.748096619347194
0.125867882471102 0.125 0.756537556977205
0.124463389892775 0.125 0.768189818642853
0.124909641462957 0.125 0.775340783378952
0.125597401988587 0.125 0.792677079991421
0.128736053974696 0.125 0.79170737124772
0.119998736702438 0.125 0.811384075559081
0.121964157294907 0.125 0.819186533689164
0.128182025387675 0.125 0.823158277178416
0.129103088510545 0.125 0.833384004289933
0.122088544730909 0.125 0.846408029182583
0.124604658196157 0.125 0.848666891261411
0.125786979400666 0.125 0.859369037735337
0.125571154477048 0.125 0.876503599090278
0.126498060091605 0.125 0.886117769194473
0.129261074187706 0.125 0.896745774792856
0.123978141108288 0.125 0.900705894444408
0.12280436228366 0.125 0.913006857511332
0.1222725861546 0.125 0.921446060244848
0.129246557945765 0.125 0.927595147810673
0.125704669886841 0.125 0.936822880343501
0.121834074588161 0.125 0.953680792978983
0.123791967240684 0.125 0.961520162485918
0.122674830531693 0.125 0.971893171360934
0.122220761334969 0.125 0.970341841526215
0.127633554804633 0.125 0.994220443593651
0.126568513588317 0.125 0.996894851288846
0.120615902244238 0.11142678964713 1.0
0.125150196279097 0.104958785874852 1.0
0.128970168071113 0.0853964089410244 1.0
0.127975596533935 0.0705551740455989 1.0
0.122745578090832 0.059199391505174 1.0
0.128551931993069 0.0371314749527012 1.0
0.127516091210078 0.0230203022922772 1.0
0.129346383636888 0.0150484350315376 1.0
0.131463129977175 0.00294208789954227 1.0
0.126317383997068 -0.0150305844676795 1.0
0.128979500449446 -0.0333436387927333 1.0
0.136821404850702 -0.0495723366181511 1.0
0.135380423140532 -0.0689940551741519 1.0
0.130142565940421 -0.0803725862818898 1.0
0.137676378150445 -0.0838578467907931 1.0
0.131336906044803 -0.108015107886588 1.0
0.134511351845318 0.125 0.107416453458803
0.13843871948527 0.125 0.131923819638953
0.135842850458199 0.125 0.133705452228757
0.136163933585593 0.125 0.143539146247632
0.137596745460227 0.125 0.148589320413647
0.132296900518533 0.125 0.1628990824212
0.132914919143211 0.125 0.167215463540979
0.129801795585443 0.125 0.183657975050133
0.136464503337798 0.125 0.192106506621674
0.131809725125425 0.125 0.204878927943904
0.13106988402134 0.125 0.214962833222287
0.138345762522857 0.125 0.222635372775183
0.136752606517126 0.125 0.227723734814836
0.133184832070282 0.125 0.247058363717866
0.132273980555454 0.125 0.25340315487473
0.136060383769145 0.125 0.263949358754662
0.129826464201595 0.125 0.276465802807494
0.133633541355131 0.125 0.276847709672842
0.131681183352025 0.125 0.287533729056602
0.134151767120255 0.125 0.291993252462563
0.136543743944281 0.125 0.313772529188437
0.131237149252993 0.125 0.317545239109442
0.135170376369589 0.125 0.326214009284337
0.133048913033473 0.125 0.337208730509729
0.137589549668526 0.125 0.345396123795474
0.137831667541486 0.125 0.358530484539242
0.134192061867876 0.125 0.362027721782255
0.137072093913506 0.125 0.370860864164236
0.132735110769774 0.125 0.384517602153256
0.131244381585963 0.125 0.393964454056506
0.13377471247004 0.125 0.406808031145934
0.135383636177676 0.125 0.410478170325366
0.131315111495808 0.125 0.425703305424322
0.133978923852386 0.125 0.439057040853507
0.133375135261451 0.125 0.435175840447352
0.137870935916356 0.125 0.458594130305231
0.135662110678432 0.125 0.463520546145971
0.138060822755918 0.125 0.469216830620881
0.138261686250736 0.125 0.478275910269047
0.135954482967531 0.125 0.491517440056293
0.135792946951239 0.125 0.500150782681388
0.131543232639358 0.125 0.502039017166885
0.129804299409851 0.125 0.516909615567828
0.139105030662069 0.125 0.526777001546925
0.135333721090119 0.125 0.533075525198769
0.135328680862027 0.125 0.539153980103793
0.136333161229983 0.125 0.553836211619315
0.13806794646537 0.125 0.559789817350021
0.13552201382425 0.125 0.575638087527586
0.129609604919435 0.125 0.588661433629652
0.137755213167619 0.125 0.594298392790182
0.138741747334707 0.125 0.60634084613611
0.136892024326542 0.125 0.620604534143151
0.135842025593447 0.125 0.617316983757726
0.137838535555291 0.125 0.628696770729543
0.136104288475496 0.125 0.639339811054897
0.131010564131995 0.125 0.654079109877356
0.129903924718252 0.125 0.662775899773313
0.129790688551766 0.125 0.670108280686911
0.137751493224624 0.125 0.687950765225507
0.130852849442666 0.125 0.693298265080263
0.131296633948994 0.125 0.702736306199506
0.138207527738222 0.125 0.710420524503805
0.131546163735891 0.125 0.723089976231146
0.138391503758734 0.125 0.725786939843835
0.134975384666327 0.125 0.737712046384468
0.138025464070221 0.125 0.744678041482579
0.135528930615179 0.125 0.760172716734869
0.137063104552163 0.125 0.768877240349689
0.13413546079905 0.125 0.772794370715755
0.135549897931987 0.125 0.78528841293616
0.133610705214623 0.125 0.798076804520361
0.136674467827461 0.125 0.807317633719511
0.137401071447293 0.125 0.810617922058829
0.13046190471921 0.125 0.824935277001665
0.138652673297097 0.125 0.840719891738973
0.131649100824031 0.125 0.839263444920142
0.13314412058369 0.125 0.848744740523855
0.13252754213403 0.125 0.866212040758752
0.132216450542711 0.125 0.87137716679112
0.129713049749927 0.125 0.884026928379475
0.13808150892183 0.125 0.893085481780116
0.132143962330431 0.125 0.907007262793833
0.137907383141041 0.125 0.91123438123592
0.137704725321636 0.125 0.925701553926275
0.134159367109618 0.125 0.923474352004344
0.130526901328432 0.125 0.936164785636441
0.137514686090736 0.125 0.943913504967837
0.134809823995799 0.125 0.962179735456415
0.138388643248929 0.125 0.967436190295504
0.130683154973098 0.125 0.969912640977073
0.130452381180299 0.125 0.983377348215278
0.137971542950404 0.125 0.990739956782287
0.137050961595472 0.118212130648462 1.0
0.131809690229146 0.11138486831616 1.0
0.139510324326078 0.0840955485599601 1.0
0.13611538788871 0.0787713709191293 1.0
0.13726401239323 0.0624233097393527 1.0
0.13597419680926 0.0480970738653754 1.0
0.133940385902563 0.0322693293218123 1.0
0.137196184238425 0.0120104177146096 1.0
0.136027883916874 -0.000396414718379062 1.0
0.140142825825471 -0.00956625415594606 1.0
0.14120124974406 -0.0394581719922953 1.0
0.140388539129474 -0.0428705845589117 1.0
0.138596602790839 -0.0661709698452025 1.0
0.146196139737005 -0.0749377965298961 1.0
0.145339355180354 -0.103590467113922 1.0
0.144826973567402 -0.120108816807196 1.0
0.148726834167998 -0.114482299130955 1.0
0.146032571669079 0.125 0.110014806021974
0.141970600792993 0.125 0.121467422977218
0.147537321941379 0.125 0.131445478846738
0.147242886608871 0.125 0.142400174384065
0.147935921772907 0.125 0.15801722352357
0.143451033672594 0.125 0.165309388080902
0.142209006270355 0.125 0.176423465107788
0.140128877766208 0.125 0.185243860379532
0.142339343718433 0.125 0.189445329470141
0.142606293178243 0.125 0.202254478021519
0.146568054871119 0.125 0.208443666539289
0.147169277459677 0.125 0.215742499032234
0.147713196915626 0.125 0.228289123426436
0.147030867791329 0.125 0.236720993928941
0.143906153930981 0.125 0.247607167878615
0.143639109982285 0.125 0.259389822082182
0.144460951928627 0.125 0.273655154822027
0.145069970653679 0.125 0.276239883638736
0.142188773772363 0.125 0.287667688704714
0.142172100749577 0.125 0.305649005852868
0.140876447580741 0.125 0.307836654973106
0.143959694218589 0.125 0.322885812864298
0.142875484247604 0.125 0.325143609862264
0.141190346944687 0.125 0.337657583262736
0.141790900123073 0.125 0.351129804696682
0.142602611553051 0.125 0.354847034340002
0.14024180625819 0.125 0.364489632097951
0.139878518451392 0.125 0.375728629793255
0.14678133018967 0.125 0.390801258103171
0.140523823439277 0.125 0.391907641945467
0.139159115136109 0.125 0.408198274118807
0.148146546554406 0.125 0.417429013084152
0.144628297495876 0.125 0.422458896570805
0.146232407676043 0.125 0.433521675743549
0.147995378155197 0.125 0.443518631405505
0.145887734186333 0.125 0.45250228828101
0.143829513337307 0.125 0.46814980854278
0.143543563321876 0.125 0.473306293727276
0.146981677982902 0.125 0.475572361735479
0.146143702717518 0.125 0.483710579559507
0.147624029225663 0.125 0.494243184063394
0.14771660983028 0.125 0.501551038505975
0.141414325540473 0.125 0.512341990285003
0.145869383946818 0.125 0.531993796971985
0.144276648477668 0.125 0.538310556577409
0.148473531334754 0.125 0.546421521061453
0.139797544655244 0.125 0.559613154504743
0.145596441353651 0.125 0.571746984553553
0.145141762225296 0.125 0.57401411551139
0.145217067747704 0.125 0.583699202202015
0.146481566363664 0.125 0.599708670293813
0.148412764867873 0.125 0.598908080246662
0.146582272471926 0.125 0.612626171238088
0.145153632441409 0.125 0.624521996268602
0.14490333671339 0.125 0.627876175740379
0.141510939696594 0.125 0.649311040140546
0.146877371174607 0.125 0.651463130787563
0.141532669907196 0.125 0.657913784512971
0.142471807629461 0.125 0.671164917196839
0.140198879330309 0.125 0.682698161566803
0.141550099180508 0.125 0.694087859806319
0.147713532744406 0.125 0.696045970260445
0.139343359683439 0.125 0.70830813885572
0.142316547018679 0.125 0.718738366109013
0.147446296621637 0.125 0.730845933898037
0.145018708496605 0.125 0.737057759056708
0.139278559737274 0.125 0.745162270631539
0.144366617226344 0.125 0.754065736603881
0.139567732113284 0.125 0.766002808668897
0.145045799427681 0.125 0.780976274809599
0.141498714880486 0.125 0.780829714270196
0.145974436686682 0.125 0.795260830257599
0.144206228062076 0.125 0.804158557260127
0.14755568985552 0.125 0.809686362193321
0.147143397343165 0.125 0.822774021157035
0.13920267554143 0.125 0.831075259914783
0.147205988912217 0.125 0.83848323684908
0.138997508082065 0.125 0.851564329966268
0.141717224453766 0.125 0.862269424795175
0.14616204664279 0.125 0.871807120149834
0.141917912719649 0.125 0.880772573918602
0.14439312193337 0.125 0.88902025799178
0.141199497806344 0.125 0.900649810223673
0.146009084818411 0.125 0.914094696788105
0.145340289725371 0.125 0.916251518321799
0.139855636209925 0.125 0.936646134564015
0.141087857470849 0.125 0.936545714916705
0.143068790857239 0.125 0.952413350372914
0.140914445895094 0.125 0.963687647993179
0.140851958739128 0.125 0.972660373751645
0.145004248834675 0.125 0.975711670460366
0.143024747892783 0.125 0.991500287784201
0.143120435233512 0.125 0.99100332812408
0.142103412876892 0.120645992506038 1.0
0.140716523129739 0.0948022152913572 1.0
0.146172514929886 0.0904250486483078 1.0
0.146100040305284 0.069256611799187 1.0
0.147870809739572 0.0571390651820884 1.0
0.145763451696162 0.0433302701585036 1.0
0.152038522265537 0.0256553556970975 1.0
0.144767440986592 0.00572488218427432 1.0
0.145251272771862 0.000859452172421407 1.0
0.152793072447302 -0.00709141216441017 1.0
0.150313070201094 -0.0257358954318697 1.0
0.152551238844745 -0.0495403173014979 1.0
0.149220859709437 -0.0585219151975807 1.0
0.151211542910066 -0.0723440209286777 1.0
0.156104943629384 -0.0993877129000738 1.0
0.152534251639355 -0.100781580693508 1.0
0.156063573679885 0.125 0.123286564957816
0.154936942926155 0.125 0.12557188727595
0.157191863526656 0.125 0.136826195240819
0.148848134322954 0.125 0.152213131092357
0.151646973783284 0.125 0.155516565723
0.155072167494699 0.125 0.157573262523196
0.150981397762412 0.125 0.174301008318067
0.154284690300698 0.125 0.179668224698057
0.150494042165727 0.125 0.1891609233736
0.148926039464442 0.125 0.203454536305216
0.15582689396032 0.125 0.206549397122037
0.155805112952506 0.125 0.222758255433487
0.149562231766877 0.125 0.235162966602508
0.153749114851212 0.125 0.242407100812618
0.152789188338961 0.125 0.252399278162602
0.153653117117876 0.125 0.260823003321123
0.149966049420277 0.125 0.263228856436466
0.153974765466606 0.125 0.278292687589317
0.148291671339758 0.125 0.291717855593571
0.149793297755303 0.125 0.292019305772191
0.15486788433892 0.125 0.307024064579149
0.157206989592892 0.125 0.318115846619662
0.151152193799138 0.125 0.324267179213077
0.153940928892992 0.125 0.337352575581399
0.157259357745023 0.125 0.344393853370589
0.155131177245917 0.125 0.347184384365556
0.152891873241032 0.125 0.363654135751509
0.151358976682918 0.125 0.377513785225791
0.156564070378528 0.125 0.388040343988944
0.1549927704852 0.125 0.395068313374344
0.149723435790315 0.125 0.404365055304637
0.151054309123533 0.125 0.410829372342583
0.152119925101327 0.125 0.420159727648196
0.153883047523815 0.125 0.430427078940045
0.148626046722323 0.125 0.438922562736285
0.153306978931321 0.125 0.449320454342323
0.149251040782182 0.125 0.457267520874164
0.151010581016574 0.125 0.469774067019683
0.152369027132622 0.125 0.474618707583341
0.154926838168165 0.125 0.492447221510139
0.149137461760201 0.125 0.498076552653942
0.157793853084936 0.125 0.50950647131066
0.152001530921246 0.125 0.513153439546389
0.150268480012892 0.125 0.530789801148736
0.152038086732551 0.125 0.535906390360722
0.151907784283673 0.125 0.546921366737386
0.150272005963275 0.125 0.557165096777018
0.153724774187138 0.125 0.561661158238548
0.148822479454737 0.125 0.578516034277538
0.152934088681476 0.125 0.583326712370939
0.152139933769582 0.125 0.591458038681193
0.155063624244953 0.125 0.604525418237928
0.155659067120853 0.125 0.617733768894559
0.155427814985456 0.125 0.62151379340865
0.154585955116326 0.125 0.640533251777135
0.155860029446827 0.125 0.644418941219038
0.15227985516869 0.125 0.656524471541682
0.156610233478877 0.125 0.665844592977907
0.15506310102814 0.125 0.671572738071557
0.153270942794112 0.125 0.67580095557561
