ply
format ascii 1.0
element vertex 853
property float x
property float y
property float z
end_header
0.326667433204846 -0.0497327920007897 0.801956336318684
0.326667433204846 -0.0550883340562494 0.816178668311655
0.326667433204846 -0.0604303760235191 0.830588767556044
0.326667433204846 -0.0548429629411819 0.837581537912716
0.326667433204846 -0.0567448272543415 0.836567900883415
0.326667433204846 -0.0605862056852604 0.858321697962511
0.326667433204846 -0.05566392083981 0.862234211382542
0.326667433204846 -0.0562267594639503 0.868361090063545
0.326667433204846 -0.0592230394401696 0.878542017490834
0.326667433204846 -0.0591715089731554 0.8909173239891
0.326667433204846 -0.0537796633088013 0.901668336795446
0.326667433204846 -0.0521173363686154 0.904747094725771
0.326667433204846 -0.0529750522695631 0.913635881536772
0.326667433204846 -0.0642930820011863 0.928016206814136
0.326667433204846 -0.0584802619266361 0.938488729794125
0.326667433204846 -0.0617869785280217 0.943625476156509
0.326667433204846 -0.0564354116352898 0.952915413143161
0.326667433204846 -0.0555565803651025 0.964506637479846
0.326667433204846 -0.0603195248828808 0.972649844694628
0.326667433204846 -0.0539178144912999 0.972852075386463
0.326667433204846 -0.0565883578318314 0.989761979995391
0.32463276924342 -0.0509015220644589 0.996020909384898
0.317294007289168 -0.0471961071120487 0.996019880493298
0.305287900899885 -0.0336156953881886 0.9999808238576
0.298523177144854 -0.0285447796751716 0.999848037256455
0.299289482838417 -0.0191784709180935 0.99960277182995
0.277589395255731 -0.00149533584096871 0.999139722641723
0.281759627848765 -0.00080848378462765 0.999121736787646
0.259153683245621 0.0133106268442732 0.99875201486409
0.263198519156793 0.0153893913337083 0.998697580500209
0.255712832973969 0.0278754527605336 0.998370621474979
0.246088137118998 0.041196538675629 0.998021796563989
0.227207993894294 0.0554636468891051 0.997648199187292
0.215707656724097 0.0646120276679329 0.997408640405733
0.214400571375281 0.0699042574451375 0.99727005849186
0.19928694808568 0.0898230795429291 0.996748465778657
0.191995674343859 0.0998227850899122 0.996486614273489
0.178954058507955 0.10886142245547 0.996249929224342
0.326667433204846 -0.0754144542871788 0.276997543493082
0.326667433204847 -0.0754678599339069 0.282198549098076
0.326667433204846 -0.069382648321771 0.287489614800189
0.326667433204846 -0.0663314510943529 0.294208487351979
0.326667433204846 -0.068980648725862 0.304225044669266
0.326667433204846 -0.0748700885374257 0.317150389239068
0.326667433204846 -0.0682793723131532 0.322903925057153
0.326667433204846 -0.069588484473094 0.327976305696339
0.326667433204846 -0.0665716545191311 0.341679241083047
0.326667433204846 -0.074934386593693 0.354392411295683
0.326667433204846 -0.0708465452232106 0.354624614702324
0.326667433204846 -0.0740135554918748 0.380289796342305
0.326667433204846 -0.0776121117810769 0.388648641501695
0.326667433204846 -0.0664159288502796 0.385078057706555
0.326667433204846 -0.0724123330913832 0.398452708098032
0.326667433204846 -0.0707762930869809 0.410146786533436
0.326667433204846 -0.0631332436749041 0.410636577284908
0.326667433204846 -0.0704509415708897 0.425265895464534
0.326667433204846 -0.0690944987681987 0.429759862246581
0.326667433204846 -0.0740727743799119 0.452395745005068
0.326667433204846 -0.0693144152233066 0.451447064944761
0.326667433204846 -0.075209756051423 0.463273053496325
0.326667433204846 -0.0675598105301877 0.471315227117385
0.326667433204846 -0.0658104316457725 0.474819632971166
0.326667433204846 -0.0664315189071799 0.484404457193064
0.326667433204846 -0.0673194024937764 0.502978957394149
0.326667433204846 -0.0767577203000722 0.509203336539615
0.326667433204846 -0.0640095198973439 0.517865336647502
0.326667433204846 -0.0778347676567978 0.527734053176602
0.326667433204846 -0.0698535689161685 0.53512212055812
0.326667433204846 -0.0686354199366937 0.536888836026363
0.326667433204846 -0.0678136030930068 0.547380077755426
0.326667433204846 -0.0692031572418172 0.563712669077219
0.326667433204846 -0.0794975927229162 0.576969502330751
0.326667433204846 -0.0702671195572639 0.580276156807534
0.326667433204846 -0.0768252267559 0.592449529608748
0.326667433204846 -0.0616733857859803 0.595490796717907
0.326667433204846 -0.066215479126876 0.604543491037204
0.326667433204846 -0.0663468298962168 0.611188864851155
0.326667433204846 -0.0724031533532681 0.626345094927723
0.326667433204846 -0.0654725059892417 0.624578855681309
0.326667433204846 -0.0765073322830978 0.649284257968164
0.326667433204846 -0.0777645268655911 0.654210736603979
0.326667433204846 -0.076983567804425 0.665784339101524
0.326667433204846 -0.0744291716594219 0.678820940744558
0.326667433204846 -0.0639462843178853 0.672639464415962
0.326667433204846 -0.0681355863307497 0.684493580255492
0.326667433204846 -0.0653323521093975 0.69559629980253
0.326667433204846 -0.0730386124521193 0.707109516991131
0.326667433204846 -0.071076811145724 0.713402592829415
0.326667433204846 -0.0631814674048762 0.717664010125467
0.326667433204846 -0.0679885950069112 0.73221919641437
0.326667433204846 -0.0639894360445866 0.740504048550453
0.326667433204846 -0.0771586280302394 0.756755819240648
0.326667433204846 -0.0680257084851783 0.760254181425304
0.326667433204846 -0.066399860454516 0.767374651860996
0.326667433204846 -0.0704679026858262 0.773768641964596
0.326667433204846 -0.0772793024798471 0.790570911428224
0.326667433204846 -0.0682091243407968 0.79486574886117
0.326667433204846 -0.0644591628641209 0.802239246569048
0.326667433204846 -0.0722911298200265 0.819544356727467
0.326667433204846 -0.0734642289558595 0.829686784018962
0.326667433204846 -0.0723375646657699 0.839515529026518
0.326667433204846 -0.0700563848192158 0.85109977331145
0.326667433204846 -0.0707627794443091 0.846174214132105
0.326667433204846 -0.0738192717879017 0.867955504103138
0.326667433204846 -0.0694459349983816 0.87191109741042
0.326667433204846 -0.0694525294157261 0.878957612397679
0.326667433204846 -0.0713016482165885 0.893475029024398
0.326667433204846 -0.062748622473442 0.892301958479084
0.326667433204846 -0.0666896144007577 0.911241052810203
0.326667433204846 -0.0709096276131744 0.915473536872277
0.326667433204846 -0.0668490674837031 0.925184070746874
0.326667433204846 -0.0694602149237777 0.931603811380252
0.326667433204846 -0.0733483545781558 0.942277600954054
0.326667433204846 -0.0695545670795759 0.947967951804457
0.326667433204846 -0.073131903188489 0.964159023895735
0.326667433204846 -0.0715154820611076 0.977208290444081
0.326667433204846 -0.0663271524348825 0.976053999413879
0.326667433204846 -0.0675462710947001 0.987988844293271
0.32497803692013 -0.0702306588150927 0.996026695498321
0.312376517337405 -0.0563488744788328 0.996022676454134
0.304983847433432 -0.046366060820577 0.996019767800947
0.300751735019782 -0.0451550074759579 0.996019451773101
0.293954370950267 -0.0304880711411826 0.99989892413437
0.285953173267953 -0.0220542214732305 0.999678076008438
0.277932061843389 -0.0186804731640867 0.999589731299821
0.26537498328176 -0.00320546695052478 0.99918450400083
0.26306376949879 0.00694267055298505 0.99891876566809
0.25394023502694 0.0143188269386484 0.998725614215493
0.236341307645165 0.0249107496565122 0.998448254957936
0.230654150439057 0.0433467226436418 0.997965492015243
0.225735376672848 0.0484257969300611 0.997832491774336
0.216890099083912 0.0594655471972037 0.997543405739697
0.203701139609779 0.0645537269885106 0.997410167062751
0.190237990443821 0.0801668796209846 0.997001322272469
0.189156561762998 0.0872236444937388 0.99681653438098
0.172405576502965 0.0970178626944799 0.996560063751343
0.326667433204846 -0.0781268561991256 0.277441984271758
0.326667433204846 -0.0886760826080585 0.296622296031407
0.326667433204846 -0.0818691037861213 0.290980175207752
0.326667433204846 -0.0797817315688342 0.300196612043577
0.326667433204846 -0.0899546999005699 0.323090596202346
0.326667433204846 -0.0844086204645765 0.334693289303728
0.326667433204846 -0.08592981611271 0.332192909293376
0.326667433204846 -0.0887253926085101 0.34433755754886
0.326667433204846 -0.0846142927749027 0.353055887705677
0.326667433204846 -0.079412530729155 0.360725234439571
0.326667433204846 -0.0909534659575961 0.375642966726448
0.326667433204846 -0.0832645696147247 0.381558470296206
0.326667433204846 -0.0842810605516059 0.397279758502196
0.326667433204846 -0.0882721565161664 0.402928124039702
0.326667433204846 -0.0807898980796046 0.404788465879006
0.326667433204846 -0.0833659902727423 0.420359782752339
0.326667433204846 -0.0862612409058287 0.425794589888605
0.326667433204846 -0.0839022786138046 0.438126333250371
0.326667433204846 -0.0780910267646328 0.440373845234271
0.326667433204846 -0.076206440531301 0.447451419717467
0.326667433204846 -0.0769420081442785 0.460523030833307
0.326667433204846 -0.0829219837493023 0.479252360231027
0.326667433204846 -0.0749860114331836 0.476628750130114
0.326667433204846 -0.0857446811063828 0.494707429018263
0.326667433204846 -0.0804384653918966 0.498608507900873
0.326667433204846 -0.079647509703529 0.49940524154011
0.326667433204846 -0.0838590747889128 0.507507821545581
0.326667433204846 -0.0830990514986459 0.524407996734447
0.326667433204846 -0.0807707543908865 0.532463851819513
0.326667433204846 -0.0772615835799301 0.536389420016148
0.326667433204846 -0.0848830498076725 0.555766102109752
0.326667433204846 -0.0825153058385138 0.564009379931669
0.326667433204846 -0.082157179195443 0.564962121179632
0.326667433204846 -0.0809708047376925 0.570815502625796
0.326667433204846 -0.0858732204529039 0.591117392139316
0.326667433204846 -0.0811180599943994 0.595051737898271
0.326667433204846 -0.0843824116608716 0.607332147105159
0.326667433204846 -0.0826237663915779 0.616740153882898
0.326667433204846 -0.0785539054699383 0.620806606320259
0.326667433204846 -0.0831676898266343 0.642091201898016
0.326667433204846 -0.0852690590357431 0.64307797149967
0.326667433204846 -0.0883105442148579 0.651488586081637
0.326667433204846 -0.0842049825294253 0.660624879231314
0.326667433204846 -0.0909384731929815 0.672541658183933
0.326667433204846 -0.0827167663084162 0.68139064138506
0.326667433204846 -0.081855916128014 0.683390387825693
0.326667433204846 -0.092246304252365 0.705537598088472
0.326667433204846 -0.0871869991932128 0.703148911647157
0.326667433204846 -0.0859789520217255 0.720356377970143
0.326667433204846 -0.0815146046484002 0.723962643188332
0.326667433204846 -0.0808330370622103 0.732499347385389
0.326667433204846 -0.0838224114959397 0.745182491346731
0.326667433204846 -0.0827957342013989 0.751215401681271
0.326667433204846 -0.0869079783010123 0.76756512084309
0.326667433204846 -0.0913117566254461 0.778711859855372
0.326667433204846 -0.0917998967647864 0.780022775411255
0.326667433204846 -0.0787226714977074 0.786983534374029
0.326667433204846 -0.0799034867443881 0.796803776498322
0.326667433204846 -0.0885988100849351 0.810375947785277
0.326667433204846 -0.0800748152908809 0.808334971345991
0.326667433204846 -0.0782967767463536 0.817873333093766
0.326667433204846 -0.0848282871860133 0.83223959382262
0.326667433204846 -0.0871083613021903 0.843655506843261
0.326667433204846 -0.0835394878096064 0.843447540133135
0.326667433204846 -0.0839887209607687 0.856486051706194
0.326667433204846 -0.0868858505296977 0.870809626589169
0.326667433204846 -0.0803097768480593 0.87507164586748
0.326667433204846 -0.0824369229109624 0.886092228963959
0.326667433204846 -0.0850494025860134 0.89221869207492
0.326667433204846 -0.0811936070527438 0.904690652234714
0.326667433204846 -0.0875949341525669 0.913993019429812
0.326667433204846 -0.0767804459229013 0.920125568482242
0.326667433204846 -0.0811061023689701 0.932243979021365
0.326667433204846 -0.0797156853751233 0.938347225665438
0.326667433204846 -0.0832569099734906 0.947733615049309
0.326667433204846 -0.0854818627806456 0.95934144456723
0.326667433204846 -0.0765905441910498 0.961288277121104
0.326667433204846 -0.0892696558465385 0.981557547425382
0.326667433204846 -0.0855777896235274 0.986547477600226
0.326667433204846 -0.0760623755885233 0.993219775828512
0.323059262557641 -0.0779351042785389 0.996029024507789
0.309387733922074 -0.0655353715019247 0.996025461219478
0.306673648065334 -0.0617217560475659 0.996024348846054
0.298715609782497 -0.0553705326517082 0.996022534257267
0.290960429573246 -0.0363536479181243 0.996016923505866
0.286811484228428 -0.0327350326444528 0.999957762892064
0.270444137262917 -0.0276397942822976 0.999824339379936
0.258939514835394 -0.00886223310476517 0.999332631635681
0.262241919480781 -0.00380289193217838 0.999200148124543
0.244727045828486 0.00786679950200165 0.998894566499912
0.236778018591191 0.0191724591291447 0.998598517383627
0.226847773915102 0.0303488634744676 0.998305852936014
0.220017498925613 0.0433020913328184 0.997966660727248
0.201429596016527 0.0514896575675864 0.997752261759982
0.204603057118791 0.0566683473944347 0.997616652994345
0.191313028258641 0.0729375005305134 0.997190630226326
0.176595403033213 0.0879004766215169 0.996798810907966
0.163495396320354 0.0912585034977557 0.996710877879558
0.153766019915545 0.104406491702311 0.996366585691641
0.15968278041714 0.108426566428092 0.996261316330169
0.326667433204846 -0.0980329030602285 0.282941441508844
0.326667433204846 -0.0968707230524216 0.290100451651521
0.326667433204846 -0.0896464876332268 0.303786513970636
0.326667433204846 -0.101404554713408 0.32503018977047
0.326667433204846 -0.0974009296061044 0.323342994227618
0.326667433204846 -0.0973113498526231 0.337643611594138
0.326667433204846 -0.0954022852032485 0.348566145471454
0.326667433204846 -0.0993129793750628 0.35739290983826
0.326667433204846 -0.0994812191046709 0.367658334944694
0.326667433204846 -0.0962360538077588 0.371987732159907
0.326667433204846 -0.103875911089401 0.389422591109811
0.326667433204846 -0.10006575588463 0.391875920898606
0.326667433204846 -0.0939103554406817 0.393815641449979
0.326667433204846 -0.0994088308008333 0.408227872490035
0.326667433204846 -0.0981970244811135 0.420400651983075
0.326667433204846 -0.0998356553887951 0.425891826932664
0.326667433204846 -0.100958020633698 0.433018334418652
0.326667433204846 -0.0977223691983871 0.443986397260663
0.326667433204846 -0.0953460636296149 0.446213060838434
0.326667433204846 -0.100375576942699 0.461412538133592
0.326667433204846 -0.0975404085024901 0.461845335102321
0.326667433204846 -0.0970106311151157 0.477680436186691
0.326667433204846 -0.0997182071208893 0.489937231592192
0.326667433204846 -0.0939557412861751 0.491418333967753
0.326667433204846 -0.0961413734942694 0.497811952648818
0.326667433204846 -0.0964343706903044 0.519164380731135
0.326667433204846 -0.096261864091774 0.51854933822473
0.326667433204846 -0.0962080508710526 0.537090026846991
0.326667433204846 -0.0963919530792213 0.541839502373317
0.326667433204846 -0.0978172953338505 0.55559898575503
0.326667433204846 -0.101695513094888 0.561511051047271
0.326667433204846 -0.0963639046860867 0.561343970035537
0.326667433204846 -0.101832718571133 0.589356730378046
0.326667433204846 -0.0932661114534122 0.585119278898034
0.326667433204846 -0.0971583198898908 0.587854052820151
0.326667433204846 -0.0901668770149229 0.602011444256362
0.326667433204846 -0.0918853831151371 0.611738227666514
0.326667433204846 -0.102274907046588 0.628592551862339
0.326667433204846 -0.0961795263616853 0.634026273205148
0.326667433204846 -0.0922100362626082 0.636548478248439
0.326667433204846 -0.0919697308700378 0.652488208529234
0.326667433204846 -0.0927319408848615 0.656243101742468
0.326667433204846 -0.0935913977502181 0.670639118646257
0.326667433204846 -0.0968166968232872 0.668634739830786
0.326667433204846 -0.102423914001816 0.692750818164573
0.326667433204846 -0.100506135879208 0.703245015893476
0.326667433204846 -0.0970718790686382 0.710182885464676
0.326667433204846 -0.098165365675678 0.716960998464844
0.326667433204846 -0.0894165921797432 0.713675416820918
0.326667433204846 -0.0973385660795285 0.731337838743882
0.326667433204846 -0.0978644231350719 0.741938448683134
0.326667433204846 -0.0988953796428495 0.749221600132199
0.326667433204846 -0.0984783254388031 0.7576786862294
0.326667433204846 -0.0939365335818637 0.758923019482631
0.326667433204846 -0.100276792064005 0.778589325068514
0.326667433204846 -0.0939715347168712 0.782388983263029
0.326667433204846 -0.0959534016824009 0.792520546046779
0.326667433204846 -0.102841125501091 0.806298208584339
0.326667433204846 -0.0984080491190011 0.817050526120796
0.326667433204846 -0.101481962753889 0.824675480487096
0.326667433204846 -0.0968126084470446 0.831246029096673
0.326667433204846 -0.10242781886137 0.846786692437374
0.326667433204846 -0.0990305662813452 0.845419151014259
0.326667433204846 -0.100558597426074 0.863168389153678
0.326667433204846 -0.0974574651781038 0.867084224159039
0.326667433204846 -0.091231410426142 0.873877884930021
0.326667433204846 -0.0939873031603608 0.884005562514029
0.326667433204846 -0.0915886594744347 0.88683654863687
0.326667433204846 -0.098276682816523 0.902177299104842
0.326667433204846 -0.0976308771050825 0.909034307655214
0.326667433204846 -0.0921482230009592 0.918613481137693
0.326667433204846 -0.0929873814137749 0.925279735214423
0.326667433204846 -0.102046689301471 0.94149749717574
0.326667433204846 -0.100180778068221 0.946636421240347
0.326667433204846 -0.102602249991503 0.955735273026733
0.326667433204846 -0.0954920279749134 0.969365453181996
0.326667433204846 -0.0954496488612751 0.972174935939489
0.326667433204846 -0.0938115316517689 0.98382254412058
0.324045435425652 -0.0948961097605955 0.996034094184166
0.313984693510465 -0.0920005253659752 0.99603333793167
0.305202699748048 -0.0744897718147818 0.996028189672036
0.308958279331244 -0.0717445727153989 0.996027325890764
0.292936815084826 -0.0612476686896119 0.996024358534027
0.28067056480497 -0.0499109336293047 0.996021098141561
0.276605440768399 -0.0415719516571747 0.99601864514163
0.273872679235019 -0.0344298874298559 0.996872949155938
0.263429311639509 -0.0229479064635977 0.999701477973504
0.259671269998628 -0.0200497061719003 0.999625585927974
0.242247229519487 -0.00511837936388319 0.999234595375255
0.231752459522878 0.000746365200400607 0.999081021634071
0.227361681958777 0.0135345454988082 0.998746151347765
0.224611001368899 0.0140482522653391 0.998732699462667
0.209535398384675 0.0335366734059711 0.998222377195171
0.202168385328969 0.0463410553624436 0.997887082653517
0.195817532650345 0.0467825512979265 0.997875521675577
0.177926445282518 0.0669300224989721 0.997347941574889
0.175871751070352 0.0716797259387869 0.997223566213138
0.16044298320854 0.0876551279450401 0.996805235589165
0.151152843351639 0.0980807913137925 0.996532229985884
0.141613916865802 0.109759357215434 0.996226415975144
0.13741431616924 0.11551566868486 0.996075681654477
0.326667433204846 -0.108843993040787 0.306767182804298
0.326667433204846 -0.107883071687664 0.303784372937841
0.324169735020453 -0.116237491569825 0.322279865523848
0.326667433204846 -0.10969725224937 0.321514068489299
0.326379739341237 -0.116237491569825 0.342844675656415
0.326667433204846 -0.115087453414034 0.351397811334477
0.326667433204846 -0.106863404397164 0.351259305271247
0.326667433204846 -0.10712229772857 0.359665531933895
0.324002668191625 -0.116237491569825 0.37168298230894
0.326667433204846 -0.106041621162903 0.380051832914851
0.326667433204846 -0.107811006103057 0.384485049237752
0.326667433204846 -0.109093085113567 0.397590219834132
0.326667433204846 -0.1147458007363 0.40865973212992
0.326667433204846 -0.108187146509209 0.411546830524629
0.326667433204846 -0.113760898249688 0.431318334113839
0.326667433204846 -0.10617921932263 0.430432129083172
0.326667433204846 -0.102865401242793 0.442729804929977
0.326667433204846 -0.106199802448672 0.453876968921894
0.326667433204846 -0.112508275865581 0.458684863003371
0.326667433204846 -0.114715384701464 0.469523267451964
0.326667433204846 -0.115763352386359 0.4796507818016
0.326667433204846 -0.109896805135133 0.481721238442269
0.326667433204846 -0.106529442514545 0.493853113342693
0.326667433204846 -0.110948944817542 0.507608083072453
0.326667433204846 -0.104427334403987 0.511131597845766
0.326667433204846 -0.105181478144443 0.520591907175198
0.326667433204846 -0.109300140959766 0.529631741938486
0.326667433204846 -0.111456729479198 0.545582332725118
0.326269552400595 -0.116237491569825 0.555869130388053
0.326667433204846 -0.112629839121021 0.563066554453519
0.326667433204846 -0.114755109468962 0.571968958290057
0.326667433204846 -0.114161529240085 0.576572230729306
0.326667433204846 -0.102274992309618 0.577823134426125
0.326667433204846 -0.111240318137338 0.593245974756564
0.324535419210585 -0.116237491569825 0.610384915564761
0.326667433204846 -0.11377860952466 0.617041014781938
0.326667433204846 -0.114686921402079 0.632728899040749
0.326667433204846 -0.106394167553461 0.631824415613782
0.326667433204846 -0.112079725383917 0.64132688444168
0.326160522208511 -0.116237491569825 0.65280808838835
0.326667433204846 -0.105937332824418 0.661423473882667
0.326667433204846 -0.107047403803252 0.659301606340629
0.325537791781412 -0.116237491569825 0.681678064703346
0.326667433204846 -0.109632644455711 0.685502030546593
0.326667433204846 -0.105738282756044 0.695619566492614
0.326667433204846 -0.106033297019952 0.69943951703828
0.326667433204846 -0.111301367074985 0.713065074655294
0.326667433204846 -0.109470059519778 0.715395842271992
0.326667433204846 -0.105759521085589 0.728486867295157
0.326667433204846 -0.107234206251978 0.73925627647946
0.326667433204846 -0.107270100156662 0.745709942309483
0.326667433204846 -0.103924779195264 0.756288905583927
0.326667433204846 -0.107442644007031 0.762172218999645
0.326667433204846 -0.113324805279204 0.77406162412481
0.326667433204846 -0.109351002180429 0.786082679717932
0.326667433204846 -0.107061222477307 0.788050262256265
0.326667433204846 -0.109409320335364 0.802738028343939
0.326667433204846 -0.101866014878817 0.802230433635644
0.324467077171733 -0.116237491569825 0.825101041968243
0.326667433204846 -0.111786271723486 0.831217953966629
0.326667433204846 -0.1057827116511 0.835693251402851
0.326667433204846 -0.115379952000043 0.847048357380482
0.326667433204846 -0.113940554100788 0.856690208142664
0.326667433204846 -0.112080575082465 0.86925750125519
0.326667433204846 -0.10702383192747 0.877202240810447
0.326667433204846 -0.114161073877123 0.888325607887987
0.325703784832064 -0.116237491569825 0.893282873945586
0.326667433204846 -0.108892960481879 0.893570958108483
0.326667433204846 -0.109325467187931 0.909544964577554
0.326676464282502 -0.116237491569825 0.927864726234665
0.326667433204846 -0.114647403793495 0.929201020210324
0.326667433204846 -0.10631026701083 0.93561986992659
0.324672941440901 -0.116237491569825 0.948614134406441
0.326667433204846 -0.114812422866609 0.954980588604306
0.326667433204846 -0.115696581628357 0.968840195758331
0.326667433204846 -0.113692925480591 0.975350071976092
0.326667433204846 -0.109925317883789 0.980576165691774
0.325757083146034 -0.113404629030653 0.996039619397427
0.318564654331352 -0.103493631984555 0.996036730045181
0.315647056638307 -0.0908828886392841 0.996032984792599
0.300365975559322 -0.0861584998918568 0.99603173838181
0.298475453954415 -0.0792972391596116 0.996029704009888
0.29309326041242 -0.0670753864026403 0.996026102464049
0.274717871740801 -0.0549139063866853 0.996022662488372
0.276471016230427 -0.050028267985945 0.996021179664626
0.266500214395672 -0.0448414142321758 0.996019736082998
0.254900272429305 -0.0350419262194137 0.996016928805462
0.251621010826088 -0.027080953621067 0.999809705622211
0.248812108099409 -0.0221635750280575 0.999680939532049
0.237319827977984 -0.0102147617371712 0.999368048844369
0.222350603434604 0.00440502132877683 0.998985216351645
0.213487471927787 0.0232706524212805 0.998491202415504
0.211790417840097 0.0221746246633115 0.998519902912412
0.194940618994876 0.0427969420522685 0.997979888526689
0.185575364015167 0.0477744476152262 0.997849547956408
0.176293430345021 0.0628012742037085 0.997456056653928
0.169851128153593 0.0649547995851764 0.997399664607192
0.164150089279887 0.0705076830827241 0.997254257235442
0.146277285487438 0.0931128144609822 0.99666232103811
0.14009252140641 0.0991560913719747 0.996504072262897
0.12592795758791 0.113952008352336 0.996116627541306
0.322761208497574 -0.116237491569825 0.302066589358955
0.317031632408426 -0.116237491569825 0.300482463258485
0.321787831738577 -0.116237491569825 0.317138670211308
0.321466198447652 -0.116237491569825 0.334821207620105
0.314225543220326 -0.116237491569825 0.329851219227805
0.316680345545432 -0.116237491569825 0.340856046050166
0.316661327771482 -0.116237491569825 0.354820564360888
0.32221843664721 -0.116237491569825 0.362978147434814
0.317384350207123 -0.116237491569825 0.360758636643878
0.316979281928048 -0.116237491569825 0.381197815356875
0.322385576819576 -0.116237491569825 0.3854684903283
0.320235818306989 -0.116237491569825 0.403843126641685
0.31470467804731 -0.116237491569825 0.40154019479649
0.324807436359216 -0.116237491569825 0.417438914191337
0.322007018734203 -0.116237491569825 0.42230379341855
0.318907576751027 -0.116237491569825 0.428769634977731
0.31830687606675 -0.116237491569825 0.449844570883442
0.326413395684926 -0.116237491569825 0.45977232017788
0.31612170528467 -0.116237491569825 0.458297316551705
0.312712855403503 -0.116237491569825 0.463174271063041
0.31634494536561 -0.116237491569825 0.475810475091207
0.319088881787032 -0.116237491569825 0.482765393838582
0.313289171983089 -0.116237491569825 0.492265918612417
0.317886525675725 -0.116237491569825 0.506703257703622
0.316485606712245 -0.116237491569825 0.512350288145268
0.317294420822653 -0.116237491569825 0.525408059571283
0.32171718461235 -0.116237491569825 0.537919955052463
0.314241372849509 -0.116237491569825 0.54040882582185
0.312929784905918 -0.116237491569825 0.549720292832241
0.315261014309259 -0.116237491569825 0.556103147574394
0.32070712902802 -0.116237491569825 0.569647181831637
0.31535430065936 -0.116237491569825 0.576366056380095
0.324720376782068 -0.116237491569825 0.586522298421175
0.317540974610049 -0.116237491569825 0.592500634182687
0.320979417468388 -0.116237491569825 0.597632054372278
0.317104665721294 -0.116237491569825 0.61351185018664
0.323858847217774 -0.116237491569826 0.628565970698398
0.320944322872797 -0.116237491569825 0.628246831451389
0.316934404728827 -0.116237491569825 0.633169392917941
0.31670612935767 -0.116237491569825 0.64335619970185
0.317200619185719 -0.116237491569825 0.654869060990893
0.322786463072196 -0.116237491569825 0.666836896489081
0.317678505943056 -0.116237491569825 0.674111694886659
0.319411429951802 -0.116237491569825 0.687591534647164
0.322833895122705 -0.116237491569825 0.696489420022671
0.312694688915309 -0.116237491569826 0.697560804329906
0.323783306408759 -0.116237491569825 0.715137029058861
0.317164267508746 -0.116237491569825 0.720729200276212
0.316998515679165 -0.116237491569825 0.723723331334854
0.320109613920856 -0.116237491569825 0.733606991413134
0.317350511757485 -0.116237491569826 0.745802234479222
0.315695771178636 -0.116237491569825 0.75462314959019
0.318109996563458 -0.116237491569825 0.767204759424332
0.320644656150335 -0.116237491569825 0.773867803741247
0.319520637233622 -0.116237491569825 0.784331789756388
0.31479788757117 -0.116237491569825 0.790903237950126
0.318857179759771 -0.116237491569825 0.804518062481914
0.319717547650709 -0.116237491569825 0.806457471187667
0.317615279808786 -0.116237491569825 0.826206524245837
0.314427078333119 -0.116237491569825 0.825066119145317
0.318623490502191 -0.116237491569826 0.841111836157104
0.315988802287471 -0.116237491569825 0.8422027410257
0.31811900360315 -0.116237491569825 0.852161760707068
0.316119440382118 -0.116237491569825 0.863691217928911
0.31778312221084 -0.116237491569825 0.873559507322494
0.317996214462582 -0.116237491569825 0.875536976001483
0.315257272132781 -0.116237491569825 0.8924906548849
0.324071716516505 -0.116237491569825 0.902609155144199
0.320817111142085 -0.116237491569825 0.911943220088628
0.320506568358751 -0.116237491569825 0.919335107227379
0.319196001539447 -0.116237491569825 0.923349048240285
0.324824839923713 -0.116237491569825 0.934388336191799
0.320968757162154 -0.116237491569825 0.946482608860435
0.313253616892364 -0.116237491569825 0.946331104842848
0.32120914475065 -0.116237491569825 0.969433029800118
0.320070271184571 -0.116237491569825 0.970963336961231
0.316526119966251 -0.116237491569825 0.979180122934212
0.321125170967332 -0.116237491569825 0.984562083076923
0.319709748035021 -0.111649815718322 0.99603916053535
0.308283469286953 -0.103554275638743 0.996036861747344
0.299405711272381 -0.0976353553308952 0.996035186808945
0.293339402293948 -0.0889942670463485 0.996032665414289
0.284756662717417 -0.0792969853094035 0.99602985543259
0.274940179366334 -0.0738400008022589 0.996028329230763
0.265586027310513 -0.0535805486812368 0.996022363933494
0.261984002953416 -0.0504675759902731 0.996021471239025
0.246506015709831 -0.03443558527156 0.996655357359933
0.243202869627211 -0.0322285781610284 0.999944500914682
0.234078730961076 -0.0279138492887969 0.999831515762842
0.234588541763445 -0.01455640004172 0.999481738644494
0.216049727752811 -0.00512313840439426 0.999234719995117
0.211640756918473 0.00679649263994087 0.998922593471456
0.194329655259342 0.0212225493984497 0.998544833880625
0.195559924727083 0.0219822561249298 0.99852494025987
0.174101532737014 0.0422856821944233 0.997993276337228
0.17160711919851 0.0477648932113218 0.997849798147279
0.163202162915637 0.0596155461742555 0.997539477878248
0.155660249358934 0.0722440854170348 0.997208787940103
0.143648847070392 0.0842237512029586 0.996895089351407
0.133594638890974 0.0940103464537516 0.996638818335741
0.113684002502621 0.105358530095702 0.996341655688941
0.116202062115589 0.108872559054338 0.996249637602238
0.31152748576444 -0.116237491569826 0.287414023865683
0.308777883842707 -0.116237491569825 0.294780848916343
0.307541023101513 -0.116237491569825 0.308318214709225
0.302400525507516 -0.116237491569825 0.317362519685208
0.300139102001792 -0.116237491569825 0.320960933866551
0.303678734812694 -0.116237491569825 0.330500629818934
0.309926132575901 -0.116237491569825 0.347600048768737
0.313800064008159 -0.116237491569825 0.356875956495898
0.310763617681279 -0.116237491569825 0.363220673065093
0.311836600629768 -0.116237491569825 0.374559702528662
0.300905755008028 -0.116237491569825 0.377811830493779
0.30922102370874 -0.116237491569825 0.391196684871461
0.309293951342286 -0.116237491569825 0.400536491661679
0.310916842754131 -0.116237491569825 0.415280547526083
0.311912998124904 -0.116237491569825 0.419593387308869
0.305963685629347 -0.116237491569825 0.42502358628913
0.314756021985344 -0.116237491569825 0.437322977467986
0.302480717360751 -0.116237491569825 0.446291509206664
0.303577849057627 -0.116237491569825 0.452708184682466
0.313250694670402 -0.116237491569825 0.46198486272219
0.306610432082045 -0.116237491569825 0.476526915843773
0.3038279411989 -0.116237491569825 0.476362440608721
0.30787212815319 -0.116237491569825 0.48672406469619
0.303465708593792 -0.116237491569825 0.494258240971315
0.313088082541371 -0.116237491569825 0.508937172000024
0.299672368741202 -0.116237491569825 0.509093930560228
0.313535238188799 -0.116237491569825 0.530419576553385
0.300900818334966 -0.116237491569825 0.526078777086926
0.306916359684172 -0.116237491569825 0.539666914255863
0.301635658134868 -0.116237491569825 0.546791479763636
0.302533552690025 -0.116237491569825 0.560571027623415
0.30714729279749 -0.116237491569825 0.568045295889714
0.311090758171737 -0.116237491569825 0.58190177166425
0.308115105232365 -0.116237491569825 0.584282374902014
0.311316199756189 -0.116237491569825 0.605555221020366
0.311035680451902 -0.116237491569826 0.604756097328812
0.303420138557572 -0.116237491569825 0.611756184653363
0.303129786357383 -0.116237491569825 0.621614073126634
0.315031240930763 -0.116237491569825 0.633493338406987
0.309155369926118 -0.116237491569826 0.637735015929388
0.308348371130421 -0.116237491569825 0.649854881789238
0.309344794176648 -0.116237491569825 0.659666739095161
0.307869187787917 -0.116237491569825 0.673818104398061
0.312840961893044 -0.116237491569825 0.683794687363667
0.310429456503213 -0.116237491569825 0.684483724159027
0.306017077910497 -0.116237491569825 0.694562447607068
0.315055133992862 -0.116237491569825 0.709453023839212
0.303180737639389 -0.116237491569825 0.709225301126551
0.303935546796021 -0.116237491569825 0.722619254181545
0.302922712572984 -0.116237491569825 0.730928134987854
0.305412055377985 -0.116237491569825 0.736946270571401
0.302579755030718 -0.116237491569825 0.751260035270104
0.301501234911369 -0.116237491569825 0.75285375098502
0.301483009409915 -0.116237491569825 0.759140911384312
0.301267546921464 -0.116237491569826 0.770909897688566
0.309740882239689 -0.116237491569825 0.78871333166639
0.315200967574499 -0.116237491569825 0.798308863157509
0.308721555204944 -0.116237491569826 0.798646806636728
0.313132590998147 -0.116237491569825 0.813265987296401
0.303172909460128 -0.116237491569825 0.818917199481076
0.309529412379859 -0.116237491569825 0.832928428795522
0.303067781947435 -0.116237491569825 0.833239714307589
0.302053004284356 -0.116237491569825 0.846138252845939
0.300793736017775 -0.116237491569825 0.85602905933913
0.313057570569864 -0.116237491569826 0.871645201913897
0.306397395410787 -0.116237491569825 0.871738868027916
0.308387736682545 -0.116237491569825 0.879959505379478
0.303564927721655 -0.116237491569825 0.887740097452315
0.309551124778058 -0.116237491569825 0.90312188599267
0.31059643909112 -0.116237491569825 0.912295287976489
0.306917928652906 -0.116237491569825 0.91554409314392
0.312832963105936 -0.116237491569825 0.936574450179559
0.301805532222586 -0.116237491569825 0.937440517369219
0.306656314579518 -0.116237491569825 0.947883169543122
0.3018847438109 -0.116237491569825 0.958774239182796
0.306849358514658 -0.116237491569825 0.958978045484969
0.307109467360433 -0.116237491569825 0.976487456616388
0.309349391683684 -0.116237491569825 0.985951273473516
0.303834989657842 -0.116237491569825 0.987035540899065
0.304508911679216 -0.113330204518095 0.99603983175087
0.298230714668241 -0.0984756952697563 0.996035451503372
0.282956134859083 -0.0941382574075995 0.996034320929593
0.273807938350147 -0.0793421204507126 0.996029989861013
0.261158540436103 -0.0700365599797493 0.996027342125796
0.254927049098453 -0.0583136605740736 0.99602389941735
0.254924500539148 -0.0570874995464868 0.996023532156357
0.246156771546352 -0.0455917270794815 0.996020185490482
0.237045736909967 -0.0373202969767923 0.996017808448081
0.231007321925382 -0.0303440533203522 0.999895152895009
0.218012328168175 -0.0238945858042412 0.99972626764447
0.211871625137809 -0.0166708936899733 0.999537108609325
0.206054282715099 -0.000420407299844398 0.999111574647252
0.193888409589159 0.0128672738046605 0.998763624472013
0.183838178082638 0.0226242329485641 0.998508129505117
0.175161537689195 0.0315727116676034 0.998273805343217
0.164396099857385 0.0460957781834924 0.997893505462488
0.153653467352495 0.053073565396226 0.997710785673809
0.142370017198759 0.0704205095034769 0.997256539955951
0.138919390970037 0.072037628230968 0.997214194211785
0.124194640076475 0.0892483308362902 0.996763516103211
0.108536943216379 0.101628526770039 0.996439329263479
0.102458652542262 0.105337725537904 0.996342200475459
0.298113710960589 -0.116237491569825 0.288733124867488
0.290397108083676 -0.116237491569825 0.292257179998143
0.288905373159023 -0.116237491569825 0.293428744038794
0.300742589700009 -0.116237491569825 0.308685936818758
0.293405633530477 -0.116237491569825 0.3140084519998
0.291108557701216 -0.116237491569825 0.330875416765856
0.29558002827809 -0.116237491569825 0.335460491855142
0.288666306559201 -0.116237491569826 0.343896466397375
0.298169610503229 -0.116237491569825 0.357264698628959
0.290366346459589 -0.116237491569825 0.358214703127171
0.2982122344415 -0.116237491569825 0.377417659022586
0.302510356592861 -0.116237491569825 0.383264131660908
0.289743052331687 -0.116237491569825 0.388790208749633
0.298141709347133 -0.116237491569825 0.401859244662437
0.296667085138814 -0.116237491569825 0.404765170217435
0.294513660146803 -0.116237491569825 0.413655627139388
0.298095341002894 -0.116237491569825 0.433671909395848
0.292727035303872 -0.116237491569825 0.432850992827777
0.298731556659026 -0.116237491569825 0.445627736123044
0.295280614393762 -0.116237491569825 0.452660035130412
0.293736320819501 -0.116237491569826 0.461684328411392
0.292046952578954 -0.116237491569825 0.469372124361091
0.28800793271208 -0.116237491569826 0.476471206290556
0.299229420200071 -0.116237491569825 0.496578418922656
0.292104550195634 -0.116237491569825 0.491964600598782
0.288457988591136 -0.116237491569825 0.505503923498315
0.293422549926319 -0.116237491569825 0.513409047758754
0.296936860869186 -0.116237491569825 0.520343311124244
0.298190426667937 -0.116237491569825 0.535380841151537
0.292695837752184 -0.116237491569825 0.53983470537969
0.294810970119781 -0.116237491569825 0.552455135693811
0.299247412785838 -0.116237491569826 0.560206228020508
0.294310164297209 -0.116237491569825 0.57047787158165
0.289597327679572 -0.116237491569825 0.579440170608985
0.30099663492261 -0.116237491569825 0.591406454706889
0.294755735785217 -0.116237491569825 0.602099322482761
0.293099730985578 -0.116237491569825 0.608566347549477
0.291177539544895 -0.116237491569825 0.616095086848925
0.299088122312007 -0.116237491569825 0.624583529877314
0.299461920320413 -0.116237491569825 0.640303007191421
0.293746083118533 -0.116237491569825 0.64409161404667
0.297948031062854 -0.116237491569825 0.654611007824556
0.297474287248967 -0.116237491569826 0.6671102512686
0.293106190181024 -0.116237491569825 0.668642215586022
0.297543551966963 -0.116237491569825 0.686985788215319
0.298825348941359 -0.116237491569825 0.69520456103509
0.295065788864188 -0.116237491569825 0.699572821686709
0.291902800239499 -0.116237491569825 0.706140618650272
0.298871289279764 -0.116237491569825 0.711970240893194
0.293492211059476 -0.116237491569825 0.730998272962648
0.297170816768262 -0.116237491569825 0.727054687187783
0.290304150462831 -0.116237491569825 0.734790240251358
0.294695660643638 -0.116237491569825 0.754471345190938
0.294525895945019 -0.116237491569825 0.761996977244206
0.291620936257764 -0.116237491569826 0.770743444811469
0.300535440907734 -0.116237491569825 0.779986765169621
0.296781992100301 -0.116237491569825 0.794436136757385
0.297562413542045 -0.116237491569825 0.803521440314626
0.299639339778059 -0.116237491569825 0.805712772600078
0.288939525517965 -0.116237491569825 0.811011207047195
0.2942506944663 -0.116237491569825 0.82165787701626
0.293923549251557 -0.116237491569825 0.833457297523714
0.295690626900327 -0.116237491569825 0.838733537778346
0.295050842481527 -0.116237491569826 0.846950788154709
0.290797214247828 -0.116237491569825 0.857746412639226
0.287848893035695 -0.116237491569825 0.862186779065956
0.291679070858987 -0.116237491569825 0.881696902795958
0.301909136269677 -0.116237491569825 0.889781870041972
0.294094532580059 -0.116237491569826 0.899479898410634
0.293939031906007 -0.116237491569825 0.905138638617418
0.292701291549779 -0.116237491569825 0.91226442921221
0.296716646278551 -0.116237491569825 0.918163635683851
0.29809838181738 -0.116237491569825 0.934678159644907
0.299920381333829 -0.116237491569825 0.938809852715133
0.294451949789409 -0.116237491569825 0.953065701443824
0.293136417010261 -0.116237491569825 0.95814087605751
0.295366330467019 -0.116237491569825 0.971480227002684
0.297042516321294 -0.116237491569826 0.975092063837989
0.292538538250499 -0.116237491569825 0.979335781497276
0.295602246616395 -0.116237491569825 0.991323497058381
0.29214143997575 -0.11287888604569 0.996039833137056
0.278092151180269 -0.0943927669841724 0.996034450880127
0.272070994536363 -0.0892294088466014 0.996032970719925
0.255794877022215 -0.0760292062612152 0.996029196418593
0.256610740875264 -0.0733102774199114 0.996028372970156
0.243486255542727 -0.0600238640292994 0.996024538040934
0.234559982651718 -0.0533027710908963 0.996022623352322
0.230533076989086 -0.0481009320234318 0.996021109642565
0.214761342609129 -0.0302432188338861 0.999892512451055
0.215007100656511 -0.0198616173374215 0.999620660648506
0.202770688302377 -0.011280099814909 0.999395945703717
0.188418350816731 0.000625752248194517 0.999084179995378
0.183548477963642 0.00680922967724587 0.998922259940396
0.17053510327154 0.0162606715346388 0.998674765225203
0.171408057588779 0.0253166785783215 0.998437625335027
0.14963389279968 0.0385298774767694 0.998091625544994
0.148416920743421 0.045083490739599 0.997920013142099
0.140073730456716 0.0593815680326337 0.997545604811513
0.1348478256743 0.0649365474992752 0.997400142554881
0.118795766122703 0.08012213532981 0.997002493942969
0.112303135421759 0.0923032079668522 0.996683521330267
0.101166182124262 0.0981290108383015 0.996530967313197
0.0873318348990619 0.105587331312959 0.996335664318211
0.286973071945905 -0.116237491569825 0.280940056137174
0.278725021733981 -0.116237491569825 0.280344304239782
0.286885451461487 -0.116237491569825 0.29365175956027
0.288802237989158 -0.116237491569825 0.303103209644209
0.276311216342161 -0.116237491569825 0.30944663448899
0.279893937375075 -0.116237491569825 0.317159295604269
0.285626152177961 -0.116237491569825 0.334093913148152
0.28183281778012 -0.116237491569825 0.337056930527984
0.287445421574947 -0.116237491569825 0.350024749051809
0.28401081780035 -0.116237491569825 0.351648939634152
0.27823562397625 -0.116237491569825 0.361591201414766
0.278923402603284 -0.116237491569825 0.369586521355768
0.284171210686601 -0.116237491569825 0.388686918932392
0.288068457851382 -0.116237491569825 0.397903197693553
0.27981134959431 -0.116237491569825 0.396757491443196
0.289685492473421 -0.116237491569825 0.410876727676565
0.284015837734406 -0.116237491569825 0.418320822945931
0.279863701373977 -0.116237491569825 0.431415874126997
0.276054296544172 -0.116237491569825 0.428620279069121
0.288473197954325 -0.116237491569825 0.446117070710129
0.2857435529095 -0.116237491569825 0.456266505440641
0.277180904497798 -0.116237491569825 0.464146960584746
0.290562000031067 -0.116237491569826 0.481585901193543
0.281598265328361 -0.116237491569825 0.47794353597621
0.285596603898678 -0.116237491569825 0.490100046199436
0.284088506629446 -0.116237491569825 0.501340005861105
0.283805652240056 -0.116237491569825 0.511700973546194
0.286821911645651 -0.116237491569825 0.522683941973819
0.278382739695111 -0.116237491569825 0.529941654152905
0.279610736548802 -0.116237491569825 0.539560827264151
0.28478528850977 -0.116237491569825 0.55032311125667
0.281350690952281 -0.116237491569825 0.555067293244678
0.282528342434448 -0.116237491569825 0.56501051238344
0.287789872843718 -0.116237491569825 0.577742288276585
0.287971639511185 -0.116237491569825 0.585885924129526
0.27936525256135 -0.116237491569825 0.584079063146645
0.282334429887944 -0.116237491569825 0.596502913228164
0.287945479940169 -0.116237491569825 0.606949200253545
0.286887223301422 -0.116237491569825 0.621943769344466
0.27897345614613 -0.116237491569825 0.62421196813408
0.284315437200673 -0.116237491569825 0.633447590656699
0.282964798288336 -0.116237491569825 0.647642051769198
0.284392557524393 -0.116237491569825 0.660906053358026
0.284696096356273 -0.116237491569825 0.669397135104053
0.278156934266562 -0.116237491569825 0.672388406291543
0.277810807389633 -0.116237491569825 0.678325070427592
0.282149815870041 -0.116237491569825 0.691780249764384
0.287554424114684 -0.116237491569825 0.703122674867718
0.279742395194965 -0.116237491569825 0.703587816905477
0.285811664007772 -0.116237491569825 0.715868619395416
0.283867437995833 -0.116237491569825 0.73054185833808
0.287458659462321 -0.116237491569825 0.736623557383413
0.284717031196493 -0.116237491569825 0.74723116136512
0.281541869331802 -0.116237491569825 0.75116761033198
0.278398893955671 -0.116237491569825 0.759423025054398
0.278328675138154 -0.116237491569825 0.774802545286443
0.282990048381306 -0.116237491569825 0.77968535665442
0.289891481573416 -0.116237491569825 0.798041084155872
0.276573914614378 -0.116237491569825 0.79705861366716
0.28215580807761 -0.116237491569825 0.812567208923814
0.283417089484319 -0.116237491569825 0.816136979969222
0.282847213545936 -0.116237491569826 0.827522369710865
0.28020866696454 -0.116237491569825 0.834513524383318
0.282481991271065 -0.116237491569825 0.841677813824042
0.285463774840098 -0.116237491569825 0.854704135134842
0.284706098928694 -0.116237491569825 0.866586652071468
0.288451524008828 -0.116237491569825 0.875587959175363
0.288802430191101 -0.116237491569825 0.881335974586269
0.280439641414191 -0.116237491569825 0.885518262343158
0.283976991552138 -0.116237491569825 0.894973203788326
0.277017758107335 -0.116237491569825 0.907897023895289
0.28113885110793 -0.116237491569825 0.912329487472451
0.288915608973572 -0.116237491569825 0.926532559347037
0.27918004877556 -0.116237491569825 0.932792331410198
0.279542710419835 -0.116237491569825 0.939864970594549
0.287901783166743 -0.116237491569825 0.949372145767144
0.286558781091482 -0.116237491569825 0.963532786502495
0.282034418736467 -0.116237491569825 0.968185235593634
0.286135615542207 -0.116237491569825 0.9859003853474
0.278401238187013 -0.116237491569825 0.989878297696455
0.27703250530255 -0.110362044010897 0.996039246082525
0.268107334712169 -0.0996176890585202 0.996036126237883
0.266385030178637 -0.0951288518502211 0.996034800653463
0.257160576904833 -0.0943249835111185 0.996034661726622
0.252809167849305 -0.0769133040289801 0.996029494216394
0.237780619528065 -0.0623343356565315 0.996025293136991
0.231184774661615 -0.0590330222716316 0.996024377087428
0.219667659780045 -0.0503921522034716 0.996021915952233
0.217595928852364 -0.0400917585091558 0.996018853409908
0.205069590149175 -0.0295927804733765 0.999875480123161
0.194236880670851 -0.0181676342057724 0.999576302139081
0.180981015505924 -0.00420996946836847 0.999210807824979
0.176629871766783 0.00337036829402216 0.999012309694865
0.171985126626397 0.00791601365150302 0.998893277782053
0.159821663797625 0.0233027390598716 0.998490362197302
0.150328727338503 0.0316578863993203 0.998271574964373
0.144895173570137 0.0335500996433297 0.998222025616773
0.135585459456974 0.0530895082494881 0.997710368195503
0.126508775719271 0.0532085130625343 0.997707251944803
0.106211156141586 0.0775268181354458 0.997070454715468
0.100002498517557 0.0853590601963606 0.99686536023915
0.0932604618644911 0.094490863732681 0.996626235547963
0.0786216425752169 0.100179343660662 0.996477277458721
0.0671851162351867 0.115319223343156 0.996080825756788
0.271758250563203 -0.116237491569825 0.266063254192978
0.271734932941082 -0.116237491569825 0.264871981678857
0.274327263237323 -0.116237491569825 0.283020339375662
0.26629620909079 -0.116237491569825 0.291845509052822
