ply
format ascii 1.0
element vertex 1118
property float x
property float y
property float z
end_header
0.0886119172041667 0.125 0.805283257128082
0.0840803929907582 0.125 0.82105777816071
0.0904431944626509 0.125 0.827497580941536
0.0847692281470094 0.125 0.837433797946664
0.0904751721326125 0.125 0.842099420555019
0.0849139202604003 0.125 0.853406222090979
0.089194590705761 0.125 0.86896558926335
0.0911412119081521 0.125 0.867707417419681
0.0903918208260199 0.125 0.881914438700112
0.0814730874597585 0.125 0.894422701884095
0.0886160009809429 0.125 0.900260146124066
0.0837208744344355 0.125 0.916311899861379
0.0873212149018249 0.125 0.917721569160564
0.0891499091551666 0.125 0.933551455537287
0.0885813346496456 0.125 0.944647008979142
0.0842081684716132 0.125 0.955383878403396
0.0870091760991353 0.125 0.957024746811356
0.0890277652200321 0.125 0.973295777929393
0.082840316408558 0.125 0.979674820215136
0.0902645273133723 0.125 0.982817481466698
0.0906667489621207 0.125 0.999542468482018
0.0903611757986786 0.109922709198187 1.0
0.0895423179074464 0.11093270073846 1.0
0.0848401423284495 0.0885983912895067 1.0
0.0905214687099766 0.0675547243544772 1.0
0.0886182861683021 0.0559995426622048 1.0
0.0870316003209327 0.0457331676279877 1.0
0.0928997349374593 0.0320701362182931 1.0
0.0848254796333079 0.0119123818507565 1.0
0.0914879761720873 0.00430937492853986 1.0
0.087966657382575 -0.0155372693485006 1.0
0.0926122988141885 -0.030036853455 1.0
0.092389409070376 -0.040535926950366 1.0
0.0929285311236948 -0.0525345776464068 1.0
0.0875986912188448 -0.0776236498838992 1.0
0.0948121231066267 -0.0914546894994022 1.0
0.0968508348095749 -0.114549481579844 1.0
0.0912277435635632 -0.116939036543322 1.0
0.0960808214244682 0.125 0.111018934912403
0.0934083706243497 0.125 0.127490547781997
0.0984844462836181 0.125 0.132751848500249
0.0994971859513052 0.125 0.143925021781146
0.0931461448867757 0.125 0.1512873894588
0.0955769379177427 0.125 0.165000682457392
0.0926918094235265 0.125 0.180120536159002
0.0953903314894072 0.125 0.177604756522072
0.0974824088049885 0.125 0.192475278802354
0.0911386462168104 0.125 0.206787358392681
0.0996420184641997 0.125 0.209675439050851
0.0914773567803432 0.125 0.219578393285319
0.0930063073693788 0.125 0.229702333263087
0.0949024141141713 0.125 0.244308937232478
0.0999621450522912 0.125 0.246129876549304
0.0932790613933019 0.125 0.26140318452682
0.0939261254221247 0.125 0.266747723712204
0.0957375271008586 0.125 0.271926054296268
0.0981173293176954 0.125 0.288500780572589
0.0959722527998991 0.125 0.299092003476839
0.0951565980497798 0.125 0.309863302941313
0.0977397629893627 0.125 0.31779402479299
0.0952998716960834 0.125 0.322210429592465
0.0976836588832412 0.125 0.337557860915258
0.0981093185774591 0.125 0.349172714419923
0.0964155438803432 0.125 0.358764130457344
0.0991597744572488 0.125 0.36333276590349
0.0971076010867565 0.125 0.376851023804338
0.0971995301425432 0.125 0.391842008524488
0.0966343269283619 0.125 0.392787444544796
0.0973852315719737 0.125 0.405512542610371
0.0985662828770631 0.125 0.4053043839554
0.0940792568179423 0.125 0.422225436187144
0.0935773082258273 0.125 0.424967145508462
0.0953042887406099 0.125 0.43641541535557
0.0991013410070465 0.125 0.455939425148527
0.0994526907251149 0.125 0.46470699282263
0.0943117785232376 0.125 0.465446793021638
0.0932536703300196 0.125 0.478545674236408
0.10012126300295 0.125 0.487584488992836
0.0988170228876117 0.125 0.497309314198215
0.0982782433691567 0.125 0.501044623226562
0.0971855963003888 0.125 0.517219499044167
0.0990643770178647 0.125 0.528710428303142
0.100597162750191 0.125 0.538785846136855
0.0955070885980101 0.125 0.550696681502176
0.0941710224609315 0.125 0.559681189272906
0.0997833697139476 0.125 0.571151972499201
0.0918054324612299 0.125 0.569882352883558
0.0956638324594912 0.125 0.585747793383359
0.0990085599352529 0.125 0.592668968476817
0.0955945372215699 0.125 0.609650997905006
0.0989799356776534 0.125 0.607562810685919
0.0938465332134425 0.125 0.627687358557795
0.09291937054535 0.125 0.630825282843145
0.10045223163225 0.125 0.64300991080839
0.0936326442995041 0.125 0.645992234472394
0.0973690146898132 0.125 0.659885493433276
0.0972143485190942 0.125 0.673020100723993
0.091235051673867 0.125 0.680316473627768
0.100254841949556 0.125 0.692768441972741
0.0924804058701313 0.125 0.698801162601848
0.0940382485453815 0.125 0.704896511066807
0.098875271144525 0.125 0.714761864832482
0.0936659162132371 0.125 0.732515696538146
0.0938443682509022 0.125 0.734928424749617
0.100327690817137 0.125 0.753857230537439
0.0980731228187955 0.125 0.761193184764585
0.0931805173065098 0.125 0.764325236513724
0.0930220115454184 0.125 0.779236600871184
0.0996023544650871 0.125 0.788140293814482
0.0938214811832154 0.125 0.796929833659653
0.0941788469521546 0.125 0.806192920193602
0.0941932081903665 0.125 0.821718915157115
0.0960481332998009 0.125 0.82643293257274
0.0930436609615024 0.125 0.838404752401116
0.0932565226472942 0.125 0.8410320262589
0.0978626063058767 0.125 0.851773915252697
0.0915490226807506 0.125 0.865563829605179
0.0940996211005022 0.125 0.873551880037167
0.0981785526881527 0.125 0.883668823178649
0.100144309753431 0.125 0.891764769733602
0.0955046296786701 0.125 0.906275993076095
0.093492293552178 0.125 0.908499040083269
0.0930449488042296 0.125 0.917255540663535
0.0923876053760008 0.125 0.936747291822439
0.0986102657580451 0.125 0.938276374330335
0.0969225217863829 0.125 0.951288673350112
0.0944893713426691 0.125 0.962341320418192
0.0987250637225289 0.125 0.974648925690589
0.0983849938861281 0.125 0.976308991532117
0.0971238264606482 0.125 0.990119256721816
0.0976202270436359 0.125 0.996727065027768
0.091909519636046 0.112592532233324 1.0
0.0995305341177595 0.100991972492509 1.0
0.101389007255884 0.0851433911480179 1.0
0.0973251358967638 0.0668004917686384 1.0
0.0935238645989113 0.0573497059873076 1.0
0.0949464750655424 0.0402085755399377 1.0
0.0950280112080792 0.027063943592128 1.0
0.0991422671590445 0.0158481978340909 1.0
0.103705936869034 -0.00492828089185429 1.0
0.0971448101235015 -0.00735078561129091 1.0
0.100000566733934 -0.0275708783451596 1.0
0.100904371737147 -0.0372466052169558 1.0
0.100122913104992 -0.0612289063471772 1.0
0.104028030757029 -0.0718523146045529 1.0
0.105856275510187 -0.099053761439536 1.0
0.10795054872564 -0.11481364706333 1.0
0.100644364515761 0.125 0.110830888906683
0.101462090172016 0.125 0.128457771380955
0.106299373011125 0.125 0.133199348586861
0.104563765362915 0.125 0.141601623294701
0.105187970897286 0.125 0.152920280434665
0.106056728729392 0.125 0.166821740218281
0.105791023309383 0.125 0.179515188262678
0.103169322022234 0.125 0.181066542244757
0.104178393484685 0.125 0.195613753226216
0.10558692227523 0.125 0.202620723056273
0.110215278978743 0.125 0.211656430638426
0.101652211044895 0.125 0.22364045739392
0.101031419175909 0.125 0.231624189562699
0.1052950962463 0.125 0.236201971713
0.109595650687594 0.125 0.252184016546087
0.10290000194888 0.125 0.259148982296994
0.108754079097783 0.125 0.273996087177598
0.106037349325695 0.125 0.279465130362794
0.105797625024883 0.125 0.289370379570464
0.105011015180696 0.125 0.296973835093516
0.103625792636336 0.125 0.305372542256159
0.104841976093567 0.125 0.31730824383051
0.104042540211055 0.125 0.322296406092609
0.109840649287272 0.125 0.336985220560833
0.100717456109323 0.125 0.34304981553429
0.102886768349655 0.125 0.357555728705322
0.110287500664311 0.125 0.367454994737358
0.104855213908901 0.125 0.378220165410838
0.10499949696615 0.125 0.380543172266392
0.103587360069942 0.125 0.391681859114677
0.107185524487358 0.125 0.402561438435033
0.105055454259727 0.125 0.420904030669175
0.101003832105984 0.125 0.422171974201949
0.107980632581218 0.125 0.435095987389563
0.109144865640429 0.125 0.442732612185032
0.101160342007445 0.125 0.450464594390736
0.104689643601889 0.125 0.459682985126703
0.109709636401435 0.125 0.461200151622461
0.10418898890828 0.125 0.479547741221538
0.101981217921344 0.125 0.486582629304921
0.109193408828465 0.125 0.502687114947564
0.106040416370528 0.125 0.51382993102535
0.107614304391223 0.125 0.522856652970212
0.104080199019344 0.125 0.529452085311122
0.108946287520342 0.125 0.536830929975066
0.110089413436209 0.125 0.542754357172337
0.103973324781497 0.125 0.554504363595594
0.108714100401816 0.125 0.572266685747448
0.105832957957161 0.125 0.569925069368626
0.109575515901063 0.125 0.590161795247115
0.105639778352937 0.125 0.591388583363281
0.104626613578597 0.125 0.60702659615675
0.108471378027194 0.125 0.615483420802822
0.110049138198358 0.125 0.628840783286371
0.102658047748595 0.125 0.633621521557099
0.105931913747847 0.125 0.644651415553041
0.106843811432848 0.125 0.657987254128158
0.10277245415225 0.125 0.664594871650817
0.100710565035462 0.125 0.665510282060203
0.103378970196711 0.125 0.678552767968176
0.100752080156763 0.125 0.689340881115328
0.10232773023258 0.125 0.696763129483691
0.100640764567106 0.125 0.706945746620616
0.108844158150577 0.125 0.720583642796926
0.109513887796451 0.125 0.730360291528251
0.100982609668978 0.125 0.742459755903937
0.102696688469949 0.125 0.747633043932552
0.104811701372391 0.125 0.759117232027361
0.104587249409252 0.125 0.763145320738006
0.105666256212249 0.125 0.778852467984811
0.100673927875891 0.125 0.781424222973618
0.103795664289606 0.125 0.790327943621126
0.109651503092175 0.125 0.803958039684138
0.109494076533118 0.125 0.810585140915443
0.104039122552559 0.125 0.825717584119806
0.107415627645817 0.125 0.839559526245548
0.105712328952735 0.125 0.848334281609388
0.106408361244448 0.125 0.855955489636785
0.100725904912953 0.125 0.864719995134049
0.101780779611013 0.125 0.866942887550453
0.107510956335516 0.125 0.88104580915817
0.102934458714086 0.125 0.895376180869687
0.109432514500989 0.125 0.908826038456537
0.106416972820359 0.125 0.908349360769618
0.103601409227591 0.125 0.915169583313601
0.101702488697266 0.125 0.93414768043365
0.109789966977043 0.125 0.936203199033286
0.106589916967298 0.125 0.949372166664071
0.104118566423119 0.125 0.961803016979759
0.103765611954098 0.125 0.964354889806529
0.109143831176714 0.125 0.972782914734057
0.108446323658204 0.125 0.983331747487069
0.102126996738479 0.125 0.999666198388922
0.110019767646574 0.107593406722426 1.0
0.107558201782708 0.109556284850924 1.0
0.111117250849071 0.078764749732815 1.0
0.111784406805937 0.0735977165969026 1.0
0.109410963220271 0.0583313912005261 1.0
0.103452703068053 0.0538658911733351 1.0
0.108557898334189 0.0384567489802374 1.0
0.109834975991518 0.0145353247450606 1.0
0.114759126371687 -0.00246493015279994 1.0
0.111756264990042 -0.0184266894189307 1.0
0.115234069714847 -0.0374822602282796 1.0
0.113043329758505 -0.0457334802360321 1.0
0.113189982621014 -0.0613765449851625 1.0
0.116201593580485 -0.0693457454936497 1.0
0.115066817597326 -0.0872741190474553 1.0
0.111123747980391 -0.106060639387164 1.0
0.11373640103824 0.125 0.111861826076762
0.118928328382427 0.125 0.128434676319403
0.119377838413591 0.125 0.134239248659406
0.116911748681263 0.125 0.142756802804409
0.118365659053713 0.125 0.154195031247871
0.115376876679575 0.125 0.162527210045907
0.111326002094919 0.125 0.167753295366078
0.11406659883553 0.125 0.18236304409763
0.119150088164758 0.125 0.194010797101918
0.115838459254119 0.125 0.202983400604137
0.117812731056444 0.125 0.213086139230593
0.113196005339935 0.125 0.221519477545148
0.116584407297162 0.125 0.229187445745198
0.111448674824118 0.125 0.240199085777499
0.116865566941348 0.125 0.247562877226214
0.11299436479308 0.125 0.266648278675287
0.117598525878159 0.125 0.270008789338166
0.112628539071789 0.125 0.270708770267269
0.113562587142525 0.125 0.288582121510807
0.115144554365569 0.125 0.299083461909468
0.117939112766453 0.125 0.310295537719631
0.116217309859083 0.125 0.315170684865277
0.112575376331114 0.125 0.333647056434069
0.117283845804968 0.125 0.336531537177597
0.119573055718882 0.125 0.345853303765443
0.116533231582477 0.125 0.350313632481444
0.113932884433328 0.125 0.364750957827308
0.118338032366868 0.125 0.371275768679709
0.110887046285408 0.125 0.383334506664176
0.114457921527204 0.125 0.401407087956604
0.110351095969354 0.125 0.40639973889728
0.115115026299844 0.125 0.412358210732848
0.110435897733113 0.125 0.41525276981845
0.113502276323199 0.125 0.430221519947291
0.110654837816669 0.125 0.444321790375694
0.114719099572529 0.125 0.45027793015967
0.110506465490262 0.125 0.463929086162894
0.116699447302476 0.125 0.47179832155016
0.116114283251202 0.125 0.474812031757407
0.111281756425469 0.125 0.490272016986839
0.112299657772769 0.125 0.501578181445014
0.115719403499966 0.125 0.50863820819392
0.111994754352019 0.125 0.513733638639479
0.119361872449262 0.125 0.528718601154742
0.117325670162433 0.125 0.537385344307049
0.111397914070071 0.125 0.547706599370326
0.113839468019547 0.125 0.553587208909853
0.118271100327976 0.125 0.565955185923018
0.118700271669727 0.125 0.568602406111843
0.116440070974396 0.125 0.583025066699093
0.111574332031729 0.125 0.590251620490882
0.118641783767341 0.125 0.606814692853932
0.114906793550215 0.125 0.617364925650273
0.119822365697774 0.125 0.615610786469799
0.110340024778898 0.125 0.632066813685995
0.118893119008225 0.125 0.6371056450889
0.119679728538162 0.125 0.655285098501813
0.115018395735271 0.125 0.664823341061989
0.118212811732297 0.125 0.672757347542404
0.115673564579371 0.125 0.679103311311436
0.115334776520135 0.125 0.691522282986094
0.111618563825356 0.125 0.702558893117072
0.116324989645034 0.125 0.707061409587653
0.116202545266399 0.125 0.716082957258994
0.115383490747066 0.125 0.724971079139483
0.113384258390463 0.125 0.738638703092438
0.114449832563848 0.125 0.747664217447201
0.111917660264069 0.125 0.758415245481185
0.112855876937732 0.125 0.764942177033611
0.113758225314348 0.125 0.782126694993451
0.114806571034985 0.125 0.790277504930677
0.110652096569632 0.125 0.793086353563597
0.113613309870184 0.125 0.805309502614642
0.118188794297767 0.125 0.811388671934178
0.115402076541824 0.125 0.828300996943568
0.117361864039618 0.125 0.828783520746413
0.117652018846543 0.125 0.851525708136435
0.114914120564082 0.125 0.85076545381305
0.115889350145262 0.125 0.866930686005257
0.110767298113053 0.125 0.869916573903552
0.115853807458211 0.125 0.884683411834129
0.111438777161068 0.125 0.892395662970126
0.118149249103352 0.125 0.8986262986887
0.111817530050724 0.125 0.909062884640327
0.119244982150015 0.125 0.917592088857151
0.118214357288965 0.125 0.928144087850341
0.118122187891865 0.125 0.9453108919081
0.1102383484131 0.125 0.954146918660297
0.112630902315939 0.125 0.960269801640372
0.116637839704415 0.125 0.96804046460508
0.114450560474171 0.125 0.98148426296932
0.116517244139533 0.125 0.988713923944477
0.114838060464711 0.125 0.989607046782214
0.116018076884064 0.115814864178629 1.0
0.113437364223145 0.107050433756209 1.0
0.115488934140865 0.0852697088499168 1.0
0.112336022492841 0.0675565847931301 1.0
0.120301053477867 0.0596701677028921 1.0
0.116554731243337 0.0337200567443569 1.0
0.114851443316451 0.0379434918118266 1.0
0.122360513390554 0.0131449820797988 1.0
0.120453244541838 -0.00969755231000183 1.0
0.118514628349555 -0.0129368148927531 1.0
0.122110233596151 -0.0348223385467019 1.0
0.125005362842806 -0.0338465779132062 1.0
0.123635591094487 -0.0690157117648744 1.0
0.127983659960481 -0.0742297523549249 1.0
0.124196062967456 -0.0844072254712356 1.0
0.120961819561455 -0.118932888703996 1.0
0.125451471170372 -0.120186885085368 1.0
0.128854389782049 0.125 0.121180204641521
0.12295786997816 0.125 0.131145618408233
0.122831879462972 0.125 0.130480690474721
0.124411211564283 0.125 0.141044357505281
0.122597858453177 0.125 0.158514154848035
0.128259916609331 0.125 0.164247206619106
0.120931895529833 0.125 0.173351261302134
0.128900162932724 0.125 0.180708059183291
0.12098474354333 0.125 0.1921280856255
0.127183316895583 0.125 0.203102185179624
0.127455505214026 0.125 0.204528262510551
0.124854784228383 0.125 0.223065605999945
0.128416536435626 0.125 0.233093010798399
0.121682506975352 0.125 0.237111239074232
0.121144203135948 0.125 0.251708439675363
0.128254998020756 0.125 0.261243991085045
0.126441135445867 0.125 0.268788583316853
0.12259438220092 0.125 0.27794354411194
0.128424748027632 0.125 0.288970669940078
0.125256106435416 0.125 0.293331004913545
0.121163477480129 0.125 0.306467033579891
0.123989349465847 0.125 0.317189356886749
0.120718289840993 0.125 0.319801412498577
0.125984932825586 0.125 0.336295986286035
0.122502223112517 0.125 0.347925372012115
0.120610501630826 0.125 0.35446045151817
0.123501564418697 0.125 0.359975029259044
0.124650468529205 0.125 0.373601706650423
0.124882629443871 0.125 0.380428923385927
0.123864083930627 0.125 0.397065919763626
0.119800195036159 0.125 0.403688050137273
0.121827053651917 0.125 0.412801005485924
0.124715923088004 0.125 0.413634928462399
0.119738120189249 0.125 0.430571485206051
0.123954318989681 0.125 0.432607517477376
0.121806872775292 0.125 0.451217736389986
0.12486865893246 0.125 0.455560756797841
0.12397941020844 0.125 0.474014040069874
0.123379447358323 0.125 0.475377256403883
0.127918564156277 0.125 0.494105490865542
0.120338993891977 0.125 0.499403455958421
0.125134207045381 0.125 0.511824848503853
0.122967284825044 0.125 0.521620632372767
0.122696897605535 0.125 0.529322241633299
0.124115017654598 0.125 0.54079457081582
0.128116716455292 0.125 0.550484965856206
0.12165349405246 0.125 0.563167592775853
0.128872044361246 0.125 0.566373492241517
0.12179468561526 0.125 0.571341083711309
0.122512545319541 0.125 0.580545251857887
0.129447878469942 0.125 0.591266628006349
0.12484104863334 0.125 0.605617444333872
0.129361256536028 0.125 0.61080545554745
0.126948073791193 0.125 0.620827733007429
0.123420672165458 0.125 0.636431442918141
0.127283963134568 0.125 0.63987191605286
0.12202076203294 0.125 0.653711118343971
0.122805105529546 0.125 0.658949194538405
0.126134165739514 0.125 0.667451559436255
0.120881416485325 0.125 0.677943479751967
0.12898837393414 0.125 0.689956028966742
0.12243214319588 0.125 0.703626190972022
0.127082365638351 0.125 0.712086648053085
0.122443030204696 0.125 0.721707724224237
0.126302428879578 0.125 0.731402177728799
0.128440932549944 0.125 0.742500038223132
0.121778644562708 0.125 0.744324532174355
0.12136519013807 0.125 0.756503600262918
0.127741075401219 0.125 0.761722468594435
0.12890003256495 0.125 0.774490666425968
0.122186815400598 0.125 0.782517748537031
0.124889760712209 0.125 0.798662978749097
0.121363437167913 0.125 0.800594176227492
0.127425314653451 0.125 0.818093880884557
0.12298126661928 0.125 0.822541956550963
0.123822997104424 0.125 0.836259611462987
0.12892940056224 0.125 0.846202026806479
0.120455658897701 0.125 0.859815198099298
0.125029443501519 0.125 0.85745825288775
0.126194220805233 0.125 0.868675350373496
0.125184163130097 0.125 0.885665070651355
0.126379390566138 0.125 0.89754459432568
0.123012797216856 0.125 0.898697195713833
0.123398572421525 0.125 0.911959321322978
0.122361754282939 0.125 0.921648147296299
0.122862049702962 0.125 0.929193955213778
0.121928368165813 0.125 0.943840456771791
0.122534589870044 0.125 0.953281412339218
0.129544063124986 0.125 0.958124368103925
0.125940149461586 0.125 0.96674640902607
0.123401368186611 0.125 0.978460764427594
0.129264270199164 0.125 0.984350343638255
0.121290574341169 0.125 0.993029451823626
0.12629020514071 0.114307124417369 1.0
0.121427932052783 0.0958755825736088 1.0
0.125803157840219 0.0853329370659006 1.0
0.128028530165628 0.0787386780366135 1.0
0.128171364235486 0.0531891589325943 1.0
0.130848672393717 0.0445089037095507 1.0
0.127396982120538 0.0346300326687965 1.0
0.132091330176497 0.0264178912449106 1.0
0.131095053836993 -0.00689734439251846 1.0
0.132511343375111 -0.0153280425803706 1.0
0.134853580962762 -0.024468931498554 1.0
0.135632767209236 -0.0478443986634769 1.0
0.134157054041109 -0.0612200727986818 1.0
0.132450959039171 -0.0847421967338549 1.0
0.136858217033535 -0.0950458516690987 1.0
0.139382751612504 -0.10925458143927 1.0
0.131196106023891 0.125 0.121500173445388
0.131972695246862 0.125 0.123219337003347
0.134577196292314 0.125 0.130174930268768
0.135184568963893 0.125 0.141687668352607
0.137401060912246 0.125 0.1555241040535
0.134946780442349 0.125 0.16551934057273
0.13866749565576 0.125 0.169677105924276
0.135817156008908 0.125 0.179111578688145
0.138398890236968 0.125 0.199081351619903
0.133768135691396 0.125 0.20465992155324
0.138264139050633 0.125 0.215222101277437
0.129850764403038 0.125 0.212137568327952
0.137291718778514 0.125 0.226030010160892
0.134668395306784 0.125 0.237955351335018
0.133913737286143 0.125 0.249675200846587
0.132926616587222 0.125 0.260209687857691
0.131738546704669 0.125 0.268084225171722
0.134278671690432 0.125 0.272031500082351
0.133779272781032 0.125 0.290452653105217
0.133423148472507 0.125 0.304097337199134
0.13290310439093 0.125 0.313604637999993
0.138089835360963 0.125 0.318561653053323
0.137121334913317 0.125 0.318123165771299
0.129831498712162 0.125 0.330454129073126
0.132745723546165 0.125 0.346683139112406
0.132973111432855 0.125 0.362730296740027
0.137161490642374 0.125 0.36838207574471
0.133850821220741 0.125 0.374751096796745
0.136183627480353 0.125 0.38283540960874
0.133016515245386 0.125 0.38969201122581
0.134639226308561 0.125 0.411210298047085
0.132973888445196 0.125 0.404620861829095
0.138614401160335 0.125 0.422124971723708
0.137912019635733 0.125 0.433529439826551
0.139076699484543 0.125 0.434781855657895
0.134197153859782 0.125 0.454904087753517
0.129960142513276 0.125 0.45836003880108
0.134147670574676 0.125 0.470062169028323
0.130989956194455 0.125 0.486711157317072
0.135816514877198 0.125 0.492186803183752
0.134806154102416 0.125 0.492579300096939
0.137886742207171 0.125 0.513435463541188
0.130350708852644 0.125 0.519108855115724
0.138581819118894 0.125 0.522644799001038
0.132057485650203 0.125 0.536666643530463
0.129825494501152 0.125 0.547937975571425
0.133464727313604 0.125 0.554102452365421
0.130446958184641 0.125 0.562963416566418
0.132186320333136 0.125 0.5759645597136
0.130433333744554 0.125 0.586266141866691
0.136257378042041 0.125 0.594648205617516
0.131586761184149 0.125 0.602880322321218
0.134152733253106 0.125 0.615836650476008
0.138224069594908 0.125 0.622842734661378
0.132815460232842 0.125 0.631256018818951
0.132751431741359 0.125 0.637148219176257
0.136945324952604 0.125 0.653275772070548
0.135918515706242 0.125 0.656869228919207
0.132840202165146 0.125 0.678599341382987
0.133305898351889 0.125 0.679783778490468
0.13413145024192 0.125 0.691126239677961
0.131245558844069 0.125 0.698281956977738
0.131429468175706 0.125 0.704982814191513
0.139152835352028 0.125 0.718931089611054
0.131138144068591 0.125 0.722480571633605
0.129790945984773 0.125 0.73542766891081
0.136669886129526 0.125 0.743619780373319
0.134271434293946 0.125 0.757527775603481
0.129892102466782 0.125 0.760876736936642
0.134188270432066 0.125 0.775941120202247
0.135389912775548 0.125 0.782714632617258
0.132788176373703 0.125 0.794663280011704
0.138357103496468 0.125 0.807271412542848
0.138555921249951 0.125 0.810223002033066
0.129237307293784 0.125 0.829226496364722
0.132649499118461 0.125 0.832473715819646
0.132331018090028 0.125 0.848346581318126
0.135494566100121 0.125 0.85922062369347
0.135040302749715 0.125 0.864841583623003
0.133582583523836 0.125 0.874982028490988
0.137568652026511 0.125 0.885239877589603
0.130215197612676 0.125 0.887176445144261
0.136090672757652 0.125 0.904228789640568
0.132829459432616 0.125 0.914767952605694
0.13843792962316 0.125 0.925610785775357
0.129888379334643 0.125 0.934699546245979
0.134341550423142 0.125 0.937529511281214
0.138227920384815 0.125 0.951454913125753
0.136191839523588 0.125 0.960265913832303
0.138353120788644 0.125 0.968038087230485
0.136684347357248 0.125 0.981057819961416
0.137698715472372 0.125 0.991409251663883
0.135563004736179 0.121064979644087 1.0
0.131893366893496 0.108513160092013 1.0
0.134075864971348 0.104373133986325 1.0
0.136207753803574 0.0839326994826059 1.0
0.138458836815202 0.0817069540586539 1.0
0.136878933031596 0.0633334006094994 1.0
0.134442264049662 0.0371536375799301 1.0
0.135421892458996 0.0343964802596374 1.0
0.14144177408413 0.0252642484088703 1.0
0.14276176932881 -0.00166868298179293 1.0
0.136878418599185 -0.0190462218543601 1.0
0.137485954199387 -0.0310763482330372 1.0
0.13812086737551 -0.0389784335653265 1.0
0.139645903439559 -0.0649171447511985 1.0
0.140837202545735 -0.0805810609982283 1.0
0.140943271604074 -0.100313385631936 1.0
0.146178535258272 -0.109627843606523 1.0
0.145504853026165 -0.123533474295288 1.0
0.14462635917519 0.125 0.113667262689205
0.144523326956817 0.125 0.130525916679276
0.139860096227603 0.125 0.135850770048042
0.140955837658165 0.125 0.146888057212937
0.146598382503862 0.125 0.160935211815601
0.145220036941641 0.125 0.163684541310533
0.13923590362956 0.125 0.173229454369928
0.140890702301846 0.125 0.186068651608212
0.143168774667815 0.125 0.193215968082706
0.147746918639237 0.125 0.206441105081471
0.14593018748561 0.125 0.204349327167376
0.145342359040487 0.125 0.221732564242723
0.145919944905727 0.125 0.233913967765558
0.141617502023404 0.125 0.241138241558783
0.140235998067619 0.125 0.256006835559737
0.140232585476231 0.125 0.266243292489805
0.143075851213583 0.125 0.275779714418151
0.145797902250314 0.125 0.279566718276251
0.142325950312286 0.125 0.290397646755942
0.14087371550028 0.125 0.292704650691897
0.141040935752172 0.125 0.308361044298837
0.147212111152577 0.125 0.322317422938871
0.148240187314932 0.125 0.325507770195386
0.148249713693279 0.125 0.339585677653713
0.143875411115697 0.125 0.34160816058061
0.139260493308563 0.125 0.354067821381231
0.144854414292384 0.125 0.358358885648713
0.142601780565 0.125 0.372428009489136
0.145874226941262 0.125 0.379629695116077
0.142155779739955 0.125 0.38576806458323
0.147126096599894 0.125 0.402232588907148
0.142631044398416 0.125 0.405637644433313
0.145328742829935 0.125 0.423728201517418
0.147202743930313 0.125 0.430053984668729
0.143528059137311 0.125 0.438498440373242
0.1482211416472 0.125 0.446064668068681
0.13941184440663 0.125 0.465160120945471
0.139571337888302 0.125 0.468860536469185
0.141436887300249 0.125 0.481094128979588
0.146667400438185 0.125 0.486783344572991
0.139120222222936 0.125 0.500818960878381
0.142705527839018 0.125 0.509481465317839
0.141282986017393 0.125 0.517317832341172
0.147929018171794 0.125 0.522765298835733
0.143515059757698 0.125 0.53716016558125
0.145166515513016 0.125 0.554790789558422
0.143631150577767 0.125 0.562076538239456
0.143628479968749 0.125 0.564603009661144
0.140258643552364 0.125 0.578653318577738
0.143305769124696 0.125 0.582996476389086
0.143900011577332 0.125 0.594576575353906
0.145428256760345 0.125 0.60649295030245
0.148431026965358 0.125 0.611829831494235
0.147958219642845 0.125 0.621481679021733
0.147054525545828 0.125 0.628686891512344
0.147554344088792 0.125 0.642089324861189
0.140591736553311 0.125 0.653256417448404
0.141873582812023 0.125 0.663924616494611
0.14171856094544 0.125 0.669921765977939
0.139738131183377 0.125 0.676983800705267
0.146504523504659 0.125 0.690122679556453
0.141835805945168 0.125 0.701516347689628
0.148132020197631 0.125 0.707877857604333
0.141127472715118 0.125 0.724071490258894
0.142819605079321 0.125 0.726424849489424
0.143770902190753 0.125 0.744888260355954
0.142040544489553 0.125 0.741081118701062
0.139976127951434 0.125 0.759764518039832
0.141524819062892 0.125 0.767504116690313
0.142309176772835 0.125 0.776192130264385
0.143296924911088 0.125 0.780412737153801
0.148201492399242 0.125 0.792948610634584
0.14668913588839 0.125 0.803716597330827
0.143585562849129 0.125 0.81810761425622
0.147396941068583 0.125 0.825987479962699
0.147530440995196 0.125 0.828440748902136
0.14616388883059 0.125 0.83736918320026
0.143218349497078 0.125 0.854309884114792
0.141160642955654 0.125 0.858018351744876
0.143405692284536 0.125 0.875750035068369
0.141333427286017 0.125 0.885299919708956
0.142858248176116 0.125 0.891744548921986
0.146937651054548 0.125 0.902470834608621
0.147856697755525 0.125 0.910612838143214
0.142278071735159 0.125 0.919942825142563
0.14181929056798 0.125 0.929257507126873
0.144977277017243 0.125 0.94593244060171
0.142039175915073 0.125 0.951662024891405
0.142666749159369 0.125 0.953348995846948
0.147876424997406 0.125 0.96975102829171
0.141820218555205 0.125 0.976121580068165
0.140802692980237 0.125 0.982731520598087
0.142940589747408 0.125 0.999842125621726
0.14718417147776 0.122874151499958 1.0
0.140225889826128 0.0943887237019027 1.0
0.144427644037232 0.0820036975077287 1.0
0.141837567280353 0.0759523874685559 1.0
0.142631868938904 0.0562620650083744 1.0
0.152312520024376 0.0362619788639846 1.0
0.14453028219614 0.027543538116161 1.0
0.14678691638068 0.0176846202198732 1.0
0.147064993582894 -0.00535145111664506 1.0
0.150879693100195 -0.0138226054108178 1.0
0.153703592941934 -0.0254662164730939 1.0
0.15319320474859 -0.0404390733278067 1.0
0.152163423750231 -0.0616959197228613 1.0
0.148673191774149 -0.0793590292353748 1.0
0.157489176141339 -0.0966848000338661 1.0
0.156056416945468 -0.110826522723675 1.0
0.16035192938044 -0.123515111203043 1.0
0.151496488136004 0.125 0.116782953773857
0.14831709514713 0.125 0.126940249922743
0.157240482781644 0.125 0.137996101020211
0.157356768456399 0.125 0.146058096910493
0.149587528907598 0.125 0.153675090926908
0.154320156944667 0.125 0.171164583196124
0.157316860302116 0.125 0.171188350511698
0.150914851736421 0.125 0.181136063952968
0.153104074007951 0.125 0.193244253804355
0.15529233550444 0.125 0.193792323659731
0.15295537947206 0.125 0.202914637035372
0.154911686978306 0.125 0.218493268039468
0.154082853140817 0.125 0.22835828158393
0.155281698173792 0.125 0.240321891331085
0.149395171155922 0.125 0.246708047692103
0.151846741031457 0.125 0.262983482574588
0.154579694453814 0.125 0.268651065681397
0.156100435932369 0.125 0.278178042711116
0.148673442451364 0.125 0.289842709581608
0.15363521627831 0.125 0.295537352171359
0.156023218277129 0.125 0.310864077314042
0.155289411569611 0.125 0.316871122316718
0.154907410087877 0.125 0.334114589291238
0.154364124374324 0.125 0.341961042526869
0.149531990827141 0.125 0.341475554501885
0.15689346945901 0.125 0.35485383986348
0.154486546373736 0.125 0.36722422159179
0.156014335091392 0.125 0.37589392791311
0.155141491150347 0.125 0.3925793264509
0.1564896284819 0.125 0.392587961605246
0.155090747447609 0.125 0.401595944395972
0.151882627045047 0.125 0.416874249733071
0.153505441015466 0.125 0.414885050382721
0.15655125306222 0.125 0.428712974189204
0.153511473701605 0.125 0.437117538255634
0.149259011288832 0.125 0.447438748655302
0.150874354034632 0.125 0.465331839857115
0.154349364887972 0.125 0.476205375156941
0.155568336946635 0.125 0.474885296728467
0.154941247451316 0.125 0.490869173512318
0.152374471937619 0.125 0.500740601557298
0.155644308438994 0.125 0.517155143054036
0.153649195486474 0.125 0.512881337263867
0.151004902184784 0.125 0.52971774053357
0.156712666924135 0.125 0.538358564940349
0.15238180489561 0.125 0.551743578259066
0.156372123856946 0.125 0.559321125328592
0.149002606307264 0.125 0.563757000795194
0.157346495821555 0.125 0.573773022464846
0.149456160480134 0.125 0.589538080552281
0.155288372838665 0.125 0.591168855569729
0.153831036663109 0.125 0.5982750606039
0.155520981459127 0.125 0.606669579650175
0.155091032116647 0.125 0.619216908305595
0.154281285749207 0.125 0.629483450035659
0.149825440555292 0.125 0.644917867949026
0.152474506292648 0.125 0.653963221543444
0.152443899830005 0.125 0.658330327680615
0.151604843891456 0.125 0.669439487061488
0.155073791679513 0.125 0.685563841934204
0.150194297649469 0.125 0.688478107298143
0.148587412743464 0.125 0.703241486124727
0.154278203620629 0.125 0.709234890983076
0.156015151160029 0.125 0.720854283881395
0.155369946377561 0.125 0.732462071738209
0.157617548878844 0.125 0.742020172674249
0.158044273635015 0.125 0.744477448164421
0.151907836067707 0.125 0.759552688839793
0.153485510963833 0.125 0.764438320913758
0.152536927483989 0.125 0.778648131888252
0.157897554087734 0.125 0.786147098919164
0.157667057579233 0.125 0.794551090224283
0.151878695623881 0.125 0.802519072478509
0.153141836609971 0.125 0.816299811284822
0.153487670506651 0.125 0.82108294856372
0.153333645073576 0.125 0.831062883328384
0.156725478568234 0.125 0.846625269549616
0.152394794150806 0.125 0.854089243750214
0.157137129249011 0.125 0.870691022013559
0.150808188957866 0.125 0.874244455852662
0.154761962459087 0.125 0.878569548005464
0.157335767690621 0.125 0.891141005819037
0.149843222011479 0.125 0.90152833743946
0.155773019927612 0.125 0.91199974562288
0.150164075891796 0.125 0.923598624633015
0.14962363484181 0.125 0.93267625677933
0.148504864695052 0.125 0.939345627551725
0.153974148647861 0.125 0.949557269985104
0.152263849547183 0.125 0.961823423876354
0.156591917038485 0.125 0.963453234778498
0.156222681850526 0.125 0.980882240281187
0.150148630501595 0.125 0.981137051281184
0.149000307820807 0.125 0.989431580137358
0.151143924063472 0.113016234697486 1.0
0.15280740059145 0.0958214644928952 1.0
0.159567364719945 0.0939196595471112 1.0
0.159433827951913 0.0667242691838882 1.0
0.160026395201246 0.0598959869733439 1.0
0.15789915086745 0.0418824240663831 1.0
0.159715832327912 0.0315734474155267 1.0
0.155716530678678 0.0119881593689998 1.0
0.165079954924153 0.000348535096812833 1.0
0.158141860027054 -0.0184701846822151 1.0
0.163321322234757 -0.0284177440910712 1.0
0.161333858949618 -0.0467204456438251 1.0
0.166924630514048 -0.0613300521161247 1.0
0.165378737807736 -0.0680504517390395 1.0
0.165086219014969 -0.0842379755049297 1.0
0.164536387907579 -0.102481002904549 1.0
0.170157677059769 -0.121845704270295 1.0
0.160919257248207 0.125 0.109475949769533
0.161816054012276 0.125 0.120809968929577
0.162899010780771 0.125 0.133906710556154
0.160974741037126 0.125 0.147271850986013
0.161989894859626 0.125 0.158550138350201
0.166543367898942 0.125 0.161857193337304
0.158300678101869 0.125 0.17353696633573
0.162235146379835 0.125 0.183245262486007
0.159256233133749 0.125 0.190608496617633
0.161278445664006 0.125 0.197694006332773
0.159602235114952 0.125 0.210717910826343
0.165209964291146 0.125 0.222642118407582
0.160404589486043 0.125 0.22297788119703
0.167825649282123 0.125 0.235650004590577
0.162923905098603 0.125 0.247998622650795
0.159024607955254 0.125 0.260547316977655
0.159152971982495 0.125 0.276219095114199
0.161783798367037 0.125 0.278795934439293
0.166421020327177 0.125 0.287702448245439
0.163549743586027 0.125 0.293129432898758
0.162396344739172 0.125 0.30597421412194
0.163017278149017 0.125 0.320221858527278
0.160607455609018 0.125 0.329289677268017
0.158182685275046 0.125 0.332865536297776
0.163003181380947 0.125 0.345215184173439
0.159342674543122 0.125 0.347149285490303
0.165447139959043 0.125 0.368338664844951
0.167495078499704 0.125 0.370236910293732
0.161705502898518 0.125 0.388934867426954
0.164178017827068 0.125 0.391675285030388
0.160060260609116 0.125 0.395290772262761
0.166588663808774 0.125 0.405308992734056
0.160213661501789 0.125 0.424409760486538
0.167006253381412 0.125 0.435903745525178
0.16135513325416 0.125 0.437483352524443
0.167870218807762 0.125 0.453170773607545
0.161500222434487 0.125 0.4605187898078
0.167186533518511 0.125 0.470653484000598
0.162713190193111 0.125 0.475837955145229
0.16568647672219 0.125 0.486614521024131
0.165331545533502 0.125 0.496397869038965
0.15958435123981 0.125 0.507402985292257
0.162920889385373 0.125 0.52287867251091
0.166154930967887 0.125 0.529833460308889
0.16395383493437 0.125 0.538110094417263
0.15946802410246 0.125 0.548500146037501
0.164562353386056 0.125 0.561764731422402
0.158443124942688 0.125 0.563733824073759
0.159596665576841 0.125 0.573133622693876
0.160757776954619 0.125 0.591008376684597
0.161619494692816 0.125 0.595128987208517
0.164734614393484 0.125 0.606378376342465
0.16428045903946 0.125 0.606275698440956
0.161633870665669 0.125 0.618289484813904
0.162131160940712 0.125 0.626738501875597
0.162511757892911 0.125 0.642960858177748
0.162190354111636 0.125 0.647477480553972
0.161527956861633 0.125 0.659486887056891
0.16199148824709 0.125 0.66913324123056
0.165494236903654 0.125 0.676923804946659
0.163614778490557 0.125 0.692079043642358
0.159588038642463 0.125 0.700354274520468
0.16234325673473 0.125 0.709581084006044
0.162526628507052 0.125 0.713597493224792
0.159099213756488 0.125 0.731604903072532
0.16459864628999 0.125 0.736906908970903
0.158071866269477 0.125 0.752071390856266
0.165625485567441 0.125 0.758933538869769
0.158600900325696 0.125 0.766808240614795
0.165915477076807 0.125 0.781886667392474
0.167071104360377 0.125 0.788843724480206
0.160276544200842 0.125 0.799709924144141
0.159872147367112 0.125 0.805824232764166
0.164004066280014 0.125 0.815628151427848
0.161220386317627 0.125 0.828894329425366
0.16679250813088 0.125 0.837247642065713
0.160304968313469 0.125 0.850915023821325
0.166208701269944 0.125 0.856520884925911
0.166447812559155 0.125 0.865043616623291
0.161190682013652 0.125 0.878728692210402
0.158104582891032 0.125 0.886996437036057
0.163337555408972 0.125 0.88573998201589
0.162417816729202 0.125 0.907603023556403
0.164380553311953 0.125 0.912168737762979
0.167037894775363 0.125 0.918445763777567
0.160641345389811 0.125 0.924633855705971
0.161944553375491 0.125 0.936602688214132
0.162171143901759 0.125 0.94846370362314
0.161544523472499 0.125 0.958513629038486
0.160677441331167 0.125 0.966027716082293
0.161925763141578 0.125 0.984402372363554
0.163655743069569 0.125 0.982595274286119
0.16092977954308 0.124730816547709 1.0
0.16764609493087 0.110923955818602 1.0
0.159780380578421 0.100046515518407 1.0
0.162827491106162 0.0914948187014075 1.0
0.167040814075132 0.0637926194306026 1.0
0.164329517213782 0.0533839555398687 1.0
0.165200641953288 0.0491322258222912 1.0
0.170361394073133 0.0233589823439635 1.0
0.170361810578504 0.0213163618017651 1.0
0.172024111717401 -0.00733883816354425 1.0
0.173004489836398 -0.0195752095341529 1.0
0.1744241566111 -0.0250507877044859 1.0
0.175390883535225 -0.0444905032383285 1.0
0.177994141506423 -0.0673162225776225 1.0
0.174440449947534 -0.0743727176487013 1.0
0.178601059397998 -0.0952778063860121 1.0
0.174864018924034 -0.0973272897060267 1.0
0.17942835198549 -0.120621323926081 1.0
0.176813905995135 0.125 0.11440441710944
0.176191589923803 0.125 0.128612906258033
0.173727171266493 0.125 0.135722029406605
0.173821751040928 0.125 0.148512572990103
0.171975603991658 0.125 0.152043095574607
0.174995953304238 0.125 0.164461043268721
0.174819056558666 0.125 0.170325470280503
0.177014834709004 0.125 0.182028036721829
0.173564423061815 0.125 0.193973343259634
0.170145183831888 0.125 0.201359478673256
0.170933367076747 0.125 0.215616071982384
0.172211455617129 0.125 0.222805887639102
0.171053587181871 0.125 0.229083393770088
0.174654065802869 0.125 0.24281827728016
0.168816835442413 0.125 0.251411046386199
0.171855829406306 0.125 0.253772020543827
0.170171310874973 0.125 0.270103069886177
0.172548074761067 0.125 0.282289017801977
0.172477307841286 0.125 0.28563305312352
0.16951463232439 0.125 0.295461057478905
0.171588811304932 0.125 0.308290873284746
0.175433015417948 0.125 0.314160823932151
0.176748934495842 0.125 0.329664620255754
0.170281389824496 0.125 0.329505071410605
0.170605357896699 0.125 0.34517643490788
0.171401252039871 0.125 0.358343832815305
0.168982269924509 0.125 0.365883666500177
0.17185032490729 0.125 0.3775772111431
0.170666972003466 0.125 0.386252965928443
0.174019799899266 0.125 0.395839968647016
0.172996611642694 0.125 0.398998144643577
0.176577986738498 0.125 0.413853107727895
0.17079345083982 0.125 0.420515525633677
0.169453122180072 0.125 0.429525953189664
0.169477789089983 0.125 0.439659653328484
0.170853655922797 0.125 0.453012247681701
0.173653215978453 0.125 0.465679031171834
0.168888422647716 0.125 0.468769349488492
0.176921959271616 0.125 0.475003172384201
0.175343022097958 0.125 0.489945632511453
0.168347280386128 0.125 0.495375610554713
0.176208382764688 0.125 0.504931403279776
0.168183037864198 0.125 0.515015814614439
0.172526224268727 0.125 0.525113786376529
0.173242779225048 0.125 0.538116012144095
0.175143698639348 0.125 0.547387625166128
0.176906691342472 0.125 0.555321124293487
0.168925830468543 0.125 0.567964980558902
0.174011444498565 0.125 0.579095380237695
0.172164919879625 0.125 0.587934409865507
0.171344022577167 0.125 0.59149534526343
0.167571810907289 0.125 0.605423993439969
0.174463192359634 0.125 0.617414869008416
0.168566573605183 0.125 0.623478255642268
0.174059014879645 0.125 0.633692798139939
0.171936291888259 0.125 0.64201296352328
0.171604215761092 0.125 0.654009790308348
0.1775088209898 0.125 0.659074214551323
0.173736633357334 0.125 0.666155829798032
0.172850697877826 0.125 0.681888815540295
0.16884004348111 0.125 0.696877356470121
0.176259244524903 0.125 0.699669848732096
0.17289900890905 0.125 0.706544377231138
0.169950513578305 0.125 0.719139703443866
0.16847504648612 0.125 0.724041276586446
0.169226240273733 0.125 0.738757834853567
0.176795948226342 0.125 0.742065905706831
0.167920662541681 0.125 0.757458738401212
0.171669945334182 0.125 0.769828030298555
0.174583843192712 0.125 0.772088889502975
0.170235716188654 0.125 0.783856138078254
0.172610422384321 0.125 0.803009167982863
0.176523668977707 0.125 0.811367043364454
0.171679152567687 0.125 0.810763927993066
0.176128687853469 0.125 0.829382897914283
0.16838224525856 0.125 0.832200147762539
0.172522729914038 0.125 0.84305880220693
0.16833195712535 0.125 0.860701964066616
0.175864667928972 0.125 0.867677764073025
0.167408196263773 0.125 0.872158117638835
0.17292307239812 0.125 0.875481237770085
0.176716407167384 0.125 0.888922963194496
0.167838576702021 0.125 0.899354641982787
0.176056658970191 0.125 0.913561454569689
0.174490521346562 0.125 0.92069756992901
0.172805102987973 0.125 0.932264293915306
0.169419174579123 0.125 0.939653614709918
0.169479202732932 0.125 0.94813487107422
0.17100518165529 0.125 0.964330170637937
0.168907591102061 0.125 0.974311336347501
0.170432931409279 0.125 0.977212854211959
0.171207462035352 0.125 0.990483012008711
0.1753237299237 0.125 0.998997441720399
0.170950470050976 0.105242716721831 1.0
0.176968829565942 0.107712227515802 1.0
0.176519554439202 0.0833592947694983 1.0
0.175750794855363 0.0772374789070231 1.0
0.179685477608448 0.0606305099802524 1.0
0.179484098164713 0.0371454290973223 1.0
0.179629238742476 0.0314891862024761 1.0
0.181722348680575 0.00956009698426324 1.0
0.1851799356453 -0.00949390950712165 1.0
0.18465602288698 -0.0252652192137016 1.0
0.184075971588427 -0.028938272914719 1.0
0.180084024174079 -0.0478508435020207 1.0
0.187344940468473 -0.0505443262950261 1.0
0.1833749625315 -0.0772845220824406 1.0
0.189749588118106 -0.0899011716310119 1.0
0.184831128513142 -0.116474135364912 1.0
0.183677125246969 0.125 0.112262333940067
0.181907556054347 0.125 0.125057432951305
0.180879540675229 0.125 0.136475419450951
0.181933674603917 0.125 0.150976962438395
0.178104799571225 0.125 0.158957095898294
0.179004660831716 0.125 0.164933199361385
0.177762623908748 0.125 0.17229970814472
0.180795077521165 0.125 0.180377412889265
0.183240849570224 0.125 0.195854017723056
0.180778235378033 0.125 0.198879977684977
0.177617363407957 0.125 0.216656066286207
0.178557960537336 0.125 0.22031824102441
0.185287943989825 0.125 0.227795200173609
0.178294396008149 0.125 0.235381015683893
0.18653492975721 0.125 0.243928151227345
0.183881731107505 0.125 0.25578787643203
0.177766498792423 0.125 0.275223004679402
0.178100274652803 0.125 0.277365647248119
0.184517954275841 0.125 0.287910880022945
0.182795223559247 0.125 0.305776916324342
0.184800419429684 0.125 0.308985449389535
0.181107442123885 0.125 0.315893889140515
0.182987783478211 0.125 0.329543897055754
0.177034558232353 0.125 0.340482017482846
0.180787788200496 0.125 0.345049335260545
0.186684345314329 0.125 0.348348458423506
0.183621993188015 0.125 0.364144058397684
0.178817146952035 0.125 0.373667624956097
0.178883737539826 0.125 0.388073689989174
0.184578626311629 0.125 0.397208040932714
0.179494332334942 0.125 0.403731324937313
0.183998861286115 0.125 0.413712288705851
0.182680192226828 0.125 0.424089957752126
0.18124648667947 0.125 0.434625415594078
0.177954400220146 0.125 0.439163421622335
0.180901967883509 0.125 0.44954244433055
0.18100586682997 0.125 0.456059654792206
0.181053521888865 0.125 0.469274990506271
0.178165439359126 0.125 0.476311376657358
0.182000051148709 0.125 0.487016250148844
0.186328705519661 0.125 0.501350622522151
0.177417300810546 0.125 0.509055600360694
0.179842768706115 0.125 0.511163331771773
0.17993450445932 0.125 0.52919261513513
0.186283512237606 0.125 0.534430159332146
0.186381933268551 0.125 0.546584585355863
0.184226166344604 0.125 0.559589734704065
0.185153852174657 0.125 0.565331515485258
0.18049084850928 0.125 0.571793551189088
0.178574863212691 0.125 0.585576452449498
0.184600891678935 0.125 0.58709181566498
0.18189093849084 0.125 0.608515881097515
0.180322705244152 0.125 0.608928657992921
0.18041963446595 0.125 0.621100250106341
0.179076631259365 0.125 0.636947798174472
0.180848578916558 0.125 0.643996180827243
0.181452224913557 0.125 0.650314007193487
0.181820658320936 0.125 0.666397276496977
0.181380992046068 0.125 0.665688710760785
0.186649064245265 0.125 0.679463202966107
0.183940676517418 0.125 0.686709974956294
0.184508483704142 0.125 0.699636930817933
0.184394271903992 0.125 0.707457545530214
0.186145343698979 0.125 0.717173816769022
0.183952713763584 0.125 0.733650421739778
0.179950136062559 0.125 0.736377176651096
0.177878492410736 0.125 0.749480224233574
0.179193707284882 0.125 0.763303094147511
0.186050334082432 0.125 0.771966400529185
0.178498568399941 0.125 0.780507638093856
0.181768378517903 0.125 0.787629096454871
0.185528847240788 0.125 0.796640977057032
0.177703806297547 0.125 0.801771785054827
0.177551724378304 0.125 0.811901954203706
0.17906790046307 0.125 0.822352837246914
0.182516431646567 0.125 0.834173206910484
0.18575298993576 0.125 0.846588987398105
0.177958192007842 0.125 0.852099398244826
0.187076023313835 0.125 0.860060296705839
0.182065001066664 0.125 0.869634399821513
0.18239966807422 0.125 0.885207360211397
0.179157682246492 0.125 0.894732597478255
0.180775247248104 0.125 0.903015826614789
0.179991329047927 0.125 0.907487415007865
0.180289678014578 0.125 0.919364333228957
0.18130274663808 0.125 0.925327105537736
0.182912695250228 0.125 0.93789001152631
0.185896701044634 0.125 0.949512375061796
0.179666023118085 0.125 0.962541572595652
0.186797948004442 0.125 0.967553967802046
0.186701491586821 0.125 0.973269333543476
0.184543242677338 0.125 0.989032796215362
0.182695692963842 0.125 0.990253775237712
0.184334570838626 0.119564843098349 1.0
