ply
format ascii 1.0
element vertex 828
property float x
property float y
property float z
end_header
-0.0911398343078325 -0.116237491569825 0.589179550156488
-0.0874778741122442 -0.116237491569825 0.604528420045731
-0.0816827515116916 -0.116237491569825 0.604809651865706
-0.0845729458701306 -0.116237491569825 0.615812214908372
-0.0873819580343494 -0.116237491569825 0.622279420344907
-0.0895913589171955 -0.116237491569825 0.639771714233151
-0.0906403869224704 -0.116237491569825 0.643005155655828
-0.0842808771815578 -0.116237491569825 0.659068076665569
-0.0866895341681056 -0.116237491569825 0.659747478199655
-0.0857359054188385 -0.116237491569825 0.667869195008968
-0.0842839414600401 -0.116237491569825 0.67594978753062
-0.0910677728397483 -0.116237491569826 0.692284582284821
-0.089919916268044 -0.116237491569825 0.698772788654591
-0.0879015418269479 -0.116237491569825 0.710779530512874
-0.0857910708033288 -0.116237491569825 0.727109346658872
-0.0876370503716207 -0.116237491569825 0.729289535876394
-0.0877772413937451 -0.116237491569826 0.736632688755031
-0.0879382890874285 -0.116237491569825 0.746673372856047
-0.0884891097713033 -0.116237491569825 0.763858364734897
-0.0820674825192131 -0.116237491569825 0.769129101277928
-0.0848471011815121 -0.116237491569825 0.780503585008823
-0.0816560387281205 -0.116237491569825 0.793930671100717
-0.0822339281863057 -0.116237491569825 0.793958256187517
-0.0848074512141633 -0.116237491569825 0.810643193623567
-0.0827552315129161 -0.116237491569825 0.81832046194079
-0.0871174780497379 -0.116237491569825 0.829750669019529
-0.0831817962769328 -0.116237491569825 0.838215273526077
-0.0885847878890566 -0.116237491569825 0.844342009076493
-0.0867585898033168 -0.116237491569825 0.855380864736608
-0.0836530748009851 -0.116237491569825 0.871630532824345
-0.0842061925026656 -0.116237491569825 0.875559922374504
-0.081737307107516 -0.116237491569825 0.882277318534986
-0.0833032909156575 -0.116237491569825 0.897137791934796
-0.0880746636933734 -0.116237491569826 0.910424604589802
-0.0838147472193193 -0.116237491569825 0.916010921232629
-0.0841465115594986 -0.116237491569826 0.919728233038083
-0.0894894194478182 -0.116237491569825 0.93406349604237
-0.0859028281190964 -0.116237491569825 0.940712454595691
-0.0851869951406477 -0.116237491569826 0.954505593896532
-0.0836050154903023 -0.116237491569825 0.961587409293685
-0.0877161274990613 -0.116237491569825 0.970139039489898
-0.0909221959816239 -0.116237491569825 0.976927585018728
-0.0876339499299608 -0.116237491569825 0.989964509903162
-0.0876932607739291 -0.113749331555418 0.996044288447336
-0.0903337257059721 -0.0974778406374988 0.99603944357949
-0.0870487484034569 -0.0757488724379978 0.99603289852168
-0.092330672795584 -0.0633925906329857 0.996029255601143
-0.0927073714564381 -0.0537032378038436 0.996026357373917
-0.0889247333501977 -0.0457388179857986 0.996023929907764
-0.0930466760361088 -0.0209012095715393 0.996016535471305
-0.0904874147959088 -0.0106522420230149 0.997702354656098
-0.0923561805199841 -0.0037347640471256 0.999198364133088
-0.089658565053665 0.0120613588991172 0.998784728096521
-0.0928490244132015 0.0294438387633662 0.998329551842118
-0.0931037364437137 0.0430969752662453 0.99797203188048
-0.0906190960409339 0.0673709928597294 0.997336394359608
-0.0938035325909331 0.0790252493880663 0.99703121691221
-0.0936945680103873 0.101512428655155 0.99644236939961
-0.0975711527234282 0.10933981080054 0.996237402184659
-0.0746320144357435 -0.116237491569825 0.111588906655105
-0.0811639476124479 -0.116237491569825 0.117066300480953
-0.0810485480057663 -0.116237491569826 0.118726623243119
-0.0802683317261127 -0.116237491569825 0.136160330186799
-0.076483670278901 -0.116237491569825 0.147691608739384
-0.0804861680592992 -0.116237491569825 0.149158240295524
-0.0756439388065912 -0.116237491569825 0.164883797696964
-0.0784452197122066 -0.116237491569826 0.171305548291996
-0.0773813341220575 -0.116237491569826 0.185001649626731
-0.0767654002084701 -0.116237491569825 0.186929132232522
-0.0798634487849566 -0.116237491569825 0.206287196365698
-0.074073130267747 -0.116237491569825 0.208867015830361
-0.0798850972794168 -0.116237491569825 0.222932255609462
-0.079211850557832 -0.116237491569825 0.227940031561839
-0.077367851261891 -0.116237491569825 0.240076530756251
-0.0766805265720241 -0.116237491569825 0.25014373407626
-0.0763211525359391 -0.116237491569825 0.25953318207787
-0.07885175222635 -0.116237491569825 0.271438901868432
-0.0749482674404631 -0.116237491569826 0.277272832181598
-0.0777111877422713 -0.116237491569825 0.292152141886176
-0.0782000098351096 -0.116237491569825 0.294309969231858
-0.0720980075392091 -0.116237491569825 0.308749108194542
-0.0798651216846608 -0.116237491569825 0.32458597394214
-0.0735855708447813 -0.116237491569825 0.321153227255436
-0.077517918409509 -0.116237491569825 0.342050573619802
-0.0809552091557712 -0.116237491569825 0.345372367821807
-0.072579391622813 -0.116237491569825 0.350456264033311
-0.0727098598733025 -0.116237491569825 0.359234202530157
-0.0722086191303535 -0.116237491569825 0.377911476879334
-0.0796011817606471 -0.116237491569825 0.390557939111466
-0.0740043035236535 -0.116237491569825 0.398566981902234
-0.0800547840992305 -0.116237491569826 0.400262581745963
-0.0801220394497442 -0.116237491569826 0.412761264821833
-0.0774790526056395 -0.116237491569825 0.424631922378555
-0.07648193588849 -0.116237491569826 0.427571639145687
-0.0723153981926453 -0.116237491569825 0.446897581506136
-0.0780057796500634 -0.116237491569825 0.449435758989409
-0.0808095874255469 -0.116237491569825 0.465909375394697
-0.0768525631762846 -0.116237491569825 0.466218617494726
-0.0810676382734501 -0.116237491569825 0.480969579933269
-0.0810238019521975 -0.116237491569826 0.491369695446004
-0.0760196956573536 -0.116237491569826 0.495188246837597
-0.0799764225795022 -0.116237491569825 0.505823892231788
-0.0757293393226838 -0.116237491569825 0.517805191557434
-0.0722157461523993 -0.116237491569825 0.527520768335847
-0.0725451196166179 -0.116237491569825 0.532241156179221
-0.081022405909127 -0.116237491569825 0.544104040293454
-0.0816247967364526 -0.116237491569825 0.561508689929314
-0.0790376554791795 -0.116237491569826 0.570975581823956
-0.075881018747742 -0.116237491569825 0.583346760990841
-0.0815154106278744 -0.116237491569825 0.589883710040286
-0.0808406363289408 -0.116237491569825 0.601455013816032
-0.0781364311303559 -0.116237491569825 0.610570590376865
-0.0767233311226529 -0.116237491569825 0.617798744308007
-0.0798405936870687 -0.116237491569825 0.622794288581797
-0.0802088198646786 -0.116237491569825 0.639512489346621
-0.0767208696668255 -0.116237491569825 0.644568337468467
-0.0782785178448697 -0.116237491569825 0.646754434883742
-0.0808143538381441 -0.116237491569826 0.668658972604426
-0.0756572192236127 -0.116237491569825 0.680140072211924
-0.0793557001551945 -0.116237491569825 0.687343345275656
-0.074262791030641 -0.116237491569825 0.691583731684562
-0.0779184991421512 -0.116237491569825 0.706506368510989
-0.0767023307622509 -0.116237491569825 0.712000524828149
-0.0758339465007375 -0.116237491569826 0.71955191075744
-0.0792024771726707 -0.116237491569825 0.731310752720007
-0.0725163999543291 -0.116237491569826 0.74552351081717
-0.0797859474393843 -0.116237491569825 0.748476941943765
-0.072134551475751 -0.116237491569826 0.75720661661991
-0.0773950738553091 -0.116237491569825 0.775542125653894
-0.0788111541070896 -0.116237491569826 0.782267227602158
-0.0790910022836609 -0.116237491569825 0.792036948363571
-0.0761017763139079 -0.116237491569825 0.79904836898845
-0.0765036315071418 -0.116237491569825 0.814108627823914
-0.0747045904399267 -0.116237491569825 0.817322609857511
-0.0810109051000842 -0.116237491569825 0.826824336925881
-0.0810198880202674 -0.116237491569826 0.838391136473365
-0.0781482199842982 -0.116237491569825 0.845942315614779
-0.0744530410341922 -0.116237491569825 0.854066556326707
-0.0772456437375229 -0.116237491569825 0.862173443600518
-0.0728764187301782 -0.116237491569825 0.87844676790595
-0.073230236129315 -0.116237491569825 0.887588798067352
-0.0752498210240018 -0.116237491569825 0.887738315316241
-0.0799394647273386 -0.116237491569825 0.89938523942993
-0.0753491172892012 -0.116237491569826 0.918758494244058
-0.0722011384660396 -0.116237491569825 0.925950338616763
-0.0783809541993372 -0.116237491569826 0.936436436651977
-0.0754702274146041 -0.116237491569826 0.940924866949271
-0.0732119638942022 -0.116237491569826 0.951530965296874
-0.0794398966337316 -0.116237491569825 0.964461082521235
-0.0806286390704783 -0.116237491569825 0.974803022969097
-0.079612373031655 -0.116237491569826 0.987178021930305
-0.0806684646708149 -0.116237491569826 0.993534074217866
-0.0742334941465983 -0.107249935440029 0.996042192954159
-0.0750596492423008 -0.101137569637048 0.996040371155228
-0.0753719652687004 -0.0810426130064235 0.996034355281191
-0.0794523862859624 -0.0646612639019349 0.996029493407647
-0.0793511097548353 -0.0522981141864721 0.996025788982345
-0.0763224150169399 -0.0350154449987015 0.99602057861674
-0.0762281948806276 -0.0291943829516195 0.996018833912245
-0.0828240398895834 -0.017120058849519 0.996015289960266
-0.0816908145167593 0.00868353365288654 0.998873179563494
-0.0839683427968126 0.0100457177386991 0.998837509517859
-0.0760965706808391 0.0338206850783395 0.998214940087794
-0.0767289933268211 0.052076436125401 0.997736896422689
-0.0794294704582881 0.0707995764787144 0.997246613737867
-0.0809351318016936 0.0792925913027994 0.997024216317798
-0.0820980044276661 0.0900578902533631 0.99674231704381
-0.0818787549731783 0.111556103614946 0.996179366514846
-0.0656222067329914 -0.116237491569825 0.114776971760602
-0.0698393384569303 -0.116237491569826 0.114961417465551
-0.0681266456948489 -0.116237491569825 0.118867222804962
-0.0686828807419331 -0.116237491569825 0.135217986077204
-0.0716512056890312 -0.116237491569825 0.13987384158324
-0.065117329272288 -0.116237491569826 0.160064320054483
-0.0634407293951807 -0.116237491569825 0.16766403957664
-0.0651482206770077 -0.116237491569825 0.170069605815925
-0.0709035294367636 -0.116237491569825 0.179298882511788
-0.0717196878057787 -0.116237491569826 0.188885102113835
-0.0711576058835326 -0.116237491569825 0.198681296303284
-0.0637918396948968 -0.116237491569825 0.208664832993623
-0.0652064893704382 -0.116237491569825 0.225985158256922
-0.0632564308853 -0.116237491569825 0.229332830721136
-0.0714273299395449 -0.116237491569825 0.237423690580635
-0.063329611347141 -0.116237491569825 0.257691429118885
-0.071846291725784 -0.116237491569825 0.258386134289694
-0.0684763836426289 -0.116237491569825 0.26077143389426
-0.0703302154367235 -0.116237491569825 0.274608224345344
-0.0702071471103074 -0.116237491569825 0.291338374515441
-0.0628172889985082 -0.116237491569825 0.298550658062935
-0.0716754020484302 -0.116237491569825 0.309398428635355
-0.0692116219575941 -0.116237491569825 0.316434897680012
-0.0625218344118398 -0.116237491569825 0.323437042937999
-0.064420782152069 -0.116237491569825 0.339227306439992
-0.0658678332614181 -0.116237491569825 0.349879451668144
-0.070599867875812 -0.116237491569825 0.35713064846147
-0.0679641964015328 -0.116237491569825 0.372842881500639
-0.0686143061082663 -0.116237491569825 0.368511050031279
-0.0698653119170221 -0.116237491569825 0.379157734611365
-0.0698327389488988 -0.116237491569825 0.393969917737597
-0.0714139436707085 -0.116237491569825 0.403332565739453
-0.0701135832660127 -0.116237491569825 0.408800588490295
-0.0630742772745592 -0.116237491569825 0.418264155762079
-0.0681794968605947 -0.116237491569825 0.432039817084586
-0.0666261419386918 -0.116237491569825 0.439067407247739
-0.0663268455615943 -0.116237491569825 0.455214365286104
-0.0663323549852378 -0.116237491569825 0.460544342911427
-0.0654679735919594 -0.116237491569826 0.473691656379992
-0.0657469806060855 -0.116237491569825 0.482096409877872
-0.0673808776596211 -0.116237491569825 0.492333170297642
-0.0654465902118282 -0.116237491569825 0.504975054027632
-0.0641913050927954 -0.116237491569825 0.512608258676145
-0.0693670287709653 -0.116237491569825 0.522182879484113
-0.0698453231135501 -0.116237491569826 0.530288940465755
-0.0636989834404464 -0.116237491569825 0.538912194308461
-0.0646617056918276 -0.116237491569825 0.552468284804318
-0.0637933536018004 -0.116237491569825 0.557086609824997
-0.0674628803692727 -0.116237491569826 0.564511313934621
-0.0634967650708269 -0.116237491569825 0.578243196359905
-0.0714510481546217 -0.116237491569825 0.583228925123643
-0.068658964883893 -0.116237491569825 0.599908826633961
-0.0663752137309987 -0.116237491569825 0.608177550293596
-0.0641477578953401 -0.116237491569826 0.616927626214607
-0.0674056115256847 -0.116237491569825 0.62175296291279
-0.0663124410841513 -0.116237491569825 0.634980704825681
-0.0705454480264932 -0.116237491569825 0.644750159542504
-0.0630384579743492 -0.116237491569825 0.651963448301074
-0.0646563556909708 -0.116237491569825 0.66381647988848
-0.0683072843626642 -0.116237491569826 0.675223152499786
-0.072014479359717 -0.116237491569825 0.685039446419514
-0.0707043244957689 -0.116237491569825 0.697424754547119
-0.0650723486264241 -0.116237491569825 0.701898350031744
-0.066544333413668 -0.116237491569825 0.714195627457179
-0.0642838269881447 -0.116237491569825 0.722323772520765
-0.0685239913374166 -0.116237491569825 0.731057134023627
-0.0720875552540926 -0.116237491569825 0.740588765771262
-0.0704157095132547 -0.116237491569825 0.746603350669772
-0.0650344879492756 -0.116237491569825 0.765406044497065
-0.0704857629497006 -0.116237491569826 0.771289212728137
-0.0685722147536603 -0.116237491569825 0.778654213685303
-0.0674971129511163 -0.116237491569825 0.784148106050733
-0.0712275696925709 -0.116237491569825 0.804064358735695
-0.0680644634261126 -0.116237491569825 0.810944441002462
-0.0682369570911202 -0.116237491569825 0.817323720262729
-0.0664717416221649 -0.116237491569825 0.835046389669768
-0.070155566394003 -0.116237491569825 0.831183081268218
-0.0645607070331771 -0.116237491569825 0.84490078565019
-0.0646827103028009 -0.116237491569825 0.858170258969097
-0.071914648660841 -0.116237491569825 0.862791802227595
-0.0625270403857277 -0.116237491569825 0.877374517149192
-0.0646792859176817 -0.116237491569825 0.881940182410655
-0.068607234087008 -0.116237491569825 0.892693969372348
-0.0663340443384249 -0.116237491569825 0.89999310326134
-0.067201925434652 -0.116237491569825 0.91529019103779
-0.0706396371103692 -0.116237491569825 0.925025134416359
-0.069986585567423 -0.116237491569825 0.935507037746038
-0.0690143990077428 -0.116237491569825 0.941877684542881
-0.0680975578929037 -0.116237491569825 0.951186012994677
-0.0701025823621747 -0.116237491569826 0.957677717257235
-0.0625323667408049 -0.116237491569825 0.976280042915924
-0.066453081097279 -0.116237491569825 0.984103819490322
-0.0716599022626194 -0.116237491569825 0.989685861811071
-0.0664873472214262 -0.1137465191564 0.996044053424702
-0.0703650330628017 -0.0964592672446328 0.996038917954603
-0.0684528481336555 -0.0774789465610156 0.996033211397529
-0.0717914526233452 -0.0653329056620455 0.996029609993003
-0.0638932542674122 -0.0509348737256555 0.996025209928394
-0.0728713863085707 -0.0428375721419809 0.996022883577476
-0.0738549513973504 -0.0195331681516916 0.996015913745559
-0.0732515968740552 -0.0193141230199376 0.996015841468973
-0.0706570449137224 -0.00264035085930665 0.999169705915188
-0.0686583397162315 0.0230541716069262 0.998496871165129
-0.0670113402509141 0.0233377086915911 0.998489446485268
-0.0675776630137781 0.0454963967376413 0.997909200818018
-0.0685290590522989 0.0715173550552082 0.99722781804436
-0.067308216878854 0.0924813173492953 0.996678857371948
-0.0774911754080032 0.0987150217859673 0.996515622076483
-0.0569158525035261 -0.116237491569825 0.10485950404909
-0.0566721232854338 -0.116237491569825 0.115095198396017
-0.0606877274597472 -0.116237491569825 0.12654699322217
-0.0593553900575735 -0.116237491569825 0.138039633786448
-0.0621498976472468 -0.116237491569825 0.140322850198708
-0.0567744827728465 -0.116237491569825 0.148915821046129
-0.0534360235371805 -0.116237491569825 0.166786030259479
-0.061158819468236 -0.116237491569825 0.168663401109782
-0.0612114623437249 -0.116237491569825 0.183784807284465
-0.0585269448242284 -0.116237491569825 0.195131086109775
-0.0534005235715664 -0.116237491569825 0.208393143360512
-0.0609743563430348 -0.116237491569825 0.213111558910585
-0.0560639975366581 -0.116237491569825 0.215148007943159
-0.0537778832531899 -0.116237491569825 0.234712120882605
-0.0581697747696339 -0.116237491569825 0.245752439869347
-0.0594044098839082 -0.116237491569825 0.248783568488355
-0.062031592464205 -0.116237491569825 0.262414729226518
-0.0571847781113532 -0.116237491569825 0.274266436058449
-0.0618236921283166 -0.116237491569826 0.272757280016697
-0.0573131795117034 -0.116237491569825 0.292123434490819
-0.0546338550093793 -0.116237491569825 0.300732680454888
-0.0564815892363644 -0.116237491569825 0.309428350596502
-0.0608808410160432 -0.116237491569825 0.315949813270182
-0.0564954971182781 -0.116237491569825 0.323109099753476
-0.0534695126006968 -0.116237491569825 0.330778204809391
-0.0597443458627427 -0.116237491569825 0.353321671587848
-0.0612333528805969 -0.116237491569825 0.352614813836636
-0.0612879011148616 -0.116237491569825 0.363813706204598
-0.0597184281316369 -0.116237491569825 0.373585289779319
-0.0608930533590139 -0.116237491569825 0.379995064910511
-0.0567205989060994 -0.116237491569825 0.388982914429618
-0.0600156052908592 -0.116237491569825 0.401326535896645
-0.0568139881892094 -0.116237491569826 0.414736534607681
-0.055364028953881 -0.116237491569825 0.424279835980808
-0.0624331219396891 -0.116237491569825 0.437273451449521
-0.0558904214061125 -0.116237491569825 0.43918685840688
-0.0545374293357008 -0.116237491569826 0.452585643320632
-0.0586380227998997 -0.116237491569826 0.454876988980187
-0.0545021568268024 -0.116237491569825 0.472934520951201
-0.0594050887356877 -0.116237491569826 0.477046670520206
-0.0559711359701001 -0.116237491569825 0.497251946732042
-0.0598887203607539 -0.116237491569825 0.497689754834485
-0.0547981437759857 -0.116237491569825 0.506986882772005
-0.0543306020144494 -0.116237491569825 0.519705307294802
-0.0558872562022908 -0.116237491569825 0.53325021947776
-0.0579065871043023 -0.116237491569825 0.543641574575397
-0.0589852305432782 -0.116237491569826 0.543799984078997
-0.058168590222356 -0.116237491569825 0.561766463775981
-0.0567183418820807 -0.116237491569825 0.566562911167173
-0.0535466831603089 -0.116237491569826 0.573352325191891
-0.0616914399813153 -0.116237491569825 0.587450725955389
-0.0538065503068413 -0.116237491569825 0.594594808582949
-0.0567613703136729 -0.116237491569826 0.603665658126755
-0.0590545029497581 -0.116237491569825 0.616741767545731
-0.0591073858373935 -0.116237491569825 0.623483044138473
-0.0556580310033999 -0.116237491569825 0.629544608080168
-0.0625900265831995 -0.116237491569825 0.637229318684528
-0.0539314290414603 -0.116237491569825 0.656878332777566
-0.0553628540776393 -0.116237491569825 0.663924399925854
-0.0555614398605447 -0.116237491569826 0.673884023970236
-0.0530311271698989 -0.116237491569826 0.678252777649231
-0.0542941386395591 -0.116237491569825 0.691012946511025
-0.0570202506404025 -0.116237491569825 0.700924907957739
-0.0539115960023527 -0.116237491569825 0.713226979437843
-0.0624454537357285 -0.116237491569825 0.719543610250671
-0.0562042519813091 -0.116237491569825 0.726194584018668
-0.0561754872876051 -0.116237491569825 0.738759591686958
-0.0579687449145487 -0.116237491569826 0.750523280230643
-0.0574404099926557 -0.116237491569825 0.762851029771897
-0.0611652937789902 -0.116237491569825 0.762751692553717
-0.0596759202194324 -0.116237491569826 0.783901370303618
-0.0552751398831123 -0.116237491569825 0.787080851351373
-0.0610114091937564 -0.116237491569825 0.799047689483284
-0.0533974508971909 -0.116237491569825 0.806520564661441
-0.0545076247990985 -0.116237491569825 0.814951845111489
-0.0558195506946899 -0.116237491569825 0.830901107443116
-0.0578252385130129 -0.116237491569826 0.838332176100503
-0.0591222350315324 -0.116237491569825 0.847451106117006
-0.0618628369075274 -0.116237491569825 0.854340866860094
-0.0575074415210979 -0.116237491569825 0.864427060171065
-0.0579822442407623 -0.116237491569825 0.879137533836211
-0.0564576801947848 -0.116237491569826 0.882310740695494
-0.054888799549714 -0.116237491569825 0.900564604165584
-0.0621889155447471 -0.116237491569825 0.899194458918338
-0.0546955592863182 -0.116237491569825 0.912842471217889
-0.0539133102728527 -0.116237491569825 0.928194226826964
-0.0551948097840153 -0.116237491569825 0.926000471016392
-0.0579076236711125 -0.116237491569826 0.935764163384772
-0.0580127401423195 -0.116237491569825 0.953383660720455
-0.0544528257868733 -0.116237491569825 0.956241099874882
-0.0604465642728046 -0.116237491569825 0.971504562132522
-0.0603531841025651 -0.116237491569826 0.981571417540787
-0.0576381211220684 -0.116237491569825 0.992006208490911
-0.0611499022783722 -0.107066208977877 0.996041993435869
-0.0575452195013677 -0.0925665786890216 0.996037610352046
-0.0622014385049962 -0.0752905888051656 0.996032486852882
-0.0537906546410359 -0.0691731215686489 0.996030561520896
-0.0616940444911778 -0.0595457563532724 0.996027764980106
-0.0616536305833787 -0.0357265956135576 0.996020629647951
-0.0567010087901804 -0.0228242642720916 0.996016710139888
-0.0551037142974218 -0.010162231039236 0.99784662381818
-0.0576742525621431 0.00577756480345039 0.998949275035867
-0.0574863643793176 0.0104353185482001 0.998827307461618
-0.0624949053946398 0.0314351657725633 0.998277407109237
-0.0600480677692538 0.0423975455952904 0.997990347090987
-0.0560415092964673 0.0628019527505258 0.997456038885554
-0.0609486458475458 0.0867132274660215 0.996829900121235
-0.0638518007160653 0.103633975728909 0.996386814734331
-0.0596678600850532 0.107059122035458 0.996297124121785
-0.0477226668998018 -0.116237491569825 0.109102998571446
-0.051098563883181 -0.116237491569825 0.111263663178145
-0.0439806683928959 -0.116237491569825 0.119513850573652
-0.0461472114685009 -0.116237491569825 0.135869631914763
-0.0511589554181887 -0.116237491569825 0.142854454637249
-0.0449863602987654 -0.116237491569826 0.154037898576718
-0.0467083332469601 -0.116237491569825 0.16156629167316
-0.0485143948392559 -0.116237491569825 0.173078225303519
-0.0510879631026857 -0.116237491569826 0.181052020626611
-0.0524053268732362 -0.116237491569826 0.19768381745017
-0.0458674603905076 -0.116237491569826 0.208112344180098
-0.0476851095252293 -0.116237491569825 0.20797693897604
-0.0470636079263711 -0.116237491569825 0.218028343109683
-0.0455571355350518 -0.116237491569825 0.237405406757241
-0.0511195921766722 -0.116237491569825 0.243018366169087
-0.0489976182080004 -0.116237491569825 0.246146869789037
-0.0462235664896338 -0.116237491569826 0.262885474475762
-0.0466241616118292 -0.116237491569825 0.271877453013794
-0.0501286108976989 -0.116237491569825 0.273233533738076
-0.0528585026994947 -0.116237491569825 0.28936235984023
-0.0452350727861849 -0.116237491569825 0.298117747838319
-0.0499081715062616 -0.116237491569825 0.309573914962726
-0.0443521734182612 -0.116237491569826 0.320535618880567
-0.0482401298418343 -0.116237491569825 0.33000544695346
-0.0514421109050655 -0.116237491569826 0.335432293779025
-0.0523836005089725 -0.116237491569825 0.341351009753587
-0.0443701101428262 -0.116237491569825 0.360359154027235
-0.052442762359996 -0.116237491569825 0.364864995329137
-0.0463216340364756 -0.116237491569825 0.372153965873274
-0.0434590016147445 -0.116237491569825 0.385767779793711
-0.0441941718465002 -0.116237491569825 0.389392389995567
-0.0443714139283023 -0.116237491569825 0.406940984803917
-0.0440679071692873 -0.116237491569825 0.411323258570828
-0.0501562776386999 -0.116237491569825 0.426601160318129
-0.0451512397005192 -0.116237491569825 0.433945505692403
-0.0494199488006388 -0.116237491569825 0.445270643669488
-0.0477744952674429 -0.116237491569825 0.459245367791159
-0.0441663669544764 -0.116237491569825 0.46295228090328
-0.0513725008615837 -0.116237491569825 0.471443570912108
-0.0521166934093539 -0.116237491569825 0.485652596205193
-0.0481408698105819 -0.116237491569825 0.489223131074475
-0.0496409713308981 -0.116237491569825 0.501432138685908
-0.0490844497719923 -0.116237491569825 0.504097313297862
-0.0459296876129782 -0.116237491569825 0.51872654836832
-0.0463907273452628 -0.116237491569825 0.535403643477148
-0.0517700154816861 -0.116237491569826 0.5422033154174
-0.0518684815537421 -0.116237491569825 0.547413521267551
-0.0463795681724299 -0.116237491569825 0.556622082888793
-0.044975243743321 -0.116237491569825 0.573405116432874
-0.0528636771888308 -0.116237491569825 0.580039256529693
-0.0498565962248366 -0.116237491569825 0.591321152273327
-0.050003655923835 -0.116237491569826 0.599066982193984
-0.0496439798351497 -0.116237491569825 0.606837226287957
-0.0509131422049343 -0.116237491569825 0.614633911774498
-0.049854110472024 -0.116237491569825 0.629082031923652
-0.0471815242200518 -0.116237491569825 0.639096084702438
-0.0526095659190414 -0.116237491569825 0.648153014717033
-0.0435914649495712 -0.116237491569825 0.658802141349089
-0.0510503378686953 -0.116237491569825 0.663348391343205
-0.0474495990181132 -0.116237491569826 0.678139767666613
-0.050362296574804 -0.116237491569825 0.687468520544447
-0.0453106022326156 -0.116237491569825 0.698077635924572
-0.0497775962629147 -0.116237491569825 0.706167716974413
-0.0488689325275053 -0.116237491569825 0.706382368869641
-0.0479801036163181 -0.116237491569825 0.721870851580154
-0.047581379326719 -0.116237491569825 0.733162019888015
-0.0432377914880895 -0.116237491569825 0.742161503265873
-0.0503068119627971 -0.116237491569825 0.753612833326037
-0.0447914051399704 -0.116237491569825 0.760656857159559
-0.0485164272350465 -0.116237491569825 0.775807967448768
-0.0437239410477373 -0.116237491569825 0.779922112136605
-0.0460170290566807 -0.116237491569825 0.791937932993149
-0.0514282954192019 -0.116237491569825 0.797285546314405
-0.0433486165686525 -0.116237491569825 0.809169909915339
-0.052680541895155 -0.116237491569825 0.817255334338497
-0.0476812572322354 -0.116237491569825 0.828128943614873
-0.0502294515668171 -0.116237491569826 0.833178142967219
-0.0509080684150228 -0.116237491569825 0.846626760978968
-0.0448784748360838 -0.116237491569826 0.863453861652647
-0.0488837476753529 -0.116237491569825 0.859867229136764
-0.0442755245275316 -0.116237491569825 0.870091387857509
-0.0524763439105165 -0.116237491569826 0.888742398538026
-0.0471142863837641 -0.116237491569825 0.892088209643265
-0.0525196890520304 -0.116237491569825 0.906626335163908
-0.047746014153995 -0.116237491569825 0.917596357603055
-0.0525455621616514 -0.116237491569825 0.920357741487703
-0.0441704544649563 -0.116237491569825 0.935620857516805
-0.0510016961035429 -0.116237491569825 0.947727401412993
-0.0505762731936073 -0.116237491569825 0.957287064293836
-0.0489951579465387 -0.116237491569825 0.96566936583404
-0.0444776640345255 -0.116237491569826 0.97582674108812
-0.0483471701154971 -0.116237491569825 0.981798044455591
-0.0440923115330363 -0.11548851459966 0.996044327917068
-0.0450927284227207 -0.116237491569825 0.995496965620341
-0.0482892191599508 -0.0944335062377847 0.996038067363478
-0.0461065400488103 -0.0810225845816107 0.996034026099163
-0.0454153833482453 -0.0636901379030792 0.996028826636806
-0.0517768367115297 -0.0525706648327802 0.996025566116267
-0.0447672273417533 -0.0401718747452838 0.996021774725316
-0.0512071252000663 -0.0266332356201533 0.99601779042446
-0.0503669549905408 -0.013041719360912 0.996998844112944
-0.0470253519824042 -0.000225928402789461 0.999106482038107
-0.050585359492286 0.0141100244777281 0.998731081900358
-0.0527922488748666 0.0335864114312594 0.998221074759142
-0.0509416668305257 0.0509124398627828 0.997767376737528
-0.055941825047243 0.0746850813096161 0.997144868213109
-0.0530358332092493 0.0837898919338261 0.996906450356201
-0.0502288629417329 0.0946250222290695 0.996622722484098
-0.0534698325992954 0.105780804336465 0.996330598048791
-0.0381523374558596 -0.116237491569825 0.107080793078924
-0.0400893164571815 -0.116237491569825 0.108296529567858
-0.0368572332938417 -0.116237491569825 0.127304034880906
-0.0382187175087024 -0.116237491569825 0.136483803823146
-0.0406765519144845 -0.116237491569825 0.139042286967261
-0.0360355788206327 -0.116237491569826 0.150214905023823
-0.0377092939096049 -0.116237491569826 0.166257637223522
-0.0340584037943734 -0.116237491569825 0.171138063073729
-0.042170298277265 -0.116237491569825 0.181049809746094
-0.0339853968499655 -0.116237491569825 0.189548961269662
-0.0404827136110851 -0.116237491569826 0.203082217770403
-0.0388986618388988 -0.116237491569825 0.210718948213206
-0.0374601129941081 -0.116237491569825 0.228624149936589
-0.034552243194648 -0.116237491569825 0.228874189270714
-0.0375996277891636 -0.116237491569825 0.245270168604242
-0.038957613769221 -0.116237491569825 0.250563918524771
-0.0395276564274668 -0.116237491569826 0.259540747647052
-0.0367368266364278 -0.116237491569825 0.266866870285343
-0.0382965244968252 -0.116237491569825 0.279061303544339
-0.0394465032351186 -0.116237491569825 0.286875896632904
-0.039852226413049 -0.116237491569825 0.299288679528336
-0.0395873426588291 -0.116237491569825 0.307304891450965
-0.0402527468297264 -0.116237491569825 0.318434978685113
-0.0374258735881284 -0.116237491569825 0.32796361787843
-0.0368120136500725 -0.116237491569825 0.338394145108219
-0.0422107719422517 -0.116237491569825 0.348317291079199
-0.0419719157182726 -0.116237491569825 0.356512540058895
-0.0402424010358129 -0.116237491569825 0.368248341006966
-0.04098291843421 -0.116237491569825 0.37696734084814
-0.0359686445698263 -0.116237491569825 0.38507394341622
-0.0354941340711733 -0.116237491569825 0.392132103451397
-0.040887794131932 -0.116237491569826 0.405106373756197
-0.0396616911546036 -0.116237491569825 0.412560621840877
-0.0373888468338203 -0.116237491569825 0.41673155101135
-0.0369084740083074 -0.116237491569825 0.428497279478304
-0.0399062219294357 -0.116237491569825 0.442536509817425
-0.0339207422811234 -0.116237491569825 0.451145875542379
-0.03865060440063 -0.116237491569825 0.460381340306758
-0.0389225388568619 -0.116237491569825 0.469157616085648
-0.0354695445846805 -0.116237491569825 0.483839928221024
-0.04197206353281 -0.116237491569825 0.492584710197839
-0.0413265219720124 -0.116237491569825 0.5040453790669
-0.0412502394505669 -0.116237491569825 0.505446771777203
-0.0391285181545278 -0.116237491569825 0.516490948746177
-0.0385700263382637 -0.116237491569825 0.528857877719364
-0.0394264252370826 -0.116237491569825 0.534479784590446
-0.0353360891335426 -0.116237491569825 0.545727962950844
-0.0383139198040306 -0.116237491569826 0.561167746302637
-0.03450320448737 -0.116237491569825 0.567553402588451
-0.04236221279089 -0.116237491569825 0.577803838131565
-0.0424249799889484 -0.116237491569826 0.587639211697368
-0.0429366536083391 -0.116237491569825 0.588491885180786
-0.0337718665453414 -0.116237491569825 0.605153008523578
-0.0379580598339793 -0.116237491569825 0.610670865255711
-0.0347401999452587 -0.116237491569825 0.621174736131131
-0.0391561972003436 -0.116237491569825 0.638540312899761
-0.0347787602925594 -0.116237491569825 0.649363472167649
-0.0359769755511669 -0.116237491569826 0.65593990254542
-0.0401553775937501 -0.116237491569825 0.658563357451154
-0.0420271785497589 -0.116237491569826 0.670771257458854
-0.0401856875178848 -0.116237491569825 0.679669123155758
-0.0394297905511197 -0.116237491569825 0.695210420902912
-0.042043840438023 -0.116237491569825 0.69851163099359
-0.0398427277236385 -0.116237491569825 0.712329069292954
-0.0389855233168742 -0.116237491569825 0.725537457615241
-0.0376631960506538 -0.116237491569825 0.735718424767165
-0.0363149118524288 -0.116237491569825 0.73981305302524
-0.0404780014967433 -0.116237491569825 0.754766873765779
-0.039315259027005 -0.116237491569825 0.756109021971794
-0.0364675917864139 -0.116237491569825 0.773276859156197
-0.0340885602363168 -0.116237491569825 0.782657188847059
-0.0412880920811246 -0.116237491569825 0.789158053635934
-0.037929487271198 -0.116237491569826 0.800432519869606
-0.0361888010349706 -0.116237491569825 0.810619781892615
-0.0387224802896274 -0.116237491569825 0.819209546065795
-0.035889153404644 -0.116237491569825 0.825140652742901
-0.0412040382758979 -0.116237491569825 0.837741890909571
-0.0348868452791525 -0.116237491569825 0.842888210852351
-0.0360274650752388 -0.116237491569825 0.854791644512864
-0.0355251184862445 -0.116237491569825 0.866889062416895
-0.0381909043990921 -0.116237491569825 0.879727271033065
-0.0358452682339167 -0.116237491569825 0.882082489361989
-0.0345768662659652 -0.116237491569825 0.894674053233477
-0.0430789924890558 -0.116237491569825 0.9003109108714
-0.0374189163275967 -0.116237491569825 0.918055537250855
-0.0366128104392998 -0.116237491569825 0.917052953819428
-0.034894070132001 -0.116237491569826 0.934662098017071
-0.0429056178038922 -0.116237491569825 0.936914692995274
-0.0350223029967323 -0.116237491569825 0.950739074875026
-0.035833992170405 -0.116237491569825 0.962965759844472
-0.0371615082770726 -0.116237491569825 0.973197072529761
-0.0420118021701458 -0.116237491569825 0.974446349525684
-0.0374134793393316 -0.116237491569825 0.994140256711127
-0.0372404850990028 -0.110305237355323 0.996042699631867
-0.0358025220061217 -0.088568885573742 0.996036172759213
-0.0411668348892687 -0.083464015875992 0.996034702865242
-0.0355847166591999 -0.0673653325320931 0.996029818957599
-0.0366041957404974 -0.0561156317480356 0.996026460435885
-0.0381897656884601 -0.0329646966541804 0.996019543222682
-0.0374130018634481 -0.0340664823834859 0.996019864678025
-0.0366800047603279 -0.00737899166328609 0.998666065883626
-0.0408455495762135 -0.00499771175845675 0.999231435582804
-0.0387348294182342 0.00705251675291402 0.998915889244115
-0.0413650566520885 0.0367601273710414 0.99813796808246
-0.0454430872989297 0.0585363740182598 0.997567736995684
-0.0358059473066034 0.0658755839563502 0.997375553019866
-0.0441892680421163 0.0827734471457874 0.9969330668997
-0.0415671748116832 0.101954001109848 0.996430806417944
-0.0434231529335284 0.109585429733301 0.996230970426549
-0.0288775260474229 -0.116237491569825 0.113975604810487
-0.0291065227370564 -0.116237491569825 0.116294192158392
-0.0322653473316652 -0.116237491569826 0.128072726072387
-0.0241900542269924 -0.116237491569825 0.134284027642793
-0.0326684588285716 -0.116237491569825 0.138596305152741
-0.0260771799699914 -0.116237491569825 0.154670099248181
-0.0241718614650227 -0.116237491569825 0.166875767551031
-0.0281390121836255 -0.116237491569825 0.180530130196746
-0.0245624440020695 -0.116237491569825 0.184729674348146
-0.0330206582266279 -0.116237491569825 0.193358239530776
-0.0304008514659717 -0.116237491569825 0.200482271009384
-0.0260449716148187 -0.116237491569825 0.211154171270825
-0.0318243740102828 -0.116237491569825 0.217858448116897
-0.0320301793053548 -0.116237491569825 0.227517997176647
-0.0325278970018607 -0.116237491569825 0.239772810815898
-0.0317588013470749 -0.116237491569826 0.24962263083678
-0.0273018567159224 -0.116237491569825 0.261307347100133
-0.0311769973823821 -0.116237491569825 0.264518211165026
-0.0272023660154984 -0.116237491569826 0.273839037153514
-0.0332209486173754 -0.116237491569825 0.286036326799654
-0.0309493193867259 -0.116237491569826 0.307143568132707
-0.027596823023469 -0.116237491569825 0.307401794292416
-0.02873400183028 -0.116237491569825 0.318839374495639
-0.028764563991098 -0.116237491569825 0.324621369025545
-0.0255934047346545 -0.116237491569826 0.337279022331561
-0.0285039711817837 -0.116237491569825 0.346753419509926
-0.0242974880727977 -0.116237491569825 0.355575683981261
-0.0336052224082065 -0.116237491569825 0.358960271855311
-0.0332641579746828 -0.116237491569826 0.376580026992144
-0.033695071030777 -0.116237491569825 0.388807221526429
-0.0335376132757366 -0.116237491569825 0.388911682925884
-0.0251576177662698 -0.116237491569825 0.407237850647486
-0.0285044235433783 -0.116237491569825 0.410014851141697
-0.0316183177895184 -0.116237491569826 0.422399155894623
-0.02899483112956 -0.116237491569825 0.440385712201909
-0.0295643903281459 -0.116237491569825 0.448172401287539
-0.0310375346489341 -0.116237491569825 0.451325800588027
-0.0310683271210751 -0.116237491569825 0.458108860838595
-0.0336496092347602 -0.116237491569825 0.467424743270744
-0.0310572479392942 -0.116237491569825 0.481007726922198
-0.0327931786035162 -0.116237491569826 0.490906095469332
-0.0310581811510062 -0.116237491569825 0.499885093080328
-0.033452123906641 -0.116237491569825 0.514018900115771
-0.0284094593865157 -0.116237491569825 0.518481352186961
-0.0241394406778025 -0.116237491569825 0.529492375699015
-0.0269334024573989 -0.116237491569825 0.539332858510042
-0.0291584766697065 -0.116237491569825 0.542101202855609
-0.0273379727913715 -0.116237491569825 0.560389043998456
-0.0292000142133843 -0.116237491569826 0.565108439043021
-0.0305142290922664 -0.116237491569825 0.577138436380571
-0.0268571280398597 -0.116237491569825 0.587799190570813
-0.0304037896273218 -0.116237491569825 0.593838008403859
-0.0294117295140734 -0.116237491569826 0.608492791274058
-0.0307015320564978 -0.116237491569825 0.620924791206349
-0.0328846371363961 -0.116237491569826 0.627361049749337
-0.0279262398444281 -0.116237491569825 0.637173979506919
-0.0331049235812741 -0.116237491569825 0.642410895150439
-0.0310247208955567 -0.116237491569826 0.655702654733402
-0.0302837515292912 -0.116237491569825 0.656191934865069
-0.0336497363337143 -0.116237491569825 0.680624033083777
-0.0318518758618973 -0.116237491569826 0.681416392257765
-0.0289348984917404 -0.116237491569825 0.693908708216736
-0.025022993846442 -0.116237491569825 0.702145568228077
-0.0280058318484638 -0.116237491569825 0.713675654033474
-0.0304469857191733 -0.116237491569825 0.727929371113443
-0.0335873225447943 -0.116237491569825 0.728262043834511
-0.0246019275759367 -0.116237491569825 0.74562677764654
-0.0331865960552725 -0.116237491569825 0.758467978210904
-0.0253395908338096 -0.116237491569825 0.763839944952258
-0.0328872693066025 -0.116237491569825 0.773613386038274
-0.0317483972694658 -0.116237491569825 0.780764274188212
-0.0291006586584473 -0.116237491569825 0.793350311878628
-0.0285101552399143 -0.116237491569825 0.798498586768826
-0.0296119355763941 -0.116237491569825 0.806527049904392
-0.0270755943905609 -0.116237491569825 0.82057527188961
-0.0258470035607323 -0.116237491569825 0.823510182888326
-0.031293613401429 -0.116237491569825 0.833009491752831
-0.024878492681112 -0.116237491569825 0.844808501700038
-0.0247416761275038 -0.116237491569825 0.859736016107837
-0.032922540878337 -0.116237491569825 0.864191940460342
-0.0251014557714385 -0.116237491569825 0.871100192420238
-0.0274205518485382 -0.116237491569825 0.88316762549037
-0.0291374303458872 -0.116237491569825 0.893573337861358
-0.0272849605857227 -0.116237491569825 0.905082490606847
-0.0300699803829254 -0.116237491569825 0.916301689502614
-0.0244900344319883 -0.116237491569825 0.917152248884484
-0.0262145435663462 -0.116237491569825 0.931400171359242
-0.0286506981665414 -0.116237491569825 0.944855087770714
-0.0313041699498888 -0.116237491569825 0.95015895398042
-0.0293150753111072 -0.116237491569826 0.960455950991051
-0.0335065539337272 -0.116237491569825 0.96938879575882
-0.0272050057142931 -0.116237491569825 0.983236489603828
-0.0285473053046355 -0.116237491569825 0.984655582448905
-0.024976422182425 -0.10649980152427 0.996041424302577
-0.0312394166764411 -0.101078438966858 0.99603986952936
-0.0290412962874569 -0.0872737033546616 0.99603571012993
-0.0272480963962815 -0.0595797358972181 0.996027394766519
-0.0271911582257129 -0.0473372638801981 0.996023726979129
-0.0323643489761723 -0.0453682913718629 0.996023194313646
-0.0341255646469439 -0.0220635476938668 0.996016232967693
-0.0325432254863033 -0.012790785246066 0.997072724200707
-0.0261904012492273 -0.00914883497939608 0.998144988151326
-0.0326664488836858 0.0140048700384399 0.998733835466258
-0.0353073355704729 0.0324287406288627 0.998251389435976
-0.0311929791675597 0.0412276716773655 0.998020981317647
-0.0322966059970634 0.075783764363495 0.997116098184831
-0.026547386945123 0.0788758920633701 0.9970351279714
-0.0352686423001448 0.0944119274709341 0.996628302566721
-0.0296562236986218 0.113133154085808 0.996138069994905
-0.0215830028824257 -0.116237491569825 0.104569408058936
-0.0235985204911084 -0.116237491569825 0.115861999108011
-0.0238903943843725 -0.116237491569825 0.121917383307261
-0.0180803853013847 -0.116237491569825 0.132395412081794
-0.0214227162139507 -0.116237491569825 0.144579392216154
-0.0217226588002674 -0.116237491569825 0.153961753865866
-0.0196387937550328 -0.116237491569825 0.170137098409204
-0.0209061728334011 -0.116237491569825 0.17804768399451
-0.0169061245849916 -0.116237491569825 0.184498693426547
-0.0150721643101979 -0.116237491569825 0.189554182333016
-0.0188359609167391 -0.116237491569825 0.201517780451031
-0.015931791958128 -0.116237491569825 0.21127849738097
-0.0152184746090783 -0.116237491569825 0.21612225896492
-0.0170452903775187 -0.116237491569825 0.231515011949708
-0.0166641628624244 -0.116237491569825 0.237581523621044
-0.0238232502021198 -0.116237491569825 0.248800972624746
-0.0222217250155819 -0.116237491569825 0.260638664832814
-0.0183405441348782 -0.116237491569825 0.269141850785499
-0.0180978072486758 -0.116237491569825 0.284386047385591
-0.0233335851537788 -0.116237491569825 0.294404334471021
-0.0143862760379801 -0.116237491569825 0.296879967281214
-0.0212328704011922 -0.116237491569825 0.311292590453666
-0.0177771919231379 -0.116237491569825 0.309024737279035
-0.0181295793549662 -0.116237491569825 0.330313195626749
-0.0205703651376425 -0.116237491569825 0.33889945554244
-0.016302984141322 -0.116237491569826 0.345556152561679
-0.0187851792671173 -0.116237491569825 0.354642531436939
-0.0151171111358699 -0.116237491569825 0.368399908457665
-0.0147488718001511 -0.116237491569825 0.369467871972587
-0.0183300398195251 -0.116237491569825 0.392893325610355
-0.0223851397509837 -0.116237491569825 0.389298254729905
-0.0199327502338836 -0.116237491569825 0.403234695653958
-0.0164680393635985 -0.116237491569825 0.412338349849558
-0.0192415384587969 -0.116237491569825 0.428571131950331
-0.0167323555464028 -0.116237491569825 0.433534373642017
-0.0207991205258093 -0.116237491569825 0.447263055902362
-0.0230601478709792 -0.116237491569825 0.45175085265949
-0.0152802335102006 -0.116237491569825 0.470879331235498
-0.0176246863462881 -0.116237491569825 0.475670994092131
-0.0179636317059773 -0.116237491569825 0.48464274408174
-0.0214770811576413 -0.116237491569826 0.486456869257865
-0.0219565468033397 -0.116237491569826 0.505045371151456
-0.015052433552995 -0.116237491569825 0.505166612422606
-0.0161830037628611 -0.116237491569825 0.522527060140367
-0.0205206808517376 -0.116237491569826 0.52683164394464
-0.0147562527927368 -0.116237491569825 0.54240444637563
-0.0235451793481612 -0.116237491569825 0.544025545499715
-0.0144619418061335 -0.116237491569825 0.550227534943699
-0.0155199410097765 -0.116237491569825 0.568673338323001
-0.0201068350445547 -0.116237491569825 0.580076327702005
-0.0163310614814916 -0.116237491569825 0.588993074198844
-0.0192433125214015 -0.116237491569825 0.591257944710356
-0.0166051298585032 -0.116237491569825 0.600432864748771
-0.0158904991686833 -0.116237491569825 0.615912363217998
-0.0221385604372857 -0.116237491569826 0.625117186104318
-0.0178394639040604 -0.116237491569825 0.633239271317095
-0.0168763317189461 -0.116237491569825 0.650789014565697
-0.0175873402008362 -0.116237491569825 0.653609131308307
-0.0236653820298704 -0.116237491569825 0.665890011168174
-0.0145567483642554 -0.116237491569825 0.678542149418681
-0.0183716648018818 -0.116237491569825 0.677763620966914
-0.0180834875810582 -0.116237491569825 0.696138785552139
-0.0240020922810259 -0.116237491569825 0.706002648627202
-0.0192539544899942 -0.116237491569825 0.712735753356859
-0.0202513586358256 -0.116237491569825 0.726434371270879
-0.0170121325009915 -0.116237491569825 0.732756425293978
-0.0175169385423096 -0.116237491569825 0.745672361500224
-0.0180991648271316 -0.116237491569825 0.756934957193439
-0.02348054828083 -0.116237491569826 0.76478606577392
-0.0197859123927851 -0.116237491569825 0.776063503890271
-0.0203768129980082 -0.116237491569825 0.780559791205906
-0.0218270482230757 -0.116237491569825 0.788798416786194
-0.0220844884658715 -0.116237491569825 0.799024725919097
-0.0173485898868352 -0.116237491569825 0.812568250183496
-0.0238845366526664 -0.116237491569825 0.820694746297907
-0.0173474466645507 -0.116237491569825 0.82253113837151
-0.0178977283094187 -0.116237491569825 0.839262376970475
-0.0157494306102076 -0.116237491569825 0.845884997944998
-0.0217365617972036 -0.116237491569825 0.857374256521101
-0.0197807281198491 -0.116237491569825 0.871317713723669
-0.0221873418691632 -0.116237491569825 0.876701133104188
-0.0229163585085902 -0.116237491569825 0.881326090284994
-0.0154773551837916 -0.116237491569825 0.891656230622415
-0.0234398830180303 -0.116237491569825 0.901644423517663
-0.0160053181306742 -0.116237491569825 0.910515269686389
-0.0144316190020461 -0.116237491569825 0.930109633501579
-0.0189414278980236 -0.116237491569825 0.933913681626716
-0.0146844187392608 -0.116237491569826 0.943521334542001
-0.0203509078644746 -0.116237491569826 0.951235189768595
-0.0150517338398822 -0.116237491569825 0.962583879058894
-0.0214891184376234 -0.116237491569826 0.974869560359947
-0.0161320936010642 -0.116237491569825 0.98482211005156
-0.0161891218974464 -0.116237491569826 0.98447122395988
-0.023465390727009 -0.116325663971917 0.996044350893821
-0.0190228305327284 -0.0934540575517626 0.996037450782261
-0.0240585079861707 -0.0737049999011946 0.996031590680989
-0.0204451392418304 -0.0635632694438298 0.996028512883841
-0.0204251194665477 -0.0476699275313465 0.996023751908102
-0.0166943189399711 -0.0468709091353019 0.996023471367154
-0.0240908498962454 -0.027794616799317 0.996017838859945
-0.0164813763469289 -0.0129315836468833 0.997031270298691
-0.0166714407999942 -0.00450694397731159 0.999218584376178
-0.0154008254039244 0.0160367506951038 0.998680628798745
-0.0171299563583009 0.023321413197081 0.99848987319781
-0.0203695219588478 0.0448908259295233 0.997925058247705
-0.0234884554394389 0.0715216936248161 0.997227704434916
-0.0171457180495631 0.0801654212035914 0.997001360462473
-0.0200701031853896 0.102495289659106 0.996416632278446
-0.0245682845928683 0.115499925002786 0.996076093917301
-0.01429942218438 -0.116237491569825 0.109602006060005
-0.0125364534942078 -0.116237491569825 0.120249189590717
-0.0109641539834848 -0.116237491569825 0.11770738478917
-0.00847533242131798 -0.116237491569825 0.128664598027348
-0.00922197508517288 -0.116237491569825 0.143011457961668
-0.0129479693254951 -0.116237491569825 0.151815493600234
-0.0064100914667418 -0.116237491569825 0.156053405324735
