ply
format ascii 1.0
element vertex 916
property float x
property float y
property float z
end_header
-0.25734506922027 -0.0702612230230849 1.0
-0.251818479471004 -0.0707161528119128 1.0
-0.24368739651486 -0.0743365873081746 1.0
-0.220415636044057 -0.0770414324096039 1.0
-0.210109091339791 -0.0730557826001189 1.0
-0.193928325009106 -0.0756548432863313 1.0
-0.183758844136567 -0.0704495549879761 1.0
-0.169184110171861 -0.073741598067116 1.0
-0.160849201328695 -0.0782349450863389 1.0
-0.153450691517099 -0.0792715830101556 1.0
-0.122143219860834 -0.0720373112694598 1.0
-0.119340419915428 -0.0805649501508933 1.0
-0.102803740195942 -0.0755344526705233 1.0
-0.0785652725884944 -0.0818213586745824 0.999999999999999
-0.0762249409356557 -0.079021480387135 1.0
-0.0594760440064638 -0.0801492939839309 1.0
-0.0368145088300584 -0.0776035310582905 1.0
-0.0360216775914139 -0.0817494877493721 1.0
-0.0076567863416048 -0.0810788420832476 1.0
0.00343929745350155 -0.0770619983416312 1.0
0.0171624949993666 -0.0826110572280714 1.0
0.0396213610167668 -0.0819332247618711 1.0
0.039948676618124 -0.0839046386046836 1.0
0.0621032261763002 -0.0833785615504937 1.0
0.0769007635508431 -0.0841205342988252 1.0
0.0962285095789765 -0.0779489703350818 1.0
0.10253538374023 -0.0841263222696563 1.0
0.120779186674155 -0.0840831308512169 1.0
0.141134617245935 -0.0847684496647293 1.0
0.15555995220996 -0.0819563154813746 1.0
0.165024313321241 -0.0869864012740815 1.0
0.186948996968512 -0.0806983926054748 1.0
0.218125596667781 -0.0825252070995457 1.0
0.237233038995778 -0.0860880169104441 1.0
0.232389667656083 -0.0817461001727449 1.0
0.270290074857218 -0.0876387003097783 1.0
0.276891080304998 -0.0829423760528663 1.0
0.308694920395309 -0.0853188362348464 1.0
0.322001021634092 -0.0900495913146489 1.0
-0.374999999999997 -0.062364024382524 0.363755621751051
-0.374999999999997 -0.0576470823822862 0.379914699748948
-0.374999999999997 -0.0614475111025229 0.38977227541708
-0.374999999999997 -0.0622204314137522 0.395480640588407
-0.374999999999997 -0.0617292992650075 0.394438117548476
-0.374999999999997 -0.0621437735211508 0.402250536578004
-0.374999999999997 -0.0627978178192616 0.418360326895634
-0.374999999999997 -0.0649300961779401 0.429774108213374
-0.374999999999997 -0.0572421775106104 0.434497597244918
-0.374999999999997 -0.0639104126782833 0.448523067243091
-0.374999999999997 -0.0608840910159775 0.448401518764298
-0.374999999999997 -0.0603632339004121 0.463753222612459
-0.374999999999997 -0.0656070494247415 0.465404216534596
-0.374999999999997 -0.057840822666772 0.484516935166498
-0.374999999999997 -0.0632138424713959 0.485136626078751
-0.374999999999997 -0.0576412078387682 0.491821539725078
-0.374999999999997 -0.0601747202549606 0.505212972917773
-0.374999999999997 -0.0655418175368874 0.514619406970241
-0.374999999999997 -0.0629115951356858 0.521345114682344
-0.374999999999997 -0.0636512406777318 0.529320627569941
-0.374999999999997 -0.0623796027011573 0.543882058599677
-0.374999999999997 -0.0618611708608054 0.547072413485265
-0.374999999999997 -0.0616594815102354 0.561383477352105
-0.374999999999997 -0.057443875959913 0.560778352745855
-0.374999999999997 -0.0599770474165232 0.579404021776752
-0.374999999999997 -0.05914103765818 0.584197523070606
-0.374999999999997 -0.0619199959167064 0.591810007842558
-0.374999999999997 -0.0597230640611861 0.605493453772638
-0.374999999999997 -0.0601103515581087 0.611965437972644
-0.374999999999997 -0.0587951440117297 0.616316343512069
-0.374999999999997 -0.0610468947210307 0.627917458706305
-0.374999999999997 -0.0613188062383117 0.633081721767607
-0.374999999999997 -0.0577065175224336 0.651640754880109
-0.374999999999997 -0.0603996385282791 0.655171395046663
-0.374999999999997 -0.0643609988914804 0.663626773092617
-0.374999999999997 -0.0651015737786905 0.666479154830356
-0.374999999999997 -0.0611805092354637 0.687311543571202
-0.374999999999997 -0.062333007580754 0.693584910436331
-0.374999999999997 -0.057978903449898 0.694793777795669
-0.374999999999997 -0.0580169147149633 0.707929866556758
-0.374999999999997 -0.058095198384923 0.717115241848074
-0.374999999999997 -0.0591155591402885 0.726214712321904
-0.374999999999997 -0.0620650507996766 0.735363759007759
-0.374999999999997 -0.0654729049188539 0.738231114599135
-0.374999999999997 -0.0646660824153883 0.7531059329307
-0.374999999999997 -0.0593729346152549 0.761881674778634
-0.374999999999997 -0.0609760522999236 0.762873041134876
-0.374999999999997 -0.0617487740348765 0.780677602037609
-0.374999999999997 -0.0580335766432354 0.781636259958951
-0.374999999999997 -0.0603374999073273 0.79637376703357
-0.374999999999997 -0.0628000293222573 0.802659662882585
-0.374999999999997 -0.0617404934658099 0.811974435312266
-0.374999999999997 -0.0633971019278664 0.820161757053175
-0.374999999999997 -0.0604161698560261 0.828609648400033
-0.374999999999997 -0.0650819867937048 0.839221513537028
-0.374999999999997 -0.0600253181801287 0.841032138015336
-0.374999999999997 -0.0624186119167827 0.855283511275688
-0.374999999999997 -0.0641940930609632 0.869715907089114
-0.374999999999997 -0.0646810179430037 0.875495089394619
-0.374999999999997 -0.0622715291767327 0.878700334104577
-0.374999999999997 -0.0606644545737025 0.891169418561643
-0.374999999999997 -0.0569454502268723 0.89819406577693
-0.374999999999997 -0.0604243861059735 0.912356058567327
-0.374999999999997 -0.0567901848304587 0.92335025242296
-0.374999999999997 -0.0589645834633314 0.924002825974441
-0.374999999999997 -0.0574184844841252 0.939073749300205
-0.374999999999997 -0.0594847578865061 0.946081985035589
-0.374999999999997 -0.0636340327988217 0.948775029173533
-0.374999999999997 -0.0612181734896687 0.961612052140243
-0.374999999999997 -0.0615678469055696 0.97288978241663
-0.374999999999997 -0.062236775711902 0.976726019418413
-0.374999999999997 -0.0640625234983044 0.984505335032008
-0.374999999999997 -0.0635649075200907 0.995240967796035
-0.365672741653008 -0.058778699595605 1.0
-0.365119197253594 -0.0582662278494486 1.0
-0.347424140801413 -0.0633009990041553 1.0
-0.329925541141613 -0.0638731578095715 1.0
-0.31989698478431 -0.0594142609665204 1.0
-0.307831531760234 -0.0586254491873024 1.0
-0.290978281281614 -0.0610032593390586 1.0
-0.285931146633007 -0.0597337535372575 1.0
-0.274268622077754 -0.0602725654531478 1.0
-0.255002247570592 -0.0656887329966544 1.0
-0.24797108419909 -0.0637256075677206 1.0
-0.23268140685697 -0.0687798886283453 1.0
-0.221093469291087 -0.060363226390609 1.0
-0.216824739425079 -0.0685477892186895 1.0
-0.197505659438097 -0.0670728805086779 1.0
-0.175142393404136 -0.0706088801904787 1.0
-0.16954729091405 -0.065436926423213 1.0
-0.157912468108332 -0.0671121901242123 0.999999999999999
-0.13437320630245 -0.0635332493043559 1.0
-0.135895732136561 -0.0667324696654671 1.0
-0.107361711920018 -0.064983939233707 0.999999999999999
-0.10069277564829 -0.0666163151570021 1.0
-0.0898301154408358 -0.0692948452968608 1.0
-0.0792290823877239 -0.0691299880663923 1.0
-0.0638032149126276 -0.0712555436177121 0.999999999999999
-0.0443316278951156 -0.064065570257704 1.0
-0.0320158625795381 -0.0665068496435735 1.0
-0.0198238182468606 -0.0658929180852173 0.999999999999999
0.00912675764495299 -0.0715674563794626 1.0
0.0221808392088871 -0.0734977082570177 1.0
0.023079783959601 -0.0727946508684476 1.0
0.0490035318988422 -0.0738373227421795 1.0
0.0627723970737 -0.0697484390504587 1.0
0.0778773661100317 -0.0749357060917947 1.0
0.0924484734887244 -0.0736031519872031 1.0
0.104655087592464 -0.0700455348043037 1.0
0.129813018834257 -0.0775054491189032 1.0
0.130637991409669 -0.0703103930642147 1.0
0.16603096954038 -0.0744078412436648 1.0
0.175179037052847 -0.0758006191227073 1.0
0.196198899662921 -0.0781461025434884 0.999999999999999
0.208010325423073 -0.0754666413341844 1.0
0.231050707203635 -0.0699707556518989 1.0
0.2482236925945 -0.0779742920327026 1.0
0.254723175289561 -0.0740232286792645 1.0
0.272614151008108 -0.0770657080779206 1.0
0.299586942043478 -0.0773388204813757 1.0
0.320533528007648 -0.0718716274860974 1.0
-0.374999999999997 -0.0492107767667985 0.368777519422947
-0.374999999999997 -0.0513891105084553 0.372960527766928
-0.374999999999997 -0.0508400461501818 0.38723723843654
-0.374999999999997 -0.0557985697405793 0.390993197244505
-0.374999999999997 -0.0499172014206154 0.398510871564795
-0.374999999999997 -0.0564061714198112 0.414710999980035
-0.374999999999997 -0.0482802945372701 0.420752162062798
-0.374999999999997 -0.0500286186169378 0.428934111033258
-0.374999999999997 -0.0485574679051853 0.431137703190048
-0.374999999999997 -0.0566041199946986 0.444247519923685
-0.374999999999997 -0.055860293744319 0.450495879133528
-0.374999999999997 -0.0514259380659153 0.460586737437921
-0.374999999999997 -0.0511722039984732 0.468314883229913
-0.374999999999997 -0.0531971901664765 0.478866681985956
-0.374999999999997 -0.053838605335485 0.48830735455879
-0.374999999999997 -0.0500347379446301 0.492528979843674
-0.374999999999997 -0.056346962094166 0.504670997787833
-0.374999999999997 -0.048010594917956 0.517435009595939
-0.374999999999997 -0.053230351097979 0.516530196414699
-0.374999999999997 -0.055858332611737 0.530849308591653
-0.374999999999997 -0.0498737492526922 0.539737224790446
-0.374999999999997 -0.0546854590521833 0.551789519374074
-0.374999999999997 -0.0482286657886316 0.559072010418238
-0.374999999999997 -0.0515527064885573 0.568267021073969
-0.374999999999997 -0.0551636974092931 0.576378002919373
-0.374999999999997 -0.0531122347078151 0.585157569421642
-0.374999999999997 -0.0560527785976884 0.590564339722118
-0.374999999999997 -0.0539831087250294 0.604185872636842
-0.374999999999997 -0.0540087631571935 0.611106178093809
-0.374999999999997 -0.052518555178846 0.615392349998847
-0.374999999999997 -0.055584553725785 0.633952214692591
-0.374999999999997 -0.0524477072996162 0.638392287599498
-0.374999999999997 -0.0568210445800416 0.644583474129986
-0.374999999999997 -0.0569239291117345 0.654166743219411
-0.374999999999997 -0.0486068753348522 0.668896743421406
-0.374999999999997 -0.0519606592227619 0.671459097580962
-0.374999999999997 -0.0524867300111843 0.682868349450294
-0.374999999999997 -0.0508823679049377 0.69557699139443
-0.374999999999997 -0.0528586700955233 0.701816580099372
-0.374999999999997 -0.0553121256597534 0.70824309577127
-0.374999999999997 -0.0503022103779983 0.7200329896882
-0.374999999999997 -0.0512464411073547 0.727587681883739
-0.374999999999997 -0.0525774811400287 0.737779371656845
-0.374999999999997 -0.0546161149267113 0.747245460051624
-0.374999999999997 -0.055112233289732 0.749106309125803
-0.374999999999997 -0.0516198225271115 0.76743896471492
-0.374999999999997 -0.0508346996498166 0.767947158834668
-0.374999999999997 -0.0481300505825452 0.77338976812346
-0.374999999999997 -0.048233334607385 0.786329109084357
-0.374999999999997 -0.0498563257132682 0.799205654018692
-0.374999999999997 -0.0501193747518269 0.801386303128173
-0.374999999999997 -0.0496732831778463 0.815816644545841
-0.374999999999997 -0.0494771062268236 0.820900152298643
-0.374999999999997 -0.0492339397711769 0.832231196121313
-0.374999999999997 -0.0512195234411046 0.840293221477887
-0.374999999999997 -0.0497323937758623 0.840585596701142
-0.374999999999997 -0.0566140523089933 0.856294617101856
-0.374999999999997 -0.0490206076558829 0.867238451217273
-0.374999999999997 -0.0500788051067362 0.878618441056452
-0.374999999999997 -0.0521340879750461 0.882043937538769
-0.374999999999997 -0.0521611418120344 0.888696260340207
-0.374999999999997 -0.0511085586756354 0.897850358784897
-0.374999999999997 -0.0526259129281853 0.912651671005492
-0.374999999999997 -0.0495328203575917 0.918721146684565
-0.374999999999997 -0.0532687303262212 0.929335309552529
-0.374999999999997 -0.0538560301637502 0.936179220993459
-0.374999999999997 -0.0501891729838242 0.94405912043921
-0.374999999999997 -0.0551927427740112 0.949387676046032
-0.374999999999997 -0.053650184304709 0.962860655111932
-0.374999999999997 -0.0542579719792177 0.967841081419961
-0.374999999999997 -0.0502416842031319 0.977654870688286
-0.374999999999997 -0.0555838663312267 0.989423427649051
-0.374999999999997 -0.0538858313010691 0.994570950462425
-0.358700555136539 -0.0494476063066568 1.0
-0.361222643570942 -0.0552491646631842 1.0
-0.340308615529978 -0.0498295085419986 1.0
-0.329562268599442 -0.0524312099425374 1.0
-0.327492840641184 -0.0556013588927093 1.0
-0.311528938721857 -0.0548070538082738 1.0
-0.30690338433536 -0.0567921707073393 1.0
-0.289357927975196 -0.0512400892603402 1.0
-0.271105986172068 -0.0564328907625096 1.0
-0.253998746630169 -0.0552329088009837 1.0
-0.247781143241966 -0.0576149484432546 1.0
-0.24086936509268 -0.055853171108584 1.0
-0.225766418409314 -0.0556459203045926 1.0
-0.207671950615666 -0.0556175291810352 1.0
-0.20075724514987 -0.0605518606374408 1.0
-0.183083448280002 -0.0564771502432937 1.0
-0.163983037502867 -0.0522283852495677 1.0
-0.146379275966351 -0.0617093630956419 1.0
-0.136903363690965 -0.0614901554544069 1.0
-0.130370855203032 -0.0539483094218684 1.0
-0.12212996590486 -0.0603816547781647 1.0
-0.107345406838789 -0.0558312293704103 1.0
-0.0961107396595578 -0.0599346588569683 1.0
-0.078664296470164 -0.0603963056204587 0.999999999999999
-0.0492997476423279 -0.0578004065974202 1.0
-0.0493843070898113 -0.0560555428791409 1.0
-0.0221048606350678 -0.0590614160205017 0.999999999999999
-0.0241085404148581 -0.0555885537228103 1.0
-0.00507287678607326 -0.0585956771275813 1.0
0.0196057607720006 -0.0611024299439239 1.0
0.0273053413763077 -0.0575070153938781 1.0
0.0390093139880728 -0.0631555344476095 1.0
0.0698684523744436 -0.0592935112458181 1.0
0.0701378377075286 -0.0661468325911329 1.0
0.104721897551721 -0.0569094179527032 1.0
0.113887140634357 -0.0652132936097895 1.0
0.135621151010748 -0.0666843638813638 1.0
0.134350676064821 -0.0665146027352848 1.0
0.157413882918355 -0.0647331373015019 1.0
0.17954505949583 -0.0686375067894274 1.0
0.182559191634412 -0.0606676895728924 1.0
0.205406756209425 -0.0655912343058382 0.999999999999999
0.231877061919187 -0.0640020401681267 1.0
0.251038077541523 -0.0699100351121551 1.0
0.256560018089246 -0.0640670896380415 1.0
0.279717467106843 -0.0623923248164199 1.0
0.29520441232222 -0.0647500564135448 1.0
0.306318043796781 -0.0632405147755089 1.0
-0.374999999999997 -0.045866241508194 0.361480221779874
-0.374999999999997 -0.0472724969304859 0.368816221735637
-0.374999999999997 -0.0416019738541462 0.375674512756237
-0.374999999999997 -0.0421649843127095 0.393505158812779
-0.374999999999997 -0.0473242924497967 0.407948475220148
-0.374999999999997 -0.0398637039091928 0.411403634423593
-0.374999999999997 -0.0400701557398975 0.417981234771392
-0.374999999999997 -0.0432288488443399 0.426213111352643
-0.374999999999997 -0.044472917093522 0.436362177555706
-0.374999999999997 -0.0427557851633846 0.445444297857735
-0.374999999999997 -0.0471216955810092 0.448482602124709
-0.374999999999997 -0.0463431807198051 0.4615274589434
-0.374999999999997 -0.0408854748083778 0.472114160226422
-0.374999999999997 -0.0404751946707776 0.471899547663347
-0.374999999999997 -0.0407961259374496 0.487374547530894
-0.374999999999997 -0.042363215209004 0.498670833835863
-0.374999999999997 -0.0414253705342296 0.514539716396799
-0.374999999999997 -0.0426998109231587 0.516589682743593
-0.374999999999997 -0.0459248997107235 0.523291093807473
-0.374999999999997 -0.0454533822035642 0.530858209167991
-0.374999999999997 -0.0475611934535358 0.53940781363043
-0.374999999999997 -0.0462734082760389 0.554060165382258
-0.374999999999997 -0.0450225299960625 0.5612940540396
-0.374999999999997 -0.0431661808984605 0.567813771245777
-0.374999999999997 -0.046061355496992 0.579236587599886
-0.374999999999997 -0.04666216088192 0.586598531406006
-0.374999999999997 -0.0454021574212181 0.593523704462712
-0.374999999999997 -0.0422794433622897 0.604483791133961
-0.374999999999997 -0.0411469552355233 0.606353207259869
-0.374999999999997 -0.042250091135435 0.618925356970935
-0.374999999999997 -0.0409928277140386 0.62612031426962
-0.374999999999997 -0.0460668021496823 0.64092946779715
-0.374999999999997 -0.0436446299114183 0.64822155358861
-0.374999999999997 -0.0474593620536686 0.654947810618699
-0.374999999999997 -0.0454914624154416 0.665110462059603
-0.374999999999997 -0.0448679854134106 0.668031440337533
-0.374999999999997 -0.0440097283477414 0.684231897180907
-0.374999999999997 -0.0395534061333727 0.692969965064768
-0.374999999999997 -0.0411136375473627 0.699181409068374
-0.374999999999997 -0.0458186972345069 0.703499341625902
-0.374999999999997 -0.0429365336752611 0.721455758393821
-0.374999999999997 -0.0449251197961954 0.724849634491369
-0.374999999999997 -0.0406440151670499 0.735786795620504
-0.374999999999997 -0.0431597823335146 0.737268441443822
-0.374999999999997 -0.0463736956387268 0.747860923086697
-0.374999999999997 -0.0466188382139574 0.756861411750723
-0.374999999999997 -0.045658551035399 0.766929855879907
-0.374999999999997 -0.0436633131823556 0.77628848210151
-0.374999999999997 -0.0396899615415462 0.782587913606126
-0.374999999999997 -0.0475865741783997 0.795394692647667
-0.374999999999997 -0.0462292467618572 0.807558114491203
-0.374999999999997 -0.0412769537342915 0.811878078545248
-0.374999999999997 -0.0426022371834967 0.821599681152855
-0.374999999999997 -0.0478602852609238 0.831502153443768
-0.374999999999997 -0.0429883626928383 0.842264459768216
-0.374999999999997 -0.0419327079726224 0.848014092176614
-0.374999999999997 -0.0401916425955147 0.85462042366644
-0.374999999999997 -0.0429861331182548 0.867743504659458
-0.374999999999997 -0.0428711108932524 0.873350464527025
-0.374999999999997 -0.0421658206324007 0.882276732442165
-0.374999999999997 -0.0413863350684156 0.887519956287386
-0.374999999999997 -0.0431144054671457 0.896078276778246
-0.374999999999997 -0.0413892434108932 0.910355541783774
-0.374999999999997 -0.0407051172568334 0.919167972950597
-0.374999999999997 -0.0394754826026315 0.922495674979471
-0.374999999999997 -0.0474644527964557 0.930172716176954
-0.374999999999997 -0.0473770614497708 0.945274064260655
-0.374999999999997 -0.0425369577011748 0.955463568219591
-0.374999999999997 -0.0419754169653019 0.959863355616579
-0.374999999999997 -0.0441067357020623 0.971879350557179
-0.374999999999997 -0.0443996466506151 0.981908976292789
-0.374999999999997 -0.0455858303147403 0.993086545129989
-0.374999999999997 -0.0478232410773248 0.993364860829818
-0.361825670845874 -0.0433600391949473 1.0
-0.356102686819423 -0.0407874735346866 1.0
-0.349390605455784 -0.0428449431708771 1.0
-0.334632900827861 -0.0473294160634317 1.0
-0.32259309082726 -0.0489139801723924 1.0
-0.309791595911148 -0.0479235934701049 1.0
-0.290140035325196 -0.048825294513619 1.0
-0.291478810958182 -0.0442684233851612 1.0
-0.268960945681108 -0.0481188471069387 1.0
-0.259511111471764 -0.0484187571709063 1.0
-0.249450917357291 -0.0424511110896302 1.0
-0.237260808376345 -0.0440238728940085 1.0
-0.224098244092402 -0.0487073668696883 1.0
-0.211717444077718 -0.0435186011951811 1.0
-0.198611597061348 -0.0470144453151809 1.0
-0.174509358668236 -0.0504228037640357 1.0
-0.173403124465151 -0.0482553034173086 1.0
-0.157404830622481 -0.0481067871981219 0.999999999999999
-0.140144765780166 -0.0447219116184823 1.0
-0.132045592221447 -0.0518100873687651 1.0
-0.120105140811822 -0.0518439316738369 1.0
-0.107821545804824 -0.045326572116153 1.0
-0.0981742347985375 -0.0511939394408558 1.0
-0.078801873724059 -0.0461961695635407 1.0
-0.0607434845535898 -0.0518255643669444 1.0
-0.0496846181072483 -0.0523841589772015 1.0
-0.0271422999468332 -0.0538909512880159 1.0
-0.014328073789119 -0.0461038091299178 1.0
0.00361193890987721 -0.0519606032031953 1.0
0.0113652269943743 -0.0539817928200433 1.0
0.0214413344300839 -0.0532756700769475 1.0
0.0485098848271192 -0.0535612215367919 1.0
0.0672636502063736 -0.0459628989555128 1.0
0.0802978972257132 -0.0513810146075647 1.0
0.0905216715362037 -0.0501445576034909 1.0
0.116481684120736 -0.0522367912402418 1.0
0.132835006063208 -0.0490418165553395 1.0
0.15099372279126 -0.0568474590965068 1.0
0.160716164079773 -0.0562212768529994 1.0
0.167024493753281 -0.0534092340657776 1.0
0.187914862791923 -0.058364025034899 1.0
0.211966620069544 -0.0550102999036753 1.0
0.218969613331545 -0.0589214919971448 1.0
0.238703668646341 -0.0537017094840955 1.0
0.258769299747804 -0.0588332712200609 1.0
0.284158288604162 -0.0555682805972602 1.0
0.288854325677829 -0.0574195485979607 1.0
0.319051420804468 -0.0525900064603279 1.0
-0.374999999999997 -0.0361442701126256 0.36706722280602
-0.374999999999997 -0.0375014061243339 0.371304239371898
-0.374999999999997 -0.0330792598545396 0.388155928054435
-0.374999999999997 -0.0347146391113487 0.392865413404176
-0.374999999999997 -0.0328046056359623 0.402535652332161
-0.374999999999997 -0.0306700243289626 0.404054552072696
-0.374999999999997 -0.0307919824930313 0.413244238817924
-0.374999999999997 -0.0391677602722187 0.428134975306636
-0.374999999999997 -0.034572876870175 0.437579527812997
-0.374999999999997 -0.037080962692412 0.443583943439581
-0.374999999999997 -0.0309749363721825 0.454742495939995
-0.374999999999997 -0.0310950087441576 0.466640513206475
-0.374999999999997 -0.0374673035630715 0.474455460892765
-0.374999999999997 -0.0322331433234562 0.475455404378067
-0.374999999999997 -0.037717560686032 0.483566195042551
-0.374999999999997 -0.0310510424787481 0.502801043535471
-0.374999999999997 -0.0353739518744119 0.511204847536573
-0.374999999999997 -0.035357578718482 0.512729325388386
-0.374999999999997 -0.032427188702444 0.524351602273567
-0.374999999999997 -0.0362630670192708 0.53414063673349
-0.374999999999997 -0.0321884878564889 0.538687201598649
-0.374999999999997 -0.0315893328403357 0.550936834291908
-0.374999999999997 -0.0346590550132844 0.554615078495921
-0.374999999999997 -0.0333432174792095 0.560304490867739
-0.374999999999997 -0.0325291669236169 0.575227464632398
-0.374999999999997 -0.0347986777925366 0.584759139991722
-0.374999999999997 -0.0376410858439163 0.598879521440726
-0.374999999999997 -0.0364878813922691 0.601220795671214
-0.374999999999997 -0.0341250791318334 0.611789363170601
-0.374999999999997 -0.0357850485070101 0.618496640359219
-0.374999999999997 -0.0379170177358263 0.6310331110531
-0.374999999999997 -0.0351703968748432 0.644227113056009
-0.374999999999997 -0.0341387221098964 0.646259248848435
-0.374999999999997 -0.0324124308367238 0.657135124946834
-0.374999999999997 -0.0389447331854739 0.664102031338984
-0.374999999999997 -0.0336983400168985 0.671335517714606
-0.374999999999997 -0.0364267764664199 0.680695886987002
-0.374999999999997 -0.0374482135613446 0.691909417663725
-0.374999999999997 -0.0372967174249399 0.704453478433914
-0.374999999999997 -0.0365972050616829 0.711702128982695
-0.374999999999997 -0.0391805565460026 0.718994341963687
-0.374999999999997 -0.0382156929016613 0.72228894598663
-0.374999999999997 -0.0365473012459119 0.738259945404247
-0.374999999999997 -0.0372477365167883 0.738557203868686
-0.374999999999997 -0.0364516132228125 0.750586959636978
-0.374999999999997 -0.0364943451173913 0.753480499270306
-0.374999999999997 -0.0324352981215143 0.765477732159894
-0.374999999999997 -0.03161586370227 0.776313754909836
-0.374999999999997 -0.0346501886335002 0.780862360377803
-0.374999999999997 -0.0323376121850217 0.802522535421627
-0.374999999999997 -0.0329372046112401 0.80586768023904
-0.374999999999997 -0.0316276795146003 0.815315765533536
-0.374999999999997 -0.034362364705299 0.821132783616717
-0.374999999999997 -0.0343080730897891 0.834903110701586
-0.374999999999997 -0.0315571747113663 0.833375019248304
-0.374999999999997 -0.0332367781544606 0.843365356368521
-0.374999999999997 -0.0336603620007285 0.861330854661594
-0.374999999999997 -0.0371972544156882 0.859716833425226
-0.374999999999997 -0.0350426212405845 0.870214756494406
-0.374999999999997 -0.0370756336851192 0.879211598934092
-0.374999999999997 -0.0375956892359235 0.892492338906795
-0.374999999999997 -0.0349736421779009 0.899185276757314
-0.374999999999997 -0.0309196792676619 0.915787501835583
-0.374999999999997 -0.0374519740559847 0.922342293115592
-0.374999999999997 -0.0312953616237119 0.919293889159061
-0.374999999999997 -0.0324222952460883 0.934356240076412
-0.374999999999997 -0.0351386984802391 0.944321189872115
-0.374999999999997 -0.0343111692572145 0.951767353977587
-0.374999999999997 -0.0306241347229119 0.958154326577141
-0.374999999999997 -0.030892383474195 0.970980076577473
-0.374999999999997 -0.0355436290177063 0.977941456147363
-0.374999999999997 -0.0387430335073895 0.984908301510266
-0.374999999999997 -0.0369017197968355 0.99656688405468
-0.37138371849326 -0.0373320793066864 1.0
-0.357312630113919 -0.0350659777092494 1.0
-0.352765956720626 -0.0351961006540433 1.0
-0.327047937281592 -0.0399511395138613 1.0
-0.326174952705836 -0.0371628552585553 1.0
-0.306573647780867 -0.0329875827659885 1.0
-0.294489759938936 -0.0338846141416673 1.0
-0.280360091218239 -0.0394853763766941 1.0
-0.273079228797785 -0.0384851670771969 1.0
-0.258309151631114 -0.0330355189233358 1.0
-0.251052428101622 -0.0331828215982411 1.0
-0.244130117712866 -0.0345733225373754 1.0
-0.225214183123666 -0.0371539577708647 1.0
-0.201737864390515 -0.0364070288766674 1.0
-0.198241232906363 -0.041900883866926 0.999999999999999
-0.173667882665949 -0.0416156244433361 1.0
-0.171854366270894 -0.0397600374678607 1.0
-0.160668293085531 -0.0366957317955676 1.0
-0.148300719487983 -0.0336950355081563 1.0
-0.12293939797514 -0.0404568888300041 0.999999999999999
-0.11775641872245 -0.0410898524448369 1.0
-0.107215898588207 -0.0345102112904269 1.0
-0.0944850522658769 -0.038991881796559 1.0
-0.0715324610573887 -0.0393908393431186 1.0
-0.0594089016773849 -0.0401528675646863 1.0
-0.0435506585735569 -0.0360274115859787 1.0
-0.0364713588787345 -0.038254138886635 1.0
-0.0123807865761685 -0.0419970075299384 1.0
-0.00596966954376092 -0.039161233789394 1.0
0.0170644767779195 -0.0451137886744282 1.0
0.0302611134233766 -0.0358387333202774 1.0
0.0361056394076778 -0.0402717827165115 1.0
0.059019528781862 -0.0432454889833673 1.0
0.0746096686814201 -0.0445085176816279 1.0
0.0916897054801984 -0.0373096646037163 1.0
0.100191031616468 -0.0458108752038627 1.0
0.120850031651422 -0.0451469225712335 1.0
0.140673199623844 -0.0440930906963277 1.0
0.1577859056039 -0.0373273409652755 1.0
0.17360835896035 -0.0405286517013619 1.0
0.191144408387713 -0.0395461199327619 1.0
0.218674446199415 -0.0383139203325888 1.0
0.225417674794031 -0.0386570660638778 1.0
0.237617263198112 -0.0436475444983834 1.0
0.256994824108799 -0.0425801671677481 1.0
0.277301258093779 -0.0482648006479359 1.0
0.300881804138491 -0.0408447339582085 1.0
0.310841355063639 -0.0424285321266355 1.0
-0.374999999999997 -0.0232754127836803 0.363843268067826
-0.374999999999997 -0.0286684847351361 0.378250441495226
-0.374999999999997 -0.023473389518311 0.379234634352136
-0.374999999999997 -0.0226973216951138 0.394501088234858
-0.374999999999997 -0.0282113678452571 0.401131344528096
-0.374999999999997 -0.0230539524268127 0.409257705265001
-0.374999999999997 -0.0271349109381004 0.41728157390185
-0.374999999999997 -0.0274816438661374 0.42190199722047
-0.374999999999997 -0.0219833387632341 0.433715729783264
-0.374999999999997 -0.0243852764013748 0.444155204813517
-0.374999999999997 -0.0275046652106085 0.454279519740861
-0.374999999999997 -0.0281792195172246 0.469554459856005
-0.374999999999997 -0.0267457378806214 0.470428111207875
-0.374999999999997 -0.0270823458346595 0.483321380953729
-0.374999999999997 -0.0292172694610249 0.487761432183126
-0.374999999999997 -0.0267445273624938 0.498366861740362
-0.374999999999997 -0.0269137907130169 0.50697026311041
-0.374999999999997 -0.0226449083332396 0.511443761964459
-0.374999999999997 -0.0297427873784108 0.521292715262231
-0.374999999999997 -0.0273019108215666 0.531120863181928
-0.374999999999997 -0.0294768312656007 0.541451857645293
-0.374999999999997 -0.0282787488361324 0.545015887745038
-0.374999999999997 -0.023225008293765 0.560605765047032
-0.374999999999997 -0.0237998911785223 0.5601334897106
-0.374999999999997 -0.0260228145425743 0.569013239615986
-0.374999999999997 -0.0281359052866694 0.588283796285685
-0.374999999999997 -0.0273688526698578 0.593788477436098
-0.374999999999997 -0.0221808380254075 0.607387173673624
-0.374999999999997 -0.0302160002730097 0.609083569530424
-0.374999999999997 -0.0306168984714252 0.619790484607195
-0.374999999999997 -0.0262164842338555 0.631554152434
-0.374999999999997 -0.0292189471217527 0.634860234128684
-0.374999999999997 -0.0243695179910865 0.643732185334435
-0.374999999999997 -0.0235698473505063 0.65633616466935
-0.374999999999997 -0.025745490649324 0.661633359450864
-0.374999999999997 -0.0297047724950257 0.667594958577899
-0.374999999999997 -0.0275806137439328 0.67844456513314
-0.374999999999997 -0.0302488030948357 0.691581823138178
-0.374999999999997 -0.0270580902282653 0.700036398532043
-0.374999999999997 -0.0283214379306985 0.705129415240312
-0.374999999999997 -0.0286773255310886 0.718487485992671
-0.374999999999997 -0.0244251424669706 0.729045250543144
-0.374999999999997 -0.02222958447189 0.732250785625832
-0.374999999999997 -0.0225077216212122 0.741637263062277
-0.374999999999997 -0.0265677942960205 0.753358975885033
-0.374999999999997 -0.0219355811157084 0.757185052479893
-0.374999999999997 -0.0277279165135962 0.769372514815654
-0.374999999999997 -0.0262519728597446 0.782098635344595
-0.374999999999997 -0.0223419621680087 0.782493481435802
-0.374999999999997 -0.0222603043114372 0.791398596079195
-0.374999999999997 -0.0267319405066307 0.808563009984043
-0.374999999999997 -0.0259276610810704 0.813284230959541
-0.374999999999997 -0.0220792654677465 0.822779148898316
-0.374999999999997 -0.029534198455693 0.828180300857916
-0.374999999999997 -0.0253138059846778 0.839284131210752
-0.374999999999997 -0.023437100874814 0.846387163522003
-0.374999999999997 -0.0298464052409192 0.851097000811789
-0.374999999999997 -0.0254480800041181 0.859238962388712
-0.374999999999997 -0.0303128459671792 0.874601465201686
-0.374999999999997 -0.0273820973119236 0.882783791874202
-0.374999999999997 -0.0244181840831532 0.886245011977308
-0.374999999999997 -0.0286083776193256 0.899955397365645
-0.374999999999997 -0.0243567648153573 0.90964959905807
-0.374999999999997 -0.022110970498857 0.916321604073088
-0.374999999999997 -0.0279412719291054 0.928874349471733
-0.374999999999997 -0.0280493694882259 0.93058879068502
-0.374999999999997 -0.0257018767320811 0.945514332072353
-0.374999999999997 -0.0225930111517223 0.949521275365943
-0.374999999999997 -0.0260432804604871 0.95533229583787
-0.374999999999997 -0.0277037036499434 0.974474373106423
-0.374999999999997 -0.027715813062403 0.976859344539475
-0.374999999999997 -0.0274355189606519 0.989470627210084
-0.374999999999997 -0.0253230414538891 0.999469198878705
-0.368538766607555 -0.0294594388686648 1.0
-0.364032534768308 -0.02232566814149 1.0
-0.346715120594679 -0.0295216321526619 1.0
-0.327232684346296 -0.0237513243478218 1.0
-0.317316389628436 -0.0229002791480365 1.0
-0.302788348287011 -0.0286451096188363 1.0
-0.291954115858082 -0.0236352639587065 1.0
-0.287131196487192 -0.0268996958842769 1.0
-0.269081009414504 -0.0276869346764618 1.0
-0.26973162168758 -0.0311072111165249 1.0
-0.243202227697104 -0.0259880101923566 1.0
-0.236295929546134 -0.0280314487906172 1.0
-0.218918612885793 -0.0250072235458004 1.0
-0.210947177788869 -0.0318624738161829 1.0
-0.196174118569564 -0.0291052451762867 1.0
-0.183450033433625 -0.0248363704231738 1.0
-0.165032693996295 -0.0301627618058196 1.0
-0.159766749131854 -0.0293922983990598 1.0
-0.143897486799816 -0.0257124313010122 1.0
-0.135150237632379 -0.0274770990153237 1.0
-0.116558834554459 -0.0306446765527584 1.0
-0.103483050862495 -0.0310686799826823 1.0
-0.0919661371349338 -0.0311824135546103 1.0
-0.0655072907749343 -0.0317464678517227 1.0
-0.0590411917654711 -0.0309381504780809 1.0
-0.0489921730267277 -0.0265366561499084 1.0
-0.0285243593966772 -0.0281077038375068 1.0
-0.00680306099684345 -0.0316847792247332 1.0
0.00286794562108533 -0.0295168466256283 1.0
0.017945670004987 -0.0348222794208349 1.0
0.0390415364049505 -0.029145878306443 1.0
0.0413737880204346 -0.0287514528694445 1.0
0.0646689614921698 -0.0332272958406072 1.0
0.0702973760198947 -0.0256220560953403 1.0
0.0938771212284808 -0.0290712268749686 1.0
0.0982508487542956 -0.0315784184833028 1.0
0.116077722163313 -0.032962191868253 1.0
0.140762061544585 -0.0322980794055638 1.0
0.156078927716684 -0.0308075546295105 1.0
0.173269053197107 -0.0356621273141362 1.0
0.201647987227713 -0.0344925597313924 1.0
0.198768346407178 -0.0292535979645328 1.0
0.223421947089368 -0.0290274471881043 1.0
0.239197153174207 -0.0273752277451065 1.0
0.259407104518894 -0.0304808539085589 1.0
0.289612601986003 -0.0313554839851239 1.0
0.301241101823019 -0.0367822701568128 1.0
0.323570030580135 -0.0316861436218222 1.0
-0.374999999999997 -0.0146569368586358 0.368709625049939
-0.374999999999997 -0.0136958980063811 0.375996192138408
-0.374999999999997 -0.0177362034874886 0.380567035678536
-0.374999999999997 -0.0206836338129991 0.392168116402214
-0.374999999999997 -0.0181316035339604 0.407065565941355
-0.374999999999997 -0.0198834083394341 0.408607336911933
-0.374999999999997 -0.0152134916847236 0.413591915022009
-0.374999999999997 -0.0144477865945728 0.425291786451009
-0.374999999999997 -0.0193919289968414 0.430042466771003
-0.374999999999997 -0.0159043236044632 0.446462829713991
-0.374999999999997 -0.016980969926864 0.456352675156647
-0.374999999999997 -0.0204306243147701 0.463834041221325
-0.374999999999997 -0.0175874489009296 0.468427152564372
-0.374999999999997 -0.0174179700912803 0.476212150775198
-0.374999999999997 -0.0136530865766094 0.489061150456344
-0.374999999999997 -0.016094611661176 0.495853295354925
-0.374999999999997 -0.0179727920487181 0.508886371691946
-0.374999999999997 -0.0161113325041404 0.51354463768249
-0.374999999999997 -0.0184925721814351 0.524236139952865
-0.374999999999997 -0.0161757852589388 0.533003573119044
-0.374999999999997 -0.016033545244887 0.546235112957751
-0.374999999999997 -0.0133021451208109 0.549066870879184
-0.374999999999997 -0.0145894949916714 0.562893756739708
-0.374999999999997 -0.013285193827624 0.562035070108616
-0.374999999999997 -0.0206263379111355 0.575272439112914
-0.374999999999997 -0.013655188728441 0.588069376885823
-0.374999999999997 -0.0180896922843945 0.594516004542587
-0.374999999999997 -0.0137386057126382 0.610023676366099
-0.374999999999997 -0.0216369385704936 0.614240764420685
-0.374999999999997 -0.0198061480128265 0.621416068990006
-0.374999999999997 -0.0211006054115151 0.630743743873356
-0.374999999999997 -0.0182774373417148 0.638730782064679
-0.374999999999997 -0.0217606828625706 0.639170161482712
-0.374999999999997 -0.0179475927005318 0.659657606917933
-0.374999999999997 -0.0172452219202654 0.6678958040185
-0.374999999999997 -0.0183130208235567 0.673142750592643
-0.374999999999997 -0.02162896711474 0.682343582062499
-0.374999999999997 -0.0204972433620491 0.685872289994015
-0.374999999999997 -0.0166680923469519 0.694703296864282
-0.374999999999997 -0.0216498227828224 0.70231753258541
-0.374999999999997 -0.0149802531996199 0.721095118848185
-0.374999999999997 -0.017638767516952 0.728054652507641
-0.374999999999997 -0.0192450432240963 0.730248394654736
-0.374999999999997 -0.0218130015925914 0.748256073776513
-0.374999999999997 -0.0184874211374757 0.753973069751446
-0.374999999999997 -0.0174038618634015 0.754366105847084
-0.374999999999997 -0.0147708728801364 0.762514373207867
-0.374999999999997 -0.0216594875791364 0.778507264737286
-0.374999999999997 -0.0211806841988297 0.78176303380796
-0.374999999999997 -0.0179360134227925 0.797043416272808
-0.374999999999997 -0.0136793903686051 0.796887971560192
-0.374999999999997 -0.0157806065774138 0.809733673439944
-0.374999999999997 -0.0146753254635674 0.827002768926246
-0.374999999999997 -0.0149863524290307 0.83040243409492
-0.374999999999997 -0.0172180157399014 0.834638324268672
-0.374999999999997 -0.0204959610989025 0.850713388160156
-0.374999999999997 -0.0165748747681913 0.854904718410905
-0.374999999999997 -0.0198633653310482 0.862462776367061
-0.374999999999997 -0.0213854992521657 0.871889255432456
-0.374999999999997 -0.0134505046056448 0.877456297925611
-0.374999999999997 -0.0199076839407076 0.891027337215843
-0.374999999999997 -0.0145609713335456 0.900061258741
-0.374999999999997 -0.0150627788053324 0.911348208545205
-0.374999999999997 -0.0149236649576519 0.917153095036288
-0.374999999999997 -0.0192718594123899 0.923986767286697
-0.374999999999997 -0.0139885840988994 0.93664443304399
-0.374999999999997 -0.0197578815174604 0.943375653104699
-0.374999999999997 -0.016660200937139 0.951905580197616
-0.374999999999997 -0.015609400908909 0.959024410462172
-0.374999999999997 -0.0173198666381398 0.966279614810654
-0.374999999999997 -0.0149527277607 0.981711332697025
-0.374999999999997 -0.0212863139004184 0.988912979754943
-0.374999999999997 -0.0182300965283121 0.998367476508145
-0.370021097146192 -0.0181446037203777 1.0
-0.349993548052504 -0.0174690969150397 1.0
-0.341948225367419 -0.0163641505784827 1.0
-0.339767821335693 -0.0147949704744178 1.0
-0.318559814259987 -0.0186035169250492 1.0
-0.314669855983846 -0.0169151347625103 1.0
-0.294395849709638 -0.0136424947628692 1.0
-0.280685992720238 -0.0149222289057444 1.0
-0.275531770165174 -0.0150158303414153 1.0
-0.261060959668157 -0.0195462772967658 1.0
-0.249899608823383 -0.0138471055880862 1.0
-0.229704074651143 -0.0206652979150117 1.0
-0.214969419643251 -0.0164375114069789 1.0
-0.215941162203832 -0.0163448722583832 1.0
-0.199938696687514 -0.0154729674167164 1.0
-0.18833126236029 -0.019752283790341 1.0
-0.166454782809379 -0.0185266633686772 1.0
-0.163376507090703 -0.0203421537885215 1.0
-0.137541030742631 -0.0164264401012455 1.0
-0.134780753705319 -0.0218248303501977 1.0
-0.12611794325815 -0.0218814744959174 1.0
-0.0970307139933525 -0.0175344459706472 1.0
-0.0877698487468793 -0.0169518186137806 1.0
-0.0674033610112751 -0.021843427576064 1.0
-0.0567658462048234 -0.0154802872591921 1.0
-0.0422483650687959 -0.0224457127248173 1.0
-0.0377319747326042 -0.0195897462296028 1.0
-0.0184170374159997 -0.0167769263941022 1.0
0.0058527142520612 -0.015602196215056 1.0
0.00722463760564176 -0.0150437284138227 1.0
0.030294788972057 -0.0241740411038377 1.0
0.0461018196671847 -0.0194212744271746 1.0
0.0660732755978806 -0.0172437270493603 1.0
0.0795815866199734 -0.0225290985308271 1.0
0.0868489738509577 -0.0158967651680416 1.0
0.113061459036806 -0.022119123152642 1.0
0.130539261466148 -0.0170370324707503 1.0
0.145768354361854 -0.0165596688910632 1.0
0.15044464516221 -0.0175067917395634 1.0
0.170845852947106 -0.0182973854366469 1.0
0.186994417904237 -0.0182731456789217 1.0
0.204270843725715 -0.0244805468582373 1.0
0.231697668349718 -0.0171883027606668 1.0
0.239583326365235 -0.0192034372841685 1.0
0.269228645105601 -0.0263276211988474 1.0
0.277291690813 -0.0272606398595419 1.0
0.292834783937943 -0.0260464204157482 1.0
0.307023283942869 -0.0191406441512871 1.0
-0.374999999999997 -0.0112418082055386 0.373848947445173
-0.374999999999997 -0.0130556948617699 0.368178547720045
-0.374999999999997 -0.00883921921739801 0.39020170424237
-0.374999999999997 -0.00556375465233636 0.388006243079751
-0.374999999999997 -0.0096130277904974 0.398301882801796
-0.374999999999997 -0.0100797276644289 0.414880450143032
-0.374999999999997 -0.00600783625805039 0.418723434966317
-0.374999999999997 -0.0059460948028048 0.425633510204049
-0.374999999999997 -0.00610950184800641 0.437497179127245
-0.374999999999997 -0.00912561083923314 0.444363195033966
-0.374999999999997 -0.0077640276886518 0.456523374603899
-0.374999999999997 -0.0113332534291934 0.463118938400485
-0.374999999999997 -0.0108861220105059 0.467875288328954
-0.374999999999997 -0.0112563884179863 0.485462031620324
-0.374999999999997 -0.00992687876621928 0.483554110591452
-0.374999999999997 -0.00863251725604184 0.502840094049708
-0.374999999999997 -0.00621223696577978 0.504990743486743
-0.374999999999997 -0.00930496211320553 0.512670993431053
-0.374999999999997 -0.00831759664857188 0.526456825670155
-0.374999999999997 -0.0071897205418815 0.52979154230868
-0.374999999999997 -0.0128424601782998 0.541927196274816
-0.374999999999997 -0.00994851449298192 0.54965687586005
-0.374999999999997 -0.0127985177598773 0.563389830656876
-0.374999999999997 -0.0107882434902709 0.574052451938788
-0.374999999999997 -0.0127162959384848 0.576642469173628
-0.374999999999997 -0.00826227243720578 0.581191687049424
-0.374999999999997 -0.0123198935910417 0.593665666058079
-0.374999999999997 -0.0104027777648084 0.599803432815293
-0.374999999999997 -0.0116022184868219 0.607241471353414
-0.374999999999997 -0.0113897246452342 0.627096818284152
-0.374999999999997 -0.00682750395825009 0.622520812802844
-0.374999999999997 -0.0127246674834298 0.639486291162533
-0.374999999999997 -0.0116064998212633 0.641966532318321
-0.374999999999997 -0.00523044014311991 0.652679239796481
-0.374999999999997 -0.0124212347985988 0.666650226543361
-0.374999999999997 -0.0122688919994238 0.672655899433993
-0.374999999999997 -0.00461870796914197 0.675076678184243
-0.374999999999997 -0.00481095885870738 0.683587453780911
-0.374999999999997 -0.00532637322156436 0.700866103307864
-0.374999999999997 -0.00667365078009262 0.702615065944967
-0.374999999999997 -0.0107380811097273 0.714927411393737
-0.374999999999997 -0.00785209419663841 0.727034806000571
-0.374999999999997 -0.0116519765938845 0.74117870211852
-0.374999999999997 -0.0082757734207236 0.743726353329855
-0.374999999999997 -0.00670420459119539 0.755933400745032
-0.374999999999997 -0.0121429345621824 0.760659247386958
-0.374999999999997 -0.0114187878117077 0.770288781170208
-0.374999999999997 -0.0126790546908874 0.780722886653131
-0.374999999999997 -0.00548058220965716 0.788676262179748
-0.374999999999997 -0.0065825234037433 0.796401198786975
-0.374999999999997 -0.0100515627487116 0.810270892099781
-0.374999999999997 -0.00585584710489898 0.806483102840646
-0.374999999999997 -0.0110015006876527 0.820541600091268
-0.374999999999997 -0.00789391346005985 0.831351667810206
-0.374999999999997 -0.00758420198871163 0.83916660831033
-0.374999999999997 -0.00532542094187015 0.845169808024144
-0.374999999999997 -0.00850555583707251 0.861460676052677
-0.374999999999997 -0.0063104277558091 0.862287955312227
-0.374999999999997 -0.0045916082219263 0.872063269966987
-0.374999999999997 -0.00768133712570291 0.883089607103079
-0.374999999999997 -0.00928519856574135 0.889101679493362
-0.374999999999997 -0.0123754229570703 0.900789243939453
-0.374999999999997 -0.0107409842059676 0.911727471108031
-0.374999999999997 -0.00976304264223804 0.917265464441866
-0.374999999999997 -0.00605493123475332 0.924762101775569
-0.374999999999997 -0.0114780089755385 0.938713137723537
-0.374999999999997 -0.00456435202824063 0.944093152040963
-0.374999999999997 -0.00648585258606815 0.951129801225943
-0.374999999999997 -0.0130300479443928 0.95934929041542
-0.374999999999997 -0.0126071281455149 0.964515683608851
-0.374999999999997 -0.0118542306207827 0.982396813817485
-0.374999999999997 -0.013031082355276 0.983530648482649
-0.374999999999997 -0.0111268531203274 0.99715358383382
-0.361538760438276 -0.00638167901214594 1.0
-0.353840525816533 -0.00584101734394573 1.0
-0.34126820869872 -0.0107450731582889 1.0
-0.340303496819594 -0.00892551308973178 1.0
-0.323591221814121 -0.0100490914673991 1.0
-0.310574030275829 -0.00572494279688837 1.0
-0.288320733922884 -0.0130379743877746 1.0
-0.289706483464684 -0.0106087153463433 1.0
-0.27538174673703 -0.0131774145759504 1.0
-0.260352956755178 -0.0112512015245877 1.0
-0.247326940164962 -0.0130917059650301 1.0
-0.240650268799065 -0.0109507387545695 1.0
-0.220840424070401 -0.00599016533577049 1.0
-0.203970029322594 -0.00838582449764004 1.0
-0.191963765722983 -0.0137603618407313 1.0
-0.187448964887715 -0.00583582009762512 1.0
-0.167733572188345 -0.00965936567527719 1.0
-0.147820977489398 -0.0122520495382786 1.0
-0.14950448401512 -0.00809211942977308 1.0
-0.130825793677647 -0.00862965069647812 1.0
-0.109717766254596 -0.00707495782691748 1.0
-0.101507772306786 -0.0136667786293365 1.0
-0.0899179180428698 -0.0145826203178233 1.0
-0.0707849375903875 -0.0135450658504532 1.0
-0.0637554947170103 -0.0098734022176402 1.0
-0.0410672592357782 -0.0131242414927609 1.0
-0.0327647986135664 -0.0128820333173544 1.0
-0.00651353767952699 -0.00857752666023931 1.0
-0.0102106520536266 -0.00803317695054546 1.0
0.0109094966290448 -0.00594766707263232 1.0
0.0290542876237947 -0.0111771323467126 1.0
0.051815867979052 -0.00696640008657208 1.0
0.0569167316161953 -0.00821509255562437 1.0
0.0742083575285024 -0.0095641838798305 1.0
0.0897282312472875 -0.00794866934439013 1.0
0.109483926735253 -0.0119946651866822 1.0
0.117968907521918 -0.0154830443012685 1.0
0.142781085941152 -0.0102441564817937 1.0
0.151893169510482 -0.0142742776890821 1.0
0.169682926777228 -0.0142711346526179 1.0
0.187953119684839 -0.00957917258564362 0.999999999999999
0.213009026079773 -0.00898308969059412 1.0
0.226238025500006 -0.0139251635424191 1.0
0.238933036611999 -0.0117050998764414 1.0
0.257397679161071 -0.0144999102689496 1.0
0.28725942928887 -0.00968044439846795 1.0
0.300615826863798 -0.0152450011633728 1.0
0.323323184801604 -0.0150104065012243 1.0
-0.374999999999997 -0.00308244861273875 0.36689700015684
-0.374999999999997 -0.00344071154634944 0.376002467957677
-0.374999999999997 -0.00122474377325919 0.383354138756083
-0.374999999999997 0.0041379185368271 0.389334967123566
-0.374999999999997 -0.0017268288829671 0.400986385587786
-0.374999999999997 -0.000242485700548253 0.414129978554028
-0.374999999999997 0.0030577772545062 0.423260658106583
-0.374999999999997 0.0032267192169011 0.428768091763207
-0.374999999999997 -0.00415592295187303 0.43449429248822
-0.374999999999997 0.00318401889442451 0.450213366621981
-0.374999999999997 0.0036891486166195 0.448308416809556
-0.374999999999997 -0.00234921313971866 0.461935298992982
-0.374999999999997 -0.00346279496453148 0.472854552607168
-0.374999999999997 -0.00393847342166108 0.48698606149121
-0.374999999999997 0.000895666404769059 0.492634191832746
-0.374999999999997 -0.00301290086102457 0.498205164386569
-0.374999999999997 0.00386217963229399 0.505747472719074
-0.374999999999997 0.00366468213568222 0.51439238314274
-0.374999999999997 -0.00427381955374187 0.518473630667792
-0.374999999999997 -0.00358290383394297 0.530781024499205
-0.374999999999997 0.00146747499511339 0.540909839532986
-0.374999999999997 -0.000106554599443373 0.55174512755091
-0.374999999999997 0.00381068394376727 0.553986458315652
-0.374999999999997 -0.00117055450773395 0.564932868629504
-0.374999999999997 0.000546704357914946 0.569754926660492
-0.374999999999997 0.00420394466396074 0.582442701015638
-0.374999999999997 0.000611644281497157 0.592827265898961
-0.374999999999997 0.00210641637143133 0.60736395537316
-0.374999999999997 -0.00426689366030051 0.613887464208663
-0.374999999999997 0.00168031949203392 0.619650389339817
