ply
format ascii 1.0
element vertex 856
property float x
property float y
property float z
end_header
0.000765355533585699 0.104626865671636 0.680341100482055
0.00688490746852042 0.104626865671636 0.677694050760399
0.00611906799823887 0.104626865671636 0.699040009037595
-0.000776396450215981 0.104626865671636 0.709046612612888
0.00301188446743784 0.104626865671636 0.71487083706041
0.00324052571989341 0.104626865671636 0.724587746811125
0.00293698245090882 0.104626865671636 0.733652004524948
0.0116381501815451 0.104626865671636 0.738180005298328
0.00490097926534488 0.104626865671636 0.760798259247145
-0.00168633186465297 0.104626865671636 0.767948204472277
-0.00160659889590745 0.104626865671636 0.772937720033125
0.00465583502880717 0.104626865671636 0.782880390645486
0.00372258582093997 0.104626865671636 0.788654922302187
0.00301845177527211 0.104626865671636 0.804344501894901
0.00705373403852711 0.104626865671636 0.805888119020517
0.00840143299406062 0.104626865671636 0.823431059080588
0.00828623568605781 0.104626865671636 0.827542526416171
0.00545511419197535 0.104626865671636 0.840250924154225
0.0047746302973683 0.104626865671636 0.852431368346376
-0.0024186811800952 0.104626865671636 0.862698965369721
0.00145948639000668 0.104626865671636 0.873223666310274
0.0103136279486019 0.104626865671636 0.878623400618839
0.00660531360493782 0.104626865671636 0.889957768860401
0.0128880209783961 0.104626865671636 0.896872830451106
0.0123629243840256 0.104626865671636 0.909419231999338
0.0041905078374284 0.104626865671636 0.913957192249182
0.00848420847378227 0.104626865671636 0.924953577531852
0.00378485269878545 0.104626865671636 0.937029296099629
0.00775374392163303 0.104626865671636 0.946309569827293
2.24443650158932e-005 0.104626865671636 0.960932277544673
0.00625616011362636 0.104626865671636 0.967344624764356
0.00485342545707304 0.104626865671636 0.977224344637011
0.0053504736605709 0.104626865671636 0.989953268600951
0.00773758312052389 0.104626865671636 0.996398324002068
0.0164342040977289 0.100183176472883 0.999999999999947
0.0261650986707139 0.085006783234074 0.999999999999951
0.0322596885913374 0.0780805284318114 0.999999999999953
0.0431744428173245 0.0657728133441739 0.999999999999956
0.0543378579283119 0.0575443300853918 0.999999999999958
0.0664548895701238 0.0483903010271317 0.99999999999996
0.0797160686023936 0.0319761642052774 0.999999999999965
0.0906067903549893 0.0304097890639805 0.999999999999965
0.10261545119711 0.0186701333624135 0.999999999999968
0.10488877591091 0.00488387263290432 0.999999999999972
0.122387083768338 -0.00497974583031059 0.999999999999974
0.139870177971043 -0.0197133644298468 0.999999999999978
0.150755542557427 -0.0304108833827445 0.999999999999981
0.157134370270464 -0.0433626241974605 0.999999999999984
0.179980453485624 -0.053810401217352 0.999999999999987
0.178181092615484 -0.0640879475209221 0.99999999999999
0.194433655437769 -0.0802530258288982 0.999999999999994
0.212154471780306 -0.0900017751331207 0.999999999999996
0.02244993203541 0.104626865671636 0.0419717596018658
0.023738891237099 0.104626865671636 0.0505895549415665
0.0178300830656283 0.104626865671636 0.0711069151380194
0.0146020750304885 0.104626865671636 0.0852044932319094
0.0144663117679356 0.104626865671636 0.0985167549070938
0.0230926810646798 0.104626865671636 0.096153992817979
0.019401837600777 0.104626865671636 0.113299448276713
0.0177684106973114 0.104626865671636 0.122930628292404
0.0184303657755371 0.104626865671636 0.131191186354125
0.0218880320450649 0.104626865671636 0.134829133010238
0.011796098468928 0.104626865671636 0.151730399541342
0.026026833303924 0.104626865671636 0.155374833632623
0.023187416359108 0.104626865671636 0.160784277741042
0.0226510454294081 0.104626865671636 0.181582835845702
0.0242206879187313 0.104626865671636 0.181747751397858
0.0193798123142901 0.104626865671636 0.194154588852095
0.0142214907033787 0.104626865671636 0.209425620374189
0.0190998760957573 0.104626865671636 0.216454021303338
0.0130212243760784 0.104626865671636 0.229451598959262
0.0278056069233504 0.104626865671636 0.228293006166409
0.0133516504376728 0.104626865671636 0.246322701734085
0.022054333482945 0.104626865671636 0.255655301070679
0.0194741006735327 0.104626865671636 0.267073311550052
0.0256321967715351 0.104626865671636 0.275983185813707
0.0236384815637024 0.104626865671636 0.28060406653529
0.0234660248961871 0.104626865671636 0.296756180758992
0.0253937344458521 0.104626865671636 0.302654927869874
0.0130816959711076 0.104626865671636 0.320082236727225
0.0244347206931336 0.104626865671636 0.321164424761709
0.0268828741982882 0.104626865671636 0.326604681098974
0.0192785521501263 0.104626865671636 0.350481672174577
0.0157269033299134 0.104626865671636 0.354450614763478
0.019368225355128 0.104626865671636 0.364129347456638
0.0263648642338184 0.104626865671636 0.372632854494789
0.0261183707909686 0.104626865671636 0.379005851768592
0.0160610737715502 0.104626865671636 0.400526602426441
0.0124739144334817 0.104626865671637 0.406141168254055
0.0160549223912912 0.104626865671636 0.417216724644575
0.0263543341639105 0.104626865671636 0.412583496064444
0.0199004744425977 0.104626865671636 0.428426429140285
0.0158249831620371 0.104626865671636 0.44504750509867
0.0203513309258299 0.104626865671636 0.459343961734686
0.0138404672810432 0.104626865671636 0.461584898602786
0.0149974853878502 0.104626865671636 0.47653692545829
0.024465277015808 0.104626865671636 0.481937313978881
0.0167502517750969 0.104626865671636 0.489017911954881
0.0176326706597801 0.104626865671636 0.498491206931871
0.0116661370246578 0.104626865671636 0.5193465692334
0.021955878294046 0.104626865671636 0.526546440626283
0.0167295782208807 0.104626865671636 0.538539249235038
0.0178991806574129 0.104626865671636 0.539747011506268
0.021027864230161 0.104626865671636 0.554109655913503
0.0186397344707346 0.104626865671636 0.558112001183259
0.0219371146211403 0.104626865671636 0.566126216567612
0.012771486674523 0.104626865671636 0.588140194829329
0.0169386139241558 0.104626865671636 0.584574697205385
0.0177660421304252 0.104626865671636 0.597723748082065
0.0191809137296774 0.104626865671636 0.615343839596172
0.0197988692440767 0.104626865671636 0.612851865554195
0.0258659149619243 0.104626865671636 0.622590004262274
0.0214156527962844 0.104626865671636 0.643138020307617
0.0274246379618681 0.104626865671636 0.6379934885339
0.0228423473266727 0.104626865671636 0.649977393894094
0.0193315161148715 0.104626865671636 0.675111118746199
0.0199789110087906 0.104626865671636 0.676878424259087
0.0212514035718012 0.104626865671636 0.689309019286442
0.0184575598340234 0.104626865671636 0.698201861037485
0.0184648092955372 0.104626865671636 0.712221404690487
0.0208171529956599 0.104626865671636 0.70751296454276
0.0208903847552638 0.104626865671636 0.727068688970254
0.0199038206193266 0.104626865671636 0.740314426057867
0.0189067643376285 0.104626865671636 0.744030238993532
0.0112189484309395 0.104626865671636 0.764339854016
0.0215406187683474 0.104626865671636 0.757865250608563
0.0249214408028676 0.104626865671636 0.766543633240555
0.0268682575839559 0.104626865671636 0.778970601219991
0.0261942695231765 0.104626865671636 0.79399865164091
0.0235209098868739 0.104626865671636 0.800671950308585
0.0154172399225674 0.104626865671636 0.820550226514981
0.0246919729085099 0.104626865671636 0.825268403809194
0.0208382649127401 0.104626865671636 0.831519460784953
0.0163307636235123 0.104626865671636 0.844331373471777
0.0253318756157557 0.104626865671636 0.845894292611452
0.0158137014295472 0.104626865671636 0.861303761614602
0.0212234397660051 0.104626865671636 0.876208164977533
0.0188982056772885 0.104626865671636 0.888252813698761
0.0147057753789336 0.104626865671636 0.8968595905557
0.0170115360988594 0.104626865671636 0.900752763316701
0.0176508875665985 0.104626865671636 0.917747322000811
0.0247253474505381 0.104626865671636 0.917417503189058
0.0194248964366553 0.104626865671636 0.932523766278177
0.0127423128247582 0.104626865671636 0.947994497766435
0.025405247983006 0.104626865671636 0.950973132971362
0.0157680482608538 0.104626865671636 0.963860488847127
0.0241006287208331 0.104626865671636 0.971239700948415
0.0189911520979441 0.104626865671636 0.975021896848819
0.0175042427496037 0.104626865671636 0.995816205953515
0.0191458259201967 0.104626865671636 0.998546766064511
0.0355410571102011 0.0903691080289294 0.99999999999995
0.0417191684416277 0.0838716877370808 0.999999999999951
0.0575777266524225 0.0698303104707108 0.999999999999955
0.058656994069364 0.0680926385084639 0.999999999999955
0.0764448779095105 0.0573645270303733 0.999999999999958
0.0858057134105024 0.0456193689096882 0.999999999999961
0.104784812046452 0.0304634094142488 0.999999999999965
0.101325104390653 0.0224819294238779 0.999999999999967
0.125815311478881 0.00639668707577003 0.999999999999971
0.129630897737857 0.00377887666892569 0.999999999999972
0.142329494565289 -0.0096602154699357 0.999999999999976
0.158856386918963 -0.0324903957805181 0.999999999999982
0.168695762137767 -0.0372191237153576 0.999999999999982
0.184847396592732 -0.0537864251955914 0.999999999999987
0.18708262826238 -0.0591692330768911 0.999999999999988
0.194809009457788 -0.0629539750586427 0.999999999999989
0.210278225610231 -0.0762133520389828 0.999999999999993
0.233842824373123 -0.0967369827646598 0.999999999999998
0.235444282033511 -0.0994723821637823 0.999999999999999
0.0300610101767282 0.104626865671636 0.0449185071737896
0.0364877488390151 0.104626865671636 0.0430507726604679
0.0251420755734917 0.104626865671636 0.0645112280327672
0.0272612623773184 0.104626865671636 0.071031930595022
0.0384771104871335 0.104626865671636 0.0744359835062807
0.0356688211417748 0.104626865671636 0.089521700652737
0.0285487507745525 0.104626865671636 0.099948549732505
0.0281526169790979 0.104626865671636 0.108299344081268
0.0317446592970548 0.104626865671636 0.127138998875938
0.0426652653729472 0.104626865671636 0.123262275978079
0.0287167173981879 0.104626865671636 0.140699666772154
0.0350617176017168 0.104626865671636 0.150689783047313
0.0362252917488883 0.104626865671636 0.154707587367136
0.0328355777749412 0.104626865671636 0.163151046917779
0.0369638657367224 0.104626865671636 0.172869799028657
0.0273350943017437 0.104626865671636 0.194987225704234
0.0314578923466446 0.104626865671636 0.198301616144742
0.0342174843618639 0.104626865671636 0.200453613485517
0.0364957720882942 0.104626865671636 0.207570687143027
0.0363811898368379 0.104626865671636 0.219726298104402
0.0342518916489843 0.104626865671636 0.233236568418592
0.0386323263819187 0.104626865671636 0.242615074957096
0.0321025176714876 0.104626865671636 0.260110488902463
0.0350407297147006 0.104626865671636 0.265598322382768
0.0348888762044614 0.104626865671636 0.280969626057258
0.031624405043614 0.104626865671636 0.289003795676265
0.0407958613142295 0.104626865671636 0.286176136750003
0.0342425004739406 0.104626865671636 0.303515236038311
0.0353179452918028 0.104626865671636 0.311542688875938
0.0299617674557157 0.104626865671636 0.333929699887508
0.0309373463353865 0.104626865671636 0.335700935010072
0.0272827566833547 0.104626865671636 0.34822873793736
0.0267209208985377 0.104626865671636 0.359985236549411
0.0396833092975925 0.104626865671636 0.360210015717428
0.0431034285775655 0.104626865671636 0.372140816935748
0.0337874971803824 0.104626865671636 0.375776938495721
0.0365245540801996 0.104626865671636 0.400764460340737
0.0382511590554496 0.104626865671636 0.4045257944469
0.0366853973365027 0.104626865671636 0.408867111502762
0.0363846691912026 0.104626865671636 0.42266330070334
0.0330842868066732 0.104626865671636 0.434073738231665
0.0402426017771034 0.104626865671636 0.443542871647222
0.0297554815705832 0.104626865671636 0.452751541992507
0.0391018973264449 0.104626865671636 0.462956126271041
0.0384580821743887 0.104626865671636 0.473515893268791
0.0344748938808545 0.104626865671636 0.476664759866103
0.0383092841662241 0.104626865671636 0.4837346153853
0.0384966072553166 0.104626865671636 0.502357313369887
0.0310567888129894 0.104626865671636 0.521943286120978
0.0343319540654078 0.104626865671636 0.523600121477003
0.0329975176721681 0.104626865671636 0.540296922814971
0.0350499810405377 0.104626865671636 0.542076784637967
0.0339408872257654 0.104626865671636 0.549007724527186
0.0338793038891655 0.104626865671636 0.555545724716649
0.0334178128307171 0.104626865671636 0.570229274393931
0.0268372790926969 0.104626865671636 0.584606172683592
0.0412742186508304 0.104626865671636 0.588930634838422
0.0263449723443206 0.104626865671636 0.601352486725301
0.0301948508764716 0.104626865671636 0.611279099670188
0.0363550653245146 0.104626865671636 0.6157896848838
0.0340152876273568 0.104626865671636 0.63529044231724
0.0366124211712165 0.104626865671636 0.6342256081241
0.0342372012487205 0.104626865671636 0.643673568961794
0.0413149248121331 0.104626865671636 0.656740532165024
0.0354775100473914 0.104626865671636 0.670317941193119
0.0258895857485129 0.104626865671636 0.68007251077247
0.0266685132460343 0.104626865671636 0.693247776029074
0.035768100289329 0.104626865671636 0.701656552093325
0.0317046464087119 0.104626865671636 0.706622834674385
0.035296093567079 0.104626865671636 0.723055266833516
0.0281294960421917 0.104626865671636 0.733127535568572
0.0366643516498506 0.104626865671636 0.736723579827736
0.0278925853713299 0.104626865671636 0.751109123826747
0.0359898424419161 0.104626865671636 0.752125740380109
0.0406620615956734 0.104626865671636 0.758622668734566
0.0344935093698538 0.104626865671636 0.781171632235849
0.0313146101912603 0.104626865671636 0.791556294591813
0.0317143652386491 0.104626865671636 0.80293001266138
0.0356076175338929 0.104626865671636 0.805058638266793
0.0352828124537323 0.104626865671636 0.816408097050503
0.0352228366663919 0.104626865671636 0.822324340320675
0.0331220562002141 0.104626865671636 0.839569994728384
0.0368838783952996 0.104626865671636 0.848546110817634
0.0345318697152242 0.104626865671636 0.851926429524319
0.0358933624892063 0.104626865671636 0.863816051332286
0.0322113948620347 0.104626865671636 0.875836106535455
0.0347478980365365 0.104626865671636 0.884989268254109
0.0414503923777434 0.104626865671636 0.891444491484056
0.0328176007384264 0.104626865671636 0.911259933057887
0.0300841152272761 0.104626865671636 0.918295082864395
0.0352217747131208 0.104626865671636 0.92971840048749
0.0421132920848263 0.104626865671636 0.926335574064552
0.0276996913441757 0.104626865671636 0.951203060397624
0.0346490223973441 0.104626865671636 0.955918609552236
0.035780022053302 0.104626865671636 0.962125750304935
0.033044586267163 0.104626865671636 0.97696041224905
0.034266905209982 0.104626865671636 0.993204116325034
0.0373037580922648 0.104626865671636 0.992236443900716
0.0330190410433987 0.104626865671636 0.998817538266905
0.0568702441490463 0.0885506049973632 0.99999999999995
0.0631972049581442 0.0856579771942038 0.999999999999951
0.0699605651350905 0.0719603193891503 0.999999999999954
0.0789042660409223 0.0601231489589476 0.999999999999958
0.0972992900443609 0.0481513116080193 0.999999999999961
0.10730669536302 0.0402490958304008 0.999999999999963
0.120667887995822 0.0250733509667738 0.999999999999967
0.127880464745182 0.0127440924576394 0.99999999999997
0.136231171855285 0.0143015898151343 0.999999999999969
0.154904581519577 -0.00413988128061823 0.999999999999974
0.163116593777309 -0.0222492434940619 0.999999999999979
0.177182715173212 -0.0333766073547293 0.999999999999982
0.185751716369052 -0.0358299690000385 0.999999999999982
0.202022888662509 -0.0483021567387294 0.999999999999986
0.20659689389455 -0.0547255104920931 0.999999999999987
0.216584874374754 -0.0671763269908454 0.99999999999999
0.224878540102104 -0.0808978647820129 0.999999999999994
0.244287048786412 -0.0985566547604834 0.999999999999999
0.260772734084928 -0.099469800566146 0.999999999999999
0.0420770016192294 0.104626865671636 0.0318913859437445
0.0526498457779965 0.104626865671636 0.0354570243455406
0.04826642070878 0.104626865671636 0.0465485459294525
0.0452216598983864 0.104626865671636 0.0577028514954247
0.0413279756003537 0.104626865671636 0.0702120927516268
0.050886734093475 0.104626865671636 0.068976225933283
0.0574477838108276 0.104626865671636 0.0826370267456419
0.0501559293855876 0.104626865671636 0.0927975859366519
0.0483886419812968 0.104626865671636 0.102069868124638
0.0436896043268247 0.104626865671636 0.122874617594051
0.0586406104458043 0.104626865671636 0.117805725021376
0.0572061700809447 0.104626865671636 0.13289303708498
0.0451240611716884 0.104626865671636 0.149721087612893
0.0475491321868209 0.104626865671636 0.157151526907376
0.0501131885320112 0.104626865671636 0.169180390366421
0.0458551213400388 0.104626865671636 0.178436199624705
0.0487172712930443 0.104626865671636 0.186160225637883
0.0562459042235908 0.104626865671636 0.193809680693137
0.0546367376243767 0.104626865671636 0.205753125940378
0.0459292455797506 0.104626865671636 0.216484008996329
0.0491763447773338 0.104626865671636 0.225815376939308
0.0561805864148815 0.104626865671636 0.230805623541988
0.0484545796003487 0.104626865671636 0.252553268865662
0.0488249923083367 0.104626865671636 0.251955584839624
0.0437902457476788 0.104626865671636 0.270461784938056
0.0506445841093343 0.104626865671636 0.271490388566649
0.0525108596696806 0.104626865671636 0.281899428666013
0.0475362200577535 0.104626865671636 0.291903911062876
0.0505517955093941 0.104626865671636 0.302260498157392
0.0457643569846309 0.104626865671636 0.318448270809339
0.0579987910482587 0.104626865671636 0.318712210198785
0.0518211815165221 0.104626865671636 0.33629189379448
0.0407226171217388 0.104626865671636 0.353788878246614
0.0443719558191012 0.104626865671636 0.35458823542921
0.0585668316427689 0.104626865671636 0.353899621319016
0.0445088800399515 0.104626865671636 0.373549363246479
0.0495477386988667 0.104626865671636 0.388028941933621
0.0569922735317792 0.104626865671636 0.388333789853835
0.0407918386942317 0.104626865671636 0.412671075572951
0.0492473290160639 0.104626865671636 0.413242512997278
0.0445724624743904 0.104626865671636 0.425416082069507
0.0468574536329146 0.104626865671636 0.435631828246797
0.0526730665313094 0.104626865671636 0.440780809046718
0.0430486323431256 0.104626865671636 0.45925632721435
0.0442105872484198 0.104626865671636 0.465844289843549
0.0434236995332061 0.104626865671636 0.474413053362135
0.0465044453996425 0.104626865671636 0.480523170433713
0.0498005015474704 0.104626865671636 0.49247701470238
0.0462257264230346 0.104626865671636 0.507833229292669
0.052672780338768 0.104626865671636 0.509604807843917
0.0500702509669479 0.104626865671636 0.516035739621319
0.0515643437107051 0.104626865671636 0.537522904228376
0.0466243390204309 0.104626865671636 0.543388351783085
0.0408064919001187 0.104626865671636 0.558346552288187
0.0431358198197595 0.104626865671636 0.568541449141172
0.0498594653904215 0.104626865671636 0.566300981136011
0.0472019850013383 0.104626865671636 0.581715019305562
0.0449693937447183 0.104626865671636 0.594572518367749
0.0507186394786071 0.104626865671636 0.600718578014265
0.0484359301626194 0.104626865671636 0.615571997073213
0.0536467127306521 0.104626865671636 0.619107419863309
0.0498469157957571 0.104626865671636 0.628499157210714
0.0543149870545537 0.104626865671636 0.642348237416977
0.0559058935826872 0.104626865671636 0.648936391613384
0.0522941555862558 0.104626865671636 0.66619349951734
0.0503241362891751 0.104626865671636 0.673180513657914
0.0511341015295004 0.104626865671636 0.682371717021942
0.0443510934848134 0.104626865671636 0.691216588774511
0.048305007751004 0.104626865671636 0.698300308031555
0.047615980857162 0.104626865671636 0.714905683344214
0.0454499479812535 0.104626865671636 0.722770145705727
0.043704467607361 0.104626865671636 0.73591553280182
0.0453776493937741 0.104626865671636 0.743175550160328
0.0501072465551897 0.104626865671636 0.749721202696058
0.0478810666745906 0.104626865671636 0.760808586033218
0.0475073762514248 0.104626865671636 0.775880875608273
0.0508176451690685 0.104626865671636 0.777996292088707
0.056746329884857 0.104626865671636 0.786925207877021
0.0552979179754156 0.104626865671636 0.793799920127734
0.0535972303122578 0.104626865671636 0.810149053201469
0.0480966471388805 0.104626865671636 0.822876029436912
0.0473293886460692 0.104626865671636 0.833587683830167
0.0571598137816844 0.104626865671636 0.840542586411566
0.0449586515350338 0.104626865671636 0.850486104332089
0.0551254014927079 0.104626865671636 0.855450784520362
0.0476769704113676 0.104626865671636 0.867782590827511
0.0419610738707974 0.104626865671636 0.881694927834641
0.0537097940776162 0.104626865671636 0.889801703666615
0.0495886350692341 0.104626865671636 0.898650490504658
0.0478901649130731 0.104626865671636 0.911689392276378
0.0451431291582431 0.104626865671636 0.918276954470735
0.0470826090050827 0.104626865671636 0.931505671835573
0.0441039962056699 0.104626865671636 0.939360965515208
0.0480323726951653 0.104626865671636 0.950830157340741
0.053046318911775 0.104626865671636 0.954164897600322
0.0556794494484052 0.104626865671636 0.965850876386398
0.0435942334497318 0.104626865671636 0.973247531495229
0.0455465234029727 0.104626865671636 0.995595357027403
0.0448796747068892 0.104626865671636 0.999324919108816
0.0636361822264952 0.0971410471116441 0.999999999999948
0.0739685381170478 0.0847217922185137 0.999999999999951
0.0735427337330355 0.0766956909497549 0.999999999999953
0.094107263929307 0.0612052793029776 0.999999999999957
0.0999216840198726 0.0560271683755361 0.999999999999959
0.11144139759292 0.0455158768895447 0.999999999999961
0.117155451050729 0.0392478390133805 0.999999999999963
0.132719695730048 0.022708176933469 0.999999999999967
0.144747449500106 0.0142352659927047 0.999999999999969
0.157301444481752 0.00408087204222329 0.999999999999972
0.168566364978556 -0.00325245972537503 0.999999999999974
0.187388791387009 -0.0188431647848582 0.999999999999978
0.184595103598047 -0.0283644817760375 0.99999999999998
0.198243847571663 -0.0401477170990246 0.999999999999983
0.223015895480983 -0.0569738803734617 0.999999999999988
0.224811809841231 -0.0604926032781582 0.999999999999989
0.242553648035972 -0.0776663797931931 0.999999999999993
0.257620020955967 -0.0849480566905754 0.999999999999995
0.064623345681163 0.104626865671636 0.0187757595640084
0.0640656974935923 0.104626865671636 0.0268686744902784
0.0644271266789988 0.104626865671636 0.0316681334499383
0.0687730906889891 0.104626865671636 0.0421196791193125
0.0663624812974725 0.104626865671636 0.0595338394473017
0.0665479283598218 0.104626865671636 0.0668196093901336
0.0628921486245337 0.104626865671636 0.0893988120478399
0.0603763156700295 0.104626865671636 0.0839098769258464
0.0634640611431728 0.104626865671636 0.0922280480239846
0.0599330624856383 0.104626865671636 0.110645412392286
0.0664081451160638 0.104626865671636 0.11234457536431
0.0604147312650863 0.104626865671636 0.132154590273305
0.0602478067303019 0.104626865671636 0.140299980872026
0.0661703778548195 0.104626865671636 0.146393565833108
0.0699059260067014 0.104626865671636 0.156955518619622
0.065299652600579 0.104626865671636 0.169973847532565
0.0671595011424927 0.104626865671636 0.172427919913489
0.0600666488478804 0.104626865671636 0.192685748101286
0.0699226296478815 0.104626865671636 0.197575489963689
0.0626082595832336 0.104626865671636 0.19909706627795
0.0658524458207853 0.104626865671636 0.21920066670772
0.0662209731601633 0.104626865671636 0.221769750264912
0.0639036814565635 0.104626865671636 0.234735283987423
0.0667493309395639 0.104626865671636 0.238669034910392
0.0679488216630186 0.104626865671636 0.253725452989882
0.0586608651786232 0.104626865671636 0.270660129147946
0.0676824204229019 0.104626865671636 0.277946257872603
0.0631967682034733 0.104626865671636 0.289632324612191
0.0654359591690734 0.104626865671636 0.287460613559761
0.0575622195261664 0.104626865671636 0.314304156249603
0.0695700213773838 0.104626865671636 0.311359184720877
0.0682504413328024 0.104626865671636 0.323562350317132
0.063379743594797 0.104626865671636 0.33573899459773
0.0584388251638047 0.104626865671636 0.346329941832212
0.0715022335617312 0.104626865671636 0.34803992363256
0.0654315174549194 0.104626865671636 0.361663180683593
0.0653402905396825 0.104626865671636 0.378949761569891
0.0653810355076424 0.104626865671636 0.385981782228902
0.0575985565610866 0.104626865671636 0.401873202409295
0.0665236694547005 0.104626865671636 0.406320853719145
0.064432056494313 0.104626865671636 0.408191235047741
0.0684787526100922 0.104626865671636 0.4255007751012
0.0689749948902029 0.104626865671636 0.433526011352432
0.0600716695367674 0.104626865671636 0.446439252350563
0.062053882060994 0.104626865671636 0.456888848660786
0.068936081989424 0.104626865671636 0.457928444211358
0.0678233252908691 0.104626865671636 0.475049151974949
0.0643343910423288 0.104626865671636 0.486295782447328
0.0668282488842583 0.104626865671636 0.491661199518301
0.0730624495973993 0.104626865671636 0.497888120194441
0.0632786573004542 0.104626865671636 0.516889791739889
0.0559239024201449 0.104626865671636 0.533442482145281
0.0605009508093058 0.104626865671636 0.535684471296918
0.0619002565758511 0.104626865671636 0.544987691762889
0.0606029239680555 0.104626865671637 0.556305047674024
0.0679316136988455 0.104626865671636 0.560305596633364
0.0612853935833099 0.104626865671636 0.572082167226327
0.0600475535440394 0.104626865671636 0.589055883439836
0.0595903020489058 0.104626865671636 0.595419372222573
0.06582162034264 0.104626865671636 0.6001664263164
0.06290577443187 0.104626865671636 0.616824268419841
0.0615256070827334 0.104626865671636 0.628777665798008
0.0570212375516141 0.104626865671636 0.630775224821463
0.06518896017772 0.104626865671636 0.642055931242755
0.0593217736278841 0.104626865671636 0.650653421105541
0.062476930290993 0.104626865671636 0.665392304778778
0.0632016219011576 0.104626865671636 0.668421827465229
0.0608838213408301 0.104626865671636 0.689053967718612
0.0691160447165468 0.104626865671636 0.688217847784263
0.0629954200444738 0.104626865671636 0.701872661330934
0.0636551362321957 0.104626865671636 0.710740089272826
0.065636927770331 0.104626865671636 0.718828590185077
0.0632012064844872 0.104626865671636 0.73903142462066
0.0671183814425888 0.104626865671636 0.735207799469643
0.0624743603119228 0.104626865671636 0.74665215609024
0.0587283655613403 0.104626865671636 0.771517593636532
0.0656565385852394 0.104626865671636 0.76764039117984
0.057682597367654 0.104626865671636 0.783247165911038
0.0563893580251647 0.104626865671636 0.792400259674618
0.0677589884914065 0.104626865671636 0.79531856992408
0.0645578209981211 0.104626865671636 0.809583835741675
0.0664340332764384 0.104626865671636 0.813203553570071
0.0598996361151179 0.104626865671636 0.827280314353104
0.066667241525208 0.104626865671636 0.838391147616334
0.0683555996489995 0.104626865671636 0.845090428663513
0.0625651009412113 0.104626865671636 0.86052256637484
0.0640777066278578 0.104626865671636 0.876461805465286
0.0595590417576526 0.104626865671636 0.881453653702829
0.0654789071185436 0.104626865671636 0.884666577519432
0.0619007829608583 0.104626865671636 0.897137023217192
0.0651734998660628 0.104626865671636 0.903332021188425
0.0615056529987685 0.104626865671636 0.919842153654857
0.0675754378079694 0.104626865671636 0.92982334670343
0.0616517167383377 0.104626865671636 0.936026886781187
0.0671430170480135 0.104626865671636 0.94276113769036
0.0587722723372074 0.104626865671636 0.961858777250522
0.0629680351094139 0.104626865671636 0.969277152806536
0.0632234060591402 0.104626865671636 0.974313390556371
0.0611155598540892 0.104626865671636 0.992884290163259
0.0688043384013258 0.10232562291875 0.999999999999947
0.0736549235827347 0.103072241005491 0.999999999999947
0.0916597021866643 0.0815248402047112 0.999999999999952
0.095038334441729 0.0718146435572582 0.999999999999954
0.11049239243503 0.062592468130563 0.999999999999957
0.119652153048105 0.0527936637098412 0.999999999999959
0.139635491250535 0.0356743622951078 0.999999999999964
0.14182596711853 0.0308310019395351 0.999999999999965
0.154765884710215 0.0148863775197205 0.999999999999969
0.164641324206882 0.0147470937168485 0.999999999999969
0.181053249355354 -0.00327544125437421 0.999999999999974
0.185219232574173 -0.0128955617923129 0.999999999999976
0.196581864568997 -0.0152427781834004 0.999999999999977
0.218048955013691 -0.0389345853951929 0.999999999999983
0.235659308082446 -0.052770417084632 0.999999999999987
0.24256299524688 -0.0596688237513982 0.999999999999988
0.252678268590642 -0.072873078664053 0.999999999999992
0.25910440059683 -0.0735521170567911 0.999999999999992
0.269786863713698 -0.0861734312436725 0.999999999999995
0.078399253417548 0.104626865671636 0.00172502957577677
0.0792917311650014 0.104626865671636 0.0211279353866643
0.0791940946262457 0.104626865671636 0.0290079426164448
0.0782228383286176 0.104626865671636 0.0480528486811157
0.0710625530822389 0.104626865671636 0.0564379575926619
0.0820767569362329 0.104626865671636 0.0494647745570383
0.0762246423260236 0.104626865671636 0.0712151377110234
0.0804913428421628 0.104626865671636 0.0688153334471614
0.0751560948559791 0.104626865671636 0.0879049149674969
0.0762829869938837 0.104626865671636 0.0944872195390945
0.0872998082151622 0.104626865671636 0.107334131087974
0.0784978806025083 0.104626865671636 0.113851038444799
0.0706965568123046 0.104626865671636 0.132274706968239
0.078872723068439 0.104626865671636 0.143376150394905
0.0753071516253663 0.104626865671636 0.145923203287934
0.080253029744747 0.104626865671636 0.154438519557655
0.0836734255406827 0.104626865671636 0.168485510189358
0.0854016619494071 0.104626865671636 0.170251669279032
0.0808131432206515 0.104626865671636 0.182890269211924
0.0835121688724142 0.104626865671636 0.187518747903975
0.0773008735311728 0.104626865671636 0.211824741754723
0.0697328439598505 0.104626865671636 0.225407478813763
0.0839922832296149 0.104626865671636 0.21817714557149
0.0781000910268302 0.104626865671636 0.234807499846998
0.0813876273487993 0.104626865671636 0.237118319659823
0.0735792798797541 0.104626865671636 0.260780371569166
0.0797274922846603 0.104626865671636 0.271336946208655
0.0806078258059673 0.104626865671636 0.268800771669173
0.0822393866264468 0.104626865671636 0.281086059736783
0.0833992227167067 0.104626865671636 0.2926915895096
0.0823131051168523 0.104626865671636 0.30499221389069
0.0760867713186982 0.104626865671636 0.314205394054274
0.0761141560995686 0.104626865671636 0.324044480781902
0.0815597281874456 0.104626865671636 0.338743762998175
0.0809511850948238 0.104626865671636 0.338493757634179
0.0776009765961629 0.104626865671636 0.361310970473525
0.0771747401588715 0.104626865671636 0.36875178328412
0.0802979864453609 0.104626865671636 0.377386614959478
0.0788634774668406 0.104626865671637 0.387672251370189
0.0797257674383476 0.104626865671636 0.388856670773286
0.0779679474896568 0.104626865671636 0.399148245048371
0.0794061068763598 0.104626865671636 0.407620922273345
0.0742299590977927 0.104626865671636 0.432052470059184
0.0767606841732958 0.104626865671636 0.436860945710139
0.0807174418446291 0.104626865671636 0.436252329239763
0.0754344819119624 0.104626865671636 0.45475123793002
0.0755009824980042 0.104626865671636 0.472494333447964
0.0830458648481308 0.104626865671636 0.471396528690735
0.0788469573775391 0.104626865671636 0.484060285942305
0.073382679094734 0.104626865671636 0.503751180665086
0.0753005652785149 0.104626865671636 0.505760920034785
0.0795269239791119 0.104626865671636 0.512488830126556
0.0693481087914238 0.104626865671636 0.525783893937679
0.0757515404567143 0.104626865671636 0.541076998563491
0.0796787815474626 0.104626865671636 0.543295207710016
0.0772409642592485 0.104626865671636 0.553957307321923
0.0773001013009777 0.104626865671636 0.569046819379945
0.0742191882270718 0.104626865671636 0.585270804178503
0.0873464020841987 0.104626865671636 0.577988237281633
0.0756960988815558 0.104626865671636 0.599904400486201
0.0710761106058586 0.104626865671636 0.612086427224425
0.0774293103736209 0.104626865671636 0.615596536762242
0.0754441175239153 0.104626865671636 0.627818821617654
0.0818049011715676 0.104626865671636 0.636999020439318
0.0737394464175121 0.104626865671636 0.648463327375445
0.0855462107270537 0.104626865671636 0.647969766897602
0.0695122502168628 0.104626865671636 0.667726329977839
0.0774949706386378 0.104626865671636 0.677665353491726
0.0704017648445091 0.104626865671636 0.694179297931323
0.0718545910252163 0.104626865671636 0.703348140375984
0.0815365554686567 0.104626865671636 0.703151089516124
0.0812894663983583 0.104626865671636 0.710858073812899
0.0794053427528859 0.104626865671636 0.721977945264634
0.0796772336818853 0.104626865671636 0.730634572976022
0.0788919196831652 0.104626865671636 0.748303778549726
0.0773992864318748 0.104626865671636 0.751798716739472
0.0822276653692312 0.104626865671636 0.759079059164067
0.074517096353542 0.104626865671636 0.77864762456869
0.0862144650549884 0.104626865671636 0.780495688596496
0.0796120977389702 0.104626865671636 0.788545636077924
0.0861419471204929 0.104626865671636 0.799859715245666
0.0886319577504879 0.104626865671636 0.80607596040337
0.0793553905925658 0.104626865671636 0.825847869792076
0.0883580357794591 0.104626865671636 0.830884710870263
0.0769305694195377 0.104626865671636 0.85100147756936
0.0809705009108539 0.104626865671636 0.853636216661861
0.0793232161788888 0.104626865671636 0.868293981538805
0.0766303632453959 0.104626865671636 0.877102818257547
0.0754166535267292 0.104626865671636 0.887880787224373
0.0726742004955469 0.104626865671636 0.890846529001839
0.0765161873321551 0.104626865671636 0.906623490356859
0.0806703701923189 0.104626865671636 0.913793872058219
0.0738162801032584 0.104626865671636 0.921451847611892
0.0754615624531398 0.104626865671636 0.936266367156078
0.0742403807880406 0.104626865671636 0.94646925412397
0.0839761366783551 0.104626865671636 0.944005365758572
0.0703256313197116 0.104626865671636 0.965441845819392
0.0776793116500085 0.104626865671636 0.978751948173771
0.0763175045211704 0.104626865671636 0.979846547835672
0.0746689893043881 0.104626865671636 0.990275997401793
0.0837560727037261 0.103013541976464 0.999999999999947
0.0931623391996942 0.0891466377000649 0.99999999999995
0.0981040477501485 0.0815306348390671 0.999999999999952
0.117191982954746 0.0679551706009259 0.999999999999956
0.124777254277402 0.0601028429209162 0.999999999999958
0.137939653326463 0.0482070403539524 0.999999999999961
0.150742051279228 0.0468886276597194 0.999999999999961
0.161280170348724 0.0260624978130984 0.999999999999966
0.181146622023706 0.0134641733982216 0.99999999999997
0.178979097200592 0.00655362189938915 0.999999999999971
0.198620192867744 -0.00922425527730049 0.999999999999975
0.214695179834212 -0.0144115236842291 0.999999999999977
0.214568217889849 -0.022405959669058 0.999999999999979
0.242321265218341 -0.0478505441771039 0.999999999999985
0.234651122318057 -0.0459974469047658 0.999999999999985
0.252896427582828 -0.0552419592585079 0.999999999999987
0.273016308926617 -0.0768312664619066 0.999999999999993
0.286772865828445 -0.0878845627031372 0.999999999999996
0.300442545199872 -0.103231327020062 0.999999999999999
0.0917894380279846 0.104626865671636 0.00773601044849501
0.0924393645290674 0.104626865671636 0.0138563035887664
0.0953776973279337 0.104626865671636 0.0280590461412731
0.0848218940237937 0.104626865671636 0.0438234900766786
0.091921636333202 0.104626865671636 0.0491158973201038
0.0843885484166092 0.104626865671636 0.0685210460287946
0.0902882877386915 0.104626865671636 0.0717217809983344
0.0904183732077423 0.104626865671636 0.0857344581993055
0.0935338209110716 0.104626865671636 0.0923355199863268
0.0896805571341366 0.104626865671636 0.103172603859671
0.0871319030028001 0.104626865671636 0.116062521190051
0.0956604746200155 0.104626865671636 0.113631697761114
0.0913451590683065 0.104626865671636 0.128325081419977
0.0874721671934724 0.104626865671636 0.149103198885353
0.0979097143197503 0.104626865671636 0.147347991882421
0.0991238050349206 0.104626865671636 0.148363636148452
0.0875198546008015 0.104626865671636 0.171128942437436
0.0844057858247596 0.104626865671636 0.1880587092926
0.0880489971659487 0.104626865671636 0.186875799403512
0.0860199802606405 0.104626865671636 0.197965020716799
0.0938932268720947 0.104626865671636 0.208334534782837
0.0897364018057347 0.104626865671636 0.214757095928
0.0889216529894409 0.104626865671636 0.233488841512975
0.0955572379804004 0.104626865671636 0.230342481671481
0.0910510582249953 0.104626865671636 0.249639869135277
0.0987076245381262 0.104626865671636 0.257064019985348
0.0962940821184449 0.104626865671636 0.259715239552392
0.0880868651049678 0.104626865671636 0.285802977441321
0.093532852829092 0.104626865671636 0.27903749895593
0.0897516965734192 0.104626865671636 0.302283868678418
0.0879213395448851 0.104626865671636 0.313232957262501
0.0905404887984192 0.104626865671636 0.320557125408714
0.0928464839827203 0.104626865671636 0.332194996114772
0.0951080964442442 0.104626865671636 0.339205416374001
0.0957948956190589 0.104626865671636 0.339956059909699
0.092694487901995 0.104626865671636 0.36055169858959
0.0920331774456359 0.104626865671636 0.369332341528969
0.0926301273017602 0.104626865671636 0.37353917846321
0.0921851868531751 0.104626865671636 0.385909993851757
0.0976139433679009 0.104626865671636 0.400853655763675
0.0926471506230228 0.104626865671636 0.409144364858664
0.0909984590079262 0.104626865671636 0.409790638106867
0.091510888914739 0.104626865671636 0.429536191480348
0.0944920610643804 0.104626865671636 0.440649368435587
0.0889079089409163 0.104626865671636 0.451962058014914
0.0932802829137089 0.104626865671636 0.459978664297128
0.0925617667323514 0.104626865671636 0.472984788704509
0.0991261224424533 0.104626865671636 0.471460250360794
0.0977234103590685 0.104626865671636 0.489265380744769
0.0964253694894565 0.104626865671636 0.497683635036015
0.0907269373537596 0.104626865671636 0.504241548088929
0.0859648101463634 0.104626865671636 0.52560992153476
0.100110607222981 0.104626865671636 0.517620451312146
0.101849134265931 0.104626865671636 0.526602583048686
0.0877767681007904 0.104626865671636 0.549696292805761
0.0905407450986623 0.104626865671636 0.559386203716493
0.0893474675879688 0.104626865671636 0.570296567546128
0.100640233844578 0.104626865671636 0.567557250860358
0.0960803722325627 0.104626865671636 0.583825587704064
0.0968319501417264 0.104626865671636 0.590719241022853
0.094182147902319 0.104626865671636 0.602145723743976
0.0888036777050207 0.104626865671636 0.623153515453829
0.0926710805407556 0.104626865671636 0.628117310224536
0.0919179580412115 0.104626865671636 0.643052367766109
0.0973073303480156 0.104626865671636 0.641799664650248
0.0940740292562017 0.104626865671636 0.663903063103634
0.0935814723950699 0.104626865671636 0.660340782444547
0.0850767882583707 0.104626865671636 0.68374502883733
0.0966267118268081 0.104626865671636 0.689937366475233
0.0916813543480961 0.104626865671636 0.691511104172436
0.0849020817877268 0.104626865671636 0.715659380280593
0.0968302329693189 0.104626865671636 0.717691363042927
0.0964854184646585 0.104626865671636 0.726855475258512
0.0953068995709642 0.104626865671636 0.737787514524856
0.0850994355273586 0.104626865671636 0.750571823059718
0.0918197147782765 0.104626865671636 0.757624814900657
0.0892507270260574 0.104626865671636 0.772605845612483
0.0866449891612518 0.104626865671636 0.783903703115784
0.0925397100831703 0.104626865671636 0.784847612710633
0.0911955131611592 0.104626865671636 0.800465396721404
0.090762702271621 0.104626865671636 0.807554794037717
0.0908974246538268 0.104626865671636 0.821581689153155
0.0971175032144849 0.104626865671636 0.826439147954864
0.0959727552355583 0.104626865671636 0.83521081844282
0.0946403538023261 0.104626865671636 0.84686860033496
0.0964915761203958 0.104626865671636 0.853416402449848
0.0971481616596942 0.104626865671636 0.864125914431135
0.086724740909034 0.104626865671636 0.884919639712048
0.0908863179266837 0.104626865671636 0.887062674273208
0.0920136583670412 0.104626865671636 0.900444058937016
0.10147952228569 0.104626865671636 0.903085823422858
0.0923353940944821 0.104626865671636 0.915812063664032
0.0993361037917097 0.104626865671636 0.91777353089114
0.0916731309066633 0.104626865671636 0.930032447598296
0.0894135494913159 0.104626865671636 0.950629193705957
0.0991822997987097 0.104626865671636 0.954068220837198
0.0946893315858879 0.104626865671636 0.965848812560421
0.0938538120650959 0.104626865671636 0.976306903769794
0.100056445661746 0.104626865671636 0.982863603657038
0.0909465668235737 0.104626865671636 0.999210296496815
0.100214068029446 0.104626865671636 0.997271111130113
0.102445009181624 0.0877704906320587 0.99999999999995
0.128232017040792 0.069510810231189 0.999999999999955
0.131609052880051 0.0670383142701417 0.999999999999956
0.145517270656355 0.0629940474024951 0.999999999999957
0.150067312816696 0.0486355321208817 0.99999999999996
0.166430547552708 0.0383221854427488 0.999999999999963
0.168663063883445 0.0263547082931397 0.999999999999966
0.196878788096712 0.00727866058278302 0.999999999999971
0.196508190402483 0.00379737753442651 0.999999999999972
0.218895295565106 -0.00478361325938264 0.999999999999974
0.231502491957473 -0.0144466116555159 0.999999999999977
0.241928130640128 -0.0374668092842834 0.999999999999983
0.255007616820773 -0.0431956375056523 0.999999999999984
0.270502662470112 -0.0519692484673666 0.999999999999986
0.285574643137833 -0.0710912996447218 0.999999999999991
0.292722631330599 -0.078862901299721 0.999999999999993
0.300178034963733 -0.0802400440334093 0.999999999999994
0.320392974257445 -0.0943316337158529 0.999999999999997
0.105774785212433 0.104626865671636 0.00404007771794588
0.107958642655921 0.104626865671636 0.00486877969550462
0.111960840281814 0.104626865671636 0.0213121901458479
0.112827859711716 0.104626865671636 0.0212787490534364
0.116294867078874 0.104626865671636 0.0335609393471992
0.109228942354836 0.104626865671636 0.0460151082639466
0.0989536389414824 0.104626865671636 0.0678656427181387
0.104373202169054 0.104626865671636 0.0722704164823806
0.110571969203318 0.104626865671636 0.0768153211639044
0.105767926614071 0.104626865671636 0.0898825830710796
0.107693733328219 0.104626865671636 0.103820594632909
0.114866276084482 0.104626865671636 0.101741562716221
0.107793156695846 0.104626865671636 0.118203402109431
0.108197755198982 0.104626865671636 0.125271533424936
0.1135982908703 0.104626865671636 0.13521132124881
0.10092101615177 0.104626865671636 0.155266699904394
0.102961092872633 0.104626865671636 0.155479168538749
0.107049087383601 0.104626865671636 0.169537613564401
0.111049440707513 0.104626865671636 0.173412972782155
0.106119405378651 0.104626865671636 0.193731328217198
0.114631775990644 0.104626865671636 0.193800285510456
0.102721975548165 0.104626865671636 0.212164497682751
0.105023669389004 0.104626865671636 0.214032220567149
0.100450500933837 0.104626865671636 0.236571991621711
0.104518495492732 0.104626865671636 0.23985903308792
0.110965473507609 0.104626865671636 0.2482333824254
0.111631068902588 0.104626865671636 0.256344041353861
0.107706949167407 0.104626865671636 0.263070224279185
0.108593530950244 0.104626865671636 0.284973900868521
0.108471286631723 0.104626865671636 0.286946994158304
0.107786286146827 0.104626865671636 0.305913664346416
0.114366053820433 0.104626865671636 0.307170132956229
0.113549326885379 0.104626865671636 0.31614911955775
0.100239408226841 0.104626865671636 0.339325692756872
0.105983187801049 0.104626865671636 0.331959898894177
0.106169584492608 0.104626865671636 0.345753559583889
0.107218592175918 0.104626865671636 0.36579162666544
0.105365220824864 0.104626865671636 0.369532882804773
0.11490317531987 0.104626865671636 0.376462764290676
0.105334479696671 0.104626865671636 0.391759161578121
0.107379243191506 0.104626865671636 0.392247838178671
0.109746010095687 0.104626865671636 0.401686608031737
0.108903989973461 0.104626865671636 0.412759628807076
0.108022147525575 0.104626865671636 0.43259747627689
0.104807953824439 0.104626865671636 0.436718471426392
0.111600145113959 0.104626865671636 0.443475972380719
0.109873429163445 0.104626865671636 0.45725527073227
0.101327752527463 0.104626865671636 0.469438607783893
0.109838525807259 0.104626865671636 0.473615122444353
0.104006710410033 0.104626865671636 0.484349317190678
0.110343082494375 0.104626865671636 0.500161544224364
0.108859337143933 0.104626865671637 0.507651922078701
0.112951986317655 0.104626865671636 0.51789257560462
0.105411229956841 0.104626865671636 0.528481521468493
0.101999080823906 0.104626865671636 0.5448274706297
0.105648477413808 0.104626865671636 0.553915048170651
0.109496809259374 0.104626865671636 0.552090070231593
0.104736844760854 0.104626865671636 0.568551813963775
0.113404411366376 0.104626865671636 0.573988558375725
0.110821023237039 0.104626865671636 0.584127216969338
0.105027082964839 0.104626865671637 0.598158123085041
0.108389350941559 0.104626865671636 0.611916262194833
0.0996138739393649 0.104626865671636 0.617710279766747
0.113500300382394 0.104626865671636 0.624011526099636
0.0994684166333742 0.104626865671636 0.648328373509137
0.109433520698731 0.104626865671636 0.641739996930994
0.107808169712237 0.104626865671636 0.657733395831795
0.102633867483232 0.104626865671636 0.677632968375322
0.102443953215373 0.104626865671636 0.683218883630034
0.102255808016424 0.104626865671636 0.693110611909565
0.0988755507710756 0.104626865671636 0.697852776227277
0.100134562532121 0.104626865671636 0.711080154305531
0.0988514437272576 0.104626865671636 0.725066378581752
0.115068131838582 0.104626865671636 0.725985063570135
0.103095890195012 0.104626865671636 0.743960461057538
0.112927328983303 0.104626865671636 0.748896872577296
0.113934944904348 0.104626865671636 0.748269290099697
0.108642284695644 0.104626865671636 0.767584916294591
0.113182361722507 0.104626865671636 0.775364434397292
0.106480008986759 0.104626865671636 0.787212569581358
0.0982045075185452 0.104626865671636 0.8069443658865
0.109288124784135 0.104626865671636 0.80671114257016
0.10542235037944 0.104626865671636 0.82171986048456
0.105441564776415 0.104626865671636 0.82858159828611
0.103344314448819 0.104626865671636 0.835126749060103
0.11110246501438 0.104626865671636 0.847140919960549
0.116891140671024 0.104626865671636 0.850934808350369
0.11109215625886 0.104626865671636 0.870533168517982
0.107734510251341 0.104626865671636 0.88065674935701
0.106690132628857 0.104626865671636 0.891493500269692
0.113025332366218 0.104626865671636 0.892631367132821
0.107940036582335 0.104626865671636 0.908872450702111
0.106339694925193 0.104626865671636 0.922106400297799
0.105810938341415 0.104626865671636 0.92455757527617
0.107845143327474 0.104626865671636 0.931952465973781
0.110510559610501 0.104626865671636 0.952266505152839
