ply
format ascii 1.0
element vertex 838
property float x
property float y
property float z
end_header
-0.154310321560868 -0.116237491569825 0.71741585081653
-0.149547222897845 -0.116237491569825 0.72925640189351
-0.150890216550954 -0.116237491569825 0.740413119990564
-0.153458529727751 -0.116237491569825 0.748767403738728
-0.157214007862017 -0.116237491569825 0.75390947127648
-0.157835951703643 -0.116237491569825 0.773132819202987
-0.158573970295163 -0.116237491569825 0.784458783736469
-0.154488375536901 -0.116237491569826 0.791972379532595
-0.152924254584962 -0.116237491569825 0.792556859177341
-0.152365241538576 -0.116237491569826 0.807833306075065
-0.155105463097541 -0.116237491569826 0.815070864521226
-0.157995993877342 -0.116237491569825 0.82657784654767
-0.150809760526046 -0.116237491569825 0.834241105725736
-0.154765239992171 -0.116237491569825 0.84406249489428
-0.157525700637913 -0.116237491569825 0.861923878791372
-0.151875215706742 -0.116237491569825 0.862378790851917
-0.153470872655347 -0.116237491569825 0.877363952475076
-0.148946371437575 -0.116237491569825 0.891366882869244
-0.150248842039044 -0.116237491569826 0.891050991001381
-0.149373361445899 -0.116237491569825 0.898593152583771
-0.153495560259631 -0.116237491569825 0.917859740652108
-0.15601246641285 -0.116237491569825 0.924777294003816
-0.153150878214102 -0.116237491569825 0.93400332482194
-0.157016630583921 -0.116237491569825 0.943933848660174
-0.15811347620547 -0.116237491569825 0.958448287977187
-0.158113230699973 -0.116237491569825 0.955506588932855
-0.157308402929966 -0.116237491569826 0.966406951023846
-0.154618415550411 -0.116237491569825 0.983300974283115
-0.150861145780946 -0.116237491569825 0.985836666701088
-0.151655896297831 -0.112107414752241 0.996044502970382
-0.151746501024926 -0.103940528095797 0.996042057629331
-0.151634146966214 -0.083066710706844 0.996035803762557
-0.157442996892898 -0.0672650837568912 0.996031134628594
-0.160395109645587 -0.0551059076634654 0.996027525021413
-0.160656026083549 -0.0447255982329807 0.996024418543706
-0.154519813974254 -0.0239828715716017 0.999728579488649
-0.157652067324969 -0.0191293212869462 0.999601484801563
-0.157499738177244 -0.00701469947192224 0.999284252264875
-0.15715209019201 0.0196250770133752 0.99858666516721
-0.165154686428923 0.0282169746166273 0.99836167841044
-0.165222517917479 0.0508103734700752 0.997770049440083
-0.164620244589611 0.0687395379547407 0.997300557745086
-0.163986196939192 0.0857013835701317 0.996856396186133
-0.169724924177374 0.105345006370499 0.996342009820148
-0.163517106393967 0.114624114158918 0.996099027831368
-0.145764621219322 -0.116237491569826 0.105115959584356
-0.139898392126254 -0.116237491569826 0.117934616908048
-0.141989348677183 -0.116237491569825 0.120445553336115
-0.141529551455987 -0.116237491569825 0.133827506947015
-0.147341530399419 -0.116237491569825 0.142559921031496
-0.146375495303062 -0.116237491569825 0.159552914605107
-0.143703922334314 -0.116237491569826 0.157306595502212
-0.146804578645946 -0.116237491569825 0.173276306642919
-0.146826066329722 -0.116237491569825 0.185619840106416
-0.144931576819386 -0.116237491569826 0.194593156499424
-0.140804283462572 -0.116237491569825 0.197105296462043
-0.145391600209491 -0.116237491569825 0.20841396765722
-0.139713900105274 -0.116237491569825 0.222754222799897
-0.146775585766187 -0.116237491569825 0.235408005089561
-0.140927495915596 -0.116237491569826 0.2440346092114
-0.139211951426365 -0.116237491569825 0.257200265526041
-0.146275444508216 -0.116237491569825 0.257501218898674
-0.147672529362861 -0.116237491569825 0.270774604537187
-0.146160443392904 -0.116237491569825 0.278867246020252
-0.139671320326742 -0.116237491569825 0.289975010659254
-0.140129568057356 -0.116237491569825 0.303178312331733
-0.142192720615327 -0.116237491569825 0.310800954982834
-0.140181467593554 -0.116237491569825 0.311667500556602
-0.1484565310106 -0.116237491569826 0.330754058616375
-0.140570188827472 -0.116237491569825 0.335483963051357
-0.146688071879861 -0.116237491569825 0.341704453712199
-0.143449976525546 -0.116237491569825 0.359151843860502
-0.143296186985234 -0.116237491569825 0.365076524038869
-0.144673739118568 -0.116237491569825 0.374814737873802
-0.143391634258723 -0.116237491569825 0.39081934181157
-0.145877100991724 -0.116237491569825 0.396020184244905
-0.142118270643074 -0.116237491569825 0.400561935146953
-0.145694690389428 -0.116237491569825 0.412723876619115
-0.147266287633158 -0.116237491569825 0.423406221507592
-0.141420372365229 -0.116237491569825 0.432950703575688
-0.148521613530169 -0.116237491569825 0.441504916410594
-0.146820998947796 -0.116237491569825 0.447026004449292
-0.140986782093348 -0.116237491569825 0.456868818336876
-0.146549495933064 -0.116237491569825 0.47147180122783
-0.146523323937629 -0.116237491569825 0.483200500786364
-0.14038193166326 -0.116237491569825 0.493922484587599
-0.14863207518536 -0.116237491569825 0.49378919348128
-0.147836470597906 -0.116237491569825 0.503124407536378
-0.147250128449763 -0.116237491569825 0.516046511473483
-0.142143953773412 -0.116237491569825 0.529462667016542
-0.148189510008426 -0.116237491569825 0.542000719154112
-0.146498516571718 -0.116237491569825 0.548681993189041
-0.14766106604549 -0.116237491569825 0.562505923036962
-0.146714557174507 -0.116237491569825 0.566210447444797
-0.146328668208432 -0.116237491569825 0.569259571380095
-0.140018661242835 -0.116237491569825 0.586960273387416
-0.143007580899497 -0.116237491569825 0.594977932699787
-0.145608384646202 -0.116237491569825 0.601372493833539
-0.142339435254441 -0.116237491569825 0.618957392677983
-0.144681186693082 -0.116237491569826 0.630615851915943
-0.145931587231717 -0.116237491569825 0.639479244471129
-0.148245515797865 -0.116237491569825 0.644384467722368
-0.141988160018925 -0.116237491569826 0.653327476592239
-0.146593201682532 -0.116237491569825 0.658773988395817
-0.141801759065372 -0.116237491569825 0.676467329039756
-0.139398843085672 -0.116237491569825 0.687180152884929
-0.146972674002202 -0.116237491569826 0.687290518508409
-0.140864081939619 -0.116237491569825 0.702149254224533
-0.143622614316027 -0.116237491569825 0.708555368170647
-0.143751322727549 -0.116237491569825 0.727667304322623
-0.14563097847023 -0.116237491569825 0.7278601356206
-0.139840836464693 -0.116237491569825 0.738381369214363
-0.146951547330015 -0.116237491569825 0.747616419806072
-0.145226013950292 -0.116237491569825 0.760206077760263
-0.140510832303522 -0.116237491569825 0.763182370781489
-0.142572448526519 -0.116237491569825 0.78274312668195
-0.148185496733051 -0.116237491569825 0.792408382261992
-0.146043896089777 -0.116237491569826 0.801256279206835
-0.147038711259696 -0.116237491569825 0.806324531918788
-0.146402794562879 -0.116237491569825 0.819706996935203
-0.142429081300139 -0.116237491569825 0.824023247397977
-0.144919055745805 -0.116237491569825 0.833354982415117
-0.146960356147184 -0.116237491569826 0.840081538899609
-0.140898341424454 -0.116237491569825 0.852123887235958
-0.142893667272266 -0.116237491569826 0.860831537124119
-0.144361143236384 -0.116237491569825 0.882531349941727
-0.14177327517342 -0.116237491569825 0.884886719325279
-0.143377613002292 -0.116237491569825 0.894391120043634
-0.142604481683354 -0.116237491569826 0.899298276254741
-0.145328408509081 -0.116237491569825 0.911789752688713
-0.141445845980648 -0.116237491569825 0.920407974390651
-0.147897754031867 -0.116237491569825 0.932867553823015
-0.142449619949728 -0.116237491569825 0.946630307846479
-0.142449634472679 -0.116237491569825 0.952909250757841
-0.142787406937885 -0.116237491569826 0.963549933112832
-0.141109140894562 -0.116237491569825 0.974930412319487
-0.139556296790752 -0.116237491569825 0.981115058006936
-0.141383914522033 -0.116237491569825 0.994116610159084
-0.148583374886435 -0.111235453612266 0.996044207849353
-0.143925922121291 -0.090012325625983 0.996037799156467
-0.14481090602306 -0.0856170276189711 0.996036492344488
-0.142473976349488 -0.0658888033246395 0.996030557066878
-0.148832082218501 -0.043868193937139 0.996024031139775
-0.148930889312197 -0.0454960116817914 0.996024519833899
-0.144406812851026 -0.033000896578639 0.999964724784192
-0.152240554565976 -0.0132210129276484 0.99944677030226
-0.14766542450517 0.0103189102112629 0.998830355721199
-0.148325684781601 0.0176913156408905 0.998637302490843
-0.146634383713492 0.0300690578923656 0.998313179903042
-0.156839588188876 0.051438554632363 0.997753599937436
-0.15838360517702 0.0663782291698555 0.997362390791728
-0.149656151441417 0.0794782244778032 0.997019355342037
-0.153035136632789 0.104822642111297 0.99635568840967
-0.135072331465006 -0.116237491569826 0.114167744305764
-0.135942258178531 -0.116237491569825 0.11752769710748
-0.139162625533644 -0.116237491569825 0.128131150028178
-0.130125642161819 -0.116237491569825 0.130670904616422
-0.134298697363921 -0.116237491569825 0.142175595317431
-0.134939110937795 -0.116237491569825 0.155483524489749
-0.139310523859715 -0.116237491569825 0.169317576629667
-0.12989200597749 -0.116237491569826 0.18111177340712
-0.131438201078571 -0.116237491569825 0.18243943210384
-0.137040769821561 -0.116237491569825 0.19132732570396
-0.137140644555472 -0.116237491569825 0.200113200104738
-0.132999527487014 -0.116237491569825 0.212568384352084
-0.134559358060089 -0.116237491569825 0.226102297466991
-0.133958096571932 -0.116237491569825 0.227626578523279
-0.135537402591774 -0.116237491569825 0.243811440669183
-0.132151013523937 -0.116237491569826 0.254436466836948
-0.129769171181212 -0.116237491569825 0.261765456965633
-0.138568544751855 -0.116237491569825 0.271353188064867
-0.133825229512258 -0.116237491569825 0.282310292389972
-0.13510929667351 -0.116237491569825 0.288642260799845
-0.130255074287824 -0.116237491569825 0.297860871009062
-0.138030395100672 -0.116237491569825 0.31446814812589
-0.136099290494532 -0.116237491569825 0.323980643162806
-0.136422687712266 -0.116237491569826 0.331102002469989
-0.137053911397361 -0.116237491569826 0.339704686330165
-0.130891966762824 -0.116237491569825 0.342526438499872
-0.136438983095409 -0.116237491569825 0.352880316044126
-0.132170115669863 -0.116237491569825 0.364203772998694
-0.131671865103646 -0.116237491569825 0.370724739418783
-0.132251918042897 -0.116237491569825 0.384565796315898
-0.13232569502504 -0.116237491569825 0.395942816319198
-0.134336105767238 -0.116237491569825 0.408421732722244
-0.138296572340678 -0.116237491569825 0.421474672057109
-0.133986615203325 -0.116237491569825 0.421708276911264
-0.136389603045561 -0.116237491569825 0.432881787123413
-0.137923080285641 -0.116237491569825 0.441750299923641
-0.133041186310011 -0.116237491569825 0.450781207854869
-0.134647469911698 -0.116237491569825 0.462992020297124
-0.138739212488153 -0.116237491569825 0.469907412215721
-0.130412151498288 -0.116237491569825 0.473631294872428
-0.133916366359033 -0.116237491569825 0.488985908746139
-0.130840371554211 -0.116237491569825 0.50644396276798
-0.133422350668694 -0.116237491569825 0.51310490960791
-0.135136280877101 -0.116237491569825 0.520959607002431
-0.134382221784313 -0.116237491569826 0.524577244435214
-0.139595907695597 -0.116237491569826 0.536638386109193
-0.131777031113931 -0.116237491569825 0.5560355074383
-0.130196553786272 -0.116237491569825 0.552754605776655
-0.139081317838001 -0.116237491569826 0.56336014726807
-0.131152902069557 -0.116237491569825 0.582430631874332
-0.136098700712068 -0.116237491569825 0.584464423486546
-0.131813265067174 -0.116237491569825 0.595995897011235
-0.138887461084048 -0.116237491569825 0.612064703625908
-0.138539112964413 -0.116237491569825 0.616916242419889
-0.130696683863451 -0.116237491569825 0.626714905046803
-0.135885336727312 -0.116237491569825 0.639668181017763
-0.131867630297999 -0.116237491569825 0.644604629216325
-0.133236911051174 -0.116237491569825 0.655185201639475
-0.137197370690578 -0.116237491569826 0.659081394735579
-0.132010176387151 -0.116237491569825 0.67100922888206
-0.13090920051568 -0.116237491569826 0.679475258483376
-0.135590051198521 -0.116237491569825 0.694047581647478
-0.138076902506456 -0.116237491569825 0.70754919299275
-0.131399839740696 -0.116237491569825 0.712185815414172
-0.135125941852161 -0.116237491569826 0.724406145667844
-0.135563221144362 -0.116237491569825 0.733138156099096
-0.136077713781987 -0.116237491569825 0.742190792825813
-0.134172735713061 -0.116237491569825 0.745386995044086
-0.134746961871384 -0.116237491569825 0.760185469277778
-0.138869589248131 -0.116237491569826 0.768049379004899
-0.131374289138431 -0.116237491569825 0.776190423511486
-0.136322722326434 -0.116237491569825 0.792515727791325
-0.131468395413131 -0.116237491569825 0.79601685138851
-0.133047106272726 -0.116237491569825 0.808128693077439
-0.135431281474416 -0.116237491569826 0.8215026023427
-0.130937615640876 -0.116237491569825 0.824398511659453
-0.133034073930393 -0.116237491569825 0.840025345290934
-0.131441938477021 -0.116237491569825 0.849050082600932
-0.130367472205753 -0.116237491569825 0.861641350490244
-0.139276080436429 -0.116237491569825 0.864960852079961
-0.139279873589619 -0.116237491569826 0.875428581836321
-0.137193324895787 -0.116237491569825 0.880465504780362
-0.134158085439858 -0.116237491569826 0.892486151802601
-0.135906706854559 -0.116237491569825 0.909259031664964
-0.131572904917636 -0.116237491569825 0.911850981631774
-0.13036289892644 -0.116237491569825 0.92342127005072
-0.129748205583267 -0.116237491569825 0.931305139094663
-0.132501366841247 -0.116237491569825 0.945109075275888
-0.130345998475889 -0.116237491569825 0.950852353488537
-0.131367808262533 -0.116237491569825 0.967864441606836
-0.133691734915304 -0.116237491569825 0.976139600180037
-0.137018920746385 -0.116237491569825 0.977571720685843
-0.134676769886316 -0.116237491569826 0.994361201597308
-0.130033310473771 -0.110044921224678 0.996043646381319
-0.13888227058836 -0.103706100009302 0.996041845346118
-0.140649764645858 -0.0840210606677356 0.996035968330089
-0.13696465365649 -0.0630498945683862 0.996029645848586
-0.141782831327331 -0.0557236413911644 0.996027504521543
-0.136677500504159 -0.0308817770968605 0.996020006912047
-0.135652009470011 -0.0283754362282671 0.998335719480447
-0.139849339966898 -0.0185736732356519 0.999586934645272
-0.139468986978495 0.00104037077986172 0.999073322827027
-0.141762554682521 0.0173710556631449 0.998645688793502
-0.145497883856025 0.0346910457418586 0.998192148891722
-0.145027291785374 0.0592283899521928 0.997549615920714
-0.147652022514696 0.057553364082175 0.997593478016772
-0.143968935333125 0.0748813453023984 0.997139728859587
-0.139289015636519 0.0916315329368845 0.996701109759922
-0.148430440812263 0.110686962582227 0.996202125773762
-0.123486966436101 -0.116237491569825 0.109067193987113
-0.127432940491445 -0.116237491569825 0.121997745694735
-0.123815691379933 -0.116237491569825 0.118071447866288
-0.126284406008249 -0.116237491569826 0.134871386812854
-0.124910916034262 -0.116237491569825 0.150741303998192
-0.120870246310947 -0.116237491569825 0.149918649406656
-0.121348385748437 -0.116237491569825 0.168026562729771
-0.128759804254792 -0.116237491569825 0.174024968055853
-0.124739219994448 -0.116237491569825 0.188934338230405
-0.121033336696239 -0.116237491569825 0.194964069799962
-0.128672667069886 -0.116237491569825 0.207259308615148
-0.122290895603835 -0.116237491569825 0.212421293872086
-0.123362625290427 -0.116237491569825 0.223809257472638
-0.125997268351881 -0.116237491569825 0.230508194631862
-0.124999358409872 -0.116237491569825 0.23856030587345
-0.127636884898627 -0.116237491569825 0.244685868036447
-0.123309955571877 -0.116237491569825 0.256341718253806
-0.12662553505143 -0.116237491569825 0.270979540300757
-0.129005271323181 -0.116237491569825 0.2814535418143
-0.128567702163239 -0.116237491569825 0.293388038231568
-0.124763744668156 -0.116237491569825 0.296324454066608
-0.125332587935255 -0.116237491569825 0.308136154127926
-0.125918590792389 -0.116237491569825 0.318719263851684
-0.12424156503296 -0.116237491569825 0.330594128894439
-0.123068501799446 -0.116237491569825 0.337855839763746
-0.129648254381759 -0.116237491569825 0.346854928079617
-0.127246396357941 -0.116237491569825 0.354836642430408
-0.123472311609882 -0.116237491569825 0.363768981930739
-0.12723322133819 -0.116237491569825 0.37826046541606
-0.125235015065109 -0.116237491569825 0.379181136505592
-0.123071586211307 -0.116237491569825 0.393608492249609
-0.125753932971726 -0.116237491569825 0.400389712085558
-0.12900432714193 -0.116237491569825 0.414422721532288
-0.126090972600983 -0.116237491569826 0.41840662898589
-0.12866080262632 -0.116237491569825 0.434190217924004
-0.12189535832555 -0.116237491569825 0.441509328985122
-0.129752984649801 -0.116237491569825 0.449047372762347
-0.129547310888593 -0.116237491569825 0.458166303448133
-0.127840303819229 -0.116237491569825 0.475855644042994
-0.126740138900298 -0.116237491569825 0.482711891046424
-0.122919109174316 -0.116237491569825 0.496123119016255
-0.128112123124843 -0.116237491569826 0.50692225990552
-0.129315923280601 -0.116237491569825 0.513052637998059
-0.121550807884573 -0.116237491569825 0.520643269709834
-0.122237925747111 -0.116237491569826 0.533496606906143
-0.126932277671991 -0.116237491569825 0.543631450504642
-0.120622488652184 -0.116237491569826 0.548733694054311
-0.127125556109993 -0.116237491569825 0.557338481994577
-0.128039230716792 -0.116237491569825 0.573526602658005
-0.122531939248336 -0.116237491569825 0.579030243399222
-0.126369164104951 -0.116237491569825 0.588510269067997
-0.127390064314947 -0.116237491569826 0.590314785397855
-0.122561488291528 -0.116237491569826 0.600186210583157
-0.127154295697008 -0.116237491569826 0.616430462687301
-0.124665756392988 -0.116237491569825 0.62127946279126
-0.126594892658373 -0.116237491569825 0.638136315591922
-0.122712648856064 -0.116237491569826 0.647060565102554
-0.124622811575529 -0.116237491569825 0.658215333844365
-0.125314130453028 -0.116237491569826 0.661720958305891
-0.122011141547303 -0.116237491569825 0.679317713451376
-0.122337517250295 -0.116237491569825 0.683971809529537
-0.124075029314139 -0.116237491569825 0.697558388023407
-0.129401345055204 -0.116237491569825 0.699793364133969
-0.127871614433924 -0.116237491569825 0.71347575079224
-0.128139270328243 -0.116237491569825 0.715569595493116
-0.123587566684806 -0.116237491569825 0.736020678925494
-0.12981900839547 -0.116237491569826 0.739625510296474
-0.125147910299625 -0.116237491569825 0.753778274600668
-0.126268420387538 -0.116237491569825 0.761702156745477
-0.129718454055029 -0.116237491569825 0.776626818981468
-0.129137870400928 -0.116237491569825 0.779235277212927
-0.129334492776228 -0.116237491569826 0.793145202521423
-0.129983129131331 -0.116237491569826 0.793480446222509
-0.126334055408297 -0.116237491569825 0.807084221407523
-0.123807622895543 -0.116237491569825 0.819720434816491
-0.127977360294855 -0.116237491569825 0.826473215537424
-0.129712112421218 -0.116237491569826 0.833875603837076
-0.124348218578518 -0.116237491569825 0.844381115711268
-0.125736043713852 -0.116237491569825 0.857877080339709
-0.128667011820033 -0.116237491569825 0.865436298115064
-0.120632536190497 -0.116237491569825 0.875822184237747
-0.129658373408853 -0.116237491569825 0.889686155574111
-0.120333916387829 -0.116237491569825 0.887793196416737
-0.12922466567142 -0.116237491569825 0.900285140847018
-0.120347628693302 -0.116237491569825 0.911471526407806
-0.124048773963404 -0.116237491569825 0.920530435399078
-0.128709683016218 -0.116237491569825 0.931204375387406
-0.127417084365472 -0.116237491569825 0.950763759188242
-0.124353292654061 -0.116237491569825 0.953014378045872
-0.129449228438798 -0.116237491569826 0.966217508312189
-0.128865282676406 -0.116237491569825 0.967178520929369
-0.121825075760352 -0.116237491569825 0.97430892602944
-0.121675027577192 -0.113676045445281 0.996044641760851
-0.129934747608834 -0.106023075102526 0.996042440573139
-0.129891824335164 -0.100001422503789 0.996040636349434
-0.128429364627999 -0.0836887681476683 0.996035733842095
-0.123634399387164 -0.0665236665471942 0.996030539187952
-0.129401154167402 -0.0540969309230678 0.996026880517455
-0.129418666160253 -0.0408792960533532 0.996022921448083
-0.130374814794279 -0.029512080388969 0.996019527026127
-0.129036225723902 -0.0148050119604302 0.999488248776698
-0.129790850674716 -0.0089077762815047 0.999333824225735
-0.129409916890706 0.0237130455348461 0.998479617944129
-0.129789081005156 0.0388305815585866 0.998083751331492
-0.132645540680055 0.0543067503141769 0.997678493590267
-0.132470438061825 0.0587799969731432 0.997561357504095
-0.129990374110552 0.0902205077118637 0.996738058755796
-0.131867289274459 0.0874719955751645 0.99681003107904
-0.130932504240213 0.105518019308538 0.996337479316922
-0.116000925598862 -0.116237491569825 0.10739635727754
-0.11279083025524 -0.116237491569825 0.116141834349551
-0.113272955980798 -0.116237491569825 0.126412726721645
-0.11811721720118 -0.116237491569826 0.129939944952055
-0.11421046587766 -0.116237491569826 0.153386016245208
-0.111585889896433 -0.116237491569825 0.149291917313005
-0.119902262831726 -0.116237491569825 0.159635468641377
-0.115539044354523 -0.116237491569825 0.173836789559336
-0.119549357051166 -0.116237491569825 0.181054411990951
-0.112264901511726 -0.116237491569825 0.18886735322416
-0.114687532480985 -0.116237491569825 0.201518203982826
-0.119374098554323 -0.116237491569826 0.20986824794205
-0.115415803530048 -0.116237491569825 0.217004537935175
-0.111703013860998 -0.116237491569825 0.227296491030382
-0.117075206207253 -0.116237491569825 0.232633379335725
-0.114866243948342 -0.116237491569825 0.255429764740977
-0.119021584022843 -0.116237491569825 0.259025351394668
-0.111586327139176 -0.116237491569825 0.273352891006014
-0.120310265628226 -0.116237491569825 0.275938268073426
-0.114826059065455 -0.116237491569826 0.286869821707282
-0.116571376074068 -0.116237491569825 0.298548877816725
-0.111356707046605 -0.116237491569825 0.302796522341233
-0.113220157990008 -0.116237491569825 0.316321656450016
-0.11855804649201 -0.116237491569825 0.328119887579262
-0.113887738261486 -0.116237491569825 0.3362364009585
-0.112436454062976 -0.116237491569825 0.3524020216937
-0.110714077179395 -0.116237491569825 0.356712373598137
-0.11818888890738 -0.116237491569825 0.367505433003942
-0.119431427431545 -0.116237491569826 0.379384454571795
-0.115091328006544 -0.116237491569825 0.379067136175712
-0.115225383447933 -0.116237491569825 0.391835643128089
-0.114701432898587 -0.116237491569825 0.401996317607265
-0.114912182537743 -0.116237491569825 0.413748442062402
-0.111213020776752 -0.116237491569825 0.42625829790134
-0.113936868125079 -0.116237491569826 0.42669464380124
-0.117426411790068 -0.116237491569825 0.442832211611068
-0.119266812603498 -0.116237491569825 0.459185338840794
-0.117522647138096 -0.116237491569825 0.464495617903044
-0.119461585754041 -0.116237491569825 0.480706498923318
-0.115352336252269 -0.116237491569825 0.482802100590897
-0.117256475553744 -0.116237491569825 0.492805287631976
-0.112564215261033 -0.116237491569825 0.494890494837119
-0.119964467431325 -0.116237491569826 0.50880660717977
-0.119611620667898 -0.116237491569825 0.514928597180168
-0.114990930111074 -0.116237491569826 0.527616794899791
-0.116591654682543 -0.116237491569826 0.539118746869945
-0.119226232062003 -0.116237491569826 0.548058274732486
-0.114413081699114 -0.116237491569825 0.553481937022439
-0.11335174733335 -0.116237491569825 0.57359813025049
-0.117240874562214 -0.116237491569826 0.575700900837324
-0.114087818659383 -0.116237491569826 0.584903803629917
-0.111248739367986 -0.116237491569825 0.596091474236439
-0.118756528862812 -0.116237491569825 0.606089859423142
-0.112705761596491 -0.116237491569825 0.611782241397733
-0.116326858052528 -0.116237491569825 0.632664872106126
-0.113322398303836 -0.116237491569825 0.632228004972073
-0.118701583178536 -0.116237491569826 0.647242779226389
-0.110702015534034 -0.116237491569825 0.658985591877183
-0.11059013521797 -0.116237491569825 0.669274488557637
-0.113193182048431 -0.116237491569825 0.675132524261254
-0.112289293676528 -0.116237491569825 0.689511365597233
-0.112124972382468 -0.116237491569825 0.695682918668881
-0.111759066357594 -0.116237491569825 0.701250532959799
-0.113464750060064 -0.116237491569825 0.709597742126962
-0.113140320027086 -0.116237491569825 0.729139039914914
-0.11801827049598 -0.116237491569826 0.733340308726732
-0.112508444766079 -0.116237491569825 0.739474569288496
-0.115975696998963 -0.116237491569825 0.753160303467113
-0.111045546237005 -0.116237491569825 0.763970265426361
-0.111484987325355 -0.116237491569825 0.771615426738379
-0.112668176884805 -0.116237491569825 0.773743819769938
-0.11972970429286 -0.116237491569825 0.795759722792107
-0.111908722829147 -0.116237491569826 0.804647518528094
-0.111672219521992 -0.116237491569825 0.810186656598758
-0.113951451176643 -0.116237491569825 0.81682222149958
-0.114239237952629 -0.116237491569825 0.826876816663434
-0.117541311642287 -0.116237491569825 0.833096566673225
-0.113069524699007 -0.116237491569825 0.844181429132967
-0.112896627388302 -0.116237491569825 0.85711785224998
-0.111329759255036 -0.116237491569825 0.87169674584709
-0.11539409162055 -0.116237491569825 0.873161510978798
-0.114805115363683 -0.116237491569825 0.883579006595814
-0.115208068585553 -0.116237491569825 0.899210932963973
-0.112457292613672 -0.116237491569825 0.906518793884662
-0.113974946790362 -0.116237491569825 0.910739018140585
-0.114015590986361 -0.116237491569825 0.921747366541175
-0.11071308549129 -0.116237491569825 0.932748751168423
-0.117986238325869 -0.116237491569825 0.944204791792193
-0.110729570213023 -0.116237491569825 0.954696459517417
-0.11415831217266 -0.116237491569825 0.960980123527893
-0.117155075463953 -0.116237491569825 0.967610781660288
-0.118490804117495 -0.116237491569825 0.979675362354141
-0.116307286039888 -0.116237491569826 0.994754398022401
-0.119385353193467 -0.107062137525685 0.996042635319417
-0.118275122069591 -0.0954034835236967 0.996039130779513
-0.117649985740722 -0.0861532398838969 0.996036353021376
-0.115965971837884 -0.0756495991256514 0.996033188122346
-0.115451101979949 -0.0545147060099442 0.996026851606869
-0.120154608311449 -0.0357329678987595 0.996021277592112
-0.116205435442177 -0.026424261362894 0.996018445613915
-0.115250110458915 -0.00915197561346457 0.99601326125515
-0.122965561715556 -0.00134719683761383 0.999135843485399
-0.115489789209511 0.00811219110511543 0.998888140694638
-0.124139379771684 0.0311223631046832 0.998285598135364
-0.119361759743864 0.0495669248770737 0.997802610287414
-0.121300967744965 0.0671965188932248 0.997340963121211
-0.125781547455147 0.0716064174866436 0.997225485862515
-0.128053980594679 0.0955939869628701 0.996597349249576
-0.123642066531455 0.107514539294838 0.996285198601149
-0.109791435504843 -0.116237491569825 0.109687340368948
-0.108838449567753 -0.116237491569825 0.117288894090576
-0.104682478731718 -0.116237491569825 0.12629269986537
-0.105252335346217 -0.116237491569825 0.13727594400365
-0.108043873581477 -0.116237491569825 0.141565471986048
-0.106008804149272 -0.116237491569826 0.150345331263946
-0.105374077666341 -0.116237491569825 0.164994060770199
-0.102273994116212 -0.116237491569825 0.172365958003878
-0.102856212395546 -0.116237491569825 0.1865518636094
-0.10681817128529 -0.116237491569825 0.18418385489441
-0.108400082147939 -0.116237491569825 0.20414771199598
-0.101978310494214 -0.116237491569825 0.218201642741831
-0.103528388470331 -0.116237491569825 0.220452626015894
-0.107931462150373 -0.116237491569825 0.229909140486801
-0.10584747147093 -0.116237491569825 0.241669540776449
-0.10684274109017 -0.116237491569825 0.246194995201693
-0.106261779948786 -0.116237491569825 0.257391017112841
-0.109011838698697 -0.116237491569825 0.276497425188734
-0.10721166945612 -0.116237491569826 0.278269548517427
-0.104084674652541 -0.116237491569825 0.292536119606445
-0.107270831867287 -0.116237491569825 0.297873840562623
-0.102306869868002 -0.116237491569825 0.307210500623022
-0.10755187420852 -0.116237491569825 0.319005754311428
-0.10204137475029 -0.116237491569825 0.335591866953873
-0.108282294898141 -0.116237491569825 0.336630602943247
-0.103892705050081 -0.116237491569825 0.347855810036065
-0.10829666912365 -0.116237491569825 0.358402124124356
-0.108463204830409 -0.116237491569826 0.370586228282152
-0.108789416964799 -0.116237491569825 0.379551929057502
-0.110094264635569 -0.116237491569825 0.388315680472858
-0.109361117537458 -0.116237491569825 0.389637136144432
-0.110165305042995 -0.116237491569825 0.408683170548136
-0.103033039112684 -0.116237491569825 0.417693962625136
-0.101333641908255 -0.116237491569825 0.422305192862792
-0.10543425559054 -0.116237491569826 0.427307493898578
-0.10679549181008 -0.116237491569825 0.440107903046461
-0.103692638509453 -0.116237491569825 0.451497738560695
-0.106418798154746 -0.116237491569825 0.464240157144133
-0.109169829185621 -0.116237491569825 0.473799264929315
-0.10789555282246 -0.116237491569825 0.484963236988809
-0.110513442958039 -0.116237491569826 0.489123171986928
-0.105732025095021 -0.116237491569825 0.498842766376075
-0.108305532817168 -0.116237491569825 0.512429873252059
-0.101035248884164 -0.116237491569825 0.515610583239559
-0.109246742598678 -0.116237491569825 0.522026446564202
-0.104285555413576 -0.116237491569825 0.5396363555908
-0.106301088698913 -0.116237491569825 0.54707606679254
-0.104216176920674 -0.116237491569825 0.561278301786648
-0.109943902852101 -0.116237491569825 0.566486661908808
-0.106036058712562 -0.116237491569826 0.576379547481921
-0.106878140166415 -0.116237491569825 0.593383980716024
-0.104669315323626 -0.116237491569825 0.599517285454777
-0.110271231233448 -0.116237491569825 0.610231282165662
-0.103459762573174 -0.116237491569825 0.610712469402487
-0.108898045602391 -0.116237491569825 0.632916653050304
-0.107209583217274 -0.116237491569826 0.630402404901192
-0.105921014738537 -0.116237491569825 0.637915185378726
-0.10347812205042 -0.116237491569825 0.652219186887522
-0.102829470734388 -0.116237491569825 0.6636269098702
-0.105521519976945 -0.116237491569825 0.667055268847739
-0.109082080734494 -0.116237491569825 0.687668476435381
-0.101527297168421 -0.116237491569826 0.68954154740197
-0.108947902367465 -0.116237491569825 0.699178825890564
-0.106189724608896 -0.116237491569825 0.7082877631632
-0.109525750430183 -0.116237491569825 0.723682783591098
-0.103539498891553 -0.116237491569825 0.735822615451112
-0.10329862113099 -0.116237491569825 0.746215679201089
-0.101120831845194 -0.116237491569825 0.750761251947303
-0.100952247142703 -0.116237491569825 0.758091276441744
-0.107195242839476 -0.116237491569825 0.766109440174934
-0.109510301005082 -0.116237491569825 0.776136171504748
-0.110679652594911 -0.116237491569825 0.788890375902545
-0.108674204487565 -0.116237491569826 0.805585523317548
-0.103791368390543 -0.116237491569825 0.806918612565479
-0.108056248368402 -0.116237491569825 0.814268232455362
-0.107496430143487 -0.116237491569825 0.831403277284355
-0.101702645966128 -0.116237491569825 0.837355234224449
-0.103943007856604 -0.116237491569825 0.850648325126228
-0.10940561616234 -0.116237491569826 0.849544990948001
-0.10138891897337 -0.116237491569825 0.867704734459113
-0.104109485908218 -0.116237491569825 0.877814719557662
-0.104587922375483 -0.116237491569825 0.883964693298265
-0.101797313742818 -0.116237491569825 0.891513076220716
-0.104254811250549 -0.116237491569825 0.904589734229033
-0.103155277334547 -0.116237491569825 0.915518991701179
-0.109491702330849 -0.116237491569825 0.922267403789785
-0.107828254628287 -0.116237491569825 0.934581466113386
-0.104996610333331 -0.116237491569826 0.943589828079186
-0.106622643690316 -0.116237491569825 0.951547654194675
-0.109487205552507 -0.116237491569825 0.962746303139313
-0.105651574231379 -0.116237491569825 0.967870360940887
-0.107226013738753 -0.116237491569826 0.988787487251222
-0.10457111587248 -0.116237491569825 0.992419889181533
-0.102309040094848 -0.110075200409987 0.996043349287844
-0.105060313526474 -0.102525913497245 0.996041118327247
-0.110542170889645 -0.0810428299299814 0.996034743736211
-0.104386960560777 -0.0625771422844368 0.996029144477969
-0.10828413813716 -0.0529741094196533 0.996026310984563
-0.107248413686932 -0.0368801792229848 0.996021478707229
-0.110875942259359 -0.0305007620329146 0.99601960785067
-0.112706781852614 -0.00700767730926806 0.996012590857161
-0.105212403879918 -0.00544520084489698 0.998320535006435
-0.107713365757521 0.0230827428047219 0.998496123001985
-0.105950758673964 0.0279728172324826 0.998368071896552
-0.10806234856913 0.0502716768345226 0.997784155707931
-0.115513405615538 0.0637493462149372 0.9974312305146
-0.108405346644498 0.0895622868260743 0.996755294876286
-0.118137483554216 0.0998205718761557 0.996486672228531
-0.0952816706886874 -0.116237491569825 0.110129485273607
-0.0964214071697432 -0.116237491569825 0.11814621356256
-0.0959508074581811 -0.116237491569825 0.131685374370696
-0.0968864728702123 -0.116237491569825 0.130002035374864
-0.0968833641466298 -0.116237491569825 0.14338472298404
-0.0951418060575752 -0.116237491569825 0.147220822587022
-0.0976829387783467 -0.116237491569825 0.164361503253176
-0.0991108080383676 -0.116237491569825 0.16716759012185
-0.0943150020765309 -0.116237491569825 0.186058769716699
-0.0959116064549108 -0.116237491569826 0.193464941853301
-0.0952551973536071 -0.116237491569825 0.208503667318069
-0.0948242659016495 -0.116237491569825 0.216050598119158
-0.0967580493106983 -0.116237491569825 0.221796927139421
-0.100831427207833 -0.116237491569825 0.231327417352634
-0.095727721790207 -0.116237491569826 0.237731672717976
-0.0992728320227455 -0.116237491569826 0.25449349032064
-0.0957307399994689 -0.116237491569825 0.260369357716489
-0.0987355369282557 -0.116237491569825 0.264098314523064
-0.10070205896543 -0.116237491569826 0.284943840510698
-0.0966272053665723 -0.116237491569825 0.290967524315293
-0.0969233650926566 -0.116237491569825 0.300624104945432
-0.0988601470021224 -0.116237491569825 0.307517140270534
-0.0956188090489888 -0.116237491569825 0.313969880608478
-0.100433231276724 -0.116237491569825 0.32988788960472
-0.0993425687605773 -0.116237491569825 0.342436911290555
-0.0934265250296116 -0.116237491569825 0.354341278692124
-0.0998247710307833 -0.116237491569825 0.355333490403693
-0.0918714352652195 -0.116237491569825 0.362925712445338
-0.0917018311615495 -0.116237491569825 0.373005631898984
-0.0989667899096289 -0.116237491569825 0.381930474957886
-0.100533885422227 -0.116237491569825 0.393187093152409
-0.100457192246796 -0.116237491569825 0.408709469609672
-0.0964133018685105 -0.116237491569825 0.408976302898758
-0.0921445933883642 -0.116237491569825 0.420732922686398
-0.0914212713326408 -0.116237491569825 0.431706873752011
-0.0984518420254425 -0.116237491569826 0.442796605884256
-0.094180694608012 -0.116237491569826 0.449588603793575
-0.0939692440626333 -0.116237491569825 0.460528540914269
-0.095392868320777 -0.116237491569825 0.471639680657475
-0.0966088135516309 -0.116237491569825 0.481601606692655
-0.0975664515868679 -0.116237491569825 0.484295405779978
-0.0953611516089604 -0.116237491569825 0.500699732327504
-0.0929438014835051 -0.116237491569826 0.510229371841687
-0.0986589684670626 -0.116237491569825 0.517627979500457
-0.0960088379748081 -0.116237491569825 0.52566155453824
-0.0926175259551382 -0.116237491569825 0.545201239203003
-0.0967108715600991 -0.116237491569825 0.549690092803908
-0.098043266359316 -0.116237491569825 0.557687837963952
-0.0966420060991254 -0.116237491569825 0.571460475889084
-0.0984775926599325 -0.116237491569825 0.574693714443388
-0.093196103865593 -0.116237491569826 0.585111737516076
-0.092533153101944 -0.116237491569825 0.601000680562147
-0.0922108512226668 -0.116237491569825 0.612578851850172
-0.0984776984903289 -0.116237491569825 0.616200989799023
-0.100498694228291 -0.116237491569825 0.627795803773487
-0.094262084962813 -0.116237491569825 0.640598888815753
-0.0996929257139193 -0.116237491569826 0.644001594422743
-0.0944060495712006 -0.116237491569825 0.657369059378816
-0.0985236159564426 -0.116237491569825 0.664477312237574
-0.100385811041101 -0.116237491569825 0.675936353307777
-0.09147588503344 -0.116237491569826 0.686476945321842
-0.0930617306141952 -0.116237491569826 0.688794753145278
-0.0975247321645124 -0.116237491569825 0.704689462889034
-0.0963486400124145 -0.116237491569825 0.707262093613195
-0.0990124363630973 -0.116237491569826 0.726270754981746
-0.10043959595865 -0.116237491569825 0.732812375185295
-0.0961121445120213 -0.116237491569825 0.73932445494328
-0.0988070451909176 -0.116237491569825 0.748037171571824
-0.095680327135881 -0.116237491569825 0.760451294872625
-0.0962946342229896 -0.116237491569825 0.768222759185003
-0.0921466527875647 -0.116237491569825 0.771890719859705
-0.0987654088738232 -0.116237491569825 0.788943392571132
-0.0991325312480393 -0.116237491569825 0.794832035245358
-0.0961060577178913 -0.116237491569826 0.805414746884901
-0.0914000082414565 -0.116237491569825 0.820125620358399
-0.0989902534160881 -0.116237491569825 0.83065879240871
-0.0925935057144871 -0.116237491569825 0.830812029078519
-0.0981092998017666 -0.116237491569826 0.849998654175322
-0.0914173489756606 -0.116237491569825 0.852765604638719
-0.0978101457258344 -0.116237491569825 0.866945542205889
-0.0956313598022727 -0.116237491569825 0.875875275019512
-0.1006598974665 -0.116237491569825 0.881272322464817
-0.0990208850477224 -0.116237491569825 0.89424461842986
-0.0959399496379905 -0.116237491569825 0.907171153527195
-0.0935280510235592 -0.116237491569826 0.910469548053372
-0.0931128362359537 -0.116237491569825 0.925718822877863
-0.100555403058732 -0.116237491569825 0.940799752621208
-0.0972331611387365 -0.116237491569825 0.934969833774215
-0.095634444211156 -0.116237491569825 0.957373766283519
-0.091616143050508 -0.116237491569825 0.963884231212474
-0.0961548647823262 -0.116237491569825 0.972532558540726
-0.0996636367869299 -0.116237491569825 0.982073745058475
-0.095986715252897 -0.116237491569825 0.990020350243745
-0.0932189854060875 -0.116237491569825 0.995763598450826
-0.0920510973075583 -0.0943000475086345 0.996038510655936
-0.101940893104653 -0.0830971219022542 0.996035264101728
-0.0954735005192834 -0.0713878698126151 0.996031685245506
-0.100136739915674 -0.0519052615687217 0.996025900844656
-0.0993927520912541 -0.045340246935119 0.996023926118168
-0.10065323314094 -0.0256433486334833 0.996018039950835
-0.0965378329244368 -0.0117361648481859 0.996013828690855
-0.10417309609592 -0.00325731122217494 0.999185861590862
-0.09600323076696 0.0153993014050688 0.998697320995858
-0.103362275710017 0.0409954935415612 0.998027061116102
-0.100928171593459 0.0385248274359547 0.998091757784967
-0.103260926151225 0.0688261724197971 0.997298289141779
-0.102086494476711 0.085158223135552 0.996870619342672
-0.101561293250324 0.0965362925639918 0.996572674109011
-0.106430481150281 0.114653376460033 0.996098261571046
-0.0881896176651267 -0.116237491569825 0.107401600551425
-0.0848196469095776 -0.116237491569825 0.119128371608868
-0.0903149758752539 -0.116237491569825 0.125733455484095
-0.0825785247266679 -0.116237491569825 0.13304093797263
-0.087245706298629 -0.116237491569825 0.150195952723067
-0.0884873832480807 -0.116237491569825 0.150398085852926
-0.0848031538934554 -0.116237491569825 0.1643913272003
-0.0831366268519718 -0.116237491569825 0.171768271361139
-0.0847633496205104 -0.116237491569825 0.18427901804988
-0.0904049089857717 -0.116237491569826 0.200389462280199
-0.0851913664537117 -0.116237491569825 0.201770699108307
-0.0866514165564819 -0.116237491569825 0.211538490197004
-0.0866834354617111 -0.116237491569825 0.221272058489605
-0.0826215456547925 -0.116237491569825 0.228650091378145
-0.0831769795047887 -0.116237491569825 0.241705752645149
-0.0839803249220621 -0.116237491569825 0.256414746055927
-0.0883330721733881 -0.116237491569825 0.262925775952903
-0.0902122917747099 -0.116237491569826 0.267037390556544
-0.0875417197933155 -0.116237491569825 0.279794297831301
-0.091191208520255 -0.116237491569825 0.28486502480139
-0.0839201532586413 -0.116237491569825 0.299496072422186
-0.0888349540585977 -0.116237491569825 0.310708573002073
-0.0823215941432144 -0.116237491569825 0.326446134015185
-0.0822117173145173 -0.116237491569825 0.336995243055464
-0.087758729269853 -0.116237491569825 0.333472594636059
-0.0839828944889381 -0.116237491569825 0.343034636060533
-0.0910738185302734 -0.116237491569825 0.354586485655758
-0.0882913886059972 -0.116237491569825 0.365872602331382
-0.0830459252191992 -0.116237491569825 0.371036910892051
-0.0892777793675697 -0.116237491569825 0.389900336620316
-0.0815968333168137 -0.116237491569825 0.401355648668469
-0.0877123842263158 -0.116237491569825 0.404516720715808
-0.0820735279802475 -0.116237491569825 0.41959089963963
-0.0844378033717549 -0.116237491569825 0.422040232054543
-0.0842927986805813 -0.116237491569825 0.434919714289377
-0.0839654362732425 -0.116237491569825 0.442342343002279
-0.0852853219716734 -0.116237491569826 0.453840432952269
-0.0853322222684652 -0.116237491569825 0.46183447118788
-0.0853753059785215 -0.116237491569825 0.468539371183107
-0.0908837412118639 -0.116237491569825 0.483643000931309
-0.0860730627969 -0.116237491569825 0.492224971164336
-0.0868382341280588 -0.116237491569825 0.498523218510562
-0.0851495383535592 -0.116237491569825 0.515145421159558
-0.0875650614009367 -0.116237491569826 0.514180459093392
-0.0823018062007161 -0.116237491569825 0.527337195777716
-0.0860193840642232 -0.116237491569825 0.54466444355787
-0.0831240194936632 -0.116237491569825 0.543420000260367
-0.0822893150929072 -0.116237491569825 0.55695438667702
-0.0846962977768514 -0.116237491569825 0.573207446888395
-0.0870419570731788 -0.116237491569825 0.577212257541647
-0.0854684500082358 -0.116237491569825 0.587461272257081
-0.0892507935037985 -0.116237491569826 0.595844821116201
-0.0909474195062122 -0.116237491569825 0.602706525756389
-0.0871142373483203 -0.116237491569825 0.61555194378595
-0.0815958408207565 -0.116237491569825 0.632004856919963
-0.0849693495965983 -0.116237491569825 0.635854698487535
-0.083993736608433 -0.116237491569825 0.648283310393397
-0.0861583021843506 -0.116237491569825 0.65423016534556
-0.0837178614787279 -0.116237491569825 0.661600185062836
-0.0858730151922048 -0.116237491569825 0.67421676291777
-0.0816488725521076 -0.116237491569825 0.684504376030498
-0.0912382337086967 -0.116237491569825 0.695695536524679
-0.0857824288129654 -0.116237491569825 0.707069698663996
-0.0850990045795702 -0.116237491569826 0.716205628247677
-0.0868641802093825 -0.116237491569825 0.721981497331637
-0.0907804783424174 -0.116237491569825 0.732494151407454
-0.0880792377358309 -0.116237491569825 0.744314393510441
-0.0830501130482634 -0.116237491569825 0.749383917929795
-0.0863536822951337 -0.116237491569825 0.761802614954812
-0.0859312809418533 -0.116237491569825 0.774387989486106
-0.0853636989189122 -0.116237491569825 0.779773061608899
-0.086061681182257 -0.116237491569825 0.787553130599818
-0.0837888762362911 -0.116237491569826 0.801441656281835
-0.082486961467526 -0.116237491569825 0.808155302144426
-0.0906007560180662 -0.116237491569825 0.817639904118104
-0.0875834146836821 -0.116237491569825 0.82473258414756
-0.0901190052148153 -0.116237491569825 0.839290236854819
-0.0825013275564682 -0.116237491569825 0.842055945538576
-0.0909945599153408 -0.116237491569825 0.855800501306484
-0.0828151067018868 -0.116237491569825 0.864241819532744
-0.088278540235419 -0.116237491569825 0.871707906251758
-0.0851742638505451 -0.116237491569825 0.886009064621803
-0.0905530907899967 -0.116237491569825 0.897483766897913
-0.0910361800968754 -0.116237491569825 0.908470201962215
-0.0816720810137878 -0.116237491569825 0.91089047082929
-0.0866446392443884 -0.116237491569825 0.922802673222954
-0.0890218210009795 -0.116237491569825 0.933042994847878
-0.0843638588907288 -0.116237491569826 0.943069200327803
-0.0825592775206119 -0.116237491569825 0.947776934146416
-0.0885590240361018 -0.116237491569825 0.957513819576479
-0.0868770685032127 -0.116237491569825 0.964423002490289
-0.0816146225696118 -0.116237491569826 0.983356093076868
-0.0903883300872292 -0.116237491569825 0.994146035154506
-0.0910014843396019 -0.113193759526756 0.996044158562314
-0.0849589541321368 -0.0928979345601407 0.996038012341825
-0.0861779811811422 -0.0864631153267483 0.996036098292462
-0.0922990186496493 -0.0663510163227236 0.996030141430143
-0.0852611094172217 -0.0471181318015153 0.996024302614926
-0.0906277422553382 -0.0330799837202521 0.996020156836944
-0.0878221450452718 -0.0214249729435465 0.996016634666156
-0.0939574319859841 -0.00707097517178667 0.998756752179663
-0.0926061621443906 0.0131140159404557 0.998757163301797
-0.0881421292891873 0.0242184355699212 0.998466383840309
-0.092834688668925 0.0302112931642288 0.998309455341369
-0.0932534426509943 0.0572563274181696 0.997601256195559
-0.0967773243951263 0.0733523216181721 0.99717976775386
-0.0950394833041571 0.0795933078029669 0.997016341779111
-0.0926183500056557 0.0989511049287706 0.996509440021822
-0.0808382899659407 -0.116237491569825 0.11282542557633
-0.0728274361512741 -0.116237491569825 0.119874901983616
-0.0749733055688633 -0.116237491569825 0.123681337983638
-0.0721143208822551 -0.116237491569825 0.130194133737709
-0.078778601094447 -0.116237491569825 0.142260696013132
-0.0729038067410335 -0.116237491569825 0.158561170492864
-0.0720751188270853 -0.116237491569826 0.169184898314702
-0.0722286649122649 -0.116237491569825 0.178106759208257
-0.079211945582193 -0.116237491569825 0.175953064119442
-0.0757811038155813 -0.116237491569825 0.201663922268141
-0.0753735830198253 -0.116237491569825 0.201703360659
-0.0816688180412709 -0.116237491569825 0.218416007707965
-0.0768567430787112 -0.116237491569825 0.218073221885071
-0.072706385166612 -0.116237491569825 0.235479339387371
-0.0782494164142489 -0.116237491569825 0.242942184006725
-0.0795751339675676 -0.116237491569826 0.250788196520511
-0.0787162287899546 -0.116237491569826 0.254807477133145
-0.0748233960499575 -0.116237491569825 0.268272664771136
-0.0730629512949658 -0.116237491569825 0.280345109160231
-0.0766314968842553 -0.116237491569825 0.289244315692613
-0.0790500619022754 -0.116237491569825 0.303699778966272
-0.0794547232652751 -0.116237491569825 0.312158867576922
-0.0723137844057017 -0.116237491569825 0.318827903827474
-0.0766183092962488 -0.116237491569825 0.322407543917716
-0.0787464867324165 -0.116237491569825 0.340431048755934
-0.0778543674589642 -0.116237491569825 0.349301297178318
-0.0753483160298826 -0.116237491569825 0.358331460082018
-0.0798871262018727 -0.116237491569825 0.365546739721708
-0.07620749690544 -0.116237491569825 0.378134817430851
-0.0766924568126828 -0.116237491569825 0.388488480391959
-0.0745196434909817 -0.116237491569825 0.393312646789277
-0.0818714517973637 -0.116237491569825 0.401218165392211
-0.0751038966193989 -0.116237491569825 0.413155034803411
