ply
format ascii 1.0
element vertex 1050
property float x
property float y
property float z
end_header
-0.0977668346194358 -0.125 0.225815995673472
-0.0975097263568756 -0.125 0.234331691936819
-0.0989264362006824 -0.125 0.245393016301668
-0.0999960411776538 -0.125 0.241966730964037
-0.0952573175353207 -0.125 0.256339476340791
-0.0938755896614747 -0.125 0.26775446112396
-0.0980548208094859 -0.125 0.276953443156153
-0.0995516847467697 -0.125 0.285868334746625
-0.0990864165684945 -0.125 0.301857734794014
-0.0991936737392951 -0.125 0.310797360161952
-0.0928031292729906 -0.125 0.314718944683806
-0.0947650467730034 -0.125 0.32872532882616
-0.0919017127671509 -0.125 0.334196051198145
-0.0952116068380769 -0.125 0.346379724996349
-0.0969745340174929 -0.125 0.356685106557723
-0.0995595266628341 -0.125 0.363678888282836
-0.0963511000125227 -0.125 0.374647245719602
-0.0918680628680695 -0.125 0.388067797735678
-0.0920722075803108 -0.125 0.394747799494128
-0.0918897693872435 -0.125 0.401026174811197
-0.0974821243234645 -0.125 0.413722898263604
-0.094403999794329 -0.125 0.419984977409169
-0.0973460177607937 -0.125 0.426801634326618
-0.0932817219521209 -0.125 0.440051512911791
-0.0993171889252029 -0.125 0.45276806300738
-0.0986778467896309 -0.125 0.454860304829345
-0.0947243550260883 -0.125 0.474474206830999
-0.0911495616343931 -0.125 0.483784935184332
-0.0971025032940817 -0.125 0.492805520877327
-0.0979850113260001 -0.125 0.503037557688792
-0.0916078908699763 -0.125 0.511875744479959
-0.100505078719412 -0.125 0.520934397992061
-0.0983589268484482 -0.125 0.527135116740716
-0.0913578170074543 -0.125 0.53911605298644
-0.0964408102890205 -0.125 0.547007430270953
-0.0925899235006294 -0.125 0.554043539386122
-0.0923459869507663 -0.125 0.566322431014139
-0.0955128159437782 -0.125 0.578215118404437
-0.0976570634132881 -0.125 0.586697837961625
-0.091584860491901 -0.125 0.592545922176627
-0.0921904206873223 -0.125 0.604334724304333
-0.0922732241240665 -0.125 0.618731963284194
-0.0947786467004561 -0.125 0.617040200736863
-0.100558174631061 -0.125 0.633791262050505
-0.0939780756351776 -0.125 0.647128932825989
-0.0965920914107423 -0.125 0.655499462649039
-0.0921469634714067 -0.125 0.665068366981921
-0.0960120428374474 -0.125 0.674121308188939
-0.0961412721146293 -0.125 0.685702202026342
-0.0962232348575368 -0.125 0.69193448808391
-0.0978112123419786 -0.125 0.699917101883311
-0.0974059746044624 -0.125 0.712603372314402
-0.0925622673847003 -0.125 0.718031005458498
-0.0985781811390939 -0.125 0.722095305674817
-0.0983974460718842 -0.125 0.734868933852637
-0.0977866451263488 -0.125 0.744044645160808
-0.0923847573998065 -0.125 0.761171568461063
-0.0922417181455004 -0.125 0.76654311309104
-0.0927438880160454 -0.125 0.778006457870946
-0.0986840534059743 -0.125 0.789019611515543
-0.0920774566176423 -0.125 0.800120351999568
-0.0932483994762202 -0.125 0.804948876363436
-0.091575158756715 -0.125 0.818202697616194
-0.0981896042591792 -0.125 0.822912898603299
-0.0989563643118698 -0.125 0.835725454050646
-0.0948247252917546 -0.125 0.843210074002642
-0.0946941744623394 -0.125 0.850667594337339
-0.0928697459733905 -0.125 0.867697704778279
-0.0957385781450542 -0.125 0.877887201881842
-0.0923638271418805 -0.125 0.884069660003891
-0.0999988584095603 -0.125 0.894414916647324
-0.0950320686958731 -0.125 0.899324265073212
-0.0941369950889716 -0.125 0.914923640069176
-0.100745503211297 -0.125 0.921948521311841
-0.0929937890636001 -0.125 0.932236616036703
-0.0936780448473998 -0.125 0.938465834591662
-0.0971165293939716 -0.125 0.946610443489415
-0.0958171654729958 -0.125 0.956522029886905
-0.0971680932291719 -0.125 0.970261900314549
-0.0966328944767462 -0.125 0.984801000232832
-0.0927094979857281 -0.125 0.988967680931223
-0.0946488447248534 -0.125 0.995468349848104
-0.101174635759145 -0.113569336726922 1.0
-0.0943466486111315 -0.111121163508852 1.0
-0.0935921613607539 -0.087082874330139 1.0
-0.0931680577682221 -0.0711881722876342 1.0
-0.0988481799052447 -0.0575939163063776 1.0
-0.0961459776820643 -0.0350950435661885 1.0
-0.0946345290494895 -0.03213379328034 1.0
-0.096751001040328 -0.0155585938507889 1.0
-0.0982657379745262 0.00116341960708025 1.0
-0.101486931042241 0.0157552610002681 1.0
-0.104009792092406 0.0314143329762971 1.0
-0.0975228625024884 0.0495808157046023 1.0
-0.0995319577915526 0.0681228228764379 1.0
-0.10723571205842 0.0839879826636248 1.0
-0.107277964179046 0.0942827518601184 1.0
-0.101556297549001 0.102697414117542 1.0
-0.108243074203434 0.124113735450557 1.0
-0.0813937722265265 -0.125 0.113011919518783
-0.0866872422196776 -0.125 0.120283668481503
-0.0899705030883001 -0.125 0.134041521826799
-0.0908828892258031 -0.125 0.138520328863204
-0.089005837490917 -0.125 0.156915746649194
-0.0825375382369223 -0.125 0.167177744224208
-0.0867663141092586 -0.125 0.168637998945383
-0.082230493920239 -0.125 0.183507018605752
-0.0895997979456248 -0.125 0.196999998128065
-0.0878465418242234 -0.125 0.192750788665929
-0.0860843835960498 -0.125 0.212251848281398
-0.0906054539112131 -0.125 0.221323926228402
-0.0903752942158069 -0.125 0.228559390041743
-0.088085787649741 -0.125 0.240226496256959
-0.082786195514671 -0.125 0.245767588455602
-0.0905771188419882 -0.125 0.258993124440385
-0.0837250465520791 -0.125 0.270693426105598
-0.0850891841797192 -0.125 0.274035681337658
-0.0876380339456057 -0.125 0.291006813999857
-0.0901877087945596 -0.125 0.292154836118051
-0.0876819330430735 -0.125 0.301165092882543
-0.0905351305556385 -0.125 0.312045283979043
-0.0829747367443096 -0.125 0.32453638840971
-0.0855167666163832 -0.125 0.33407836126701
-0.0879589262715186 -0.125 0.349880631902359
-0.0909801166567834 -0.125 0.359718881502527
-0.08661781292519 -0.125 0.365830138924303
-0.0908317214790804 -0.125 0.375173033523838
-0.0887697960346225 -0.125 0.382416803373567
-0.0876789013682661 -0.125 0.389831039223091
-0.0876336449665877 -0.125 0.407540670499297
-0.083251004037778 -0.125 0.40609702010949
-0.0832793942043631 -0.125 0.424708082721479
-0.0904431963415802 -0.125 0.432511852078008
-0.0818074197695177 -0.125 0.441192224718197
-0.0817462970376573 -0.125 0.445244226014129
-0.0879828999644262 -0.125 0.4542832321983
-0.0820122527035766 -0.125 0.476089626704124
-0.0900660292004353 -0.125 0.484183390445491
-0.082204338621018 -0.125 0.489669649771432
-0.0862410277665133 -0.125 0.499246408502215
-0.0876976968094209 -0.125 0.505577300352683
-0.0869525434762364 -0.125 0.513044610075016
-0.0863628423023161 -0.125 0.524933356029067
-0.0823126829296914 -0.125 0.531121194621119
-0.0872938015284111 -0.125 0.545625085495274
-0.087349004648454 -0.125 0.55338456514411
-0.0874429434707044 -0.125 0.566857719815187
-0.0830581527166143 -0.125 0.577568773900746
-0.0882632639194255 -0.125 0.583411321817271
-0.0831365151913669 -0.125 0.59229991659308
-0.0864322572798711 -0.125 0.609816026060788
-0.088144707059197 -0.125 0.621160629622742
-0.0883223092327212 -0.125 0.623836384707544
-0.0878039867932419 -0.125 0.631109558070099
-0.0866385560118385 -0.125 0.643414122330062
-0.0815526618709027 -0.125 0.657272700970701
-0.08212165793674 -0.125 0.663938663814029
-0.0909471310886087 -0.125 0.675820197370407
-0.0896600544763763 -0.125 0.681947053057226
-0.0880164105946553 -0.125 0.689088228318426
-0.0839369382101933 -0.125 0.692028067003371
-0.0888907507797275 -0.125 0.710110766767231
-0.0836334221636223 -0.125 0.723221952686876
-0.0856080128876726 -0.125 0.735406121525166
-0.0829883637299784 -0.125 0.734784932927429
-0.0827672101699456 -0.125 0.752045629807028
-0.0866395057364616 -0.125 0.757457135452345
-0.0875884389178288 -0.125 0.768436948817069
-0.0896373064483109 -0.125 0.772627198584938
-0.082607687555204 -0.125 0.782814977830598
-0.0890862811923428 -0.125 0.793863027841014
-0.0861582758509616 -0.125 0.808296135171332
-0.0850011005005403 -0.125 0.815897245828462
-0.0897658022769725 -0.125 0.830144976166352
-0.0851646241647001 -0.125 0.832023429817556
-0.0870107639826032 -0.125 0.846608049439391
-0.0885196026497742 -0.125 0.851898236971823
-0.0828463980972397 -0.125 0.859398883378071
-0.0862416618891733 -0.125 0.867216092418132
-0.0814392708008844 -0.125 0.877452908149239
-0.0823965912735756 -0.125 0.892472882367317
-0.0887086876333717 -0.125 0.903837258184652
-0.0864965920995495 -0.125 0.911411710732304
-0.0883640655635142 -0.125 0.918780494400214
-0.0898750690644792 -0.125 0.929678752579871
-0.0846274641396071 -0.125 0.942471070010678
-0.087485955343249 -0.125 0.945035514023226
-0.0891417538949493 -0.125 0.95844836925011
-0.0826061864460572 -0.125 0.969973544066769
-0.090831805851354 -0.125 0.980605588495434
-0.0875249912828548 -0.125 0.984419893123208
-0.0887407824211736 -0.125 0.998003371378452
-0.0846808699204502 -0.123907014796843 1.0
-0.0906222766781594 -0.102434975474891 1.0
-0.0873379742223023 -0.0908212858485258 1.0
-0.084715763268581 -0.0716797268248448 1.0
-0.0852415247006386 -0.0556752729060541 1.0
-0.0845785225558806 -0.0495253413427545 1.0
-0.0873337358565215 -0.0288542136123482 1.0
-0.0886805056441753 -0.0173808811941036 1.0
-0.0922853124425527 -0.00776909947410728 1.0
-0.0936168759739088 0.0135927274511785 1.0
-0.093280539491563 0.0351870066899212 1.0
-0.0957512961972823 0.0541545282529112 1.0
-0.0955886347878365 0.057146072451721 1.0
-0.0963784021138524 0.0762237603278609 1.0
-0.0901985922638631 0.0970075934913464 1.0
-0.0940294084023854 0.101409916789195 1.0
-0.0958216311651279 0.123550189010219 1.0
-0.078767238999666 -0.125 0.116994112418187
-0.0727949594567378 -0.125 0.122918674250746
-0.0755674760656527 -0.125 0.133581697181942
-0.0746132103094514 -0.125 0.137019243452591
-0.0738614337051506 -0.125 0.15595800600934
-0.075040232781824 -0.125 0.163137292865065
-0.0759074479018659 -0.125 0.178669863151637
-0.079481880791811 -0.125 0.1840980965741
-0.0806436749601623 -0.125 0.191397431001564
-0.0748722530745362 -0.125 0.197972955623163
-0.0728634370464106 -0.125 0.210645215263548
-0.0796122850444494 -0.125 0.223763462868522
-0.079876215031639 -0.125 0.230259168418068
-0.0766681205184845 -0.125 0.242773910334839
-0.0766767455792712 -0.125 0.253589564892267
-0.0796980271673045 -0.125 0.257403635075152
-0.079565700136204 -0.125 0.271881580633431
-0.0753089756916908 -0.125 0.271354249864731
-0.0805357405202391 -0.125 0.287498566552778
-0.0778693401207561 -0.125 0.300898679637381
-0.0733531990240968 -0.125 0.30664441817794
-0.0726817636774979 -0.125 0.317894170520533
-0.0730881332684898 -0.125 0.327428649503915
-0.0729330655283155 -0.125 0.334562061396932
-0.0797013833133675 -0.125 0.345351329181031
-0.0722719899664269 -0.125 0.359461164428899
-0.0805611022819703 -0.125 0.35758224736495
-0.0736670161891648 -0.125 0.371121477382609
-0.0744136916565298 -0.125 0.37762757235684
-0.0802017282094512 -0.125 0.39330385879766
-0.0802253869864207 -0.125 0.403112653287119
-0.0783576714921458 -0.125 0.413242073661553
-0.0802822024414401 -0.125 0.418940111928128
-0.0751666513593491 -0.125 0.431248864867581
-0.0766810792539028 -0.125 0.442213478864983
-0.0771539153358206 -0.125 0.454476511851414
-0.0743336344175973 -0.125 0.459847538744027
-0.0815790200277267 -0.125 0.464693910127697
-0.0720703815766365 -0.125 0.471533962217313
-0.0808335243652042 -0.125 0.490610273049128
-0.076730785706877 -0.125 0.503260414296179
-0.07769252647394 -0.125 0.511172841998738
-0.0793627654150221 -0.125 0.513556433688721
-0.0804185909839376 -0.125 0.520122979356743
-0.0767338839927834 -0.125 0.54460174034342
-0.0736304557323667 -0.125 0.54666472224726
-0.0812341582745634 -0.125 0.557819112830844
-0.0752269137258488 -0.125 0.566609106872047
-0.0780676294143109 -0.125 0.578623079601613
-0.0774885787605872 -0.125 0.591460906990793
-0.0746437601759899 -0.125 0.594486047274388
-0.0797173652506674 -0.125 0.600185627148402
-0.075661375656085 -0.125 0.617178993007974
-0.0770923652364838 -0.125 0.620950102584826
-0.0735397468408437 -0.125 0.627241197046094
-0.0739740634256489 -0.125 0.648415752880689
-0.0730001511564675 -0.125 0.653244937022812
-0.0719382506899501 -0.125 0.660547599304219
-0.0798201695630388 -0.125 0.672150666618829
-0.0761669455590235 -0.125 0.679338577979699
-0.0800280064580771 -0.125 0.695256749854533
-0.072511720988326 -0.125 0.701580699970898
-0.0767904180859368 -0.125 0.715287365369707
-0.0782856113522021 -0.125 0.718147929005534
-0.0765871886372347 -0.125 0.727738920093096
-0.0796250746607184 -0.125 0.731930774809045
-0.0791275165507156 -0.125 0.754346808277161
-0.0741262204372512 -0.125 0.75706495818084
-0.0747081068086636 -0.125 0.760887642478997
-0.0797542444475988 -0.125 0.778611634018061
-0.0724459211198764 -0.125 0.791502872461705
-0.0763048458825533 -0.125 0.790768875832366
-0.080649644130464 -0.125 0.804314174447391
-0.0774652155513753 -0.125 0.815014537731448
-0.0767716296839737 -0.125 0.826737254620431
-0.0809879903809209 -0.125 0.836736926209915
-0.0812188151100167 -0.125 0.846399915657408
-0.0810811649429216 -0.125 0.850805982722567
-0.0720734552954556 -0.125 0.864455522744792
-0.0742967568195915 -0.125 0.872774659799664
-0.0770739134036819 -0.125 0.881697448956159
-0.076279370718752 -0.125 0.893003708781264
-0.0762204808602915 -0.125 0.90113864813446
-0.0721291938242706 -0.125 0.906514235975314
-0.0782555048595956 -0.125 0.922543646214742
-0.0728398985786176 -0.125 0.92534769142604
-0.0808593270581852 -0.125 0.940827401762254
-0.0806768109715437 -0.125 0.954261365950938
-0.0760110333749437 -0.125 0.953281540518095
-0.0730102338500355 -0.125 0.965721461874744
-0.079901485019309 -0.125 0.974338958582613
-0.0776703535426633 -0.125 0.986923764217575
-0.0723666913943572 -0.125 0.994621320683337
-0.0795360596518832 -0.117278459954151 1.0
-0.0793033689546306 -0.0959770720731505 1.0
-0.0757516629582589 -0.0850417662516829 1.0
-0.0769500270918255 -0.0642865035308215 1.0
-0.0778853453926204 -0.066081733308327 1.0
-0.0806055322725168 -0.0423798493738707 1.0
-0.0828524876273183 -0.0372282267439008 1.0
-0.0761118709164023 -0.0215294274067346 1.0
-0.0768200738801957 0.00700877110183254 1.0
-0.0778449052435878 0.0212228232596696 1.0
-0.0756093754786383 0.0296171606478404 1.0
-0.0789984106906926 0.0474297971896949 1.0
-0.0865705780453487 0.066553829974497 1.0
-0.0771462296670794 0.0697885246944235 1.0
-0.0809741099785461 0.0929548947147709 1.0
-0.0864354458022913 0.116014943995681 1.0
-0.0881849796778678 0.120461215515228 1.0
-0.0650845528602967 -0.125 0.114718579224677
-0.0641391091337103 -0.125 0.127823291278752
-0.0662595590076988 -0.125 0.137385626699926
-0.0689585173559925 -0.125 0.14936363803683
-0.0697068868671131 -0.125 0.155520295586014
-0.06748123848852 -0.125 0.157936105082156
-0.0664849992707237 -0.125 0.171100342390044
-0.0644689728328569 -0.125 0.187225141112593
-0.0672293667090274 -0.125 0.190376498715445
-0.0690860626650833 -0.125 0.201538269540181
-0.0690383048158219 -0.125 0.213199477320218
-0.0648896895485159 -0.125 0.220096677041824
-0.0638700173144739 -0.125 0.231381536133311
-0.0703923070913536 -0.125 0.234934037376552
-0.0671773112875467 -0.125 0.24494741255014
-0.0684269441088248 -0.125 0.252201785497782
-0.0623087251617191 -0.125 0.262445579761765
-0.0630341000068438 -0.125 0.277835519584258
-0.0683918199694868 -0.125 0.283214278900314
-0.0701873750974416 -0.125 0.295530160691709
-0.0675362146256822 -0.125 0.311588136452346
-0.0652891610752793 -0.125 0.315730928803045
-0.0696890392699961 -0.125 0.32619388236166
-0.0640362167394451 -0.125 0.334543008003811
-0.0642048671739062 -0.125 0.341785856374052
-0.0687271717621719 -0.125 0.354235532880161
-0.0631585678745031 -0.125 0.368846568572462
-0.066397314454184 -0.125 0.368495014781187
-0.0681136891744317 -0.125 0.382175143239245
-0.0677189758642398 -0.125 0.394901860326164
-0.0632696895993436 -0.125 0.402043817938952
-0.069909011813962 -0.125 0.405732301875401
-0.0639210967280655 -0.125 0.422106684523475
-0.0671912527395432 -0.125 0.431300717840633
-0.0697878475676491 -0.125 0.438298404812571
-0.0659716648660291 -0.125 0.44814342140129
-0.0633892771023939 -0.125 0.460372325216389
-0.0709511999375657 -0.125 0.471654970854859
-0.0704949781481179 -0.125 0.473430826446364
-0.0676355646599754 -0.125 0.485569860164754
-0.0717808911427206 -0.125 0.498642046274591
-0.063732612304749 -0.125 0.506977269908456
-0.0695905277744496 -0.125 0.523006144386461
-0.0645199372902276 -0.125 0.523268887148554
-0.0705992191117697 -0.125 0.541174477762989
-0.0713026193561719 -0.125 0.551283790057771
-0.0684871964062634 -0.125 0.549921889570094
-0.0687486000175115 -0.125 0.562740315107148
-0.0652854483182804 -0.125 0.582535771738894
-0.0624460451257395 -0.125 0.587426542051579
-0.0709034285369458 -0.125 0.596991171003658
-0.0675651261184303 -0.125 0.609154543638859
-0.0687223000778021 -0.125 0.61145212096479
-0.0637215905896064 -0.125 0.619446290880787
-0.0691423788871819 -0.125 0.630713963598637
-0.0714369315952977 -0.125 0.642911607779644
-0.0648019880754444 -0.125 0.652175335995773
-0.06709168652126 -0.125 0.664220943624489
-0.0690251105095238 -0.125 0.670449058586854
-0.0690646347589097 -0.125 0.680590459664253
-0.0678041634510774 -0.125 0.694068801840104
-0.0698404977667917 -0.125 0.695903745296602
-0.0638797183590769 -0.125 0.707406177169994
-0.0692891569745315 -0.125 0.717995234819582
-0.0687093572862224 -0.125 0.729810015019946
-0.0639376777539689 -0.125 0.741489234206554
-0.0623472461186023 -0.125 0.742370344800022
-0.0648670428249284 -0.125 0.753565326358157
-0.069102007472428 -0.125 0.765085996829441
-0.0672673031651704 -0.125 0.776631620460736
-0.070834244954961 -0.125 0.786861359845859
-0.0696307111663425 -0.125 0.794559508019058
-0.0629161142364658 -0.125 0.804156057505253
-0.0627046224165891 -0.125 0.820312246384163
-0.0628457431406169 -0.125 0.824748960623912
-0.0663083121952505 -0.125 0.832736064411587
-0.0657950648803852 -0.125 0.844626464163281
-0.0639395515346685 -0.125 0.848180465456915
-0.0636106491844606 -0.125 0.870031364247718
-0.0651264509963277 -0.125 0.87502688920626
-0.0659842036643402 -0.125 0.880461051656383
-0.0663949822409425 -0.125 0.898322543113987
-0.0687619577838269 -0.125 0.898292454529691
-0.0691044132632032 -0.125 0.906649861787321
-0.0659973795917975 -0.125 0.917654336785495
-0.0659337031796299 -0.125 0.931140152872895
-0.0662963845211033 -0.125 0.940777721521333
-0.0667949392292544 -0.125 0.949865345873993
-0.0641463259213726 -0.125 0.960695832896015
-0.0691122298758274 -0.125 0.971487215180742
-0.0692525302722836 -0.125 0.98195142645548
-0.0645748747202184 -0.125 0.982072502552526
-0.0710922459690946 -0.125 0.99540102386587
-0.0672313521545025 -0.114061361016677 1.0
-0.0724103793741414 -0.0931220840266302 1.0
-0.0683540498581195 -0.083415781242325 1.0
-0.0668091029628102 -0.076163733485985 1.0
-0.0684521975715583 -0.0625342199246734 1.0
-0.0711195907634195 -0.0434281564348344 1.0
-0.0645602110857251 -0.0363283747927787 1.0
-0.0656070831515594 -0.0272422581073965 1.0
-0.0722887544558982 -0.00636552058918702 1.0
-0.0749531300489594 0.0174737880857152 1.0
-0.072714660686893 0.0401882013616626 1.0
-0.0662830789827757 0.0346768373989908 1.0
-0.0685276082958708 0.0537241703313445 1.0
-0.0711845776593696 0.0681191759823499 1.0
-0.074302987737978 0.0965724569968667 1.0
-0.0730522281188677 0.115126127907692 1.0
-0.0572909273696697 -0.125 0.115938445191063
-0.0554661355779133 -0.125 0.121241192377007
-0.0593163681709431 -0.125 0.133734353977627
-0.0568794888983265 -0.125 0.151488778044304
-0.0622030328837734 -0.125 0.147031211759591
-0.0582819363383371 -0.125 0.162252144135423
-0.0531640740248351 -0.125 0.179674317306217
-0.054851982194803 -0.125 0.180108408676884
-0.0616700392606608 -0.125 0.192740466224043
-0.0578479712324074 -0.125 0.205754638962501
-0.0610658890200017 -0.125 0.21432368324002
-0.06067616353906 -0.125 0.227695225399153
-0.0537622861321484 -0.125 0.229027782999782
-0.0580862539766439 -0.125 0.236909055044869
-0.0564193740625308 -0.125 0.250114354368034
-0.061065231228283 -0.125 0.257284628066136
-0.0544808134011244 -0.125 0.26915805479948
-0.0559968921827073 -0.125 0.270747146249038
-0.0526623398573755 -0.125 0.288436878629965
-0.0570448485006431 -0.125 0.296897282282698
-0.0546109078685459 -0.125 0.307769712222802
-0.0619040006662689 -0.125 0.313560847346303
-0.0614865093714504 -0.125 0.333125960608467
-0.0540961509200179 -0.125 0.342602414395936
-0.0547963809244001 -0.125 0.340123037860692
-0.0560839021257002 -0.125 0.355580867448837
-0.0615358689835591 -0.125 0.364912857687151
-0.0599388691412223 -0.125 0.376805098324937
-0.0537749088801779 -0.125 0.391989195459641
-0.0565838627045348 -0.125 0.390179826724424
-0.0607936656665617 -0.125 0.401657752640682
-0.053884308211124 -0.125 0.409467121140558
-0.0599675699406064 -0.125 0.420212525311116
-0.054412203518965 -0.125 0.429942488152558
-0.0555701771272467 -0.125 0.446381246519866
-0.0597243381493747 -0.125 0.448805694353364
-0.0536084594659941 -0.125 0.452335053016189
-0.0550361162444292 -0.125 0.465829627962036
-0.0581381669779844 -0.125 0.484238736966395
-0.0529754447878965 -0.125 0.487368605199729
-0.0602307520178749 -0.125 0.49115412068165
-0.0570822763274876 -0.125 0.514111416379877
-0.0547281511402318 -0.125 0.519949923061394
-0.0594516906807967 -0.125 0.52996396078969
-0.0564161178101672 -0.125 0.532387716189163
-0.0529320893866153 -0.125 0.543434116870785
-0.0527965931882204 -0.125 0.560304552032561
-0.054477380978642 -0.125 0.562653953146929
-0.0567295477166135 -0.125 0.576153226880047
-0.0592751511458235 -0.125 0.585882214051033
-0.0607150643792641 -0.125 0.597532746275431
-0.0527613521926688 -0.125 0.606453084223431
-0.0581974405045096 -0.125 0.608574762333983
-0.0564032295269239 -0.125 0.620093812739739
-0.054824222799556 -0.125 0.636306527903282
-0.056719577322482 -0.125 0.634930282167737
-0.0534272724675625 -0.125 0.656167293379077
-0.0561769482654331 -0.125 0.659592128303238
-0.0612553503923374 -0.125 0.673790986063728
-0.0602940098640513 -0.125 0.677151841205723
-0.059166174789642 -0.125 0.691451998917464
-0.0574647873731426 -0.125 0.706556163121139
-0.0554585791257045 -0.125 0.711556573258759
-0.0552145880603895 -0.125 0.716873857435952
-0.0581679909962488 -0.125 0.722686884643433
-0.0567837714415836 -0.125 0.735392625654199
-0.0561420525307522 -0.125 0.75273032951599
-0.0589362185086109 -0.125 0.753942802938183
-0.0587087894036453 -0.125 0.764830037201328
-0.0552733682396417 -0.125 0.771241343516119
-0.0596789595107034 -0.125 0.780366103247254
-0.0592288590425006 -0.125 0.787821019448206
-0.0570798107974179 -0.125 0.803118769553041
-0.0529380671299638 -0.125 0.816099467815342
-0.0620061255213334 -0.125 0.826257438108248
-0.0601936622186014 -0.125 0.84142263765583
-0.0584512286760769 -0.125 0.843418062854498
-0.0582031147360223 -0.125 0.851069062680476
-0.0549659035357407 -0.125 0.861786675480246
-0.0618389577559365 -0.125 0.875213809160703
-0.0615220839291357 -0.125 0.881076690935251
-0.0619959778672546 -0.125 0.888894463067017
-0.0601762849196994 -0.125 0.904387325762733
-0.0548506991736591 -0.125 0.912384124594658
-0.0588189434965988 -0.125 0.917733135037923
-0.059168031155804 -0.125 0.931466596016261
-0.053910682695047 -0.125 0.936493928894671
-0.0553887205721138 -0.125 0.947353499829102
-0.0593862527512004 -0.125 0.960965996336404
-0.0527421693115818 -0.125 0.966534753795253
-0.059093741930463 -0.125 0.976552367957875
-0.0603305674105621 -0.125 0.991487129543362
-0.0581150698488179 -0.124259912729653 1.0
-0.0580920031225118 -0.114275261624724 1.0
-0.0582379262149416 -0.0962962993348082 1.0
-0.0605705080040191 -0.0870762736704988 1.0
-0.0588016117734288 -0.0796342991851584 1.0
-0.0624159263363551 -0.0515102039498196 1.0
-0.0567490874150806 -0.0428451802537459 1.0
-0.06229345475402 -0.0223820687288478 1.0
-0.0627564379218604 -0.0225656716118796 1.0
-0.0623975580405166 -0.000977911221033495 1.0
-0.0603172961480127 0.011581834558259 1.0
-0.0658000785981356 0.0342170661662222 1.0
-0.0630252329469154 0.0451127346306799 1.0
-0.0644317085417485 0.0512461474343305 1.0
-0.0631205118875161 0.0805674652502595 1.0
-0.0632481617484316 0.093156910010443 1.0
-0.0671981547431678 0.104510162568096 1.0
-0.058286223022491 0.116873984135459 1.0
-0.0478290379295983 -0.125 0.120172858688005
-0.0433196966520029 -0.125 0.12211101977701
-0.0507314072760897 -0.125 0.133807961519969
-0.0485017209977279 -0.125 0.146474790582758
-0.0450093596347818 -0.125 0.155706022107234
-0.0518797417719436 -0.125 0.164539925812218
-0.0511859756276512 -0.125 0.171988007519189
-0.0441283324386619 -0.125 0.175934363877047
-0.0514856495543732 -0.125 0.190491931579521
-0.0502049117197022 -0.125 0.204690723754342
-0.0463086213970415 -0.125 0.211883072158202
-0.048761022452133 -0.125 0.224230429966704
-0.0501566681388209 -0.125 0.227065883766456
-0.0519017459976964 -0.125 0.239433830303147
-0.0525853312175522 -0.125 0.249144804068706
-0.0504215342867604 -0.125 0.254407544898744
-0.0449324970554696 -0.125 0.265021384202623
-0.0431234338652837 -0.125 0.282237497139193
-0.0509332551107212 -0.125 0.290353912654907
-0.0523572400929047 -0.125 0.299807194421077
-0.050486321977546 -0.125 0.314251380623171
-0.0504288798111748 -0.125 0.315362847519186
-0.0508607303295039 -0.125 0.318611414990699
-0.0481267256461004 -0.125 0.340006375241842
-0.0463133549085724 -0.125 0.342349099013017
-0.0497864560211227 -0.125 0.35713691509943
-0.0469969407437453 -0.125 0.370404772444622
-0.0438915150915172 -0.125 0.379487937187851
-0.0488992435120466 -0.125 0.387487373690258
-0.0467561855441587 -0.125 0.39240646935487
-0.0504233310333696 -0.125 0.404712519248153
-0.0497129853454529 -0.125 0.414976134356629
-0.0497822621758499 -0.125 0.418781362229348
-0.0432327372453996 -0.125 0.432317589644261
-0.0492758436613912 -0.125 0.435135091847371
-0.0455509897279683 -0.125 0.454987380961549
-0.0446387976867654 -0.125 0.456433845434679
-0.0456377109854839 -0.125 0.473671233619416
-0.0499874464363755 -0.125 0.484835068297156
-0.0490592882513486 -0.125 0.492596151838094
-0.0519290126309093 -0.125 0.498959357572681
-0.0525807330325165 -0.125 0.50970730494971
-0.0460507922418502 -0.125 0.519071304971599
-0.0453807514537996 -0.125 0.528539722962853
-0.0477961780786528 -0.125 0.536537862819923
-0.0509866890553343 -0.125 0.549313734133112
-0.0468737357767108 -0.125 0.557494897502576
-0.0482339822534414 -0.125 0.567169941774822
-0.0479120215358537 -0.125 0.575440048241229
-0.0488607755648456 -0.125 0.580447820242973
-0.0502780994907079 -0.125 0.598467660083949
-0.0440556531386899 -0.125 0.603960200554797
-0.047569589068697 -0.125 0.61656702411759
-0.0501169223357418 -0.125 0.622525693584856
-0.0457430240836312 -0.125 0.634781538604518
-0.0520743366930122 -0.125 0.638247521339931
-0.0446181911983891 -0.125 0.649948191917532
-0.0511755178803792 -0.125 0.663460001161418
-0.0505363731659905 -0.125 0.672904588822512
-0.0448221932808626 -0.125 0.68070054369566
-0.0493603870047959 -0.125 0.694835801426632
-0.0480449590029478 -0.125 0.702906834251104
-0.0509259740466354 -0.125 0.703913960794578
-0.048531476886224 -0.125 0.722876500164116
-0.0442513219985629 -0.125 0.725157517562844
-0.0487279774354665 -0.125 0.73477856079481
-0.0437989484372844 -0.125 0.746299683517544
-0.0523034161422901 -0.125 0.753699081123318
-0.052437181849506 -0.125 0.762260590590718
-0.0511377833321868 -0.125 0.777784399204243
-0.0481247235653129 -0.125 0.78809608556484
-0.0459672780170463 -0.125 0.7955462527484
-0.0432259645620288 -0.125 0.809807189803601
-0.0491748703737311 -0.125 0.815846423526139
-0.0525608939412587 -0.125 0.824739437397087
-0.0500559894526291 -0.125 0.840708554703689
-0.0467372327005183 -0.125 0.838529982146675
-0.0507265660613501 -0.125 0.851627943952329
-0.0503901807098969 -0.125 0.863172633010127
-0.0492075023337604 -0.125 0.867159098824663
-0.0462889020219311 -0.125 0.879951489667213
-0.0461983846339316 -0.125 0.890338988087328
-0.0521259321506517 -0.125 0.900602696720019
-0.0460476772605947 -0.125 0.909652242526186
-0.0438952585810639 -0.125 0.925180771999744
-0.0457680945735653 -0.125 0.926736575779059
-0.0453935572861605 -0.125 0.936300686378852
-0.0451578725667888 -0.125 0.950735493229739
-0.0439209377626795 -0.125 0.962379393644117
-0.0464082559274853 -0.125 0.965148993180386
-0.052005305062829 -0.125 0.973963676672331
-0.0493977802941576 -0.125 0.987547162810323
-0.044716168487563 -0.123390488878494 1.0
-0.0471982562764998 -0.121753738443466 1.0
-0.0449693035629572 -0.0975057705011335 1.0
-0.0486379546258169 -0.0832217753934312 1.0
-0.0445874209784988 -0.0709979695264961 1.0
-0.0507473741631153 -0.064625175655673 1.0
-0.0515290980104839 -0.047791897507544 1.0
-0.0508627968041791 -0.0367560685912895 1.0
-0.0499242980746899 -0.00938072687112432 1.0
-0.0494779697064562 -0.00319382408948729 1.0
-0.0481543170311975 0.0204861704314428 1.0
-0.0543574542469975 0.0316048093542518 1.0
-0.0499816666845431 0.0486151120273242 1.0
-0.0559430353947829 0.0622780849384324 1.0
-0.0493181869889882 0.0795071412302582 1.0
-0.0495549882250716 0.0888107865855736 1.0
-0.046965205881504 0.10029691011794 1.0
-0.055572285052717 0.118727801476166 1.0
-0.0403577871800982 -0.125 0.122318377954245
-0.0413857144511727 -0.125 0.125090580694983
-0.0340522195611333 -0.125 0.135405273876051
-0.0400998439942858 -0.125 0.145640826997555
-0.0382481449118576 -0.125 0.147109648942814
-0.0362966772319817 -0.125 0.169270937772035
-0.0335681751567669 -0.125 0.177926057335066
-0.0344246937766375 -0.125 0.182602877718673
-0.0379446289246672 -0.125 0.195105518876104
-0.0391955711409158 -0.125 0.193637375356425
-0.0335312514536475 -0.125 0.217666156748793
-0.0390203277435078 -0.125 0.215821728402421
-0.0363301921663424 -0.125 0.232742572577162
-0.037689197656033 -0.125 0.239079956361071
-0.0356678023435716 -0.125 0.253518798591913
-0.042646799562393 -0.125 0.258668927115171
-0.034804221663726 -0.125 0.268624984272857
-0.0336012550577719 -0.125 0.276883633880039
-0.0345596325867862 -0.125 0.28728605391217
-0.0358397716884134 -0.125 0.291069648769983
-0.0371163818764418 -0.125 0.302470125022767
-0.0335819235469585 -0.125 0.316566725326025
-0.03501655126511 -0.125 0.32900416094711
-0.0402842748315637 -0.125 0.340411929323685
-0.0351211854530159 -0.125 0.344941141910674
-0.040651498738882 -0.125 0.351577700728158
-0.0363228941717942 -0.125 0.359565962422495
-0.0399146356576968 -0.125 0.372737516162656
-0.0373453854702627 -0.125 0.387709390901546
-0.0362207264310546 -0.125 0.395112687553512
-0.0368504385490311 -0.125 0.404018993464729
-0.041489815197945 -0.125 0.407124557002166
-0.0377748994803888 -0.125 0.419484792213265
-0.0351848723679114 -0.125 0.433213694770866
-0.0360406265664674 -0.125 0.44039705297127
-0.0381694330783426 -0.125 0.456122420631097
-0.0344834386606157 -0.125 0.460946821221777
-0.0359095943284237 -0.125 0.469855196801473
-0.0369593862199548 -0.125 0.483111985437886
-0.0404276787384331 -0.125 0.489925396666659
-0.0428331347410255 -0.125 0.493712645177384
-0.034572276932869 -0.125 0.503847480281503
-0.0430370814781126 -0.125 0.515291235361746
-0.0358838866392233 -0.125 0.530623288563098
-0.0358671416643628 -0.125 0.534293502920042
-0.0406742757633199 -0.125 0.547187993507668
-0.0395086841010395 -0.125 0.55381922974068
-0.0397422535739228 -0.125 0.560974083747761
-0.039522405156704 -0.125 0.570457849981865
-0.0414718269454146 -0.125 0.587517032482951
-0.0384613560424817 -0.125 0.599063149049733
-0.038441480804886 -0.125 0.604367156039778
-0.0366449248411019 -0.125 0.612958395252547
-0.0371690929427567 -0.125 0.619490122986938
-0.0354060237428441 -0.125 0.630853177553802
-0.0379946802682167 -0.125 0.639598822661786
-0.035195869076021 -0.125 0.651882378432344
-0.0360710686482274 -0.125 0.667610589138825
-0.0429129550612444 -0.125 0.67159891078231
-0.0430049157623418 -0.125 0.677229600531813
-0.036622257699962 -0.125 0.683376318005072
-0.0396139064458652 -0.125 0.69325904649124
-0.042663561042651 -0.125 0.703345886325304
-0.0338182429491486 -0.125 0.719801850504731
-0.0366190015060012 -0.125 0.732696234996797
-0.0334772436513379 -0.125 0.742724533231547
-0.0397175940422548 -0.125 0.749987579921424
-0.0349560907753041 -0.125 0.753306038525966
-0.0386186427893929 -0.125 0.767022149164415
-0.0367958653211063 -0.125 0.773677868762786
-0.0365304560679832 -0.125 0.791249681768602
-0.0408047917612862 -0.125 0.790831883166734
-0.0373478568256941 -0.125 0.800897420840604
-0.0424528155815579 -0.125 0.817509131291959
-0.0374109293197532 -0.125 0.824134434941777
-0.0387449089745078 -0.125 0.831872459485201
-0.0348910246277913 -0.125 0.842568015101335
-0.0362159781832517 -0.125 0.850279454714435
-0.0358822884624228 -0.125 0.862238069746763
-0.0415945111532079 -0.125 0.867444117053266
-0.0399914752591772 -0.125 0.883882965750754
-0.0426591605814036 -0.125 0.895700999585524
-0.0420358197493871 -0.125 0.901548532178765
-0.0378414176757755 -0.125 0.910006848470977
-0.042588429101642 -0.125 0.923612670953058
-0.033753879153958 -0.125 0.934501738537012
-0.0408403588800518 -0.125 0.935850891370157
-0.038499624839115 -0.125 0.946777235888669
-0.03937155091858 -0.125 0.960590815392588
-0.0370875097114557 -0.125 0.96137483781924
-0.0369792241717785 -0.125 0.977373536145721
-0.0347365035407359 -0.125 0.988673133250911
-0.0381683201723168 -0.124135434123933 1.0
-0.0338319225921179 -0.116155649060882 1.0
-0.040275361641958 -0.105497604229249 1.0
-0.0434053935696024 -0.0910309733679573 1.0
-0.0381701745000854 -0.0682237580499709 1.0
-0.042025343393869 -0.0591897539676682 1.0
-0.0399489880574528 -0.0370435088465166 1.0
-0.0368605560991574 -0.0320250488734759 1.0
-0.0373596624868363 -0.00861962189675 1.0
-0.0373221816916604 0.00628343388347831 1.0
-0.0437395138169369 0.0162954382921887 1.0
-0.0401407711954094 0.0320467614251219 1.0
-0.0365528100811932 0.0398978934493939 1.0
-0.0411613168283114 0.0656413021933036 1.0
-0.0403494375075842 0.0740332441263667 1.0
-0.0449251565734564 0.087971920661559 1.0
-0.0361768633482361 0.103409264451169 1.0
-0.0366731652589022 0.115708253079897 1.0
-0.0302228779490058 -0.125 0.114395559225144
-0.0289572188865102 -0.125 0.12422844549805
-0.0324120411506931 -0.125 0.135978420710477
-0.0297404752846991 -0.125 0.145601714155328
-0.0286971654881625 -0.125 0.151919455604291
-0.0263180186766463 -0.125 0.157653545561793
-0.0241480777133748 -0.125 0.172221191606175
-0.0254627963674524 -0.125 0.184875918926085
-0.0264898272345626 -0.125 0.190456015823482
-0.0332614155210231 -0.125 0.204325240533337
-0.0298980332145318 -0.125 0.211644785452347
-0.031840481375889 -0.125 0.22330883226922
-0.0335568003386513 -0.125 0.232193457483279
-0.0311546681978906 -0.125 0.239962938174186
-0.0245756091927657 -0.125 0.24952803375592
-0.0320970420098915 -0.125 0.256799640053109
-0.0307815065645083 -0.125 0.274377658553775
-0.0288181787088859 -0.125 0.273608068821552
-0.0280960685391785 -0.125 0.287053417742789
-0.0262414823472654 -0.125 0.29735318624879
-0.0317856117014745 -0.125 0.309788856228619
-0.03056070536772 -0.125 0.315663861186607
-0.0296094013493008 -0.125 0.325220258072579
-0.0320307862974578 -0.125 0.335039983670771
-0.0261976102784161 -0.125 0.343189333193316
-0.0268501807137481 -0.125 0.355396177311412
-0.0314034119507315 -0.125 0.367959637903105
-0.0333524951385227 -0.125 0.374727575355244
-0.0309752118581726 -0.125 0.37711099567473
-0.0294888275352178 -0.125 0.392299723532157
-0.0278032797891489 -0.125 0.403073124706635
-0.0301651711250378 -0.125 0.413375581054887
-0.0278495667267248 -0.125 0.423344715201531
-0.0243176451701373 -0.125 0.428041464408006
-0.0260878712175294 -0.125 0.439698286819693
-0.030696876744459 -0.125 0.448148746660756
-0.0283956832861296 -0.125 0.46082970868953
-0.0282719999468178 -0.125 0.47018793164486
-0.0249221322824988 -0.125 0.477935154875829
-0.0322129915185965 -0.125 0.489235969250699
-0.0246843721754476 -0.125 0.503683635291619
-0.0256380424353252 -0.125 0.509756263022638
-0.0265263799118443 -0.125 0.51744235842642
-0.0322080381235544 -0.125 0.529462465766067
-0.029616366597242 -0.125 0.535242145912127
-0.0244228627481403 -0.125 0.54444345633051
-0.0261732517721835 -0.125 0.561358827251825
-0.0307488385873648 -0.125 0.566827035618779
-0.0255521241283757 -0.125 0.57264325824111
-0.0277940574339154 -0.125 0.581131660379394
-0.0303184377790178 -0.125 0.59473458698497
-0.0310481982677784 -0.125 0.604463007767521
-0.0262092255219736 -0.125 0.617652124234731
-0.0307975258655163 -0.125 0.620310087123056
-0.0323666717393573 -0.125 0.632532452408674
-0.0321139354036518 -0.125 0.648713776422874
-0.0280658544903928 -0.125 0.649318580119835
-0.0274858192299853 -0.125 0.662492961644371
-0.0334031685308365 -0.125 0.669163312354017
-0.0262585359351778 -0.125 0.681045525420004
-0.0319232004453256 -0.125 0.691586868538471
-0.0303663710915512 -0.125 0.705532900894937
-0.0243313342305512 -0.125 0.707668296835105
-0.0242907087380982 -0.125 0.717279454552184
-0.0256789103034484 -0.125 0.731024763299718
-0.0278017239907989 -0.125 0.73692804291703
-0.0241876166126857 -0.125 0.750720978297053
-0.0249307236394602 -0.125 0.762073346245303
-0.0303756484304896 -0.125 0.764174875645707
-0.0311435076726454 -0.125 0.779609438015661
-0.0299642546157655 -0.125 0.784022084028239
-0.0305065082277354 -0.125 0.788672509125448
-0.0261472900642332 -0.125 0.804088440062265
-0.0241001968288409 -0.125 0.809647263511984
-0.0259905464799631 -0.125 0.82864910871555
-0.0319111124228409 -0.125 0.839581789912259
-0.0245759780553882 -0.125 0.842152075336195
-0.0273599204106555 -0.125 0.857054874950637
-0.0304633642426582 -0.125 0.85904236394296
-0.0321792839211418 -0.125 0.86906074813579
-0.0276691755304802 -0.125 0.882656810395185
-0.0247490457782009 -0.125 0.89448866100033
-0.0291653341961634 -0.125 0.900144111561064
-0.0307750474166515 -0.125 0.909468458432549
-0.0244046411797273 -0.125 0.912443056050017
-0.0295605263185497 -0.125 0.930647300592211
-0.0247663359545576 -0.125 0.941501275686225
-0.0249699973367719 -0.125 0.951456129214916
-0.0250939841908239 -0.125 0.958525569805043
-0.0327450277662156 -0.125 0.967001137301542
-0.0292356328154101 -0.125 0.978344587275053
-0.0313423153220634 -0.125 0.988770757130402
-0.0295513711950737 -0.123984563579277 1.0
-0.0240010831384371 -0.119201729425384 1.0
-0.0242492073715414 -0.0980126014563818 1.0
-0.0307750305402568 -0.0869979619120675 1.0
-0.0293601646664913 -0.0704371969572839 1.0
-0.0277434908856165 -0.0605347250744952 1.0
-0.0250154727232459 -0.04481268071005 1.0
-0.0313264953755354 -0.0280841662866584 1.0
-0.0323467004576285 -0.0108192525576847 1.0
-0.0292352166726769 -0.00154981431066936 1.0
-0.0288943673749779 0.0184907212357679 1.0
-0.0325382521057349 0.0278125781394527 1.0
-0.0273819587236979 0.0439403631992752 1.0
-0.0309193101018512 0.0571791299997737 1.0
-0.0316461556366678 0.0721719466559141 1.0
-0.0336728172723528 0.0861142975766716 1.0
-0.0289170402693339 0.109617776851658 1.0
-0.0313684461902696 0.120298495710891 1.0
-0.0227182302599792 -0.125 0.109604692488835
-0.0153687505633822 -0.125 0.131882818838102
-0.0152408665354171 -0.125 0.130780972576075
-0.0210819534190481 -0.125 0.151291879935827
-0.0180582368730802 -0.125 0.150761352553744
-0.0187651556921222 -0.125 0.162310392460289
-0.0160897802658043 -0.125 0.177012897462269
-0.0167596405793021 -0.125 0.181960981785839
-0.0200050904590536 -0.125 0.191614669506492
-0.0165754078730693 -0.125 0.203087977544139
-0.0195960764617633 -0.125 0.213794933311928
-0.0230545175178174 -0.125 0.222239190941902
-0.0218028579278872 -0.125 0.230281176070141
-0.0192962607617997 -0.125 0.248575373085817
-0.0194526683817213 -0.125 0.251964213470107
-0.0222811421732145 -0.125 0.25927939101703
-0.0204147865929892 -0.125 0.263556697668682
-0.0181597962068999 -0.125 0.276314408922474
-0.0223715371603681 -0.125 0.290012489449231
-0.0196783461250662 -0.125 0.297650328379113
-0.0173049530094789 -0.125 0.302412049375604
-0.0182577685739674 -0.125 0.311190646761674
-0.0158466651614504 -0.125 0.319514823019708
-0.017299543726772 -0.125 0.33546166236985
-0.0195660351651507 -0.125 0.344082602827922
-0.0183802280884854 -0.125 0.352435448398362
-0.0182365763170254 -0.125 0.369931219912595
-0.0195548254042708 -0.125 0.374818921755473
-0.0172218075385374 -0.125 0.38512289554377
-0.0152975065252777 -0.125 0.400045688759799
-0.0213386429035531 -0.125 0.398455961486525
-0.0147021239263428 -0.125 0.41273014242925
-0.0149567475132344 -0.125 0.422455457062719
-0.0235291840748972 -0.125 0.429449096770042
-0.0188228126538968 -0.125 0.437355954576361
-0.0176535742119867 -0.125 0.443891948356377
-0.0229876254089421 -0.125 0.461175039446022
-0.0200542158294375 -0.125 0.474644807532245
-0.0233276589417207 -0.125 0.474460337432549
-0.0214356153220783 -0.125 0.49124097860683
-0.0161831690259252 -0.125 0.497295980992915
-0.0215262845367191 -0.125 0.511719326829438
-0.0209409212554267 -0.125 0.522641707677818
-0.0167353245621765 -0.125 0.524465573979024
-0.022264268556792 -0.125 0.536733545551972
-0.0205068580682523 -0.125 0.548709215185863
-0.0192108525129571 -0.125 0.559847329626216
-0.0184731387144187 -0.125 0.56631460681018
-0.0171895204135301 -0.125 0.568024633729155
-0.020653375724511 -0.125 0.579517552110953
-0.0150848886156763 -0.125 0.597007267835985
-0.0208577993302513 -0.125 0.606525800103926
-0.0166055879817138 -0.125 0.606328358887464
-0.023258925650167 -0.125 0.620016441951722
-0.0165350071561742 -0.125 0.632826396969293
-0.0159253766477516 -0.125 0.642732399625104
-0.0231539937860372 -0.125 0.652777186169391
-0.0186951249850544 -0.125 0.66563932476731
-0.0213998306968903 -0.125 0.673580807519182
-0.0180611769127553 -0.125 0.675804465508549
-0.0144303751301433 -0.125 0.686433280070434
-0.0149219766929091 -0.125 0.700519142648653
-0.0167087924773349 -0.125 0.713043479623191
-0.0199151492552366 -0.125 0.720453448207118
-0.0234679403511051 -0.125 0.730102559386608
-0.0158429601666773 -0.125 0.742158317351451
-0.0235204337179407 -0.125 0.754184704750965
-0.0238628248029868 -0.125 0.757459216080401
-0.0170010019574892 -0.125 0.767666400899042
-0.0223171661186288 -0.125 0.777267074001563
-0.0173592411676955 -0.125 0.787676263327011
-0.0156607481117277 -0.125 0.79974135198277
-0.0225297472575325 -0.125 0.811043296122735
-0.0229619313366285 -0.125 0.811031656420159
-0.0153577251555901 -0.125 0.819515485103239
-0.019304227785985 -0.125 0.827360725957265
-0.0224708744988867 -0.125 0.844103739165068
-0.0188425130821732 -0.125 0.854007887756102
-0.0172782657909857 -0.125 0.867320328623859
-0.0176497132212393 -0.125 0.867590751451711
-0.0164851082828358 -0.125 0.884658771515215
-0.0213708704083174 -0.125 0.889159830278053
-0.0235179180227164 -0.125 0.894412372225989
-0.022456827093676 -0.125 0.912411061697276
-0.0191258547854113 -0.125 0.913437708227303
-0.0237962347763503 -0.125 0.932226611416106
-0.0203176959083978 -0.125 0.939467518600742
-0.0231653640704967 -0.125 0.953522586656231
-0.0215047616735012 -0.125 0.964013047219404
-0.0194826288247577 -0.125 0.970439933887578
-0.0238483524045182 -0.125 0.972014847090396
-0.0207289373857965 -0.125 0.988520920422167
-0.0200598434562674 -0.121504786383916 1.0
-0.0206856506409344 -0.120173183541462 1.0
-0.0191459386469504 -0.100797634120114 1.0
-0.0229946971859191 -0.0878405780652551 1.0
-0.0219477463937518 -0.0712932254289473 1.0
-0.0191163833480486 -0.0493109273955392 1.0
-0.0233457497768177 -0.0478202618964838 1.0
-0.0238781284972234 -0.0242600284764465 1.0
-0.0208052617636118 -0.0137403324211256 1.0
-0.0225663245322125 -0.00456170246373411 1.0
-0.0216713158625237 0.020757379777701 1.0
-0.0173181356172442 0.0292642204215361 1.0
-0.0246213458215729 0.0463419603913558 1.0
-0.0221929769885827 0.0527374408633468 1.0
-0.0229025738914521 0.0869019217457363 1.0
-0.016157629948313 0.0875809711460653 1.0
-0.0214311170802248 0.112542839110876 1.0
-0.00496354480281869 -0.125 0.111440024294648
-0.00713849735128352 -0.125 0.12387177127622
-0.00675848620486424 -0.125 0.134096624254825
-0.00527794870211445 -0.125 0.150823342910193
-0.011406230668937 -0.125 0.162334293316118
-0.0126472342231229 -0.125 0.161654350793881
-0.00748204920475498 -0.125 0.172104722624117
-0.00657454394283746 -0.125 0.1770294850504
-0.0100430631844008 -0.125 0.194070092575364
-0.00767156089247539 -0.125 0.201764331362398
-0.00662224736085898 -0.125 0.205045277703729
-0.00646134115171676 -0.125 0.216737213120042
-0.0077550019817631 -0.125 0.234789368402152
-0.0084216949281164 -0.125 0.246022361507316
-0.00878714183207879 -0.125 0.25305543712973
-0.00671189884141715 -0.125 0.259383740678795
-0.0100826677496486 -0.125 0.260505527702826
-0.00639538232163306 -0.125 0.275059123137406
-0.0127154848683966 -0.125 0.282532741083552
-0.00795705384388035 -0.125 0.296895847384292
-0.00995260547698013 -0.125 0.314703221387806
-0.00704739560409667 -0.125 0.314822849310437
-0.00898912726743728 -0.125 0.325211735857495
-0.00590138655243738 -0.125 0.327563162419511
-0.00558293181195313 -0.125 0.349930480171931
-0.0104138031876813 -0.125 0.352523014392181
-0.00981812448649255 -0.125 0.359432760056714
-0.0100439513483814 -0.125 0.380371109271393
-0.0128994440085695 -0.125 0.383962729916095
-0.00858852739551519 -0.125 0.391461790131038
-0.00833681659524133 -0.125 0.402698941639023
-0.00625780483312754 -0.125 0.410544265355328
-0.0124570788203092 -0.125 0.423000867723652
-0.0106530421454423 -0.125 0.430446977386577
-0.0074352350729408 -0.125 0.440455243656101
-0.0093732462825098 -0.125 0.450538558139691
-0.00893840003486268 -0.125 0.463322495412317
-0.00944383003843674 -0.125 0.478655392909512
-0.00537897970603107 -0.125 0.474037917120781
-0.00546127527897333 -0.125 0.495426845636535
-0.00586485183571012 -0.125 0.493453758553964
-0.0123863621476107 -0.125 0.510099002879683
-0.0110426077742837 -0.125 0.514211989600147
-0.0120540058623042 -0.125 0.528985658118172
-0.00669569455994429 -0.125 0.540874824211605
-0.00917341882280714 -0.125 0.54799513990508
-0.00956416896655204 -0.125 0.553994628921002
-0.0130108370812126 -0.125 0.570921208745638
-0.0103604492569197 -0.125 0.571413736750854
-0.00539607038839335 -0.125 0.580293898600655
-0.00863653968977246 -0.125 0.59434542911273
-0.00744748017072738 -0.125 0.607815094153679
-0.0132116577870765 -0.125 0.612242492331006
-0.00719327409085535 -0.125 0.628320552932468
-0.0105478328568038 -0.125 0.635644617683516
-0.00566929972735769 -0.125 0.640775466740689
-0.00721451099611936 -0.125 0.646516126928217
-0.0113732422207122 -0.125 0.669265823772474
-0.0128048477668047 -0.125 0.674178988359935
-0.0101849187336093 -0.125 0.677326259946077
-0.00863994024882958 -0.125 0.687876819150246
-0.00488514369021703 -0.125 0.704422528001766
-0.00799936616482982 -0.125 0.707138190348511
-0.00760497035634639 -0.125 0.711379435857054
-0.0123023678308148 -0.125 0.73020994160748
-0.00638806945256615 -0.125 0.742634682149208
-0.00979776733816956 -0.125 0.750036328023992
-0.00670888097634681 -0.125 0.758737348354302
-0.0128600374834059 -0.125 0.765141224888225
-0.00584759039414334 -0.125 0.77679022645227
-0.00997272619953293 -0.125 0.784104032172831
-0.00502902495345198 -0.125 0.797651900162691
-0.0136538045708435 -0.125 0.806964381056956
