ply
format ascii 1.0
element vertex 844
property float x
property float y
property float z
end_header
-0.380597014925353 0.0722779339756596 0.301948176269942
-0.380597014925353 0.0568436395315044 0.323661237213049
-0.380597014925353 0.0568550167170545 0.327099213189731
-0.380597014925353 0.06529120513303 0.335063067331191
-0.380597014925353 0.0675082850102997 0.338639181394203
-0.380597014925353 0.0579018868132061 0.355356728748843
-0.380597014925353 0.058253635898395 0.369574827834705
-0.380597014925353 0.0689067907965883 0.366992809780157
-0.380597014925353 0.0663067598073451 0.376227053029005
-0.380597014925353 0.0568814657426021 0.401400880782085
-0.380597014925353 0.0569944504121485 0.403177315846472
-0.380597014925353 0.0681283376890426 0.399702237334007
-0.380597014925353 0.0634712584566689 0.420972853836273
-0.380597014925353 0.0658940276688338 0.421278868703039
-0.380597014925353 0.060684066103117 0.434898944591322
-0.380597014925353 0.0608152430776108 0.452721978101444
-0.380597014925353 0.0697808657945997 0.455387171806466
-0.380597014925353 0.0604912998266545 0.466379776957667
-0.380597014925353 0.0623726522796635 0.474773592682561
-0.380597014925353 0.0682975626823498 0.474220808649717
-0.380597014925353 0.0654562119701034 0.497431766518987
-0.380597014925353 0.0621698271914974 0.50305807231582
-0.380597014925353 0.0546367770637919 0.514886320193911
-0.380597014925353 0.0587482585017558 0.529346466997901
-0.380597014925353 0.063819811234716 0.525669546304991
-0.380597014925353 0.062618643446298 0.544003321368403
-0.380597014925353 0.0616808746743071 0.552990489640612
-0.380597014925353 0.0639900230817732 0.548961844283088
-0.380597014925353 0.0595487406371167 0.575761393684747
-0.380597014925353 0.070205918041352 0.577071593328012
-0.380597014925353 0.0680637458203583 0.578821252180404
-0.380597014925353 0.0653271996434213 0.598681406362567
-0.380597014925353 0.063048594553691 0.606655386999093
-0.380597014925353 0.0685016127101825 0.607278462671598
-0.380597014925353 0.0742831861767793 0.61781921665156
-0.380597014925353 0.0579991415618922 0.63834669268316
-0.380597014925353 0.0679806057102951 0.642073480578842
-0.380597014925353 0.0702234734928659 0.642757148983304
-0.380597014925353 0.061655311424323 0.66592371020213
-0.380597014925353 0.0613779332099136 0.676131991151137
-0.380597014925353 0.0632771819384705 0.682124782871933
-0.380597014925353 0.0594293162643798 0.690630880760814
-0.380597014925353 0.0630190555693606 0.690965932585518
-0.380597014925353 0.0656997095318545 0.705481710273076
-0.380597014925353 0.0672405579984123 0.707927445720033
-0.380597014925353 0.0726237924422667 0.719520270210269
-0.380597014925353 0.0698401450512619 0.724191137015112
-0.380597014925353 0.0662070999623168 0.747135856574871
-0.380597014925353 0.0595331206962914 0.753059510141691
-0.380597014925353 0.0620885176959528 0.75972123029746
-0.380597014925353 0.0737097241111116 0.765535491979794
-0.380597014925353 0.0712416967196744 0.775358595273226
-0.380597014925353 0.0640673957402965 0.790429537007186
-0.380597014925353 0.0584113124517271 0.799352787802492
-0.380597014925353 0.0646034059353608 0.807392421401252
-0.380597014925353 0.0653480382592801 0.812286323968362
-0.380597014925353 0.066760652223249 0.82288702297979
-0.380597014925353 0.0638182468010335 0.836343354748724
-0.380597014925353 0.0702651959127108 0.836364454618822
-0.380597014925353 0.0621691652157855 0.860981606281957
-0.380597014925353 0.0661660094480984 0.858716881482726
-0.380597014925353 0.0678021152026007 0.871213701205657
-0.380597014925353 0.0677016309486481 0.877366972273657
-0.380597014925353 0.0693043502905323 0.882403164695913
-0.380597014925353 0.0565109362144008 0.907567591417183
-0.380597014925353 0.0621391901639636 0.91647498769592
-0.380597014925353 0.0663945860909192 0.922015771019066
-0.380597014925353 0.0676604829165828 0.924196260921112
-0.380597014925353 0.0671981511829246 0.93457891278933
-0.380597014925353 0.0647441726204264 0.95164596832143
-0.380597014925353 0.059661730443062 0.957423155767068
-0.380597014925353 0.0604583742212057 0.963960292201951
-0.380597014925353 0.0679601418866715 0.969277321939334
-0.380597014925353 0.0718912407651976 0.977588234274932
-0.380597014925353 0.0652872558900339 0.987037836251331
-0.380147370758036 0.0644880697987334 0.999999999999956
-0.370135439844877 0.0728934763160289 0.999999999999954
-0.36081726905596 0.0909061304621948 0.99999999999995
-0.355963965497689 0.0944740861224373 0.999999999999949
-0.380597014925353 0.0847980566369747 0.206266400808652
-0.380597014925353 0.0814615880967661 0.211477993819958
-0.380597014925353 0.0756189780453415 0.22219305582247
-0.380597014925353 0.0806937911182233 0.224491009584245
-0.380597014925353 0.0733946999047136 0.24130186634649
-0.380597014925353 0.0773755788363569 0.247117491175377
-0.380597014925353 0.086575300620571 0.252765228472655
-0.380597014925353 0.0708762182553014 0.273465692939528
-0.380597014925353 0.0757556362701571 0.275717174755793
-0.380597014925353 0.0768275688663418 0.288733968282793
-0.380597014925353 0.0762854784369282 0.302312817434141
-0.380597014925353 0.0856634575892486 0.30634578006045
-0.380597014925353 0.0786025080635512 0.322836141111442
-0.380597014925353 0.0795803186873101 0.326245471867446
-0.380597014925353 0.0843413494894383 0.333437574795883
-0.380597014925353 0.0806438301127003 0.348347876187805
-0.380597014925353 0.0846659104084991 0.344316564645666
-0.380597014925353 0.0811658305215089 0.360687392515422
-0.380597014925353 0.0859983661060989 0.364372990870244
-0.380597014925353 0.083412099759936 0.376502248079905
-0.380597014925353 0.0824913888626991 0.385593446310706
-0.380597014925353 0.081278346395556 0.390890647885483
-0.380597014925353 0.0789183680047536 0.413105087641564
-0.380597014925353 0.0845660497483498 0.419730941432486
-0.380597014925353 0.0726145528956938 0.427925212265808
-0.380597014925353 0.0732542414607021 0.442416707393758
-0.380597014925353 0.0810861211683494 0.446718871931456
-0.380597014925353 0.0786059451099048 0.451414678055174
-0.380597014925353 0.0709682554656331 0.465277304720563
-0.380597014925353 0.0757527898506491 0.47400179726197
-0.380597014925353 0.0741577532399402 0.481002079371117
-0.380597014925353 0.0808193771226482 0.490941388448449
-0.380597014925353 0.0807221531069966 0.498118166560965
-0.380597014925353 0.0801018972269478 0.506954275957976
-0.380597014925353 0.0818394611919917 0.513588286899055
-0.380597014925353 0.0693512267876825 0.532460812823998
-0.380597014925353 0.0863115401676172 0.532638612861436
-0.380597014925353 0.0883551276636899 0.540912147376945
-0.380597014925353 0.0811012157206894 0.554109176536422
-0.380597014925353 0.0726838255037319 0.572657836251282
-0.380597014925353 0.0872927908145495 0.568478277131824
-0.380597014925353 0.0813431990623148 0.579690876559392
-0.380597014925353 0.0843099225133772 0.589092158568196
-0.380597014925353 0.0800519422650646 0.600563663142503
-0.380597014925353 0.0741017586458433 0.61740782744744
-0.380597014925353 0.0747423002032472 0.626405501800604
-0.380597014925353 0.0766526505441619 0.641911362665477
-0.380597014925353 0.0781257123510857 0.64251501137936
-0.380597014925353 0.0822205735376031 0.651873122734564
-0.380597014925353 0.0871468956624328 0.658155093522761
-0.380597014925353 0.0769579232040392 0.67012142390029
-0.380597014925353 0.0740182710362633 0.676526549974098
-0.380597014925353 0.0715155763450902 0.694727276750465
-0.380597014925353 0.0765060690854925 0.700348133555509
-0.380597014925353 0.0871747231483712 0.698599108051902
-0.380597014925353 0.0820573857147077 0.711522013382974
-0.380597014925353 0.0771188976483965 0.727585155667318
-0.380597014925353 0.077840643386163 0.741644194491714
-0.380597014925353 0.0839447689532467 0.742720095623333
-0.380597014925353 0.0871817115804268 0.743224140346927
-0.380597014925353 0.0733334646846505 0.764668168693685
-0.380597014925353 0.0773110711369442 0.772731858405479
-0.380597014925353 0.0786738690236932 0.783977315371445
-0.380597014925353 0.0821115502983564 0.788684441407196
-0.380597014925353 0.0754356726009867 0.802913675241945
-0.380597014925353 0.0782543547941747 0.811143855492278
-0.380597014925353 0.0777570793686995 0.817173334287598
-0.380597014925353 0.0793431100023821 0.822256592424376
-0.380597014925353 0.0800163838441739 0.833852485569943
-0.380597014925353 0.0850827585268884 0.839118649872043
-0.380597014925353 0.0759666301973172 0.849518640610809
-0.380597014925353 0.0834726572898558 0.864348469389861
-0.380597014925353 0.0704690780236626 0.880006287454093
-0.380597014925353 0.0794120172664901 0.888363505838958
-0.380597014925353 0.0794952469838261 0.885821155218896
-0.380597014925353 0.0742011724953315 0.906267939579967
-0.380597014925353 0.078132634789857 0.906284709917812
-0.380597014925353 0.0791494202084676 0.922646999700124
-0.380597014925353 0.0801956535442055 0.925201134163064
-0.380597014925353 0.0765047022079448 0.936487550996916
-0.380597014925353 0.0760069431811252 0.951496219784753
-0.380597014925353 0.0891412649619433 0.946757453033325
-0.380597014925353 0.0785514365323005 0.97394640544211
-0.380597014925353 0.0716106765711995 0.974541713814859
-0.380597014925353 0.0799614915363604 0.983395176238754
-0.380213365843169 0.0772138780075172 0.999999999999953
-0.379532754752512 0.0818506003568182 0.999999999999952
-0.367761676636483 0.0936180314069161 0.999999999999949
-0.365163113279306 0.100760602621912 0.999999999999947
-0.380597014925353 0.0964597524791981 0.192488369829084
-0.380597014925353 0.0887274824348628 0.202718211269602
-0.380597014925353 0.0983184743824523 0.208027587039088
-0.380597014925353 0.0930039543724292 0.220716051927022
-0.380597014925353 0.102029474102545 0.226443024975276
-0.380597014925353 0.0942787659368937 0.236226145361224
-0.380597014925353 0.0915362017360738 0.257361557464305
-0.380597014925353 0.0946843815354526 0.262027992264072
-0.380597014925353 0.0963387152823713 0.265560709332892
-0.380597014925353 0.0909388793007387 0.275970629362276
-0.380597014925353 0.0972314732166666 0.283521572417293
-0.380597014925353 0.0885124576610249 0.302555792865955
-0.380597014925353 0.0961385658921004 0.302443959070605
-0.380597014925353 0.0985012172377764 0.314375432188122
-0.380597014925353 0.0944224603977048 0.320870939005901
-0.380597014925353 0.0907256433561701 0.334647249704303
-0.380597014925353 0.0944860734040734 0.339306238860127
-0.380597014925353 0.0937733551812991 0.353413273119794
-0.380597014925353 0.0950981748493527 0.360202757864287
-0.380597014925353 0.0981473013682065 0.362229788647656
-0.380597014925353 0.101841385247278 0.374034359450805
-0.380597014925353 0.0903291084694982 0.389477208535068
-0.380597014925353 0.0916513192920443 0.400646246301122
-0.380597014925353 0.10040707287221 0.402924403868662
-0.380597014925353 0.0921628698702967 0.418610947105353
-0.380597014925353 0.0990709966614402 0.418746485653095
-0.380597014925353 0.0920564631800409 0.440425288851957
-0.380597014925353 0.0949239805185122 0.444135183107434
-0.380597014925353 0.102313328058693 0.446312114082407
-0.380597014925353 0.0974757546024932 0.462193210242754
-0.380597014925353 0.0862680953011911 0.475766123456131
-0.380597014925353 0.0934014407887839 0.482191001648748
-0.380597014925353 0.101784071651966 0.486332661516609
-0.380597014925353 0.0953066449687311 0.500198361412629
-0.380597014925353 0.0928045751197889 0.510570752295155
-0.380597014925353 0.0913191002410327 0.523869397475418
-0.380597014925353 0.0950065383370862 0.531511990360432
-0.380597014925353 0.0961888571492651 0.542281229180461
-0.380597014925353 0.0869520286298929 0.549576538626515
-0.380597014925353 0.0892372870359636 0.558575178410266
-0.380597014925353 0.0919351465584463 0.571898469453939
-0.380597014925353 0.09151291528062 0.572576663844257
-0.380597014925353 0.10198069191864 0.581139141207322
-0.380597014925353 0.0949206618796793 0.595108966382123
-0.380597014925353 0.093001402700112 0.602233522681227
-0.380597014925353 0.0942863045971936 0.615421872602857
-0.380597014925353 0.0975203297987635 0.618786007562768
-0.380597014925353 0.0852773308188827 0.63685345912012
-0.380597014925353 0.0947029480645102 0.638176567196727
-0.380597014925353 0.0954966378890373 0.649416425468991
-0.380597014925353 0.0955805101122797 0.666359999942643
-0.380597014925353 0.0953613273709358 0.675589722449384
-0.380597014925353 0.0958224751439344 0.680657698891943
-0.380597014925353 0.0960741858069135 0.687347556779543
-0.380597014925353 0.0937056911816806 0.694026890068848
-0.380597014925353 0.0960569040628457 0.708517184599065
-0.380597014925353 0.0856746729855035 0.716951184085487
-0.380597014925353 0.0978119938167348 0.72398386338121
-0.380597014925353 0.0918259450167279 0.738504029387747
-0.380597014925353 0.0873103537673768 0.74658803325144
-0.380597014925353 0.102466446855726 0.743856693540683
-0.380597014925353 0.100298639155358 0.757560422372086
-0.380597014925353 0.097197125856928 0.771235064315291
-0.380597014925353 0.0889230440798773 0.780278147826469
-0.380597014925353 0.0982007539631112 0.784193646298265
-0.380597014925353 0.0955310083906315 0.801454864145592
-0.380597014925353 0.0893799947920814 0.807552532642671
-0.380597014925353 0.0883893722714117 0.8228451987968
-0.380597014925353 0.0914981634150028 0.831653980786084
-0.380597014925353 0.0938849074083063 0.840048899723326
-0.380597014925353 0.0959928293911048 0.846261136649362
-0.380597014925353 0.0884689172041366 0.861732015063785
-0.380597014925353 0.09410884371678 0.866125758276262
-0.380597014925353 0.094573179196655 0.879417787089497
-0.380597014925353 0.100750795050593 0.881979476271744
-0.380597014925353 0.0888316801630456 0.893677496070904
-0.380597014925353 0.090698665480541 0.902588786074489
-0.380597014925353 0.0897458520455435 0.910583269390912
-0.380597014925353 0.102095888718972 0.91837996830242
-0.380597014925353 0.0978091253726066 0.924668327511965
-0.380597014925353 0.0907968818900566 0.942900042665265
-0.380597014925353 0.0958124665167423 0.946774767899403
-0.380597014925353 0.0946564213574425 0.959765165610815
-0.380597014925353 0.0898286962001266 0.966971249251582
-0.380597014925353 0.0932422173316266 0.981237638686145
-0.380597014925353 0.0931449323796755 0.986530540805763
-0.378831287053271 0.0947973006432123 0.999999999999949
-0.3722832759865 0.101536303872622 0.999999999999947
-0.380597014925353 0.103153146288809 0.222277926028722
-0.380597014925353 0.103733378457236 0.277770167688549
-0.380597014925353 0.103147796876884 0.423133005847842
-0.380597014925353 0.103340112055165 0.427313942452698
-0.380597014925353 0.10323275919469 0.51543909576232
-0.380597014925353 0.104524878823009 0.521966018713806
-0.380597014925353 0.102598334048882 0.576417399997494
-0.380597014925353 0.101778297713016 0.663753972694332
-0.380597014925353 0.101714903361709 0.776500774586261
-0.380597014925353 0.103543366012207 0.836210941985528
-0.380597014925353 0.103425211122463 0.838975239435976
-0.380597014925353 0.10430970150947 0.846109323426969
-0.380597014925353 0.101222243510064 0.870993901716505
-0.380597014925353 0.103516120354797 0.950046179311854
-0.380597014925353 0.100319206779285 0.973258434667387
-0.380597014925353 0.104399648048291 0.982116958284056
-0.376184279697964 -0.104328358208949 0.0933251011655559
-0.375003651557745 -0.104328358208949 0.108060934226578
-0.374597334707031 -0.104328358208949 0.107704624872454
-0.379124460920587 -0.104328358208949 0.118060876367445
-0.377818602933594 -0.104328358208949 0.138099156151937
-0.378652580087411 -0.104328358208949 0.156726378297632
-0.379024932814365 -0.104328358208949 0.167976804290848
-0.371158833368613 -0.104328358208949 0.173514376041976
-0.377191410930304 -0.104328358208949 0.179979850359702
-0.379565333247031 -0.104328358208949 0.187410712626449
-0.377695466632008 -0.104328358208949 0.199930374533499
-0.377772222634778 -0.104328358208949 0.210249113143048
-0.375296067103751 -0.104328358208949 0.224764447579032
-0.37580901275908 -0.104328358208949 0.233607144722726
-0.378371410916305 -0.104328358208949 0.233979608080769
-0.371997132406362 -0.104328358208949 0.25097168426238
-0.374038021709881 -0.104328358208949 0.264625384370931
-0.379237522126658 -0.104328358208949 0.275531310189716
-0.372517188796302 -0.104328358208949 0.281654122825466
-0.375818686561805 -0.104328358208949 0.299699778825995
-0.373240645191363 -0.10432835820895 0.307736724791509
-0.374080719214169 -0.104328358208949 0.319238176422111
-0.378045428009587 -0.104328358208949 0.329637618397446
-0.372201276462069 -0.104328358208949 0.335102877490503
-0.374248673137534 -0.104328358208949 0.347475632669522
-0.377805402331448 -0.104328358208949 0.360275969040651
-0.372939626665638 -0.104328358208949 0.375644128216272
-0.375740562221922 -0.104328358208949 0.380626761611274
-0.374648522157889 -0.104328358208949 0.399935851186849
-0.377299505253447 -0.104328358208949 0.401830282983041
-0.373962013543423 -0.104328358208949 0.411124497693774
-0.376928564349088 -0.104328358208949 0.424715255106327
-0.372431005379391 -0.104328358208949 0.427959238734899
-0.378081177653441 -0.104328358208949 0.437366204098437
-0.373224932742593 -0.10432835820895 0.451035038559681
-0.380458563304204 -0.10432835820895 0.462912098681806
-0.380270724871181 -0.104328358208949 0.470251042061245
-0.379035379531468 -0.104328358208949 0.49736849193642
-0.378111951498117 -0.10432835820895 0.497344934009739
-0.374069701211675 -0.104328358208949 0.516354313350416
-0.371020451372768 -0.104328358208949 0.53734879224587
-0.378817696710814 -0.104328358208949 0.539540329374113
-0.373108767527022 -0.104328358208949 0.544045788630915
-0.377515373544693 -0.104328358208949 0.562093634807429
-0.374016700645512 -0.104328358208949 0.584265302914702
-0.376233828805768 -0.104328358208949 0.591760152303706
-0.374829149136872 -0.104328358208949 0.594417270789617
-0.377740216871607 -0.104328358208949 0.599049836008921
-0.375873989810179 -0.104328358208949 0.614360637648935
-0.37312035554517 -0.104328358208949 0.619402338564847
-0.37604433592724 -0.104328358208949 0.640446499720452
-0.373236644174843 -0.104328358208949 0.656570393927069
-0.37345880324259 -0.104328358208949 0.667079059694358
-0.372330630233515 -0.104328358208949 0.682622986015698
-0.373905147213927 -0.104328358208949 0.686099523806207
-0.374642303536002 -0.104328358208949 0.69893063306925
-0.376155390497045 -0.104328358208949 0.716893733340211
-0.378811226724954 -0.104328358208949 0.719169772714106
-0.371836452109745 -0.104328358208949 0.732531971785559
-0.375812426123116 -0.104328358208949 0.742494926624276
-0.376344698358728 -0.104328358208949 0.750888578414333
-0.372348573610149 -0.104328358208949 0.762844711181209
-0.374951063388042 -0.104328358208949 0.775209591023346
-0.37615761094046 -0.104328358208949 0.7750856183205
-0.375623056927227 -0.104328358208949 0.789018812405995
-0.374947509135476 -0.104328358208949 0.802705280475389
-0.378969713024496 -0.104328358208949 0.808709427216809
-0.372755355141099 -0.104328358208949 0.817469987021231
-0.380141940993274 -0.104328358208949 0.824369250637516
-0.373158908788672 -0.104328358208949 0.833522443763694
-0.379832472302183 -0.104328358208949 0.859368077001322
-0.372774069941095 -0.104328358208949 0.869805197411579
-0.373777874891169 -0.104328358208949 0.880078977941458
-0.37459166252278 -0.104328358208949 0.900426142648726
-0.375652053568442 -0.104328358208949 0.910411212966128
-0.37115036297848 -0.104328358208949 0.917154066325292
-0.372012546261164 -0.104328358208949 0.924838280118441
-0.380429553605189 -0.104328358208949 0.928001935661994
-0.37703231709734 -0.104328358208949 0.943297383730333
-0.377314363634458 -0.104328358208949 0.961511209104485
-0.379121392137399 -0.104328358208949 0.963312411528854
-0.380410366655839 -0.104328358208949 0.974460306013304
-0.374335961204258 -0.104328358208949 0.985231526599165
-0.373538891259361 -0.104328358208949 0.994593802361232
-0.374955954187687 -0.104100781482524 1.0
-0.379362015215997 -0.091542921841652 0.999999999999997
-0.37871732257826 -0.0712581569480243 0.999999999999991
-0.364130519334838 -0.104328358208949 0.0886877456064143
-0.366030868525003 -0.104328358208949 0.107797084993478
-0.368185746360168 -0.104328358208949 0.113335774680699
-0.37099449298404 -0.10432835820895 0.128664193634308
-0.36154457947264 -0.104328358208949 0.13865299237048
-0.366242331770352 -0.104328358208949 0.139197473894062
-0.368542734716612 -0.104328358208949 0.154880172610782
-0.362722975542777 -0.104328358208949 0.160460910200341
-0.36472710325857 -0.104328358208949 0.168738532859533
-0.367351834418226 -0.104328358208949 0.172293524639894
-0.368513809065689 -0.104328358208949 0.18478425111977
-0.369990658447824 -0.104328358208949 0.201340234508916
-0.36640699323723 -0.104328358208949 0.214243585542878
-0.370410842266477 -0.104328358208949 0.218512431964602
-0.364288092620735 -0.104328358208949 0.224019268571191
-0.366207634169008 -0.104328358208949 0.235032601268298
-0.363366904859706 -0.104328358208949 0.248639064633391
-0.368146210713612 -0.104328358208949 0.26364458027202
-0.362545375280288 -0.104328358208949 0.263155753651701
-0.366506192086397 -0.104328358208949 0.277628818773294
-0.363443177419252 -0.104328358208949 0.293905640413647
-0.369310713448621 -0.104328358208949 0.297706890438693
-0.366464736093059 -0.104328358208949 0.311404370773766
-0.362622128130893 -0.10432835820895 0.313479593309472
-0.367190327327981 -0.10432835820895 0.33016052830832
-0.36241308833532 -0.104328358208949 0.332243086644358
-0.364587366114142 -0.104328358208949 0.348877105376536
-0.365814475416775 -0.104328358208949 0.356709423414167
-0.36913592322741 -0.104328358208949 0.362599320365819
-0.363510409366168 -0.104328358208949 0.380498502918845
-0.368870358307246 -0.104328358208949 0.390562178539007
-0.370073814311872 -0.104328358208949 0.393578465490227
-0.368057359208022 -0.104328358208949 0.402675287889504
-0.364154208498404 -0.104328358208949 0.415465412711372
-0.368221990020792 -0.104328358208949 0.426195774822367
-0.36256016311131 -0.104328358208949 0.428181328302614
-0.367649905143236 -0.10432835820895 0.439528196254601
-0.368393662194196 -0.104328358208949 0.445546275456422
-0.370885566697164 -0.104328358208949 0.468387284514227
-0.368304131930517 -0.104328358208949 0.470509090075009
-0.361383016465399 -0.104328358208949 0.488520712754822
-0.36455382873376 -0.104328358208949 0.483336309253401
-0.370643225811052 -0.10432835820895 0.50321656350349
-0.36271542069078 -0.10432835820895 0.515154250395395
-0.365693961597197 -0.104328358208949 0.518767637453699
-0.364164870336393 -0.104328358208949 0.525116902558889
-0.367240463499675 -0.104328358208949 0.541019326379267
-0.36900831936484 -0.104328358208949 0.550749919457729
-0.365800449934577 -0.104328358208949 0.555555095556189
-0.36461696120531 -0.104328358208949 0.567198504902334
-0.366814537976638 -0.104328358208949 0.582020193786156
-0.369504651400862 -0.104328358208949 0.586244716938332
-0.368228718716333 -0.104328358208949 0.592797911803059
-0.365340799737577 -0.104328358208949 0.605129967620873
-0.371548238757129 -0.104328358208949 0.608745197845052
-0.369554613877805 -0.104328358208949 0.627057314339211
-0.368916561706478 -0.104328358208949 0.630620215322286
-0.366991595804378 -0.104328358208949 0.646971736139402
-0.365125165082218 -0.104328358208949 0.652584240926788
-0.370614896329525 -0.104328358208949 0.669927540408317
-0.367082765329274 -0.104328358208949 0.676306186963614
-0.36322612091209 -0.104328358208949 0.685776126544036
-0.364227001880035 -0.104328358208949 0.688897844570148
-0.365469027259824 -0.104328358208949 0.699075820102249
-0.366433836121446 -0.104328358208949 0.710968523201019
-0.365945457413874 -0.104328358208949 0.727716261684618
-0.364195515971511 -0.104328358208949 0.733512941518348
-0.369730672012359 -0.104328358208949 0.743454225451148
-0.369851018714217 -0.104328358208949 0.757471943715162
-0.36895963823927 -0.104328358208949 0.75819087177276
-0.365814043003701 -0.104328358208949 0.768220526940195
-0.366465861011908 -0.104328358208949 0.778746307373949
-0.367769761077956 -0.104328358208949 0.785141974549956
-0.368588850868097 -0.104328358208949 0.791051220587793
-0.362376045478468 -0.104328358208949 0.808491675527682
-0.363986062886935 -0.104328358208949 0.81971281868195
-0.368381063395598 -0.104328358208949 0.828016995665072
-0.366404054985118 -0.104328358208949 0.839001420828265
-0.368980679905345 -0.104328358208949 0.841904218913736
-0.366575782806454 -0.104328358208949 0.856438896556145
-0.36750371117208 -0.104328358208949 0.863610726966772
-0.371236678832332 -0.104328358208949 0.880345804903511
-0.367165979248068 -0.104328358208949 0.89279435372203
-0.371190875411561 -0.104328358208949 0.894995615796657
-0.366870297451091 -0.104328358208949 0.907982660496222
-0.36471878990964 -0.104328358208949 0.9175528586879
-0.367553605160241 -0.104328358208949 0.923799563744851
-0.369804901719836 -0.104328358208949 0.938990783653511
-0.367843640965787 -0.104328358208949 0.94411705048046
-0.362864893992162 -0.104328358208949 0.951946130157609
-0.368452929561827 -0.104328358208949 0.96412065748045
-0.363612970504975 -0.104328358208949 0.972877679284112
-0.366976920665744 -0.104328358208949 0.983538071363619
-0.371499799213001 -0.104328358208949 0.990385958832236
-0.368243675167965 -0.104328358208949 0.995403369341473
-0.368711068606829 -0.0886661037126719 0.999999999999996
-0.374529233523081 -0.07742974892099 0.999999999999993
-0.367702289509375 -0.0586284823961829 0.999999999999988
-0.375266962905947 -0.0428363559418165 0.999999999999984
-0.374064677075558 -0.0376288276648832 0.999999999999983
-0.377257228166017 -0.00172556642656869 0.999999999999973
-0.37911833610768 0.011034072633961 0.99999999999997
-0.358007505028388 -0.104328358208949 0.0927820109045995
-0.354302025091383 -0.104328358208949 0.107359646506399
-0.355407264962209 -0.104328358208949 0.115911894716709
-0.354622104118373 -0.104328358208949 0.126480327408085
-0.357915112072055 -0.104328358208949 0.134845318146296
-0.353704969495757 -0.104328358208949 0.148111588062395
-0.359635116850679 -0.104328358208949 0.159511432105412
-0.352557242162922 -0.10432835820895 0.165151438919929
-0.356732268801182 -0.104328358208949 0.165520903674876
-0.35495699179974 -0.104328358208949 0.177057138218648
-0.353974186943943 -0.104328358208949 0.188684956455819
-0.357108370464594 -0.104328358208949 0.198557638557942
-0.355560822838367 -0.104328358208949 0.207818438799611
-0.356869900176023 -0.104328358208949 0.224724612831209
-0.358153531678659 -0.10432835820895 0.230309685328042
-0.361142883976001 -0.10432835820895 0.244631446371744
-0.356668458712054 -0.10432835820895 0.249286762777224
-0.357027536337556 -0.104328358208949 0.255286142300682
-0.356230468756556 -0.104328358208949 0.276275018429034
-0.354516367470726 -0.104328358208949 0.273826534264792
-0.359269102491775 -0.104328358208949 0.287200293599373
-0.353677978361719 -0.104328358208949 0.305733853992058
-0.361532210294369 -0.104328358208949 0.306077032189896
-0.358986925746253 -0.104328358208949 0.32465582538241
-0.354459528411077 -0.104328358208949 0.324974428876683
-0.354545558381213 -0.104328358208949 0.333680625358012
-0.353391904948478 -0.104328358208949 0.34773648581629
-0.355327913795155 -0.10432835820895 0.351208443191253
-0.355314610635373 -0.104328358208949 0.363358487118311
-0.356754414436202 -0.104328358208949 0.376735657996052
-0.356925586834685 -0.104328358208949 0.391931576123746
-0.359431239568042 -0.104328358208949 0.391671906111375
-0.354728463412508 -0.104328358208949 0.406962896797616
-0.361099159365922 -0.104328358208949 0.412722783732635
-0.357005790239516 -0.104328358208949 0.420892268022224
-0.361506354804164 -0.104328358208949 0.432067555723892
-0.35348677214496 -0.104328358208949 0.436373722877774
-0.354317269280055 -0.104328358208949 0.448291340445442
-0.353356173750729 -0.104328358208949 0.459023034871885
-0.355624086671507 -0.10432835820895 0.470959708526108
-0.352918605261425 -0.104328358208949 0.4792310789879
-0.356849026636918 -0.104328358208949 0.493362722544724
-0.355800380434762 -0.104328358208949 0.498969954840454
-0.358863524985432 -0.104328358208949 0.509848269559376
-0.35814124854164 -0.104328358208949 0.515152788530815
-0.353897357086088 -0.104328358208949 0.526702014971828
-0.362079876885561 -0.104328358208949 0.540098489841615
-0.355891649632699 -0.104328358208949 0.546309995913664
-0.355756146758042 -0.104328358208949 0.554626325301422
-0.353956644494173 -0.104328358208949 0.574032429853586
-0.352965074547959 -0.104328358208949 0.578751100613443
-0.355966225569083 -0.104328358208949 0.586746711158256
-0.354147782755542 -0.104328358208949 0.593182351330888
-0.353675758933054 -0.104328358208949 0.599963945309619
-0.361948882841666 -0.104328358208949 0.617466720634341
-0.36001367980914 -0.104328358208949 0.623259027009703
-0.360477759690273 -0.104328358208949 0.633915965249953
-0.35855616047374 -0.104328358208949 0.651377444635109
-0.359384070109312 -0.104328358208949 0.650829423716005
-0.359098057545048 -0.104328358208949 0.66277286244163
-0.361230399501578 -0.104328358208949 0.672841462682491
-0.35919293877082 -0.104328358208949 0.684753702387448
-0.353054743035045 -0.104328358208949 0.69524437162918
-0.356334687538118 -0.104328358208949 0.710072585510655
-0.355431911595983 -0.104328358208949 0.709821487879769
-0.355447032388066 -0.104328358208949 0.720674396362774
-0.35513204926919 -0.104328358208949 0.732598510874367
-0.360975122678379 -0.104328358208949 0.735654839632684
-0.361800437451299 -0.104328358208949 0.743959337097965
-0.360635164823836 -0.104328358208949 0.76140999672233
-0.357117302774248 -0.104328358208949 0.765800409297952
-0.360772841209845 -0.104328358208949 0.786870512342976
-0.360921341689351 -0.104328358208949 0.796276727926199
-0.357615735166135 -0.104328358208949 0.803429687149714
-0.359553172321092 -0.104328358208949 0.816266810890382
-0.359927669697464 -0.104328358208949 0.824741922038608
-0.360017848939951 -0.104328358208949 0.833457399535854
-0.354664835113924 -0.104328358208949 0.832938463254197
-0.359695995438976 -0.104328358208949 0.850325106400689
-0.358513491869828 -0.104328358208949 0.864122921283621
-0.358172386763631 -0.104328358208949 0.867439441647207
-0.358371245755964 -0.104328358208949 0.878482004581948
-0.35386380188456 -0.104328358208949 0.88664144893938
-0.355629844806547 -0.104328358208949 0.894675816673414
-0.35567166453675 -0.104328358208949 0.906415380812455
-0.358851917891375 -0.104328358208949 0.915671527423895
-0.353612737288256 -0.104328358208949 0.923551566178602
-0.352371649236216 -0.104328358208949 0.937198583247462
-0.358047687461213 -0.104328358208949 0.946554284683438
-0.359825826092319 -0.104328358208949 0.95112176417805
-0.362373461656193 -0.104328358208949 0.956231974701582
-0.352814625980981 -0.104328358208949 0.974309034161702
-0.360017023664215 -0.104328358208949 0.982663391652388
-0.3610611224569 -0.104328358208949 0.987009316712021
-0.354742496606474 -0.104328358208949 0.995260563259214
-0.357546147827332 -0.0906559613234314 0.999999999999996
-0.355961214567294 -0.0743020366565937 0.999999999999992
-0.362186222599623 -0.0637739048919131 0.99999999999999
-0.362464823316632 -0.0406194860443346 0.999999999999983
-0.36751447117179 -0.0316467616847446 0.999999999999981
-0.372496080358813 -0.014152769773074 0.999999999999977
-0.369515521211203 0.00622334471041138 0.999999999999971
-0.371212197896211 0.00907198533779215 0.999999999999971
-0.375473156786827 0.0387058545194298 0.999999999999963
-0.377638675816744 0.0437262381857338 0.999999999999962
-0.373193904789637 0.055775250816716 0.999999999999959
-0.377603895913893 0.0731082335965449 0.999999999999954
-0.377917791822254 0.0921020320990251 0.999999999999949
-0.34472891001915 -0.104328358208949 0.0923159723473659
-0.344689552251579 -0.104328358208949 0.111375293869569
-0.347443707427204 -0.10432835820895 0.111691087921869
-0.342970743030928 -0.104328358208949 0.12663406137412
-0.351161640682511 -0.104328358208949 0.13211855126455
-0.346817492656222 -0.104328358208949 0.147126632568659
-0.345371429494613 -0.104328358208949 0.15372679456236
-0.343517248202236 -0.104328358208949 0.157681095589334
-0.343662231453973 -0.104328358208949 0.167036817405697
-0.351476726173821 -0.104328358208949 0.182941708131795
-0.346313324465436 -0.104328358208949 0.188150482023534
-0.347118048386599 -0.104328358208949 0.202907006864091
-0.349375465212884 -0.104328358208949 0.217806079664834
-0.350764081779304 -0.104328358208949 0.223020657425588
-0.344155934510483 -0.10432835820895 0.226432858407986
-0.349797144592459 -0.104328358208949 0.23700973631568
-0.35205621084911 -0.104328358208949 0.246851044135051
-0.350508502626647 -0.104328358208949 0.260119718166959
-0.346345105247835 -0.104328358208949 0.269389605487371
-0.343039621998837 -0.104328358208949 0.273906206264387
-0.350162472071651 -0.104328358208949 0.293764272952606
-0.3461497158022 -0.104328358208949 0.299256759928807
-0.342916601137261 -0.104328358208949 0.307326887943536
-0.34953494256507 -0.104328358208949 0.31867256914501
-0.348445324312115 -0.104328358208949 0.327239440113599
-0.350196508518547 -0.104328358208949 0.33543343323618
-0.350908881005286 -0.104328358208949 0.347353145339625
-0.348904134648369 -0.104328358208949 0.355900294256396
-0.350819986038254 -0.10432835820895 0.369567850461497
-0.350985972477734 -0.10432835820895 0.373189033361223
-0.345731343010984 -0.104328358208949 0.38312155208584
-0.351850907023071 -0.10432835820895 0.39927050023774
-0.346761329299179 -0.104328358208949 0.404114932735279
-0.348411130434198 -0.104328358208949 0.42022656211187
-0.347694654760312 -0.104328358208949 0.430116125589568
-0.346292276794372 -0.104328358208949 0.42672731102176
-0.344857409190459 -0.104328358208949 0.444824988810986
-0.351181165888742 -0.104328358208949 0.455294039901198
-0.344301612892491 -0.104328358208949 0.455887046054211
-0.344990945896701 -0.10432835820895 0.46776563685232
-0.349040435584349 -0.104328358208949 0.484874295367525
-0.351662354350716 -0.104328358208949 0.492879088449295
-0.351745394279875 -0.10432835820895 0.499953863364239
-0.34953965161121 -0.104328358208949 0.506757044384211
-0.347745139089218 -0.104328358208949 0.512386222003818
-0.351534529602428 -0.104328358208949 0.535295744271638
-0.346752417711246 -0.104328358208949 0.539327547166171
-0.343083503118945 -0.104328358208949 0.545892480333896
-0.343090408493471 -0.104328358208949 0.55484508644599
-0.344261673079586 -0.104328358208949 0.56297803434805
-0.343161864278484 -0.104328358208949 0.580574804565865
-0.351637065967377 -0.104328358208949 0.582334049209078
-0.34920449988323 -0.104328358208949 0.594173755612776
-0.348003937300317 -0.104328358208949 0.602482498671291
-0.346461266074347 -0.104328358208949 0.609599847626213
-0.351072429489689 -0.104328358208949 0.629382295933222
-0.342724442734426 -0.104328358208949 0.637810528828712
-0.344650998842779 -0.104328358208949 0.649052281626579
-0.348155212993906 -0.104328358208949 0.656766962008912
-0.351638243261698 -0.104328358208949 0.664092723959319
-0.34788940363783 -0.104328358208949 0.671168164082072
-0.343488860708473 -0.104328358208949 0.68058122178195
-0.34805135422646 -0.104328358208949 0.688388949587951
-0.346703894401094 -0.104328358208949 0.701478699754719
-0.348089308300945 -0.104328358208949 0.710493933552597
-0.349203117263911 -0.104328358208949 0.717280042418475
-0.346284376191813 -0.104328358208949 0.730758390771525
-0.343132058588561 -0.104328358208949 0.737314538474045
-0.349084631031985 -0.104328358208949 0.749257956978459
-0.346543814823326 -0.104328358208949 0.762366009990697
-0.344957299157925 -0.104328358208949 0.777603622974249
-0.344731048785845 -0.104328358208949 0.779064762097634
-0.351040912628562 -0.104328358208949 0.791552448577072
-0.344211523490881 -0.104328358208949 0.798848810935878
-0.347878091669711 -0.104328358208949 0.807744103706415
-0.346158248868451 -0.104328358208949 0.81881951409403
-0.351259352889323 -0.104328358208949 0.836085792750061
-0.3481949170458 -0.104328358208949 0.832608748051643
-0.348435186288153 -0.104328358208949 0.851378556228144
-0.346846605743196 -0.104328358208949 0.856747121320255
-0.347439150174302 -0.104328358208949 0.867795913292243
-0.346891844361746 -0.104328358208949 0.878556894960753
-0.350275247321861 -0.104328358208949 0.88503245187186
-0.345835468081677 -0.104328358208949 0.889449163950677
-0.349226097110275 -0.104328358208949 0.908782534859146
-0.34462206886768 -0.104328358208949 0.914328566381697
-0.350041527946906 -0.104328358208949 0.918770081527926
-0.346898501055033 -0.104328358208949 0.932977273248666
-0.344998678842147 -0.104328358208949 0.945399774721484
-0.347864367102888 -0.104328358208949 0.957330616749278
-0.342427258136716 -0.104328358208949 0.961784322579923
-0.348053795171058 -0.104328358208949 0.969982896481972
-0.345197255578523 -0.104328358208949 0.980432341689312
-0.347701914109899 -0.104328358208949 0.989483595492602
-0.35157949812058 -0.0990554643796527 0.999999999999999
-0.346132183001893 -0.0928575783001965 0.999999999999997
-0.354129797077721 -0.0798133062174385 0.999999999999994
-0.353408123928261 -0.0638506907739791 0.99999999999999
-0.354729759293227 -0.0348736671896829 0.999999999999982
-0.356115398673584 -0.0181267408562034 0.999999999999978
-0.354829068330714 -0.0171462997808812 0.999999999999977
-0.362864793775953 -0.00533073329441801 0.999999999999975
-0.364918156248072 0.0182749481351531 0.999999999999968
-0.367089646973483 0.0319183585405865 0.999999999999965
-0.368944285292542 0.0497883460057159 0.99999999999996
-0.363139334285528 0.0560687222169128 0.999999999999959
-0.369137912091146 0.0861680654806407 0.999999999999951
-0.369486845213938 0.095692985409426 0.999999999999948
-0.342320343514834 -0.104328358208949 0.0928312410617068
-0.338064939906237 -0.104328358208949 0.10777756836637
-0.333179829818095 -0.104328358208949 0.112622007445036
-0.335764583085808 -0.10432835820895 0.123075645833711
-0.338763228230804 -0.104328358208949 0.140639359344427
-0.342077778863209 -0.104328358208949 0.1400350023775
-0.336433184370448 -0.104328358208949 0.14691451895817
-0.339883683968021 -0.10432835820895 0.160782764690845
-0.341786981960233 -0.104328358208949 0.170544976542049
-0.334631455804092 -0.104328358208949 0.178161883172895
-0.338295465970896 -0.104328358208949 0.184586584899632
-0.341213072071072 -0.104328358208949 0.20215188047921
-0.342436065621093 -0.104328358208949 0.216425300701742
-0.341876848670689 -0.104328358208949 0.227818715028823
-0.338720521106951 -0.104328358208949 0.235004722792571
-0.336920917193619 -0.104328358208949 0.231854016576394
-0.334472346382196 -0.104328358208949 0.252384272469282
-0.33588467381026 -0.104328358208949 0.252388070999166
-0.333947905469784 -0.104328358208949 0.269910799286376
-0.334149577391904 -0.104328358208949 0.270999839977516
-0.339973008596238 -0.104328358208949 0.289775168552028
-0.342956690794695 -0.10432835820895 0.295207624508941
-0.334956044868524 -0.104328358208949 0.311496285655903
-0.337297513063979 -0.104328358208949 0.320685823858043
-0.341363246653118 -0.104328358208949 0.329791172313282
-0.339906441439036 -0.104328358208949 0.340596048882396
-0.339830639425203 -0.104328358208949 0.344270237460946
-0.335310060259787 -0.104328358208949 0.357182691620368
-0.340976895194307 -0.10432835820895 0.364982606637442
-0.340667736793756 -0.104328358208949 0.374036101856924
-0.340969797579338 -0.104328358208949 0.384899333537872
-0.339527733374479 -0.104328358208949 0.391609181876582
-0.337135839286357 -0.104328358208949 0.409314230513583
-0.334474885344765 -0.104328358208949 0.414021304048039
-0.335125571318199 -0.104328358208949 0.42845418824911
-0.335495302531289 -0.104328358208949 0.436033225957008
-0.336499117884682 -0.10432835820895 0.443946534031195
-0.340597427528676 -0.104328358208949 0.456361115945156
-0.337537483871952 -0.104328358208949 0.46401026257442
-0.338465521045986 -0.104328358208949 0.46496924553865
-0.335754180126954 -0.104328358208949 0.482143222150406
-0.335100992520463 -0.104328358208949 0.485733581049029
-0.339501220680994 -0.10432835820895 0.498968605618576
-0.341156050740496 -0.104328358208949 0.508888882084856
-0.342280819943333 -0.104328358208949 0.521982690072246
-0.340255370339883 -0.104328358208949 0.529502468552007
-0.342422577343359 -0.104328358208949 0.538403819944147
-0.336326419044702 -0.104328358208949 0.551786399595813
-0.340256686153077 -0.104328358208949 0.556825066788259
-0.33664873717228 -0.104328358208949 0.563549826242449
-0.339618385007298 -0.104328358208949 0.581177988427811
-0.337145677078836 -0.104328358208949 0.582487205081809
-0.340997128079042 -0.104328358208949 0.600943236930939
-0.33776844587931 -0.104328358208949 0.608583298488307
-0.336082408808818 -0.104328358208949 0.617371343500047
-0.334083934128543 -0.104328358208949 0.631542716442599
-0.334570717983345 -0.104328358208949 0.634831720490754
-0.336008739395174 -0.104328358208949 0.642454973474148
-0.337662505220086 -0.104328358208949 0.659943662808487
-0.339304499985493 -0.104328358208949 0.668136337282418
-0.333885589274709 -0.104328358208949 0.67890299920699
-0.342336754136796 -0.104328358208949 0.682932458144675
-0.337722712851634 -0.104328358208949 0.692959214937625
-0.336744330568693 -0.104328358208949 0.703806580767533
-0.339556448829252 -0.104328358208949 0.717873989931037
-0.332755692675821 -0.104328358208949 0.727327579485255
-0.340305794850461 -0.104328358208949 0.739132625572243
-0.334133222515324 -0.104328358208949 0.741053550580075
-0.33985134725718 -0.104328358208949 0.750792690885079
-0.336057916775621 -0.104328358208949 0.765680525450926
-0.335449852416554 -0.104328358208949 0.773597026357415
-0.342297648003579 -0.104328358208949 0.780451007963386
-0.336580199083132 -0.104328358208949 0.791859771617504
-0.333956524983481 -0.104328358208949 0.800133157102705
-0.333890963106854 -0.104328358208949 0.806039517789588
-0.335871649697556 -0.104328358208949 0.824567843654097
-0.342793993206606 -0.104328358208949 0.822229643836361
-0.338154831392204 -0.104328358208949 0.839212931251772
-0.341086087592007 -0.104328358208949 0.84105985517271
-0.334518806024899 -0.104328358208949 0.860995673820116
-0.33899320419407 -0.104328358208949 0.860193706164244
-0.342424607248639 -0.104328358208949 0.879340488379012
-0.333968299816857 -0.104328358208949 0.886762926955698
-0.34041033253108 -0.104328358208949 0.897593798939216
-0.334895102947408 -0.104328358208949 0.908890121701357
-0.341601445327753 -0.104328358208949 0.912245834607147
-0.332796730959187 -0.104328358208949 0.929179424869947
-0.337457651900535 -0.104328358208949 0.936010957346737
-0.339829911364625 -0.104328358208949 0.940788767559262
-0.341965664636685 -0.104328358208949 0.957385512049208
-0.337635609540418 -0.104328358208949 0.964615608822428
-0.342363890818693 -0.104328358208949 0.973825938143856
-0.342578012101938 -0.104328358208949 0.979760700642444
-0.340112561577076 -0.104328358208949 0.994916310359235
-0.33450340548364 -0.0965432425339179 0.999999999999998
-0.340406245770318 -0.0964355111237929 0.999999999999998
-0.34303946471235 -0.0680360250983305 0.999999999999991
-0.345064171482771 -0.057734383954465 0.999999999999988
-0.347348183066979 -0.0467639927263081 0.999999999999985
-0.343029744132949 -0.0189684622431637 0.999999999999978
-0.346115803086683 -0.0201991223487297 0.999999999999978
-0.353966299975966 0.00397828521547438 0.999999999999972
-0.3470479306584 0.00879550977331216 0.999999999999971
-0.35245527588736 0.0219098731609056 0.999999999999967
-0.356710801169575 0.0429992471165157 0.999999999999962
-0.35384648721481 0.0621295166284936 0.999999999999957
-0.361466394987785 0.0852897580929182 0.999999999999951
-0.364512650240612 0.0925110091509834 0.999999999999949
-0.358618751333415 0.104495113751048 0.999999999999946
-0.324288445642474 -0.104328358208949 0.095459950199836
-0.324977558679651 -0.104328358208949 0.0955207547468339
-0.325044552233157 -0.104328358208949 0.112835100697617
-0.330249093190256 -0.104328358208949 0.126971693084891
-0.323790024033082 -0.104328358208949 0.137196994347035
-0.332142186926386 -0.104328358208949 0.145358917348203
-0.323948094522853 -0.10432835820895 0.151114708558461
-0.330603168624311 -0.104328358208949 0.157181515859654
-0.325652540029738 -0.10432835820895 0.169966436825034
-0.332053334880962 -0.104328358208949 0.180463863643659
-0.328014578057477 -0.104328358208949 0.194682556050185
-0.332428858647088 -0.10432835820895 0.197526176186666
-0.33278616985083 -0.10432835820895 0.207846424060487
-0.327925836316203 -0.104328358208949 0.221431920368484
-0.325343955271203 -0.104328358208949 0.23275764973895
-0.330853665729893 -0.104328358208949 0.238630192980578
-0.325294986282302 -0.104328358208949 0.243949281904106
-0.328029057931067 -0.104328358208949 0.259719049927513
-0.328680143467074 -0.104328358208949 0.270734897257965
-0.328030949635637 -0.104328358208949 0.27526870733985
-0.331127476384366 -0.10432835820895 0.292594290196435
-0.325812825452549 -0.104328358208949 0.296728144453619
-0.326076750308979 -0.104328358208949 0.30696761449513
-0.328931189572924 -0.104328358208949 0.318290837683713
-0.324290481208506 -0.104328358208949 0.327522304126003
-0.329967698971256 -0.104328358208949 0.331665554646014
-0.323525289677235 -0.10432835820895 0.345212149829797
-0.325350435172671 -0.104328358208949 0.357334372918846
-0.327765740512488 -0.10432835820895 0.367717384984883
-0.328247732144645 -0.104328358208949 0.369766095446945
-0.324084178618123 -0.104328358208949 0.381899132226313
-0.330610570974869 -0.104328358208949 0.400138943194231
-0.327739433309209 -0.10432835820895 0.410641212872063
-0.331700575989107 -0.104328358208949 0.418921941040293
-0.324767002200555 -0.104328358208949 0.42231994140452
-0.327909765815065 -0.10432835820895 0.428987833847645
-0.3294424292708 -0.104328358208949 0.436237433760799
-0.328517755150077 -0.104328358208949 0.452965725315755
-0.333197750509115 -0.104328358208949 0.461464582444834
-0.326877370105731 -0.104328358208949 0.470895593570248
-0.328208340174724 -0.10432835820895 0.483582596633805
-0.32564113765568 -0.10432835820895 0.489577866418277
-0.325571567831023 -0.104328358208949 0.501484966179206
-0.327984010682666 -0.104328358208949 0.502215733921728
-0.330915069100036 -0.10432835820895 0.51129598490181
-0.325305060221305 -0.104328358208949 0.534112427030152
-0.332650939124863 -0.104328358208949 0.532583377053889
-0.325982121606525 -0.104328358208949 0.545670547190666
-0.324967535493536 -0.104328358208949 0.557898783211891
-0.324329171178859 -0.104328358208949 0.564908782427379
-0.323988920352051 -0.104328358208949 0.577993241891723
-0.32725882301532 -0.104328358208949 0.592916103231814
-0.329324909812709 -0.104328358208949 0.592116839653537
-0.329693060312507 -0.104328358208949 0.600451837978946
-0.329865579547988 -0.104328358208949 0.61686986234865
-0.32987451279623 -0.104328358208949 0.621970274667011
-0.32671032018852 -0.104328358208949 0.638554287204272
-0.329985444278986 -0.104328358208949 0.642711379635351
