ply
format ascii 1.0
element vertex 835
property float x
property float y
property float z
end_header
-0.326667433204845 -0.0496997349697145 0.29801164167788
-0.326667433204845 -0.0483131639903996 0.2978293510798
-0.326667433204845 -0.0446087626025461 0.303253671705732
-0.326667433204845 -0.0442170738835258 0.312915314755976
-0.326667433204845 -0.0377620314955917 0.322662317934267
-0.326667433204845 -0.0411784960706401 0.333497676828096
-0.326667433204845 -0.0383812072924238 0.335912206560675
-0.326667433204845 -0.0389280937154675 0.351812549823739
-0.326667433204845 -0.0465906539211318 0.362192082192742
-0.326667433204845 -0.0411768385360552 0.370281760291154
-0.326667433204845 -0.0382308733178251 0.379258770779198
-0.326667433204845 -0.0455813190097514 0.39546263305864
-0.326667433204845 -0.0473414871348186 0.408466888780463
-0.326667433204845 -0.0344618416012632 0.398963440367353
-0.326667433204845 -0.0400746637407363 0.419620055344531
-0.326667433204845 -0.0466878923037614 0.430992883526232
-0.326667433204845 -0.0423781897539167 0.437106208732401
-0.326667433204845 -0.0406708116783168 0.440396009721156
-0.326667433204845 -0.0418634548942481 0.442701535303906
-0.326667433204845 -0.0412583602878742 0.454667103461771
-0.326667433204845 -0.0434456666233608 0.472467821182312
-0.326667433204845 -0.0379128450146077 0.480011498590477
-0.326667433204846 -0.0388339962480426 0.493049554850357
-0.326667433204845 -0.0410615308543704 0.492353786071285
-0.326667433204845 -0.0406692099403373 0.504703875913587
-0.326667433204845 -0.0392224813470445 0.514613134056592
-0.326667433204845 -0.0478068802629389 0.530240001815019
-0.326667433204845 -0.0379708921461383 0.53462733862311
-0.326667433204845 -0.0352937721798732 0.536602979730847
-0.326667433204846 -0.0469284938290392 0.551653851455939
-0.326667433204845 -0.042112158255761 0.562575456115951
-0.326667433204845 -0.0398550650969205 0.574701589173081
-0.326667433204845 -0.0399246696657328 0.579106705457103
-0.326667433204845 -0.0383547412746781 0.589844848239466
-0.326667433204845 -0.0356273015553605 0.592244624799105
-0.326667433204846 -0.0469613178390627 0.614346327565782
-0.326667433204845 -0.0378023046848177 0.610861472614293
-0.326667433204845 -0.0428561531297018 0.625410519281924
-0.326667433204846 -0.0455801983802516 0.640944492853328
-0.326667433204845 -0.0466738757387618 0.653214944055876
-0.326667433204845 -0.0456866668258989 0.653192508431574
-0.326667433204846 -0.0400464014719499 0.660567167994734
-0.326667433204845 -0.0387589377983394 0.670394103199027
-0.326667433204846 -0.0434120012443601 0.687047734662435
-0.326667433204846 -0.0474019999731875 0.699118393872448
-0.326667433204845 -0.0453521509929892 0.704347876861476
-0.326667433204846 -0.0391747942745481 0.702277974429121
-0.326667433204846 -0.0423628633747301 0.716923132986164
-0.326667433204846 -0.0444110000324385 0.727024567380245
-0.326667433204845 -0.0434902918935205 0.729408757253976
-0.326667433204846 -0.0372172852067775 0.738019867562004
-0.326667433204846 -0.0475516223971126 0.753727211758471
-0.326667433204845 -0.0432399150726897 0.763668969101853
-0.326667433204846 -0.0451437993611 0.774121635333961
-0.326667433204846 -0.0435249883412815 0.78528792287598
-0.326667433204845 -0.0453874271635118 0.795683718655042
-0.326667433204846 -0.0419471945744616 0.801834783348301
-0.326667433204846 -0.0430705541684753 0.812544697406199
-0.326667433204845 -0.0494435711378755 0.825481287251765
-0.326667433204846 -0.0410207309827486 0.826940977137226
-0.326667433204845 -0.0415779239132071 0.831741918790127
-0.326667433204846 -0.0375871976147065 0.838497239291465
-0.326667433204846 -0.0477029599410904 0.855727536460698
-0.326667433204845 -0.0461091457121808 0.863199288661474
-0.326667433204846 -0.0459704364999402 0.880053728009081
-0.326667433204845 -0.0416944643309125 0.885395046053653
-0.326667433204846 -0.036977396499956 0.890065361739372
-0.326667433204846 -0.046046186127075 0.90444578670213
-0.326667433204845 -0.0459482223817812 0.905056449878212
-0.326667433204846 -0.0385539685568757 0.919525385486964
-0.326667433204846 -0.0470870081178588 0.931130228941888
-0.326667433204845 -0.0489763981694639 0.937829387714477
-0.326667433204845 -0.0425174458697005 0.9410805259751
-0.326667433204845 -0.050635627484923 0.956918972549407
-0.326667433204845 -0.0472332371797429 0.963975553420161
-0.326667433204846 -0.0459908116280741 0.973568308176662
-0.326667433204846 -0.0448996426887144 0.977831489545768
-0.326667433204845 -0.0392540396251203 0.992812330722328
-0.324225637080354 -0.0431828077557342 0.996025762734741
-0.315243663057203 -0.0275313116702596 0.999821498662766
-0.308807381167318 -0.0236250178347604 0.999719208758763
-0.305015167899225 -0.0163698400755443 0.99952922524299
-0.289954222664945 0.00275417031331705 0.999028445406859
-0.285042856519401 0.00907407549511531 0.998862952865443
-0.270418480955093 0.0247545995510296 0.998452343892351
-0.272820489811121 0.0221581442641862 0.99852033446685
-0.26260148818017 0.0391655770470089 0.998074979165906
-0.245833081509089 0.0509128610951886 0.997767365707169
-0.230866294742833 0.0654645335978582 0.997386316752315
-0.234199194945561 0.0730384602612527 0.997187986502736
-0.214988359529077 0.0878359167067083 0.996800501468832
-0.207813268041488 0.0966771943248844 0.99656898446655
-0.197809718828083 0.111643556831769 0.996177076471769
-0.199279111484362 0.112818068098012 0.996146320811869
-0.326667433204845 -0.03233501615377 0.245197048663537
-0.326667433204845 -0.025155644252612 0.248616933287336
-0.326667433204845 -0.036602168280065 0.267243420158052
-0.326667433204845 -0.0282723155038952 0.271500604623296
-0.326667433204845 -0.0191508915786376 0.274034282243853
-0.326667433204845 -0.031440845941239 0.298301886389201
-0.326667433204845 -0.0261744646741832 0.288535702555188
-0.326667433204845 -0.0348914475250418 0.308017125017285
-0.326667433204845 -0.0244477838254227 0.317259121075613
-0.326667433204845 -0.0244859125048391 0.327601037434472
-0.326667433204845 -0.0306147527173238 0.329584237457457
-0.326667433204845 -0.0282551533878089 0.340967518501812
-0.326667433204845 -0.0263727813375332 0.350026420863976
-0.326667433204845 -0.0260035621120586 0.359128606653062
-0.326667433204845 -0.0306895123431768 0.376248424482774
-0.326667433204845 -0.0310682162975063 0.38141924739848
-0.326667433204845 -0.0332179265377947 0.389721060130153
-0.326667433204845 -0.0257702419645472 0.390552993064034
-0.326667433204845 -0.0276631854395784 0.397654162111432
-0.326667433204845 -0.0262928597394966 0.408612542359786
-0.326667433204845 -0.0258760880767859 0.426809076632289
-0.326667433204845 -0.0267995687781575 0.430658551494084
-0.326667433204845 -0.0348400699787489 0.451299657205157
-0.326667433204845 -0.0357179950527764 0.459165938659081
-0.326667433204845 -0.0329601169418364 0.465412367219427
-0.326667433204845 -0.0263034315132734 0.472159750709674
-0.326667433204846 -0.0265080627648459 0.483568317727763
-0.326667433204845 -0.0306288944341308 0.492845623366503
-0.326667433204845 -0.0346389536425231 0.499438709152118
-0.326667433204845 -0.0295592224479611 0.513706228823677
-0.326667433204845 -0.0252884342381404 0.515345749848703
-0.326667433204845 -0.0260629264075393 0.526537328361834
-0.326667433204845 -0.0300028331239232 0.54335183961563
-0.326667433204845 -0.0225887101141685 0.542256250728174
-0.326667433204845 -0.0263818084628851 0.547269746242997
-0.326667433204845 -0.0317060310962152 0.568562908680156
-0.326667433204846 -0.0254220335096959 0.567345901144356
-0.326667433204845 -0.0231004337588408 0.572434788371913
-0.326667433204846 -0.026475729896892 0.588258181963746
-0.326667433204845 -0.0330572190907953 0.599551864915369
-0.326667433204845 -0.0307682277421745 0.61458626070326
-0.326667433204846 -0.0360969177041249 0.622229587292383
-0.326667433204845 -0.034580197140152 0.633952989479964
-0.326667433204845 -0.033219153078561 0.6413596029675
-0.326667433204845 -0.0261709914417458 0.641935565004328
-0.326667433204845 -0.0265105433190983 0.652380450230614
-0.326667433204846 -0.0381453200342373 0.670852443557657
-0.326667433204846 -0.0304653435509163 0.67492794990737
-0.326667433204845 -0.0242338759568586 0.684398532927315
-0.326667433204846 -0.0294233626765893 0.700527243900823
-0.326667433204846 -0.0233070825241074 0.698053741999162
-0.326667433204846 -0.0237448785891963 0.708834573980936
-0.326667433204846 -0.0281070196937583 0.717760778642509
-0.326667433204845 -0.0299253896995618 0.729278817390932
-0.326667433204845 -0.0361134595825937 0.7398155323014
-0.326667433204845 -0.0249160973615766 0.743139318535539
-0.326667433204845 -0.026167330131565 0.750119357479064
-0.326667433204846 -0.0259596454415578 0.764696022563694
-0.326667433204846 -0.0223275889137107 0.77224866778931
-0.326667433204846 -0.0259563368031683 0.783072608239376
-0.326667433204846 -0.0249950487461577 0.790366206274998
-0.326667433204845 -0.0244916783451084 0.799020648407432
-0.326667433204845 -0.0259502331815111 0.801333001376068
-0.326667433204845 -0.0260848072938228 0.812854680167821
-0.326667433204845 -0.0305391676764941 0.824864940700436
-0.326667433204846 -0.0317891587109741 0.836742379448818
-0.326667433204846 -0.0220752097733151 0.840718393794207
-0.326667433204846 -0.0216616117733764 0.85133042167729
-0.326667433204845 -0.0264876344418312 0.860324890879861
-0.326667433204846 -0.0242604712059086 0.873082794752846
-0.326667433204846 -0.0295178345740686 0.886398413466381
-0.326667433204846 -0.0260679207947778 0.886437012092063
-0.326667433204845 -0.0353533168584085 0.907695437012103
-0.326667433204845 -0.0286210388421172 0.913358811331678
-0.326667433204846 -0.0250879532723262 0.922941941826813
-0.326667433204845 -0.0287406849831126 0.932710252583556
-0.326667433204845 -0.0303704644454519 0.939524123812096
-0.326667433204845 -0.0212021903975967 0.939256549920686
-0.326667433204845 -0.0355517260904728 0.955777122212286
-0.326667433204845 -0.0267121394464889 0.963812956637345
-0.326667433204845 -0.0237708485670577 0.973414965738268
-0.326667433204846 -0.0236705010587236 0.983119568239993
-0.326667433204846 -0.0323006790871756 0.998014545049158
-0.319804042938737 -0.0235255939323334 0.999716605252252
-0.30726564358755 -0.0108453201521316 0.999384560597568
-0.307367286374267 -0.00906020231070697 0.99933781564178
-0.301785425869679 0.00296420027818859 0.999022945578671
-0.291034629757819 0.0137846598024693 0.998739601874226
-0.276635676670945 0.0328375314232396 0.998240684872296
-0.272381926386052 0.0377652269923896 0.998111648622606
-0.261887724353705 0.0437446122622693 0.997955072908898
-0.248535461643895 0.0588996008644675 0.997558225565978
-0.244465368144643 0.0632905376422578 0.997443244839899
-0.235426232926556 0.0751799328282753 0.997131910070053
-0.226143635966815 0.0810401668188427 0.996978454442399
-0.221949830184546 0.0975726938480293 0.996545534986272
-0.208026762224333 0.110779714030293 0.996199696991617
-0.326667433204845 -0.00879404338404422 0.226128534451432
-0.326667433204845 -0.0209216371730654 0.245863407771921
-0.326667433204845 -0.00977627289357942 0.250812940783271
-0.326667433204845 -0.0160579130153958 0.262012924304291
-0.326667433204845 -0.0181717271016777 0.272856087824298
-0.326667433204845 -0.0149020472648145 0.273840566095224
-0.326667433204845 -0.0208058863314493 0.287750712368218
-0.326667433204845 -0.0156288324670913 0.305876056504663
-0.326667433204845 -0.016920026405783 0.303981562467532
-0.326667433204845 -0.0169361783706942 0.315320721521408
-0.326667433204845 -0.0123102113227894 0.321124205106644
-0.326667433204845 -0.0222795370372371 0.342705287010136
-0.326667433204845 -0.0165169286356284 0.33901150785001
-0.326667433204845 -0.0150954889686177 0.361009255706761
-0.326667433204845 -0.0143646836907318 0.357046466749397
-0.326667433204845 -0.0143045651334799 0.372646877277052
-0.326667433204845 -0.0107557869594229 0.377542797405314
-0.326667433204845 -0.0169518742992391 0.386463986068041
-0.326667433204845 -0.0108348085263118 0.3992000003242
-0.326667433204845 -0.0117649020332437 0.411135276770312
-0.326667433204845 -0.0165713688682011 0.410341685241932
-0.326667433204845 -0.0102171001825143 0.425318220534741
-0.326667433204845 -0.0182868051760342 0.430769043487224
-0.326667433204845 -0.0134793477672732 0.447409605583614
-0.326667433204845 -0.0203424855866941 0.457946991963983
-0.326667433204846 -0.0150717200990427 0.458817069995375
-0.326667433204846 -0.00934033822377094 0.468218734184088
-0.326667433204845 -0.0145055420692958 0.484568094826885
-0.326667433204845 -0.0204418470963813 0.496323314083631
-0.326667433204846 -0.021429233203113 0.502048699664067
-0.326667433204845 -0.0129880314518798 0.507840486266145
-0.326667433204845 -0.0161144725404663 0.522183916489276
-0.326667433204846 -0.00898096552010124 0.523471516036137
-0.326667433204845 -0.0107893951897817 0.534162182889982
-0.326667433204845 -0.0153453655663753 0.550440459533531
-0.326667433204845 -0.0114806520145203 0.549251109214219
-0.326667433204845 -0.0164715384017746 0.561426855028127
-0.326667433204845 -0.0143848752396267 0.572493550502027
-0.326667433204845 -0.0187532370373071 0.579900969836026
-0.326667433204845 -0.020632387094819 0.595943442517615
-0.326667433204845 -0.00961520110180848 0.599069156454455
-0.326667433204846 -0.0169874418410793 0.605669673739335
-0.326667433204846 -0.0200271895097592 0.622841402547803
-0.326667433204846 -0.0164979392003532 0.633166304664193
-0.326667433204845 -0.0110348365530585 0.6367730973011
-0.326667433204845 -0.0119678021336973 0.640003303249908
-0.326667433204845 -0.0107625512580079 0.655980832899518
-0.326667433204846 -0.0177256565873302 0.665588077900525
-0.326667433204845 -0.0183188508160573 0.670486908909382
-0.326667433204846 -0.0161266807598616 0.681762890091322
-0.326667433204845 -0.0196630497938574 0.693802042657411
-0.326667433204846 -0.017651356919786 0.711178165199281
-0.326667433204846 -0.0125233531659841 0.712206217240963
-0.326667433204846 -0.0116293731726178 0.72246010268422
-0.326667433204846 -0.01173734315799 0.732063970523251
-0.326667433204845 -0.00836983671247927 0.732201328866532
-0.326667433204846 -0.0225905262478542 0.753368236545144
-0.326667433204846 -0.0214029770200788 0.761133800870115
-0.326667433204845 -0.0094590081577026 0.76502195564067
-0.326667433204846 -0.00665388808993287 0.773579169560643
-0.326667433204846 -0.0207975658130973 0.783214350157558
-0.326667433204845 -0.00657367245147679 0.788128212072784
-0.326667433204846 -0.0098054884478726 0.797770808415493
-0.326667433204846 -0.0156225072433552 0.815541102572654
-0.326667433204846 -0.0142294322672101 0.814741185997388
-0.326667433204846 -0.021181079715578 0.830085865318561
-0.326667433204845 -0.0178847978713338 0.837035276175158
-0.326667433204846 -0.0159590834363217 0.850326077610118
-0.326667433204846 -0.00774811866523442 0.854225704097984
-0.326667433204845 -0.0101975795537012 0.861719389702333
-0.326667433204846 -0.0206518401627573 0.875595617269974
-0.326667433204845 -0.0114699468597066 0.885149509359406
-0.326667433204845 -0.0176047318371726 0.892399482249781
-0.326667433204846 -0.0099472405149752 0.902684409248082
-0.326667433204846 -0.0125426839181823 0.910659792748274
-0.326667433204845 -0.0163557316987472 0.926272461337005
-0.326667433204845 -0.0116734427072767 0.923486893125647
-0.326667433204846 -0.0186983999830698 0.948742708119475
-0.326667433204845 -0.0132763344111001 0.953521485306728
-0.326667433204846 -0.0179622608843316 0.964039837018926
-0.326667433204845 -0.0152707086783676 0.968385885660443
-0.326667433204845 -0.0169659967960284 0.98097777305751
-0.326667433204845 -0.0165612244057576 0.980056127526006
-0.326667433204846 -0.0174442583646822 0.993722799174526
-0.322737009245211 -0.0102021371541763 0.999367718258029
-0.316728645273452 -0.00294615229347865 0.999177713607559
-0.301675161265631 0.0108060578210041 0.998817599312098
-0.293668435561511 0.0279141205780626 0.998369608922541
-0.286010228796185 0.0287274989182961 0.998348309861118
-0.276656051842763 0.0395862284182344 0.998063964022091
-0.266345153826177 0.0514908112541263 0.997752231549637
-0.264847192471372 0.0609149984903928 0.997505450521815
-0.250785538514136 0.0710628349101029 0.997239720073231
-0.243217736540885 0.0864605671311241 0.996836516264948
-0.226859898559963 0.095701343889572 0.996594538009513
-0.218182852737726 0.107323142200275 0.996290210510456
-0.218204523270048 0.108391442203191 0.996262236090367
-0.326667433204845 0.000403961525471561 0.221236735726619
-0.326667433204845 -0.00502372844509797 0.236327929557144
-0.326667433204845 0.00569209648112647 0.232248035513652
-0.326667433204845 0.00882353090905458 0.241562512838516
-0.326667433204845 0.00470856185398407 0.248735223206865
-0.326667433204845 0.00578729840774484 0.263093406359667
-0.326667433204845 -0.00168657895396007 0.272697961251912
-0.326667433204845 -0.000624533092534377 0.279836653273747
-0.326667433204845 -0.00367405624173334 0.301011234176534
-0.326667433204845 -0.00275536148783339 0.309299849740077
-0.326667433204845 0.00535128415368416 0.307558756509777
-0.326667433204845 0.00741014367771799 0.313190476421907
-0.326667433204845 -0.00400523860405738 0.337753469799126
-0.326667433204845 0.00063247431953337 0.333726488068921
-0.326667433204845 -0.00398380098395327 0.350119915716264
-0.326667433204845 0.00114379949399954 0.351083566637799
-0.326667433204845 -0.00190070140591685 0.368071769362244
-0.326667433204845 0.000833973262974729 0.381141793004247
-0.326667433204845 -0.00724975562848005 0.390461616035803
-0.326667433204845 -0.00236086468389197 0.400347637216014
-0.326667433204845 -0.00181531650053159 0.406023521211271
-0.326667433204845 -0.000263158244585435 0.412803619816685
-0.326667433204845 0.0038619549945528 0.421824802282662
-0.326667433204845 -0.00733063327908198 0.440626810331388
-0.326667433204845 0.00538262502757066 0.441397293911373
-0.326667433204845 0.00536581375551219 0.454047983004348
-0.326667433204845 0.00218261737913202 0.458853667887504
-0.326667433204845 0.00031740106918066 0.470335517734408
-0.326667433204845 0.00219960338706846 0.478867707263829
-0.326667433204845 0.00840529568268629 0.478688491628391
-0.326667433204845 -0.00459950506586805 0.499426721771436
-0.326667433204845 0.00143924973933574 0.507115127874148
-0.326667433204845 -0.00771643250570117 0.524280967072089
-0.326667433204845 -0.00141427414454235 0.527495862397029
-0.326667433204845 -0.00401763014785872 0.540535606225015
-0.326667433204845 -0.00519180640892583 0.55181427241497
-0.326667433204846 -8.32569971053683e-005 0.553454929113262
-0.326667433204845 -0.00492365595649523 0.569266663726195
-0.326667433204845 -0.000506480839142105 0.576508479791635
-0.326667433204845 -0.00398390365610036 0.583516985307717
-0.326667433204845 -0.00124000387410756 0.594816979405737
-0.326667433204845 -0.00494046450223425 0.608880899660687
-0.326667433204845 0.0051888966402476 0.604772445203295
-0.326667433204846 0.0060206500820953 0.609760127972333
-0.326667433204845 0.00128914731449984 0.629791666181909
-0.326667433204845 0.00103919805151124 0.634778938364412
-0.326667433204845 -0.000546222075632707 0.648743432912128
-0.326667433204845 -0.00300520861992391 0.662861251077587
-0.326667433204845 0.00253702135259262 0.664457857166197
-0.326667433204845 -0.00828564695218188 0.680660889312257
-0.326667433204845 -0.00717541596616726 0.686245159233735
-0.326667433204846 0.0011048814358649 0.694795068168125
-0.326667433204846 0.00243828210003095 0.695926718305271
-0.326667433204846 0.00100238185762106 0.711728595716308
-0.326667433204845 -0.00155792019329663 0.727079390235017
-0.326667433204846 -0.00518327887529241 0.732540389108692
-0.326667433204846 -0.0042613855736833 0.741742649107646
-0.326667433204846 -0.00188246516485072 0.745111215850107
-0.326667433204845 0.000100070292770732 0.764018482133659
-0.326667433204845 -0.00356404504191891 0.767854264486009
-0.326667433204845 0.00100689736833751 0.771236684389789
-0.326667433204845 -0.00524998029209423 0.791540445354922
-0.326667433204846 -0.00137671188270416 0.798560499470303
-0.326667433204846 0.00618687385700868 0.804034303849509
-0.326667433204845 -0.00347890132302037 0.809455943216856
-0.326667433204846 0.000607500034198392 0.816455117048276
-0.326667433204845 0.00408342035779915 0.827530188323635
-0.326667433204845 -0.00314228326757978 0.839489277446605
-0.326667433204846 -0.00329676033333309 0.845743820515762
-0.326667433204846 0.00172307445096925 0.853310162698837
-0.326667433204846 0.00320538363502958 0.864941393881052
-0.326667433204845 -0.00563688566079787 0.877681118057913
-0.326667433204846 -0.00355907847481198 0.884002201695094
-0.326667433204846 0.00450279790107011 0.889651453526057
-0.326667433204845 -0.00310620010539023 0.908256267265058
-0.326667433204846 0.00343917058998918 0.914006173350818
-0.326667433204846 1.05397216693823e-005 0.92152578602062
-0.326667433204846 0.00422542959272634 0.927266244845922
-0.326667433204845 0.0078237771777562 0.936304500047622
-0.326667433204846 0.000933032522054191 0.948801363526018
-0.326667433204846 -0.00282661734363487 0.957553914961327
-0.326667433204845 -0.000971952689001858 0.967896649649121
-0.326667433204846 -0.000968571456615039 0.978859058058771
-0.326667433204845 0.00119589556043927 0.985893121356394
-0.326667433204846 -0.00100007868538031 0.998182657783973
-0.326067889143832 -0.000648316872544056 0.999117542669447
-0.30573508623816 0.0230697860194707 0.998496462287348
-0.296736041607676 0.0289850894401759 0.998341564615915
-0.296170734039509 0.035830864437916 0.998162301688744
-0.28671584253925 0.0492648346671682 0.997810520797958
-0.273711674763159 0.0613246521413967 0.997494723363439
-0.271665767439158 0.0717111523250074 0.997222743284253
-0.258134130737974 0.0823200926206696 0.996944938405738
-0.250092224080032 0.0913814696860351 0.996707657896596
-0.233113661498325 0.106496113592612 0.996311867016712
-0.231329909632539 0.104471373436093 0.996364886703648
-0.326667433204845 0.00999325034354643 0.207982864183255
-0.326667433204845 0.00831020865386438 0.222248465565263
-0.326667433204845 0.017398389400114 0.23134268122543
-0.326667433204845 0.00945239516265145 0.2437620724124
-0.326667433204845 0.0166339584465373 0.255961964329802
-0.326667433204845 0.0125154559803685 0.252556723635372
-0.326667433204845 0.0113652271417277 0.272700551505253
-0.326667433204845 0.0157945879430793 0.278480682377441
-0.326667433204845 0.00823724615443238 0.287229178495673
-0.326667433204845 0.0113813507085192 0.297850825181315
-0.326667433204845 0.0106246351764584 0.303471665193249
-0.326667433204845 0.012301498097688 0.322001597033917
-0.326667433204845 0.0150153973310011 0.325790350136681
-0.326667433204845 0.0135984988039534 0.334165436889749
-0.326667433204845 0.0211726143514244 0.334734580241535
-0.326667433204845 0.0112496911412747 0.346188145872368
-0.326667433204845 0.0158892788867993 0.360311411653708
-0.326667433204845 0.0118456241209548 0.371942480176968
-0.326667433204845 0.0143079803488112 0.378628700816088
-0.326667433204845 0.0190922593607705 0.390280142688528
-0.326667433204845 0.0140293529069652 0.402371810653166
-0.326667433204845 0.0188351508309931 0.402592108097169
-0.326667433204845 0.0130137962522619 0.41568470393726
-0.326667433204845 0.00882446229560767 0.43387735853588
-0.326667433204845 0.0102229543793675 0.437799789289812
-0.326667433204845 0.0138725381267617 0.447761196397337
-0.326667433204845 0.00885700463597762 0.460920249123132
-0.326667433204845 0.0128324384897303 0.467815277408123
-0.326667433204845 0.0148056439039457 0.46605353882507
-0.326667433204845 0.0179348567499322 0.473642607064334
-0.326667433204845 0.00642930241991553 0.490284427029241
-0.326667433204845 0.00859115015745265 0.498252439587184
-0.326667433204845 0.0167537015290095 0.509931564378836
-0.326667433204845 0.00668276936539729 0.524373454194983
-0.326667433204845 0.0149664305953323 0.526094528108482
-0.326667433204846 0.0160353104009502 0.534839549113814
-0.326667433204845 0.00649891805154249 0.55042577629787
-0.326667433204845 0.00874441433520221 0.554052352175684
-0.326667433204845 0.0197343069984451 0.564808459965595
-0.326667433204845 0.00759074412606836 0.581895048410997
-0.326667433204845 0.0193189716477944 0.580140821608588
-0.326667433204846 0.0073210304975512 0.592452785597343
-0.326667433204845 0.0141920458630575 0.601943153529815
-0.326667433204845 0.0190108838736062 0.609621461539887
-0.326667433204845 0.0105616489843831 0.626415656116302
-0.326667433204845 0.0138007556235931 0.62646533500049
-0.326667433204845 0.00692708009705219 0.641848251496853
-0.326667433204846 0.0209615930533527 0.637378540796207
-0.326667433204846 0.012657802584266 0.658360267634436
-0.326667433204845 0.0198449844492435 0.662477618580994
-0.326667433204846 0.0107923659116535 0.675789656194859
-0.326667433204846 0.0170546930324526 0.689649036315817
-0.326667433204846 0.00724339511317392 0.696568566524105
-0.326667433204845 0.015565018405456 0.699139862350879
-0.326667433204845 0.00896400618013875 0.713698615059886
-0.326667433204846 0.0195800516908445 0.720563720554505
-0.326667433204845 0.0125120371800612 0.723042811004546
-0.326667433204845 0.0104201880350635 0.740771884799159
-0.326667433204846 0.0222536390671307 0.743598960767008
-0.326667433204846 0.0214722596314151 0.757336883650328
-0.326667433204845 0.01398796443187 0.771099280950913
-0.326667433204846 0.0144445224739352 0.772606291142472
-0.326667433204845 0.012344011974937 0.788998640959973
-0.326667433204846 0.0110173514127207 0.798947487194402
-0.326667433204845 0.0165970573603544 0.802545298450913
-0.326667433204845 0.0170859452573256 0.818982917758358
-0.326667433204846 0.0149853220157193 0.813772685794874
-0.326667433204845 0.0224776264334404 0.828774097854069
-0.326667433204845 0.0148203930024805 0.841629850948325
-0.326667433204845 0.0111311419267504 0.852085484071058
-0.326667433204845 0.00676510815347193 0.859790051535065
-0.326667433204846 0.015024834623094 0.870084943933104
-0.326667433204846 0.0202004699883608 0.873589885289093
-0.326667433204846 0.00874749787468444 0.890578704627582
-0.326667433204846 0.00573722356197241 0.901502549373885
-0.326667433204845 0.0128935872649486 0.905422436281311
-0.326667433204846 0.0101552871389761 0.92447162149706
-0.326667433204845 0.010861126309337 0.927781145985327
-0.326667433204846 0.0154409706142396 0.932380070432047
-0.326667433204845 0.0222052176700625 0.937082045939899
-0.326667433204845 0.0155854975483952 0.951816905116209
-0.326667433204845 0.0137430702980363 0.960451015889453
-0.326667433204846 0.0155045429531398 0.963311352586217
-0.326667433204845 0.00504300152625269 0.988352754809958
-0.326667433204845 0.016293097455305 0.987528146877942
-0.326667433204846 0.0209072559100559 0.991490606969407
-0.318971667740838 0.0266259130912517 0.998403341822756
-0.308261279826753 0.0335693703014421 0.998221520996831
-0.30661729462396 0.0425807626422919 0.997985549383764
-0.284537901102804 0.0646174429442757 0.997408498601731
-0.278723841506677 0.0674739835880898 0.997333697452473
-0.270993841078412 0.0817591791062634 0.996959626443033
-0.259554247654582 0.097207645633879 0.996555094110177
-0.251581039380466 0.0983385117765799 0.996525481338059
-0.24844300904387 0.108694253316332 0.996254306702309
-0.326667433204845 0.0306183716927312 0.205872400439961
-0.326667433204845 0.0243547963390128 0.208947507533155
-0.326667433204845 0.0315500060967516 0.215760597920883
-0.326667433204845 0.0313061984348307 0.225591142469676
-0.326667433204845 0.0238290770772661 0.240955448629927
-0.326667433204845 0.028744995529205 0.251804028841229
-0.326667433204845 0.0304737260983295 0.254497926237968
-0.326667433204845 0.0323481241283227 0.268216105022335
-0.326667433204845 0.0282528760775849 0.280749483341164
-0.326667433204845 0.0267577570402613 0.289042205100078
-0.326667433204845 0.0225907619368966 0.300960365437123
-0.326667433204845 0.0351153350246272 0.301641348993242
-0.326667433204845 0.0246223772835488 0.315641684608134
-0.326667433204845 0.0282207450861808 0.326103981943497
-0.326667433204845 0.0324948825970611 0.33214402726133
-0.326667433204845 0.0324532708537456 0.34101164886259
-0.326667433204845 0.023577635467375 0.348247558452701
-0.326667433204845 0.0279182483337052 0.358406318121245
-0.326667433204845 0.028100555642696 0.37658240750524
-0.326667433204845 0.0339826324458435 0.37261913608122
-0.326667433204845 0.0266079114466027 0.393251891105924
-0.326667433204845 0.0291804561856348 0.39694406000143
-0.326667433204845 0.0337539748784887 0.399131806497208
-0.326667433204845 0.0288688492921806 0.410601476882296
-0.326667433204845 0.0320916145850383 0.426279018956426
-0.326667433204845 0.0299025128973314 0.43689926870655
-0.326667433204845 0.0272357710889899 0.439053704616492
-0.326667433204845 0.0274507974839668 0.458489791787588
-0.326667433204845 0.0284027468402987 0.467169329952659
-0.326667433204845 0.0290176769490976 0.461343998959234
-0.326667433204845 0.0330730913835278 0.473305956142206
-0.326667433204845 0.0246689134442609 0.491279329230689
-0.326667433204845 0.0354228732500443 0.494184575947769
-0.326667433204845 0.0253091110017654 0.511120218036423
-0.326667433204845 0.0370297022403765 0.508650306160411
-0.326667433204846 0.0209284475792743 0.534911212112524
-0.326667433204846 0.0348216432765785 0.533684061801842
-0.326667433204845 0.0236293140232442 0.547617390545958
-0.326667433204845 0.0339549798731102 0.55585904439564
-0.326667433204845 0.0279484694364014 0.569366789133674
-0.326667433204845 0.0308335091303577 0.567057179546629
-0.326667433204845 0.0268488458198752 0.580449103471259
-0.326667433204845 0.0289216652391226 0.585770572418267
-0.326667433204845 0.0296661871333019 0.601837513193201
-0.326667433204845 0.0277203070216389 0.620243155232495
-0.326667433204845 0.0266040396943798 0.623868899575628
-0.326667433204845 0.0256530305692299 0.627571650328171
-0.326667433204845 0.0310159779793064 0.631530482225894
-0.326667433204846 0.031344350489537 0.649644834975587
-0.326667433204845 0.0255229814515043 0.661549281198659
-0.326667433204846 0.0244763627033789 0.673216246330441
-0.326667433204846 0.0264514228577826 0.672367506826338
-0.326667433204845 0.0315831493981357 0.685390144019992
-0.326667433204845 0.0369594995511777 0.687448079863114
-0.326667433204846 0.0292093823883754 0.705926159446481
-0.326667433204845 0.0312800640807274 0.714796253497287
-0.326667433204846 0.0233345595890525 0.725333844414672
-0.326667433204845 0.0212790773489113 0.738068050054362
-0.326667433204845 0.0216432966291204 0.746625007935369
-0.326667433204846 0.0307072005571445 0.745016388397018
-0.326667433204846 0.0250917939431413 0.764413707604704
-0.326667433204846 0.0233467477025363 0.771365205436521
-0.326667433204846 0.0363849599070025 0.774790954675373
-0.326667433204845 0.0304756515817073 0.793994045271048
-0.326667433204846 0.0303023844864041 0.798025775369817
-0.326667433204845 0.029055203518941 0.806341943222869
-0.326667433204846 0.0285868961602716 0.817911435856476
-0.326667433204846 0.0334671589747427 0.821072550998909
-0.326667433204845 0.0259519518310194 0.835217901411728
-0.326667433204846 0.0295097334357717 0.835100892088601
-0.326667433204846 0.0278220903759985 0.852630432679334
-0.326667433204846 0.0260862315430348 0.861748038090371
-0.326667433204845 0.0258080385165945 0.872684129813365
-0.326667433204845 0.0307251503130706 0.880742825533542
-0.326667433204845 0.0328009519831478 0.889604046757795
-0.326667433204846 0.0270281866157793 0.897286280359196
-0.326667433204845 0.0281368895390337 0.908372027278863
-0.326667433204845 0.0323491848197057 0.916498185188516
-0.326667433204845 0.0212678557716812 0.934384121155314
-0.326667433204845 0.032482751523183 0.93216405870864
-0.326667433204845 0.0337170344867261 0.937542112185006
-0.326667433204846 0.0226336814563636 0.959283538488289
-0.326667433204846 0.0313011245340549 0.965726859163957
-0.326667433204846 0.0281919892698575 0.974584833235837
-0.326667433204845 0.0277565290211032 0.979031914104773
-0.326667433204845 0.0243713708460799 0.990939289459209
-0.326667433204846 0.0286071150342534 0.99523599809414
-0.312192406374985 0.0513291602432819 0.997756464530328
-0.31123320361766 0.0441117377177503 0.997945459390513
-0.297522441973123 0.0697304529014324 0.997274609724011
-0.289211925182678 0.0751479993471897 0.997132746277684
-0.287797788450008 0.0817773150481544 0.996959151536682
-0.269380539389381 0.0995167920738194 0.996494626982609
-0.260951092089025 0.108658479477663 0.996255243473241
-0.326667433204845 0.0429529267209058 0.192964336242348
-0.326667433204845 0.0389772299417369 0.201261610672609
-0.326667433204845 0.042046654064214 0.212088134166374
-0.326667433204845 0.0384633668227496 0.217331458776552
-0.326667433204845 0.0386253488751132 0.233742440972331
-0.326667433204845 0.0403617186657489 0.248194283132251
-0.326667433204845 0.0367666854727305 0.253244762491536
-0.326667433204845 0.0481111307095272 0.254377987429295
-0.326667433204845 0.0401930722181997 0.272794183073658
-0.326667433204845 0.0386913178539739 0.275284028890361
-0.326667433204845 0.0434402727608583 0.28547144723428
-0.326667433204845 0.0434153648295512 0.292764335232372
-0.326667433204845 0.0412400776079279 0.30738582093127
-0.326667433204845 0.044126256755439 0.307226243235999
-0.326667433204845 0.0364701801899225 0.326318286274779
-0.326667433204845 0.0524999372590145 0.326293388413304
-0.326667433204845 0.0451578076030383 0.336477520660152
-0.326667433204845 0.0460789999525494 0.348490587167238
-0.326667433204845 0.0401525552882723 0.361680695449956
-0.326667433204845 0.0441913752001366 0.372101631047806
-0.326667433204845 0.0337708825445874 0.382280500597311
-0.326667433204845 0.0408248880891486 0.38473315474994
-0.326667433204845 0.0364186359516174 0.402291575368068
-0.326667433204845 0.0452997237791278 0.403640145660118
-0.326667433204845 0.0367950959203182 0.425256889457435
-0.326667433204845 0.0437209619707829 0.431068830404237
-0.326667433204845 0.0423302414659273 0.42934656144058
-0.326667433204845 0.0426879627964344 0.436041053952698
-0.326667433204845 0.0370784975505723 0.454422831074369
-0.326667433204845 0.0359215814676028 0.471595457328378
-0.326667433204845 0.0406784628831191 0.473543728169743
-0.326667433204845 0.039944638499372 0.478257462682553
-0.326667433204845 0.0388939666972981 0.491127303895018
-0.326667433204845 0.0449799753787214 0.494502732962957
-0.326667433204845 0.0419194216931981 0.505695811453587
-0.326667433204845 0.0394208021699587 0.512253544931935
-0.326667433204845 0.0499544432041271 0.52056133083818
-0.326667433204845 0.0359795408683542 0.544020055545802
-0.326667433204845 0.0522901066264192 0.542430245287449
-0.326667433204845 0.0367756492898625 0.560162902950224
-0.326667433204845 0.039371784078284 0.56483747791969
-0.326667433204845 0.0451294108698782 0.568293558168286
-0.326667433204845 0.0350591475744067 0.586376169563004
-0.326667433204845 0.0385591574026696 0.598977901203472
-0.326667433204845 0.040365065605745 0.598391691572455
-0.326667433204845 0.0461834373132951 0.614171799514348
-0.326667433204846 0.0420991203587159 0.626868492604761
-0.326667433204845 0.0381700458511032 0.629902782322795
-0.326667433204845 0.0448517216466905 0.628487707790409
-0.326667433204845 0.0470193149398268 0.645246976192743
-0.326667433204846 0.0434279883142038 0.661028117659861
-0.326667433204846 0.0457333350544541 0.66827213312013
-0.326667433204846 0.0421338735017912 0.676118883376912
-0.326667433204846 0.0484339983636426 0.677746897441202
-0.326667433204846 0.0513635543629493 0.691625627939417
-0.326667433204845 0.0458641051731852 0.70305421238688
-0.326667433204846 0.0425452197039537 0.715268357618223
-0.326667433204845 0.0516679991029904 0.718008590535488
-0.326667433204845 0.0502303913498965 0.731035455635338
-0.326667433204845 0.0372521093185554 0.73918470778454
-0.326667433204845 0.041742679122994 0.753032170610334
-0.326667433204846 0.0382077394022863 0.765719147134106
-0.326667433204845 0.0509073556347271 0.76748376788909
-0.326667433204846 0.0481203922358776 0.77917365953976
-0.326667433204846 0.0455345055699977 0.784958725426861
-0.326667433204845 0.0473952037373661 0.795776746052774
-0.326667433204846 0.0367477104197228 0.808120946017304
-0.326667433204846 0.0397089158981854 0.821171023482267
-0.326667433204845 0.0473166416935968 0.827377191098233
-0.326667433204845 0.0409185114678893 0.841284680792341
-0.326667433204846 0.0411582843194286 0.846785034388776
-0.326667433204846 0.0451851093075243 0.860548147438241
-0.326667433204845 0.0462274679229373 0.86499494046516
-0.326667433204846 0.0413334202559572 0.871811177978303
-0.326667433204845 0.0507223387280973 0.87669993517412
-0.326667433204846 0.0441712546216527 0.898353502091592
-0.326667433204846 0.049058374012077 0.8969633044594
-0.326667433204846 0.0439609122909936 0.907137429184663
-0.326667433204846 0.0437537873172478 0.919417556218913
-0.326667433204846 0.0510940237995794 0.929723501852754
-0.326667433204846 0.0428984495939595 0.939467137789373
-0.326667433204845 0.0421720556912012 0.948999562183366
-0.326667433204846 0.043310599566864 0.957121560462846
-0.326667433204846 0.0406888523781467 0.967944138967835
-0.326667433204846 0.0372731585507273 0.975125750173446
-0.326667433204846 0.037100789276646 0.987760994680693
-0.323577715839107 0.044539985759466 0.997934245320881
-0.318630862416854 0.0470877098224879 0.997867530818387
-0.316128192475121 0.0572601165219314 0.997601156974385
-0.307180208043274 0.0662619680890468 0.997365435195272
-0.29734913312229 0.0804782507059144 0.996993168733661
-0.290352274112739 0.0819295792320242 0.996955164358705
-0.280906306820595 0.100130748990334 0.996478549954946
-0.271476799363966 0.113894827785624 0.996118124867141
-0.326667433204845 0.0612817354823503 0.181654191552249
-0.326667433204845 0.0612524508204842 0.195004571639023
-0.326667433204845 0.0585865944887751 0.191266428183093
-0.326667433204845 0.0525693670973326 0.207873622899364
-0.326667433204845 0.0554068007551424 0.215573535649885
-0.326667433204845 0.0602829672822295 0.225151581534991
-0.326667433204845 0.0585813205009001 0.23602724716726
-0.326667433204845 0.0590381088446071 0.242189752705073
-0.326667433204845 0.0559730746394315 0.257318687932229
-0.326667433204845 0.0557900940753606 0.274377418590389
-0.326667433204845 0.0637296027398468 0.27571425164146
-0.326667433204845 0.0540139624237621 0.282435075815372
-0.326667433204845 0.0593117133750244 0.295907969886165
-0.326667433204845 0.0634647433553349 0.293994750006802
-0.326667433204845 0.0504223950967754 0.319302403798734
-0.326667433204845 0.0594208948388399 0.322633614945372
-0.326667433204845 0.0555838243541544 0.329649692901997
-0.326667433204845 0.0554555405005838 0.345436653787072
-0.326667433204845 0.0538646625301346 0.358248594305524
-0.326667433204845 0.0614153694764756 0.360251926610047
-0.326667433204845 0.0571875226908183 0.376690612567119
-0.326667433204845 0.0631746578477487 0.373225565031403
-0.326667433204845 0.0592721708938517 0.385663543260895
-0.326667433204845 0.0522785647742334 0.40047422286677
-0.326667433204845 0.0554684450351492 0.405979126697191
-0.326667433204845 0.0628803148967792 0.410640083640709
-0.326667433204845 0.0510772206511049 0.434311935092706
-0.326667433204845 0.0635819852089697 0.433680930398492
-0.326667433204845 0.054414547405745 0.446294767920894
-0.326667433204845 0.0610167819655291 0.444528622606063
-0.326667433204845 0.0546912476204931 0.465474169546443
-0.326667433204845 0.0570304686505878 0.476204238533985
-0.326667433204845 0.0550796246910369 0.475025091698057
-0.326667433204845 0.0566791176294132 0.485684300984822
-0.326667433204845 0.0530523855028027 0.50142267094489
-0.326667433204845 0.0609576102264953 0.507441347129419
-0.326667433204845 0.0564706793484065 0.516370037784672
-0.326667433204845 0.0554665385521905 0.525564765203113
-0.326667433204846 0.0577389985838508 0.539871408029974
-0.326667433204845 0.0634533545495083 0.547402303578868
-0.326667433204845 0.0626114718272755 0.55090924102243
-0.326667433204845 0.0575940292333142 0.567309772946641
-0.326667433204845 0.057465457895236 0.570233836559519
-0.326667433204845 0.0526341547677134 0.585665257786554
-0.326667433204845 0.0522013916183708 0.599791419704952
-0.326667433204845 0.0614533175887974 0.598861723198531
-0.326667433204845 0.0492950428968133 0.618255634689744
-0.326667433204845 0.0516908302824345 0.626132154604818
-0.326667433204845 0.057552355987974 0.628272142394789
-0.326667433204845 0.0509488882914931 0.649729929755862
-0.326667433204845 0.0512336624441937 0.65178758250831
-0.326667433204846 0.0593896400095089 0.654520930179782
-0.326667433204846 0.0571888784191342 0.664636750493389
-0.326667433204845 0.0600920806835254 0.674955030321966
-0.326667433204845 0.0624430294814892 0.682171809528562
-0.326667433204846 0.0560701469980755 0.700817002716051
-0.326667433204846 0.0479356108374979 0.715240648646864
-0.326667433204845 0.0554158510102101 0.720600681056852
-0.326667433204846 0.0488209504235499 0.733149553761762
-0.326667433204846 0.0601272396210741 0.731576882583667
-0.326667433204846 0.0512740392616059 0.75019644496897
-0.326667433204845 0.064002491065584 0.747205518993607
-0.326667433204845 0.0570935876760471 0.765800304369534
-0.326667433204845 0.0570620312322951 0.765124818813567
-0.326667433204845 0.0634381774570428 0.778732378904727
-0.326667433204845 0.0537376232344618 0.797418622680295
-0.326667433204845 0.0556114668593093 0.798698219607473
-0.326667433204846 0.0573281115152869 0.802600807124344
-0.326667433204846 0.052604394031393 0.822472626841588
-0.326667433204846 0.0554709697883772 0.827190826628618
-0.326667433204846 0.057365832702222 0.835650414492426
-0.326667433204845 0.0655979959677897 0.846524005756175
-0.326667433204845 0.0579021894980981 0.848939802908541
-0.326667433204845 0.0567774120786786 0.864430085932703
-0.326667433204846 0.057405554541157 0.873068746409868
-0.326667433204845 0.0587319368498898 0.876991610461194
-0.326667433204845 0.0630341476480759 0.889917763540543
-0.326667433204845 0.0563884677126782 0.900064711941026
-0.326667433204845 0.0539231080032752 0.910719043193718
-0.326667433204845 0.0579921482041748 0.921303729619067
-0.326667433204845 0.0635833503183353 0.924412585059152
-0.326667433204845 0.0540215556120795 0.941959076351086
-0.326667433204845 0.0529505624364901 0.952242233828145
-0.326667433204845 0.05607270943316 0.961775091881437
-0.326667433204845 0.0537819038721744 0.963090328202097
-0.326667433204846 0.0577775836596696 0.971912568251707
-0.326667433204846 0.0562464694092097 0.992010714397154
-0.326667433204846 0.0500790035384727 0.995058574041336
-0.316646237529011 0.0609629476806859 0.997504194928078
-0.311444105420646 0.0815635220040966 0.996964749904565
-0.303958602107222 0.0890545943653728 0.996768589271243
-0.292098926368955 0.0907541689857535 0.996724084343534
-0.281661993436096 0.107718884401666 0.996279847636209
-0.326667433204845 0.0821796821347636 0.167053489976654
-0.326667433204845 0.0717384454874807 0.181413103381101
-0.326667433204845 0.0801833131538169 0.187831804623036
-0.326667433204845 0.0736176253329174 0.199103470674284
-0.326667433204845 0.0628886805056824 0.217176812606728
-0.326667433204845 0.0765365678680276 0.207598516094992
-0.326667433204845 0.0689858755515171 0.228966582895429
-0.326667433204845 0.0751277610923528 0.240896136541703
-0.326667433204845 0.0753715255845891 0.24053573011824
-0.326667433204845 0.0715618495754092 0.256960770742087
-0.326667433204845 0.0759472184955323 0.264268984436806
-0.326667433204845 0.070925350677756 0.27753014748435
-0.326667433204845 0.066718196418873 0.283735030631912
-0.326667433204845 0.068155796879468 0.296546853532513
-0.326667433204845 0.0736383090192383 0.295413401269555
-0.326667433204845 0.066621042302325 0.314088131565557
-0.326667433204845 0.0690575219882907 0.323818898480219
-0.326667433204845 0.0642074893217293 0.333349114200633
-0.326667433204845 0.0652852802683623 0.346962339724343
-0.326667433204845 0.0717195024276255 0.347484327756446
-0.326667433204845 0.0768682592854335 0.351685981498404
-0.326667433204845 0.0666131206212874 0.377742797738212
-0.326667433204845 0.072393387522723 0.372003010367832
-0.326667433204845 0.0779169137740888 0.380985396678776
-0.326667433204845 0.0730251494465801 0.399119045917115
-0.326667433204845 0.0747091653742028 0.402067863958514
-0.326667433204845 0.0677130881213609 0.417496601587918
-0.326667433204845 0.0769142757184627 0.417709009465486
-0.326667433204845 0.0799386629994523 0.428732207229962
-0.326667433204845 0.0703622575719139 0.438604549716683
-0.326667433204845 0.0650508068822501 0.454769635880317
-0.326667433204845 0.0782373492161074 0.454907384320301
-0.326667433204845 0.0645166450514349 0.477364342757951
-0.326667433204845 0.0756001264876177 0.476375484668694
-0.326667433204845 0.067587262970122 0.495891553218227
-0.326667433204845 0.0806002483701297 0.490255649405779
-0.326667433204845 0.0780484641982147 0.505095474540547
-0.326667433204845 0.0686905387225977 0.518336673371976
-0.326667433204845 0.0727267173820625 0.526745290030738
-0.326667433204845 0.0732771057763115 0.534242420281015
-0.326667433204845 0.0761383924965517 0.54302598348091
-0.326667433204845 0.0688911326114967 0.558619878399486
-0.326667433204845 0.0673543693804656 0.571065767252588
-0.326667433204845 0.0711549745336473 0.568921733121879
-0.326667433204845 0.0756554700473722 0.583514868007594
-0.326667433204845 0.0723517666956573 0.599172945292698
-0.326667433204845 0.0738243403827188 0.599458403690848
-0.326667433204845 0.0632425476064513 0.620885072496097
-0.326667433204845 0.0742090541303044 0.624166724536044
-0.326667433204845 0.0703108027198556 0.631751198113992
-0.326667433204845 0.0789104348627071 0.639441027673498
-0.326667433204845 0.0751244951316083 0.644406338149623
-0.326667433204845 0.0684291347641 0.658873541039215
-0.326667433204845 0.066069977169214 0.677859685027214
-0.326667433204845 0.0743584100651828 0.672820756164533
-0.326667433204845 0.0712723393287178 0.686396492833756
-0.326667433204846 0.0721254244933205 0.694587151972549
-0.326667433204845 0.0754942296367686 0.709965895913325
-0.326667433204845 0.0702340346490583 0.717724261367922
-0.326667433204845 0.0765012456153878 0.719370882347417
-0.326667433204845 0.0762602749259196 0.735893638670597
-0.326667433204845 0.0714735099429105 0.74736776025963
-0.326667433204846 0.0736523649501316 0.745365314217597
-0.326667433204846 0.069745178653904 0.765027747053514
-0.326667433204845 0.072218771300768 0.772457269185176
-0.326667433204846 0.0727103698350924 0.775456827400443
-0.326667433204846 0.0670045679619484 0.792528513157402
-0.326667433204845 0.0658908652795244 0.798924855764273
-0.326667433204845 0.0690245774375906 0.80975503766126
-0.326667433204845 0.0789585212409993 0.816427016010996
-0.326667433204845 0.0710515069064669 0.832911184671982
-0.326667433204845 0.0808874983067133 0.832254347410997
-0.326667433204846 0.0735301557153286 0.84026140661888
-0.326667433204845 0.0799837501201843 0.849799144557383
-0.326667433204845 0.075296390960545 0.864388859510198
