ply
format ascii 1.0
element vertex 836
property float x
property float y
property float z
end_header
-0.326667433204846 -0.0457430314388611 0.67867494838955
-0.326667433204845 -0.043345137626672 0.674997752835616
-0.326667433204846 -0.0440062324149242 0.685292606335338
-0.326667433204845 -0.0396663582286401 0.699058162527072
-0.326667433204845 -0.0426920089810359 0.715589487081961
-0.326667433204845 -0.0428799809669599 0.717128908250113
-0.326667433204845 -0.041892233531159 0.726341800264191
-0.326667433204846 -0.0469598608302569 0.740174497412056
-0.326667433204846 -0.0408036204531363 0.746430313864583
-0.326667433204846 -0.0362747468290586 0.751545478581408
-0.326667433204846 -0.0450144844119969 0.758872546354575
-0.326667433204846 -0.0357683960785298 0.770610867430341
-0.326667433204845 -0.0411944855639981 0.774131550120575
-0.326667433204845 -0.0504701643805128 0.795880497273376
-0.326667433204845 -0.0358158683098851 0.795069568690551
-0.326667433204846 -0.0381011033677386 0.809242452544463
-0.326667433204846 -0.0389155894790808 0.812216490935694
-0.326667433204845 -0.0447711065464992 0.822710370774934
-0.326667433204845 -0.0459742759220319 0.84032797924662
-0.326667433204845 -0.036553133258703 0.838428877136038
-0.326667433204845 -0.0364347703210255 0.849244014371466
-0.326667433204846 -0.0379751339483177 0.860868783681328
-0.326667433204845 -0.0447276574465322 0.873372986648936
-0.326667433204846 -0.0438919068197516 0.876633992091243
-0.326667433204846 -0.0402042432355803 0.883519791141847
-0.326667433204846 -0.0443197294762485 0.894597098960246
-0.326667433204845 -0.0440424078626421 0.914449214077077
-0.326667433204846 -0.042340350477298 0.91710817631799
-0.326667433204845 -0.0486224836769777 0.931942637960744
-0.326667433204846 -0.0434865052978746 0.932557792240393
-0.326667433204846 -0.0386377404569404 0.945790273543085
-0.326667433204846 -0.0395077157292466 0.951243518185435
-0.326667433204845 -0.0433013775756993 0.9637918326313
-0.326667433204846 -0.0470047778279895 0.975262032364065
-0.326667433204846 -0.0517856171383347 0.989284436774753
-0.326667433204846 -0.039145439461842 0.988077668544254
-0.32550374412668 -0.039771788497697 0.996024755098842
-0.315596027352852 -0.0343697109234913 0.99917099721989
-0.310120752809146 -0.0277986815179475 0.999828499988627
-0.297282712908437 -0.0100821303996531 0.999364575770567
-0.293055279211002 -0.00108128832803802 0.999128880426023
-0.288616265683044 0.00754657789190687 0.998902951797878
-0.274137323471848 0.0209967964586852 0.9985507454294
-0.26436757841403 0.0250987297164747 0.998443332526829
-0.260066283906017 0.034465174646461 0.998198063534511
-0.251934649380853 0.0497829693453062 0.997796952963914
-0.241342472179401 0.0534701357664486 0.997700401113197
-0.226122376730481 0.0709843591768013 0.997241775032629
-0.220143206486614 0.0812853811091423 0.996972033280226
-0.215016906870856 0.087242124734196 0.996816050458852
-0.197652919103379 0.110693936069238 0.996201943166578
-0.326667433204845 -0.0287223882108324 0.244124222086146
-0.326667433204845 -0.0255950787943117 0.241156330836934
-0.326667433204845 -0.0326454049725031 0.265362580244533
-0.326667433204845 -0.0282239305746791 0.275663297662951
-0.326667433204845 -0.0281830657223899 0.271208658343253
-0.326667433204845 -0.0264592463844283 0.285647328960052
-0.326667433204845 -0.0318354667573652 0.299058279590694
-0.326667433204845 -0.0258350806770585 0.306600885549115
-0.326667433204845 -0.027607531223752 0.316910750196015
-0.326667433204845 -0.0265027809322492 0.329210973531691
-0.326667433204845 -0.0260279429067251 0.336166585804828
-0.326667433204845 -0.0220078515564721 0.337939224634228
-0.326667433204845 -0.0307520240526119 0.350314465145619
-0.326667433204845 -0.0267939422535611 0.359995945031966
-0.326667433204845 -0.0281254808341499 0.37006389937804
-0.326667433204845 -0.0325290065259949 0.388950495127246
-0.326667433204845 -0.0297472441170805 0.390427559380159
-0.326667433204845 -0.0222824358687779 0.389505760655175
-0.326667433204845 -0.0293997036531235 0.407571890880302
-0.326667433204845 -0.0320600853242751 0.414697023454181
-0.326667433204845 -0.0236695922956805 0.42244286508902
-0.326667433204845 -0.0349345724641389 0.442231304956918
-0.326667433204845 -0.0242085166521209 0.435673329654305
-0.326667433204845 -0.0238310624629395 0.451237113666887
-0.326667433204845 -0.0273743741348284 0.459994961915346
-0.326667433204845 -0.0246319386725866 0.46477130690386
-0.326667433204845 -0.0205525275546951 0.478225939215046
-0.326667433204845 -0.0278638887702545 0.486678578125673
-0.326667433204845 -0.0261231222869331 0.496658351556416
-0.326667433204845 -0.0359908738657561 0.514153278474903
-0.326667433204845 -0.0264492312796712 0.517399081927172
-0.326667433204846 -0.0308195830263787 0.525974118809301
-0.326667433204845 -0.0337455040049411 0.542634491247953
-0.326667433204846 -0.026795561460599 0.537959153548021
-0.326667433204845 -0.0200924923378199 0.546948480912682
-0.326667433204846 -0.0302548445339113 0.561255151081216
-0.326667433204845 -0.0282872860924361 0.57333576261608
-0.326667433204846 -0.0314997353720212 0.584170653230758
-0.326667433204846 -0.0334697130271104 0.599465968594362
-0.326667433204845 -0.0251386900415353 0.593768175656804
-0.326667433204846 -0.0312186426451876 0.613487937650241
-0.326667433204845 -0.0348990120273891 0.62344601314349
-0.326667433204845 -0.0342974391694441 0.630591469688382
-0.326667433204845 -0.0326009173538021 0.645202446167734
-0.326667433204846 -0.030150858781191 0.647531894043488
-0.326667433204845 -0.0347927971775265 0.654470032368184
-0.326667433204846 -0.0239709362752326 0.656025260608786
-0.326667433204846 -0.0310889897619033 0.673528209355954
-0.326667433204846 -0.0335442301990565 0.683454549316154
-0.326667433204845 -0.0333214960989919 0.691444193072542
-0.326667433204846 -0.0228742346747334 0.698037676591416
-0.326667433204846 -0.0252430894872515 0.706098471713568
-0.326667433204845 -0.029723538344422 0.713490936468173
-0.326667433204845 -0.0269816954673854 0.726435647067033
-0.326667433204845 -0.0296274762356902 0.730165734431873
-0.326667433204845 -0.0300807982871051 0.746181413458597
-0.326667433204845 -0.0218577156130251 0.750898086229855
-0.326667433204845 -0.0290016953050341 0.768565390886816
-0.326667433204845 -0.0325151420637259 0.773743677753795
-0.326667433204846 -0.0228695804584797 0.778896583754216
-0.326667433204846 -0.0310032283310182 0.790912428260736
-0.326667433204846 -0.0249186198216532 0.800614437620489
-0.326667433204845 -0.0242612882973578 0.80840386794532
-0.326667433204846 -0.0276384369574765 0.81260339561349
-0.326667433204845 -0.0270353608060384 0.832947340618037
-0.326667433204846 -0.0345049444454173 0.839906298082355
-0.326667433204846 -0.0281323357542701 0.838489274101923
-0.326667433204846 -0.0218550414658673 0.85581572432293
-0.326667433204845 -0.0293482237073724 0.868855529290839
-0.326667433204845 -0.0312047801953431 0.873022297529351
-0.326667433204846 -0.033595538075797 0.890149240960437
-0.326667433204845 -0.0274577335566845 0.891860978339078
-0.326667433204846 -0.0230841763547583 0.901461044591903
-0.326667433204846 -0.0358577559611488 0.919708310048998
-0.326667433204846 -0.0306089023670861 0.920699087848824
-0.326667433204845 -0.0327016008598484 0.929921261413972
-0.326667433204845 -0.0368296986365805 0.940980736535426
-0.326667433204846 -0.0324133948229857 0.949553014432527
-0.326667433204846 -0.0299534423266133 0.954947862981347
-0.326667433204846 -0.0272286492512479 0.972087978165492
-0.326667433204846 -0.0261876393953768 0.973520944596038
-0.326667433204846 -0.0314757042909846 0.980238478918088
-0.326667433204846 -0.0249132696368244 0.997776721042221
-0.324959198597839 -0.0249688001574273 0.99975439693727
-0.308329757006881 -0.00962469014640907 0.999352597275973
-0.307348874443389 -0.00601810551872385 0.999258155533779
-0.29465918876088 0.00885488828003425 0.998868692484666
-0.286354373883724 0.0206886441896714 0.998558814680548
-0.282753948014052 0.0177145888892048 0.998636693059388
-0.271966494180292 0.0373829170379522 0.998121659761088
-0.27060379167683 0.0377182173990941 0.998112879612129
-0.24972736192629 0.0576120763980823 0.997591940580673
-0.241593825024518 0.0708307342683758 0.997245797842432
-0.228046362625341 0.0862222584431894 0.99684275659756
-0.22692848197084 0.0862176861708614 0.996842876326725
-0.220085281974102 0.0987317061593439 0.99651518518079
-0.206960842616472 0.112658857570199 0.996150489886264
-0.326667433204845 -0.0214064291647215 0.236871378492233
-0.326667433204845 -0.0146530251446671 0.239256423329538
-0.326667433204845 -0.0142106024601746 0.246734341096258
-0.326667433204845 -0.0180049810168359 0.262128155414744
-0.326667433204845 -0.0168998845093746 0.278120368925062
-0.326667433204845 -0.0213694002812327 0.284935007213259
-0.326667433204845 -0.0143174485216017 0.289703095163773
-0.326667433204845 -0.0135203322347816 0.296220026342546
-0.326667433204845 -0.00917035318714782 0.302868250844068
-0.326667433204845 -0.0127755503250272 0.317339677188537
-0.326667433204845 -0.0121533332605396 0.320235489898222
-0.326667433204845 -0.0198738019307626 0.339209695077223
-0.326667433204845 -0.0135625342041651 0.344220392849331
-0.326667433204845 -0.0121048941916948 0.349927337233586
-0.326667433204845 -0.012194386129633 0.362903743387798
-0.326667433204845 -0.0181715925987946 0.372953482547144
-0.326667433204845 -0.0201106244262726 0.389329704630159
-0.326667433204845 -0.0160961172041069 0.390803663765231
-0.326667433204845 -0.0148910277612158 0.394572107019175
-0.326667433204845 -0.00943131503947601 0.406961098053312
-0.326667433204845 -0.0114042371936514 0.414028486798097
-0.326667433204845 -0.0122835180206396 0.417667476962569
-0.326667433204845 -0.0152930996889554 0.437898958768153
-0.326667433204845 -0.0152517646459351 0.435972020362023
-0.326667433204846 -0.0178338337264452 0.456614630207318
-0.326667433204845 -0.0152402624072606 0.462433471563964
-0.326667433204845 -0.00599975385652952 0.463544800473022
-0.326667433204845 -0.0119758947056766 0.470886725230003
-0.326667433204845 -0.0169861182681674 0.486147500878816
-0.326667433204845 -0.0156212490433978 0.506682382271712
-0.326667433204846 -0.0192412986720322 0.515571694551035
-0.326667433204845 -0.0223436124790239 0.527812478203971
-0.326667433204845 -0.0198663422678989 0.531663159777301
-0.326667433204846 -0.0135967815508742 0.531659795890777
-0.326667433204845 -0.0135241860831996 0.541552741506745
-0.326667433204845 -0.0182620548578843 0.563554922773153
-0.326667433204845 -0.0108757484321792 0.565847832147579
-0.326667433204845 -0.0174354306994336 0.579026590813311
-0.326667433204845 -0.0165222240436388 0.5814171222736
-0.326667433204845 -0.0154275335187 0.589473530247197
-0.326667433204845 -0.0124254229049613 0.593591080898969
-0.326667433204846 -0.00886773155184516 0.605297079011539
-0.326667433204845 -0.0121863121660384 0.61665205895672
-0.326667433204845 -0.010386718983146 0.629374211753492
-0.326667433204845 -0.0145812648243171 0.633408247632806
-0.326667433204845 -0.0225623078318957 0.652769827003703
-0.326667433204846 -0.0119606551730382 0.65079850604771
-0.326667433204845 -0.0181837190004085 0.664391612149339
-0.326667433204845 -0.0184030041093656 0.674742531096193
-0.326667433204845 -0.0168198523642721 0.691971862083067
-0.326667433204845 -0.0145488514200821 0.692906755940084
-0.326667433204846 -0.02072324029608 0.708500327206658
-0.326667433204845 -0.019943573718984 0.716011268356838
-0.326667433204846 -0.0159581615642909 0.724904236736604
-0.326667433204845 -0.0193970931989365 0.728924121688414
-0.326667433204845 -0.0124485877029607 0.73021652756564
-0.326667433204846 -0.0170660825348094 0.751004147827746
-0.326667433204846 -0.0118229243576088 0.75078228023244
-0.326667433204845 -0.0142398788790349 0.769009985330042
-0.326667433204845 -0.012919680530481 0.778345000088328
-0.326667433204846 -0.0150975627840017 0.780723064533687
-0.326667433204845 -0.0113851596703042 0.790294670712839
-0.326667433204845 -0.0228508999421656 0.807867112853674
-0.326667433204846 -0.015467862923515 0.812140599758411
-0.326667433204846 -0.0123788329416411 0.820233017014672
-0.326667433204846 -0.021563932703745 0.83446340610467
-0.326667433204846 -0.00989047919311329 0.832845389587015
-0.326667433204846 -0.0123496643855704 0.853939053109713
-0.326667433204845 -0.0131878903114665 0.855353799446188
-0.326667433204845 -0.0141648242577541 0.867569889160553
-0.326667433204846 -0.0132590496501496 0.872092879233876
-0.326667433204845 -0.0129671926383112 0.880776121330122
-0.326667433204846 -0.0224502714498724 0.902409513681051
-0.326667433204846 -0.0165518655410038 0.905523076698744
-0.326667433204846 -0.0172572814752215 0.915748961414049
-0.326667433204845 -0.0140953810108192 0.914916628174507
-0.326667433204846 -0.0152441536456305 0.929625706043917
-0.326667433204846 -0.0148754234485352 0.943961362298182
-0.326667433204846 -0.020191899592968 0.953629941204517
-0.326667433204845 -0.0187919648081576 0.958204106252126
-0.326667433204846 -0.0166111067724743 0.967833385790214
-0.326667433204846 -0.0201120986362685 0.985825223356005
-0.326667433204846 -0.00652641719573378 0.984046152352115
-0.326667433204846 -0.0214274137343319 0.997370670908695
-0.326667433204846 -0.00707897213639519 0.995681363262496
-0.313373533000511 -0.00593792502953392 0.999256055933779
-0.305729565811399 0.00975846113544218 0.998845031596743
-0.292587105551287 0.0203662966248811 0.998567255648597
-0.289632510988991 0.0351651201715572 0.998179734815888
-0.274411208530952 0.0434907054765667 0.997961721692074
-0.263914613819011 0.0536444060880444 0.997695837684224
-0.259549445345788 0.0640097129011459 0.997424412572975
-0.250277421992173 0.0672418973817888 0.997339774843668
-0.245565393630764 0.0878997279014388 0.996798830513891
-0.228765196406993 0.100192962636532 0.996476920833287
-0.229100584829529 0.105212806764591 0.996345471588659
-0.326667433204845 -0.00215914187318225 0.226639767025739
-0.326667433204845 0.00342456926913294 0.230206307873298
-0.326667433204845 -0.00548392609948408 0.246466749283583
-0.326667433204845 0.00202847025559266 0.24857407547544
-0.326667433204845 -0.00267625448266989 0.25802160869159
-0.326667433204845 -0.00261493426141159 0.27309896271343
-0.326667433204845 0.00267540476453408 0.27592647399759
-0.326667433204845 0.00395965404273362 0.281735102667345
-0.326667433204845 0.000866486808031347 0.292700392654264
-0.326667433204845 -0.00685166276179972 0.310180601775585
-0.326667433204845 0.000372860895431726 0.310838923051947
-0.326667433204845 -0.00484082665562199 0.322953079736297
-0.326667433204845 -0.0023853728715721 0.338336057299365
-0.326667433204845 -0.00469724683962775 0.339144703799864
-0.326667433204845 0.00657215412317146 0.347322515053438
-0.326667433204845 0.00167835185933452 0.363581919768215
-0.326667433204845 0.0027423517821022 0.364788298468305
-0.326667433204845 -0.00110801710904862 0.378127260033988
-0.326667433204845 -0.00722206974613408 0.395311594497039
-0.326667433204845 0.00113876988681177 0.396858975851174
-0.326667433204845 0.00287801555925137 0.40555924553671
-0.326667433204845 -0.00664341213559297 0.418469991032533
-0.326667433204845 0.00282107144607263 0.418789919838078
-0.326667433204845 -0.0042208668152698 0.436933347928228
-0.326667433204845 0.00147433147503281 0.442061306511633
-0.326667433204845 0.00115424924269873 0.445588383334594
-0.326667433204845 -0.00416441177811638 0.461219285239544
-0.326667433204845 -0.00188250649789448 0.470352022294406
-0.326667433204845 -0.00210195071415472 0.480458486348476
-0.326667433204845 -0.0033189825927206 0.488208765527732
-0.326667433204846 -0.00365835217399483 0.496964511715645
-0.326667433204846 0.00180907926789776 0.509763320082299
-0.326667433204845 -0.000663488346973491 0.509674920417885
-0.326667433204846 0.000204214856572976 0.52917411610487
-0.326667433204845 0.00354860733568431 0.536573981659309
-0.326667433204845 -0.0022761266755171 0.553215437637907
-0.326667433204845 0.00547892724795723 0.551913598077235
-0.326667433204845 -0.00140946139070171 0.565689208628764
-0.326667433204845 0.00382989703543724 0.570172178774969
-0.326667433204846 0.00703264659844846 0.573374329718398
-0.326667433204845 0.000295528174852036 0.593584560091798
-0.326667433204846 0.00702569720205602 0.591961472811907
-0.326667433204846 0.00157503705279454 0.604807482445983
-0.326667433204846 -0.00109557391565695 0.623610331664401
-0.326667433204845 -0.00571483663263502 0.633469419524279
-0.326667433204845 -0.000644149625467143 0.634411814294838
-0.326667433204845 0.00303932442013888 0.644040460600509
-0.326667433204845 0.00152668600155818 0.657883430842474
-0.326667433204845 0.00755684128442365 0.664336378765617
-0.326667433204845 -0.00778386370977568 0.674964967468231
-0.326667433204845 0.00268358851460234 0.679493806548836
-0.326667433204845 0.00144215693532856 0.685546746020855
-0.326667433204846 -0.00213767139392762 0.700385515568714
-0.326667433204846 -0.00793268380494403 0.718679308591373
-0.326667433204846 -0.000265375221996023 0.724830344250372
-0.326667433204845 -0.00701322343285251 0.735294247462606
-0.326667433204845 -0.000168361804363713 0.744774414354549
-0.326667433204845 0.000859719070330816 0.753120848934438
-0.326667433204845 0.00573686247576388 0.754480219685759
-0.326667433204846 0.00804903319406813 0.764022033140524
-0.326667433204845 -0.00555833123843232 0.779049438944861
-0.326667433204845 0.0058752942459223 0.778828126506073
-0.326667433204845 0.000845192709865376 0.796687396629005
-0.326667433204846 0.00714252748746272 0.802605188198281
-0.326667433204845 -0.00257696725227348 0.820275601699192
-0.326667433204846 -0.003097273452075 0.820995483475418
-0.326667433204846 0.00440903032846378 0.828220090127562
-0.326667433204846 0.00660705572692977 0.841431732222667
-0.326667433204846 0.00742016423494571 0.84670670350501
-0.326667433204846 0.00443522479958067 0.858734099709502
-0.326667433204846 0.00504697778391934 0.868727437747829
-0.326667433204845 -0.000188627682650922 0.882319578239575
-0.326667433204846 0.00157133269128944 0.890475837891316
-0.326667433204846 -0.000854949262141978 0.895637419555729
-0.326667433204846 0.00646371373722235 0.903139782857672
-0.326667433204846 -0.000443278228557324 0.911320865324883
-0.326667433204846 -0.00541707297435657 0.924035255337421
-0.326667433204846 0.00019098448686416 0.932365791990397
-0.326667433204846 0.00171144239492353 0.940155046562863
-0.326667433204845 -0.00294858409162459 0.946844602871041
-0.326667433204846 -0.000657714218646844 0.960001207863257
-0.326667433204845 0.00268118354200422 0.969358817121652
-0.326667433204846 -0.00719027284348152 0.980538846782921
-0.326667433204846 -0.00327288144636803 0.986621498422006
-0.326667433204846 6.62901014905015e-005 0.99831974270799
-0.324893755177778 0.0111664456695681 0.998808162224162
-0.317151939998234 0.0124700429664538 0.998774026327587
-0.294422983992921 0.0291565003955787 0.998337076062081
-0.292215730103457 0.0340140107841917 0.998209877676023
-0.285439253912333 0.0506284579712485 0.997774813065068
-0.282210553746543 0.052736881509765 0.997719602051653
-0.267575546885718 0.0683744491325274 0.997310117932351
-0.250454977338377 0.086279445146919 0.996841259111021
-0.249825264692654 0.0996476632407855 0.996491200000495
-0.233914732161014 0.107179468580847 0.996293972736586
-0.236235164033199 0.112549196350758 0.996153361466355
-0.326667433204845 0.0173384983153662 0.204389747614632
-0.326667433204845 0.00986042007740028 0.221305292698983
-0.326667433204845 0.0191686244692993 0.224450458824148
-0.326667433204845 0.0212772615485719 0.232406745155671
-0.326667433204845 0.0133026370955836 0.249941960511432
-0.326667433204845 0.0219560441824862 0.250213750922903
-0.326667433204845 0.0133345237606838 0.265863005920729
-0.326667433204845 0.00714275060284807 0.278801668810995
-0.326667433204845 0.0134988532436726 0.292550875570925
-0.326667433204845 0.0144101428794947 0.297340133555747
-0.326667433204845 0.00647092429164999 0.310969621842597
-0.326667433204845 0.0114603142056481 0.317953192712255
-0.326667433204845 0.0158075413710357 0.318594915076395
-0.326667433204845 0.0156757063319155 0.334733972867518
-0.326667433204845 0.0215166189103666 0.340870459175884
-0.326667433204845 0.00579221618180145 0.354405416290908
-0.326667433204845 0.00849384302326622 0.362866828837415
-0.326667433204845 0.00570235712680703 0.371157774249927
-0.326667433204845 0.00733145584699046 0.381915579806106
-0.326667433204845 0.0183492376362385 0.387694940447721
-0.326667433204845 0.0043893177539301 0.402440192152174
-0.326667433204845 0.00586566117386964 0.415855285462879
-0.326667433204845 0.016674388225557 0.414329295569505
-0.326667433204845 0.0202224097635647 0.426518170047771
-0.326667433204845 0.0118831483442773 0.441097121083633
-0.326667433204845 0.0095594707559472 0.449350866258175
-0.326667433204846 0.0105884878761382 0.454227280570594
-0.326667433204845 0.00795989530538592 0.467814942653985
-0.326667433204845 0.0124348161488647 0.473278310530525
-0.326667433204845 0.00503242160054817 0.485463786548585
-0.326667433204845 0.0167278485576964 0.487661739536706
-0.326667433204845 0.00742629626819542 0.50154696301422
-0.326667433204846 0.0229962048395299 0.504742674360885
-0.326667433204845 0.0132304127768626 0.52368751066068
-0.326667433204845 0.0122034444415001 0.530230983574245
-0.326667433204845 0.00577959879410454 0.544687673616541
-0.326667433204845 0.0221826742207442 0.538013013743613
-0.326667433204845 0.00703859555294979 0.560410540370834
-0.326667433204846 0.0153217520468306 0.554396288673638
-0.326667433204845 0.0141628495149259 0.574766056149596
-0.326667433204845 0.0175347397319594 0.578095067100613
-0.326667433204845 0.0153819060650879 0.588478136997117
-0.326667433204846 0.0108779669910336 0.600515016682974
-0.326667433204845 0.00596538459277629 0.614957149868588
-0.326667433204845 0.00714459104895 0.619873791312947
-0.326667433204845 0.00954982160770224 0.625570256373422
-0.326667433204845 0.0160765166365073 0.640559786766869
-0.326667433204845 0.0152434701174942 0.649605766766048
-0.326667433204846 0.0186955610233427 0.658142823019891
-0.326667433204845 0.0115384545314853 0.667811162838688
-0.326667433204846 0.00789466320290465 0.677758639949027
-0.326667433204846 0.0104075728350955 0.683923686636273
-0.326667433204846 0.0111078482133831 0.689648335790872
-0.326667433204846 0.0115906124552772 0.702293660364037
-0.326667433204846 0.0108197252658657 0.712455154401616
-0.326667433204846 0.0173159421383623 0.721153182030475
-0.326667433204846 0.0152425821061808 0.731165691315778
-0.326667433204846 0.0109184987161434 0.743757823847009
-0.326667433204846 0.017435313751215 0.749703744330689
-0.326667433204845 0.0128715349415043 0.760993179764385
-0.326667433204846 0.019534624241814 0.768389925818849
-0.326667433204846 0.00977462256282124 0.784038059413359
-0.326667433204846 0.0172493392694905 0.791925096409926
-0.326667433204845 0.0133823281288031 0.79660299332436
-0.326667433204845 0.0124427670621137 0.807612043898885
-0.326667433204845 0.0144722698682413 0.814682110597949
-0.326667433204846 0.00952110630351715 0.826868307461078
-0.326667433204845 0.0153434519970735 0.823631367326904
-0.326667433204845 0.0161192550514974 0.840729357120648
-0.326667433204846 0.0137943720704403 0.85798343732746
-0.326667433204846 0.0163612842612583 0.858016584111932
-0.326667433204845 0.0145980952591011 0.867455777671479
-0.326667433204845 0.0201206688165737 0.872781749660554
-0.326667433204845 0.00733369515292043 0.887156547328499
-0.326667433204845 0.00596467905980497 0.901255771121813
-0.326667433204846 0.0118251897553356 0.909204959616442
-0.326667433204846 0.0144821966905374 0.919615698944619
-0.326667433204846 0.0192643159907344 0.925587728751129
-0.326667433204846 0.0213224049258742 0.928264438720449
-0.326667433204845 0.0169881953072903 0.938369606819795
-0.326667433204846 0.0152703402079068 0.956963819643631
-0.326667433204845 0.00704044672787204 0.966692977898235
-0.326667433204846 0.0151238328433194 0.973696432299987
-0.326667433204845 0.0217992234129297 0.973216369670668
-0.326667433204845 0.00848492845069679 0.996924951223931
-0.323349345464151 0.010901059567664 0.998815111603812
-0.315649094365701 0.0206471399168788 0.998559901508179
-0.314176594218072 0.0299357788445458 0.998316669937735
-0.297915942679934 0.0405288672470149 0.998039280155653
-0.286728636810894 0.0620475890383459 0.997475792594556
-0.285587073268344 0.0587081406248004 0.997563239128798
-0.268481965637058 0.0835000370960669 0.996914040472249
-0.268583280686434 0.088291998052524 0.996788558558481
-0.253509833411852 0.0933945205675746 0.996654944304097
-0.243861454265338 0.115218338341551 0.996083467523527
-0.326667433204845 0.0258222994592329 0.210177188061814
-0.326667433204845 0.0249364332336273 0.215924354395216
-0.326667433204845 0.0294416365025834 0.22196460268548
-0.326667433204845 0.0346399994741273 0.224461971422387
-0.326667433204845 0.0268359856231367 0.239901478942791
-0.326667433204845 0.0301369204010275 0.249005660657222
-0.326667433204845 0.0198545742393299 0.263545784583248
-0.326667433204845 0.0285332685848134 0.264057742630612
-0.326667433204845 0.0227744020904775 0.279258069705655
-0.326667433204845 0.0359296592109288 0.281034486030563
-0.326667433204845 0.0277828341844779 0.289212380048743
-0.326667433204845 0.0268147443782438 0.300606676172439
-0.326667433204845 0.0282351021204371 0.318447814819442
-0.326667433204845 0.0302201256010951 0.317921486564974
-0.326667433204845 0.0299470853063903 0.33221895339489
-0.326667433204845 0.0330424890494384 0.331681912688429
-0.326667433204845 0.0272284749922241 0.353212991409755
-0.326667433204845 0.0322063032526819 0.353753946281674
-0.326667433204845 0.0365000681509853 0.366471618049091
-0.326667433204845 0.0235070133775917 0.38001476237318
-0.326667433204845 0.0268162322518656 0.389129799728
-0.326667433204845 0.0308138485862648 0.393807025887807
-0.326667433204845 0.0307159251678863 0.40453308831493
-0.326667433204845 0.0274291990290011 0.407981413530066
-0.326667433204845 0.0339310111034398 0.424908500415484
-0.326667433204845 0.0218365231603671 0.442991810600243
-0.326667433204845 0.0213646637491749 0.448335505276704
-0.326667433204845 0.0256745548413128 0.461708260326984
-0.326667433204845 0.0277257067762421 0.455025580760771
-0.326667433204845 0.0208731684006088 0.476850520330393
-0.326667433204845 0.0339938335857698 0.470619723880829
-0.326667433204845 0.0208746212456422 0.492891179612027
-0.326667433204845 0.0295845754627413 0.497321287623766
-0.326667433204845 0.0324778566623777 0.498558282518883
-0.326667433204845 0.027009641440528 0.523767261948997
-0.326667433204845 0.0297355762171009 0.525401569803362
-0.326667433204845 0.0243440160112848 0.541260872469794
-0.326667433204845 0.0311000846568545 0.548145829476432
-0.326667433204845 0.0326411482189693 0.554454985425422
-0.326667433204845 0.0276312531803461 0.563703687071828
-0.326667433204845 0.0301370823726988 0.576700947665377
-0.326667433204845 0.0209707064706673 0.591534101476444
-0.326667433204845 0.0220296040486982 0.597026233670318
-0.326667433204845 0.0304313523600616 0.595451916403147
-0.326667433204845 0.0260073655622225 0.605129826200064
-0.326667433204845 0.0205122029516901 0.628473195415353
-0.326667433204845 0.0259057423960505 0.632739084521366
-0.326667433204845 0.0206063382459007 0.640507135080375
-0.326667433204845 0.0337967807461859 0.643918609891486
-0.326667433204845 0.0251091043464921 0.658650111923138
-0.326667433204845 0.029092793897686 0.667255408779296
-0.326667433204846 0.0249996424701672 0.675378695231991
-0.326667433204846 0.0284791990641849 0.685177578122197
-0.326667433204845 0.033459366835398 0.693289307694331
-0.326667433204846 0.0215012368349576 0.705107856793604
-0.326667433204846 0.0267606110298444 0.707860267778475
-0.326667433204845 0.0337400515103868 0.721199599071808
-0.326667433204845 0.0291165918227004 0.737589476361815
-0.326667433204846 0.0351729121779563 0.733465880143306
-0.326667433204846 0.0287704529906732 0.752729588792715
-0.326667433204846 0.0385214217213529 0.751717596243136
-0.326667433204845 0.03222813067947 0.767140213425955
-0.326667433204845 0.0306995953927992 0.771067508729163
-0.326667433204845 0.0195939368015916 0.793385765669829
-0.326667433204845 0.0255437826932404 0.793519219683498
-0.326667433204846 0.0260664747011757 0.810255209784606
-0.326667433204846 0.032392045533927 0.812068508169539
-0.326667433204845 0.0334212270345908 0.820012791787327
-0.326667433204846 0.0325317537991211 0.833423445160924
-0.326667433204846 0.0339676704252578 0.842420213545677
-0.326667433204845 0.0288127823341823 0.854312531144407
-0.326667433204845 0.0273766429535686 0.863120123712203
-0.326667433204846 0.0330503262624341 0.862292521211372
-0.326667433204846 0.0269949646766399 0.884898647907288
-0.326667433204845 0.0289597761480697 0.89298645202341
-0.326667433204846 0.0335165505871913 0.895895564281086
-0.326667433204846 0.0292984794387851 0.901279840532423
-0.326667433204845 0.0220031415310657 0.919489980718909
-0.326667433204845 0.0330210376002127 0.923131032158517
-0.326667433204846 0.0345047555341556 0.937264739447651
-0.326667433204846 0.0227978311487304 0.94763460935346
-0.326667433204846 0.0325549048924606 0.95333124329586
-0.326667433204845 0.0250574311157355 0.964945622433939
-0.326667433204845 0.0271284030694707 0.972619116720959
-0.326667433204846 0.0233387252530525 0.983563578133447
-0.326074679304942 0.0216072476159419 0.998534760203274
-0.317836394414593 0.0334808231135801 0.998223839686546
-0.316475874420484 0.0410268205875707 0.998026240788532
-0.304792405359442 0.054710092049056 0.997667931715232
-0.300276187555475 0.0626660361689165 0.9974595979865
-0.287987913620464 0.0763560267839922 0.997101112965971
-0.282198810727488 0.0872169733683995 0.996816709070544
-0.264704820371071 0.102436935596972 0.996418160333341
-0.261717442314741 0.103265503652454 0.996396463515225
-0.326667433204845 0.0505555737350637 0.182017963286057
-0.326667433204845 0.0487583028869896 0.198679125721068
-0.326667433204845 0.0500023197355619 0.208560615425828
-0.326667433204845 0.0407655384382166 0.222607757761882
-0.326667433204845 0.042974317434535 0.234251057073214
-0.326667433204845 0.040017730641379 0.241432851923868
-0.326667433204845 0.0419001616202361 0.248393248555633
-0.326667433204845 0.0361058748628449 0.263202740948636
-0.326667433204845 0.0453185570270877 0.26869836947348
-0.326667433204845 0.0413250271535728 0.285421373936311
-0.326667433204845 0.0432539827795935 0.288880751233602
-0.326667433204845 0.0402681596276138 0.298659927445941
-0.326667433204845 0.0339960919171496 0.310479056578112
-0.326667433204845 0.0426849430708474 0.321212441746693
-0.326667433204845 0.0379737530565043 0.325378499167536
-0.326667433204845 0.0394637467925254 0.328279948772068
-0.326667433204845 0.0505550662419569 0.331634006368015
-0.326667433204845 0.0470449618048208 0.348847835441168
-0.326667433204845 0.04635751278717 0.359336071819096
-0.326667433204845 0.0489237960096377 0.367095166749578
-0.326667433204845 0.0457844068163744 0.380168199305795
-0.326667433204845 0.0385294958863738 0.396478309758448
-0.326667433204845 0.0418188397377526 0.396456484521162
-0.326667433204845 0.0441491583039749 0.408324693773887
-0.326667433204845 0.0413239131330879 0.41965491022103
-0.326667433204845 0.048796641052203 0.422927820605236
-0.326667433204845 0.0422959234180332 0.429582250814609
-0.326667433204845 0.0468223653391974 0.444106298105919
-0.326667433204845 0.0359461762853173 0.453773358113866
-0.326667433204845 0.0389003876795367 0.463535820072697
-0.326667433204845 0.0447308772509475 0.47280303674475
-0.326667433204845 0.0493089087129956 0.480586398398615
-0.326667433204845 0.0441219847892805 0.496835268796416
-0.326667433204845 0.0402983159139688 0.503226325937757
-0.326667433204845 0.0450202089141788 0.507229684804004
-0.326667433204846 0.0482213284932929 0.517009456629091
-0.326667433204845 0.0475163759197149 0.529434648651921
-0.326667433204845 0.0526358627334599 0.530590314799878
-0.326667433204845 0.0433334107746486 0.546260315796488
-0.326667433204845 0.0480692398239387 0.554272113949266
-0.326667433204845 0.0454828581463314 0.559546795573499
-0.326667433204846 0.0417559289140641 0.573345523454321
-0.326667433204846 0.0443885235427135 0.580639416487782
-0.326667433204846 0.0460194743978087 0.597148538155555
-0.326667433204845 0.0401095345097268 0.607457816535923
-0.326667433204845 0.0502050622226613 0.60840677624696
-0.326667433204845 0.0461210716920146 0.614837682153325
-0.326667433204845 0.0496962128280199 0.625348215562805
-0.326667433204845 0.0464666218021843 0.64161410579982
-0.326667433204845 0.042852067174301 0.646052178543456
-0.326667433204845 0.0433060001709166 0.652742939552574
-0.326667433204846 0.0442905293755338 0.662106445918878
-0.326667433204846 0.0420355452712364 0.671263005961946
-0.326667433204846 0.0448639483729802 0.68715248500916
-0.326667433204846 0.0401093847066008 0.694526049160075
-0.326667433204846 0.046208424707101 0.702421468583115
-0.326667433204846 0.0461754393962411 0.71137397605218
-0.326667433204845 0.0452508920945487 0.719926692574173
-0.326667433204845 0.0493166951815659 0.728014727829596
-0.326667433204845 0.0430910295573665 0.73559643248586
-0.326667433204845 0.0479063877962349 0.746662238174529
-0.326667433204846 0.0355402309918882 0.762697109710334
-0.326667433204846 0.047765164283653 0.77175555396574
-0.326667433204845 0.0409821554537787 0.776361533795561
-0.326667433204846 0.0420334508104201 0.786059072403066
-0.326667433204845 0.0368024950556686 0.798702825411993
-0.326667433204845 0.0339161649992646 0.816744738437255
-0.326667433204845 0.0387521002653359 0.823053760523848
-0.326667433204845 0.0426612416802555 0.827892342296175
-0.326667433204845 0.0427451980110603 0.837076527515026
-0.326667433204846 0.040500126311012 0.85195264115321
-0.326667433204845 0.0422477786559017 0.856183934387082
-0.326667433204846 0.043221619601754 0.864767333988113
-0.326667433204846 0.0356731641509285 0.879774846246986
-0.326667433204845 0.0512244829441287 0.878815220295693
-0.326667433204846 0.0408965173529837 0.892882022471209
-0.326667433204846 0.0368735578224524 0.903196336092518
-0.326667433204845 0.04418152629711 0.909873891944154
-0.326667433204846 0.0373923477754953 0.921294101069074
-0.326667433204845 0.0381875219439447 0.927607183369834
-0.326667433204846 0.0450809603735885 0.937522409030993
-0.326667433204845 0.0390868004381016 0.945204046455952
-0.326667433204846 0.0424143260994802 0.958143357859643
-0.326667433204845 0.0371731330335863 0.973752924196598
-0.326667433204846 0.0441285453014212 0.969345122392258
-0.326667433204845 0.0437004801099337 0.984187609142228
-0.326667433204845 0.0369014169421839 0.996437761954565
-0.324435997782777 0.0410942293781261 0.99802447562723
-0.308917402154626 0.0611804430621253 0.997498499611078
-0.305591963930289 0.0762761905687419 0.997103203550842
-0.297977542097601 0.0792203077476022 0.997026109129305
-0.290857759017471 0.0915737952915174 0.996702621673375
-0.280245618092061 0.10063452806643 0.996465358035571
-0.269728639775378 0.114315100202627 0.996107119646591
-0.326667433204845 0.0578264120072887 0.182199743129377
-0.326667433204845 0.05338334870264 0.19464823364341
-0.326667433204845 0.0600600791170103 0.198968919439353
-0.326667433204845 0.0509247493413977 0.21363453827572
-0.326667433204845 0.0615159846165498 0.211488437026774
-0.326667433204845 0.0537124415190423 0.230666394376113
-0.326667433204845 0.0670478444538005 0.227007185682631
-0.326667433204845 0.0577023548119028 0.241701271610688
-0.326667433204845 0.0591901128265752 0.248485235290895
-0.326667433204845 0.0650381873169247 0.263533515208094
-0.326667433204845 0.0518179160032281 0.280448194014511
-0.326667433204845 0.0604227862559529 0.282531669836628
-0.326667433204845 0.0607351570092416 0.283909304446632
-0.326667433204845 0.0482791177562813 0.30648190004647
-0.326667433204845 0.0534410889250432 0.316370313500611
-0.326667433204845 0.0581294058500702 0.328632594721693
-0.326667433204845 0.0551803293178374 0.333565045446329
-0.326667433204845 0.0580399178478634 0.344692651197536
-0.326667433204845 0.0585224309384668 0.348095395224873
-0.326667433204845 0.0597895274602755 0.356094509205861
-0.326667433204845 0.0629877288442524 0.368009137467223
-0.326667433204845 0.0567712812473335 0.384656708486066
-0.326667433204845 0.0585100778683639 0.388646829237278
-0.326667433204845 0.0612066802217242 0.393324606065796
-0.326667433204845 0.0518306609017445 0.412814744362128
-0.326667433204845 0.0624700257164662 0.405756663024643
-0.326667433204845 0.0528485912129711 0.425476095356927
-0.326667433204845 0.0604519882633686 0.426525287387548
-0.326667433204845 0.0543592021128421 0.450523454098287
-0.326667433204845 0.0562504516383902 0.463119785417291
-0.326667433204845 0.0549918870747362 0.464416784389949
-0.326667433204845 0.0614423433771418 0.473707339479052
-0.326667433204845 0.0549492883645152 0.481843750269303
-0.326667433204845 0.0643197735746791 0.485458275530818
-0.326667433204845 0.0574177651733783 0.503302374481938
-0.326667433204845 0.0624129700947614 0.504389672578067
-0.326667433204845 0.0526174702589834 0.527650135607116
-0.326667433204845 0.0659708006691386 0.520864413754694
-0.326667433204846 0.0531359048389535 0.540488567087476
-0.326667433204845 0.0598395775698998 0.542664308142352
-0.326667433204845 0.0476970355215111 0.564022201170003
-0.326667433204845 0.0629427245838203 0.557468936872964
-0.326667433204845 0.0567904414864236 0.57629562372413
-0.326667433204846 0.0601741018214832 0.584040144016202
-0.326667433204845 0.0506619928955278 0.592309128620143
-0.326667433204845 0.0504268970533552 0.611899510593055
-0.326667433204845 0.0531370043883757 0.620652857993973
-0.326667433204845 0.0576412594049153 0.618741471834351
-0.326667433204845 0.0544531065615266 0.631383520399613
-0.326667433204845 0.0574330285112626 0.634364020231689
-0.326667433204846 0.0639981849126789 0.639569369897753
-0.326667433204846 0.0561791088922889 0.666647024460085
-0.326667433204846 0.0525171537375352 0.672707805991379
-0.326667433204846 0.0633755659169491 0.674577395638358
-0.326667433204845 0.0613774689004385 0.688253693398335
-0.326667433204845 0.0561747972695008 0.695007741457912
-0.326667433204845 0.0583811139188817 0.70584430712067
-0.326667433204845 0.0650890521325612 0.710373152484158
-0.326667433204846 0.0618678009753629 0.719532001954059
-0.326667433204846 0.0653109517275562 0.732901745262642
-0.326667433204846 0.06405795032814 0.73944162425434
-0.326667433204846 0.0565778855004427 0.757458455191555
-0.326667433204846 0.0551191346248873 0.767591712286607
-0.326667433204845 0.0550473432160437 0.774507890987183
-0.326667433204845 0.0602837443141201 0.77326695590332
-0.326667433204845 0.0627021867068717 0.788457516195058
-0.326667433204846 0.0565699552599486 0.794902837649268
-0.326667433204845 0.0498414803481201 0.812017848449874
-0.326667433204846 0.0561290630672695 0.812346669085354
-0.326667433204846 0.0568707518277986 0.825863579588618
-0.326667433204846 0.0552868387674793 0.841343938150885
-0.326667433204845 0.0524225953225859 0.852161518644816
-0.326667433204846 0.058539525152105 0.851200185546824
-0.326667433204846 0.0475524882402121 0.873504139074326
-0.326667433204846 0.0540059357052379 0.869181778925482
-0.326667433204846 0.0553867155894087 0.885106285771044
-0.326667433204845 0.0598260076053819 0.887738371301877
-0.326667433204845 0.0580234908849438 0.901416767243095
-0.326667433204845 0.0551612253186092 0.909744403389475
-0.326667433204845 0.056036112904973 0.924689840842275
-0.326667433204845 0.0547388231415862 0.932819599260551
-0.326667433204846 0.0623321874099211 0.933563474053741
-0.326667433204846 0.0503046476949802 0.951730163484914
-0.326667433204845 0.0664910055451103 0.955993215439972
-0.326667433204845 0.0572725002805305 0.961687447185234
-0.326667433204846 0.0555262017209281 0.981919523307052
-0.326667433204846 0.0577687551404148 0.989720428897968
-0.326667433204846 0.0612150999481418 0.990078744542499
-0.321822932168847 0.060677277942134 0.997511675453447
-0.315373237331278 0.0688064111015377 0.997298806610109
-0.307573955907116 0.0822769313204966 0.99694606862416
-0.290772594621201 0.0958668666393272 0.99659020364377
-0.281873646944984 0.112788079159461 0.996147106099862
-0.278104173039538 0.11560285453297 0.996073398612697
-0.326667433204845 0.0688125607693624 0.172259105660384
-0.326667433204845 0.0733397176210838 0.17012196035343
-0.326667433204845 0.0778933736137455 0.182131171591122
-0.326667433204845 0.0724471675376739 0.202061340983329
-0.326667433204845 0.0786398344742441 0.199093181496714
-0.326667433204845 0.0719911158459241 0.219258364305509
-0.326667433204845 0.0701062817542318 0.223197339445208
-0.326667433204845 0.0745634515411278 0.230625009760517
-0.326667433204845 0.0762549897368326 0.245842727903494
-0.326667433204845 0.0701752486055872 0.247466287137487
-0.326667433204845 0.078704362668516 0.25806976461053
-0.326667433204845 0.0686076749972262 0.282339159021165
-0.326667433204845 0.0730300993728825 0.277974595734354
-0.326667433204845 0.0671884939351718 0.297462205764467
-0.326667433204845 0.072393304936961 0.30287645860039
-0.326667433204845 0.0742964122969508 0.315313974613977
-0.326667433204845 0.0769825548673351 0.314453001171979
-0.326667433204845 0.0680873988274596 0.336928861135433
-0.326667433204845 0.0729740461637251 0.335083835825046
-0.326667433204845 0.0765575267129819 0.353904030638716
-0.326667433204845 0.0637483457182547 0.364849724479459
-0.326667433204845 0.0702327985841288 0.369572804675464
-0.326667433204845 0.0725898793514164 0.375853676228712
-0.326667433204845 0.071474816654549 0.395534609507372
-0.326667433204845 0.0678892019121171 0.398620801546773
-0.326667433204845 0.0727140205139339 0.409082059586332
-0.326667433204845 0.0751726701487355 0.411146087825576
-0.326667433204845 0.0770512714314046 0.416074680209014
-0.326667433204845 0.067659828536534 0.435034342927118
-0.326667433204845 0.0755981585734704 0.438260244059088
-0.326667433204845 0.0758119405153756 0.442203359064403
-0.326667433204845 0.072303622501118 0.458229074154959
-0.326667433204845 0.0697300135630075 0.466683885068189
-0.326667433204845 0.0714268324886726 0.48203773670407
-0.326667433204845 0.0700764641228533 0.495291952708945
-0.326667433204845 0.0630514147466672 0.504215242473764
-0.326667433204845 0.0690990657786731 0.510724802992788
-0.326667433204845 0.0724469794213722 0.511985181188606
-0.326667433204845 0.069254760340653 0.523923048072316
-0.326667433204845 0.06805803182556 0.538863504829614
-0.326667433204845 0.0671463142375689 0.555975269906788
-0.326667433204845 0.0734346699824421 0.555370713554036
-0.326667433204845 0.0670859360603549 0.564270858503244
-0.326667433204846 0.0708128973781074 0.576328634234919
-0.326667433204845 0.0734636190152747 0.576759629168316
-0.326667433204845 0.0746323979418252 0.59633318967917
-0.326667433204845 0.0667808576554884 0.608787767159579
-0.326667433204845 0.0666143958913527 0.620059656797025
-0.326667433204845 0.0700024445611666 0.625300612207607
-0.326667433204845 0.080393249640921 0.624183801623691
-0.326667433204845 0.0687060207957459 0.638546927120462
-0.326667433204845 0.0714856193353388 0.651115606336038
-0.326667433204845 0.0653223568321928 0.663325130217515
-0.326667433204845 0.0650167579281743 0.675469166613032
-0.326667433204845 0.0758393356674015 0.670766778112266
-0.326667433204845 0.0711188843843081 0.687351792844046
-0.326667433204846 0.073112451822541 0.695424811068815
-0.326667433204845 0.0805060027379055 0.703332584006119
-0.326667433204845 0.0765930599282309 0.709012842291401
-0.326667433204845 0.0715624630980053 0.726536521648403
-0.326667433204845 0.080216269563408 0.724737220738248
-0.326667433204845 0.0727492659365805 0.750135915352979
-0.326667433204845 0.0752675717767268 0.748608506099163
-0.326667433204846 0.0708368489027264 0.761044199815073
-0.326667433204845 0.0731064760317151 0.771990990326225
-0.326667433204845 0.0690184440529087 0.788572691174705
-0.326667433204846 0.0758142513233282 0.788637351121901
-0.326667433204846 0.0732551148560951 0.79659486182941
-0.326667433204845 0.0723359013515426 0.808014024955408
-0.326667433204846 0.0627042795416088 0.828835166651992
-0.326667433204845 0.0781535839656849 0.824821987771569
-0.326667433204846 0.0714298440907053 0.841128912222237
-0.326667433204846 0.0711842101261822 0.850446621855364
-0.326667433204846 0.0787105081626517 0.855847222377979
-0.326667433204846 0.0703055656390002 0.870547475760802
-0.326667433204846 0.0748592394256903 0.874991393579376
-0.326667433204846 0.0789932836785092 0.878123525292977
-0.326667433204845 0.0801381633591288 0.892407412593741
-0.326667433204846 0.0719792417927264 0.903335240662516
-0.326667433204845 0.067571057773112 0.91716164318222
-0.326667433204846 0.0687219454730596 0.926764896374947
-0.326667433204846 0.0712595521144122 0.93566058454215
-0.326667433204846 0.0670994186138072 0.946155992630493
-0.326667433204846 0.0734495047972002 0.947601719371762
-0.326667433204846 0.0684424173691985 0.959311120105809
-0.326667433204846 0.0638479223332959 0.97226747670778
-0.326667433204846 0.0706926617070856 0.979550960280706
-0.326667433204846 0.0719771444795031 0.984760808410962
-0.326667433204846 0.0747719770637964 0.994168292661356
-0.315555827967407 0.0793540898053786 0.997022605922833
-0.316548115937167 0.0884321371741517 0.996784888886433
-0.299121947455168 0.104142460675612 0.996373499587397
-0.326667433204845 0.0848166277654429 0.162192391748915
-0.326667433204845 0.0807124849655365 0.177385116862715
-0.326667433204845 0.0968399070816182 0.173944811507928
-0.326667433204845 0.0893247223609037 0.185457866660501
-0.326667433204845 0.0881856735193308 0.196268167200699
-0.326667433204845 0.0962357986958503 0.197255734988008
-0.326667433204845 0.0856643086558807 0.223031134488549
-0.326667433204845 0.08485740119664 0.224934972193478
-0.326667433204845 0.0871976004011454 0.237537044522835
-0.326667433204845 0.0809310091920382 0.244942189873667
-0.326667433204845 0.0896290814472926 0.249994480301998
-0.326667433204845 0.0871987290174876 0.265539887308554
-0.326667433204845 0.0804489272231197 0.273389148672965
-0.326667433204845 0.0868069048163685 0.281039077583863
-0.326667433204845 0.0835976294445179 0.287532748182051
-0.326667433204845 0.0809290905083689 0.304573381375959
-0.326667433204845 0.0872917429923725 0.310416571249233
-0.326667433204845 0.0923467583831535 0.322105965296471
-0.326667433204845 0.0870570219595234 0.327644511883388
-0.326667433204845 0.0895009716318743 0.33738138760358
-0.326667433204845 0.0926103398203036 0.341679914328297
-0.326667433204845 0.0881069589354023 0.359654359960771
-0.326667433204845 0.0891433446498668 0.363949520458401
-0.326667433204845 0.0935661065489703 0.375456357835236
-0.326667433204845 0.0872229495399347 0.385320262312779
-0.326667433204845 0.0919282444586928 0.394158784983747
-0.326667433204845 0.0900457069701334 0.40468804205528
