ply
format ascii 1.0
element vertex 871
property float x
property float y
property float z
end_header
0.0785191617440766 -0.0922371698504049 1.0
0.0861970314170557 -0.0805604683393814 1.0
0.106006962949135 -0.0673221083893771 1.0
0.121834698973823 -0.0478941231269108 1.0
0.131754064787218 -0.0444311786419743 1.0
0.150391778392097 -0.0237940721649151 1.0
0.156524709030712 -0.0160490466757021 1.0
0.173453441004464 -0.00651335519021201 1.0
0.182272537031727 0.00350999117296991 1.0
0.191351024167256 0.018671953874327 1.0
0.204787987438928 0.0282278454769661 1.0
0.215511741795123 0.0356840895401973 1.0
0.224008612280763 0.0453003738412561 1.0
0.237466451747789 0.0574887121445384 1.0
0.258539910352981 0.0739564837929653 1.0
0.259316068096293 0.0840934711281415 1.0
0.282858689032002 0.0988971938731786 1.0
0.279997561007135 0.0995284936570499 1.0
0.0473083288002463 -0.111842105263157 0.0354151889363781
0.0433883149452155 -0.111842105263157 0.0515814514170623
0.0454148263442188 -0.111842105263157 0.0534637611730124
0.0410947121889951 -0.111842105263157 0.065656845591794
0.0406317476985197 -0.111842105263157 0.0894390131610384
0.0339489274298549 -0.111842105263157 0.0974152317714859
0.0392987187119955 -0.111842105263157 0.101702146241143
0.0400950031272223 -0.111842105263157 0.11002629361567
0.0382044161006645 -0.111842105263157 0.112499365857363
0.0435013857663138 -0.111842105263157 0.122535553865588
0.0377520037747797 -0.111842105263157 0.14533506895149
0.0374581569129026 -0.111842105263157 0.152160604328561
0.0359610044515752 -0.111842105263157 0.163429217724967
0.0373632512479926 -0.111842105263157 0.173007567971225
0.0467714327956184 -0.111842105263157 0.171629108060247
0.0381263969151193 -0.111842105263157 0.192183635481003
0.0412233728056559 -0.111842105263157 0.205658745440301
0.0381953776738213 -0.111842105263157 0.207071969829393
0.042364807914762 -0.111842105263157 0.217578144506467
0.0429349647359168 -0.111842105263157 0.231481823446428
0.0322710429038004 -0.111842105263157 0.239844096660938
0.0396413587089343 -0.111842105263157 0.249280254788347
0.044172778831784 -0.111842105263157 0.252665236236825
0.0492224513504029 -0.111842105263157 0.260382593100552
0.0380389659935872 -0.111842105263157 0.283667174952106
0.0417463605758637 -0.111842105263157 0.284246075885051
0.0382870952442565 -0.111842105263157 0.29935129804884
0.0465233895722356 -0.111842105263157 0.306823424871918
0.0394261123328117 -0.111842105263157 0.321297178016733
0.037953513890806 -0.111842105263157 0.329859735939469
0.0444525023101387 -0.111842105263157 0.335574394201027
0.0456891496703291 -0.111842105263157 0.342753071594076
0.0409170856053828 -0.111842105263157 0.360101962827684
0.0458290412920444 -0.111842105263157 0.36467269084321
0.0329473741070963 -0.111842105263157 0.380413565213747
0.0387284055681352 -0.111842105263157 0.383089038847958
0.0459242097163991 -0.111842105263157 0.392833742553671
0.0432347480321509 -0.111842105263157 0.398289674021003
0.0461934995553193 -0.111842105263157 0.404528490703585
0.0357848451214656 -0.111842105263157 0.425344783296524
0.0383821966643015 -0.111842105263157 0.431439667950944
0.0394916118478457 -0.111842105263157 0.442207024873617
0.0446162245703009 -0.111842105263157 0.452924141343285
0.038305244190262 -0.111842105263157 0.467641637420977
0.0419468742843502 -0.111842105263157 0.465574321010852
0.0467420685746615 -0.111842105263157 0.473820716032003
0.0361650454478293 -0.111842105263157 0.494998036764174
0.0423691454899447 -0.111842105263157 0.509154448878466
0.0372175343040314 -0.111842105263157 0.511453193755776
0.0382143134660457 -0.111842105263157 0.525514084255661
0.0423406973701394 -0.111842105263157 0.531483747861932
0.0471385789226429 -0.111842105263157 0.541763882639032
0.0384570440939637 -0.111842105263157 0.552583261273194
0.0428499238827525 -0.111842105263157 0.560080143345359
0.0475088281028181 -0.111842105263157 0.566066522652109
0.04816514362573 -0.111842105263157 0.576983520533976
0.042878317484521 -0.111842105263157 0.58983663595579
0.0329108101941682 -0.111842105263157 0.604384736821346
0.0426410085826033 -0.111842105263157 0.600941481627182
0.0358687965371865 -0.111842105263157 0.620212885847477
0.035492792972711 -0.111842105263157 0.63235714716549
0.0419785972315183 -0.111842105263157 0.636316180462716
0.0368051493940118 -0.111842105263157 0.652649747572691
0.04335500201094 -0.111842105263157 0.659545371750207
0.0396833635791212 -0.111842105263157 0.66996021598311
0.0398972072478856 -0.111842105263157 0.682664830078876
0.0370776853321488 -0.111842105263157 0.692391200417855
0.0470447171774397 -0.111842105263157 0.695606824141683
0.0438470223399006 -0.111842105263157 0.710505112879722
0.0360557650471942 -0.111842105263157 0.723816590364405
0.0360941688565909 -0.111842105263157 0.734421322851546
0.0387589383843903 -0.111842105263157 0.741395773053791
0.0419661663603297 -0.111842105263157 0.744083534292263
0.0415782698198229 -0.111842105263157 0.751276402341583
0.0413815445375093 -0.111842105263157 0.762101065681666
0.0316783553806242 -0.111842105263157 0.779150707429943
0.0398175133877976 -0.111842105263157 0.785473916124495
0.0410475774538065 -0.111842105263157 0.788847037575269
0.0431058550487921 -0.111842105263157 0.80207491944654
0.036957109131399 -0.111842105263157 0.824871898999444
0.0371375089008292 -0.111842105263157 0.824681387428046
0.0407844247573553 -0.111842105263157 0.836433997706022
0.0386675802627051 -0.111842105263157 0.848645565814601
0.0414958412824875 -0.111842105263157 0.848367227498979
0.0395415041564345 -0.111842105263157 0.862236763212177
0.0384327595860162 -0.111842105263157 0.868871031676247
0.0437121110720053 -0.111842105263157 0.882595684774773
0.048923796749671 -0.111842105263157 0.896718249948737
0.0436399470196973 -0.111842105263157 0.907210543693955
0.0455517717403741 -0.111842105263157 0.910730561894044
0.0358208632100437 -0.111842105263157 0.930525493694728
0.0451968523998757 -0.111842105263157 0.937164832418862
0.0376953381734767 -0.111842105263157 0.941771098934001
0.0362286660966587 -0.111842105263157 0.956865881130518
0.0467058745967962 -0.111842105263157 0.962474292158502
0.0451183138687539 -0.111842105263157 0.97238836423529
0.0423732565521826 -0.111842105263157 0.979533024865013
0.0389080064880419 -0.111842105263157 0.991557051257444
0.0517492682494381 -0.109111888417187 1.0
0.0546486598510282 -0.0957066647300696 1.0
0.0625419646162837 -0.0872140391193846 1.0
0.0814768843031343 -0.0745550179994827 1.0
0.0915700046067542 -0.0664220510036051 1.0
0.103151171125424 -0.04827205606808 1.0
0.114769957312746 -0.0383502330534486 1.0
0.126855196595642 -0.0308328761612796 1.0
0.133796578793253 -0.0236321722136216 1.0
0.150498082327317 -0.00924785657998115 1.0
0.154145205816916 -0.00625192252718532 0.999999999999999
0.17266782139536 0.00955170883552182 1.0
0.183453204799238 0.0286964003748682 1.0
0.192827148297574 0.0230535543058895 1.0
0.202066877459553 0.0424183930584106 1.0
0.218492024509628 0.0538665956904673 1.0
0.227182162079329 0.0663256001054049 1.0
0.250392566767043 0.0797626324727846 1.0
0.255608051831479 0.0938548837412701 1.0
0.269486555228102 0.104630113132988 1.0
0.288374369790749 0.108865048846874 1.0
0.0215876935697097 -0.111842105263157 0.0509501211212197
0.0317019296206613 -0.111842105263157 0.0558189849578272
0.0307909077852288 -0.111842105263157 0.0670149975925431
0.0237059311825099 -0.111842105263157 0.0790388348570028
0.0196529208647791 -0.111842105263157 0.0973443531093882
0.032857046374535 -0.111842105263157 0.0943051525010907
0.0266942709471046 -0.111842105263157 0.107716749266339
0.0228786743391968 -0.111842105263157 0.125076226550015
0.0341132302559992 -0.111842105263157 0.124211225485062
0.0300630842464294 -0.111842105263157 0.137337816304003
0.0221386748209459 -0.111842105263157 0.154312112326059
0.0293485630988787 -0.111842105263157 0.159413111708623
0.0294036999856446 -0.111842105263157 0.15835983570275
0.0266728632321094 -0.111842105263157 0.172283507855471
0.0315590397153415 -0.111842105263157 0.187968391406713
0.03174539825622 -0.111842105263157 0.194186996321421
0.01857069705852 -0.111842105263157 0.216744092039312
0.021664290303811 -0.111842105263157 0.219996317230286
0.0214325958430266 -0.111842105263157 0.237223639204307
0.0292139611170076 -0.111842105263157 0.229278515790099
0.0243870718561336 -0.111842105263157 0.246218221330252
0.0339091777587087 -0.111842105263157 0.254811549893194
0.032656650962205 -0.111842105263157 0.259900055684369
0.0299682304026442 -0.111842105263157 0.274525466626449
0.0191235312796165 -0.111842105263157 0.286048646110262
0.0324134671606444 -0.111842105263157 0.289086055453159
0.0255031087930188 -0.111842105263157 0.299850804671142
0.034313619713216 -0.111842105263157 0.308201907647675
0.0232400265821257 -0.111842105263157 0.323969836835451
0.0244912329859023 -0.111842105263157 0.331489499386764
0.0272793420044631 -0.111842105263157 0.346334182453749
0.0274114580808801 -0.111842105263157 0.358167811110996
0.0290739987443123 -0.111842105263157 0.358760996960895
0.0272528924243236 -0.111842105263157 0.373619956251292
0.0191133327069023 -0.111842105263157 0.38622197395391
0.0356279542152127 -0.111842105263157 0.38956154909695
0.0317658916674104 -0.111842105263157 0.396537872310579
0.0279718326481592 -0.111842105263157 0.412904120054961
0.0232731908160705 -0.111842105263157 0.430024776963429
0.0291110471852582 -0.111842105263157 0.426087065095847
0.0290040346519191 -0.111842105263157 0.437222210950261
0.0283305408107835 -0.111842105263157 0.444303856691541
0.0285584697788792 -0.111842105263157 0.457102025953263
0.0288165628297986 -0.111842105263157 0.476605071493772
0.0271824639438904 -0.111842105263157 0.482675528945246
0.0205278721066031 -0.111842105263157 0.495452890326846
0.0246177508824415 -0.111842105263157 0.498777564159209
0.0313078963806121 -0.111842105263157 0.501254064574984
0.0263649195885899 -0.111842105263157 0.513078234197008
0.0219676384311814 -0.111842105263157 0.528324130198387
0.0324426954322799 -0.111842105263157 0.542357851529317
0.0233905485548026 -0.111842105263157 0.556996379291049
0.0290564464013128 -0.111842105263157 0.559687005476982
0.0319827492404564 -0.111842105263157 0.561774749468393
0.0281023418420169 -0.111842105263157 0.586044492848611
0.0260592592165076 -0.111842105263157 0.590721195376182
0.0246744769583121 -0.111842105263157 0.594166587990645
0.0294753329417898 -0.111842105263157 0.606562411188092
0.0326052694766175 -0.111842105263157 0.614731757140418
0.0260311486727731 -0.111842105263157 0.633615974341192
0.024898689196321 -0.111842105263157 0.639177461443997
0.034545269926508 -0.111842105263157 0.642110353705152
0.0343385805017793 -0.111842105263157 0.651023844518541
0.0175114506684483 -0.111842105263157 0.67459330536851
0.030856135536492 -0.111842105263157 0.670858004171913
0.0347748626027452 -0.111842105263157 0.678404479445417
0.0355883942953458 -0.111842105263157 0.693351382763073
0.0222164121795024 -0.111842105263157 0.714936551397157
0.035560579977526 -0.111842105263157 0.713211078716651
0.0274893928962801 -0.111842105263157 0.722779439475346
0.0198608846581465 -0.111842105263157 0.739424102759024
0.0187069404303519 -0.111842105263157 0.751372433925657
0.0233824308819001 -0.111842105263157 0.754498282172856
0.0365497800039205 -0.111842105263157 0.763787665229442
0.0284813463985706 -0.111842105263157 0.77774467830493
0.0272558523434556 -0.111842105263157 0.789910477796386
0.026527498651607 -0.111842105263157 0.801279609418764
0.026474133069823 -0.111842105263157 0.800185059833504
0.0186066593304158 -0.111842105263157 0.813725218989699
0.0246786632922586 -0.111842105263157 0.827211903568464
0.0358302803620156 -0.111842105263157 0.827689519598455
0.020079113237345 -0.111842105263157 0.847414456466591
0.0273020136597499 -0.111842105263157 0.853327454678592
0.0292074682101338 -0.111842105263157 0.861721465819502
0.0359594860446546 -0.111842105263157 0.871425961806943
0.0310210835717632 -0.111842105263157 0.886532655542995
0.0252432469052771 -0.111842105263157 0.894343361862143
0.0278575485078712 -0.111842105263157 0.906751797748805
0.0248747450225508 -0.111842105263157 0.915122037983605
0.0276814437149751 -0.111842105263157 0.929803345617833
0.0235998034402698 -0.111842105263157 0.931842319817596
0.0322256338960845 -0.111842105263157 0.937274628083517
0.0255434087979665 -0.111842105263157 0.951413753107609
0.0238249457999997 -0.111842105263157 0.965186760612158
0.0232761032749742 -0.111842105263157 0.969430184117542
0.0285151432631165 -0.111842105263157 0.982844332516404
0.0248979396455119 -0.111842105263157 0.993878586609635
0.0268661477074091 -0.111842105263157 0.997715303840835
0.0343052084559489 -0.109610260068485 1.0
0.0424368115085977 -0.0930219792773646 0.999999999999999
0.0622712786739701 -0.0802355599993652 1.0
0.0795652796821346 -0.0643028313214733 1.0
0.0839196122586175 -0.0645895251173619 1.0
0.0912738857040614 -0.05378232350281 0.999999999999999
0.110267824926163 -0.0304406808594186 1.0
0.122378812148986 -0.0281702329397429 1.0
0.127842890390461 -0.0190433098713812 1.0
0.131371439594699 -0.0152851392249371 1.0
0.147784763556964 0.00955682929526944 1.0
0.159811597143417 0.0174964538952831 1.0
0.175228823404758 0.0259618034693974 1.0
0.190612312546359 0.0345625920346707 1.0
0.208758116885389 0.0587641989616998 1.0
0.218397677317629 0.0628532023066625 1.0
0.214551415079626 0.0683013981015994 1.0
0.234076820396129 0.0812009108092394 1.0
0.24413324986382 0.0923631126229427 1.0
0.258006373373423 0.104354158099953 1.0
0.014088523990026 -0.111842105263157 0.0596887480868901
0.0135992315710786 -0.111842105263157 0.0716248447433357
0.00692230081632509 -0.111842105263157 0.0850550896261343
0.018263559936714 -0.111842105263157 0.0848047131089266
0.0143433931653391 -0.111842105263157 0.0989960314178339
0.0125818819290833 -0.111842105263157 0.112052854412728
0.0138091760099018 -0.111842105263157 0.125494854314666
0.011141047662853 -0.111842105263157 0.134280090816489
0.0183777172451988 -0.111842105263157 0.140683628822792
0.0135861690664924 -0.111842105263157 0.14738297808847
0.0121519463393259 -0.111842105263157 0.15719186006522
0.0107649955599945 -0.111842105263157 0.170969155515475
0.013473899466756 -0.111842105263157 0.174589954420105
0.0174826982044674 -0.111842105263157 0.178808479485203
0.0153584941768571 -0.111842105263157 0.20117203986567
0.00432394145926504 -0.111842105263157 0.215958772086948
0.0160641412804306 -0.111842105263157 0.209914018446989
0.00441152060130552 -0.111842105263157 0.236101452514777
0.0202984096272742 -0.111842105263157 0.227627243386754
0.0165845547747839 -0.111842105263157 0.245082697927463
0.00707366276811389 -0.111842105263157 0.262775693826515
0.0157124025174483 -0.111842105263157 0.257913598686828
0.0119387108345709 -0.111842105263157 0.274516565730607
0.0122543512417448 -0.111842105263157 0.285354258093704
0.0041167504401318 -0.111842105263157 0.300606825812271
0.0135020849955498 -0.111842105263157 0.306460079882495
0.0126023163948226 -0.111842105263157 0.319774773674738
0.0119863712815194 -0.111842105263157 0.320824696580157
0.0190113385015504 -0.111842105263157 0.327010015222488
0.00582695348749146 -0.111842105263157 0.345401112010554
0.0187078749451415 -0.111842105263157 0.346594673369194
0.00457978522118313 -0.111842105263157 0.370368566125097
0.00756211310230082 -0.111842105263157 0.377077685685639
0.010555167841258 -0.111842105263157 0.380572206012117
0.0130238875025752 -0.111842105263157 0.39882198585585
0.00766065489493119 -0.111842105263157 0.402327212623226
0.0184158408692162 -0.111842105263157 0.411360849854482
0.0191142121222782 -0.111842105263157 0.417223965464044
0.0113239230434584 -0.111842105263157 0.432266431119072
0.00651075951805311 -0.111842105263157 0.439745902931456
0.00412516378135705 -0.111842105263157 0.451362053128783
0.0192708919998426 -0.111842105263157 0.458233625238192
0.00569411173272355 -0.111842105263157 0.478330083071334
0.0135781981337238 -0.111842105263157 0.478014730656603
0.014480193105529 -0.111842105263157 0.48856722379433
0.011355133922444 -0.111842105263157 0.510746283518421
0.0124929690505265 -0.111842105263157 0.502746637352576
0.00525864190592042 -0.111842105263157 0.528565114118938
0.0128062257679609 -0.111842105263157 0.532579242082073
0.00841855216208297 -0.111842105263157 0.537603696498103
0.0105222657194894 -0.111842105263157 0.553541384823367
0.0207683232778198 -0.111842105263157 0.550800775207662
0.00867984936872273 -0.111842105263157 0.571142593149063
0.0122485575781106 -0.111842105263157 0.578252755005371
0.0076764880478392 -0.111842105263157 0.591734617682603
0.0102971189519392 -0.111842105263157 0.5993134810916
0.0136718198954065 -0.111842105263157 0.606337072889354
0.0153183654485289 -0.111842105263157 0.61493269156561
0.0131092502078373 -0.111842105263157 0.622062514756155
0.0156254708709223 -0.111842105263157 0.635839520020189
0.0159005846026329 -0.111842105263157 0.65254837584783
0.0197369949368804 -0.111842105263157 0.657467532445207
0.00608728012738996 -0.111842105263157 0.666437969432556
0.0102202856817977 -0.111842105263157 0.675721569817486
0.012912697988095 -0.111842105263157 0.683119819121328
0.0141262888531762 -0.111842105263157 0.692706538387976
0.016476320220826 -0.111842105263157 0.6995890269192
0.0186005982182555 -0.111842105263157 0.712526871667709
0.0129616129879729 -0.111842105263157 0.731249123273769
0.00798260756689439 -0.111842105263157 0.733182848778368
0.00744335700016507 -0.111842105263157 0.749454223727569
0.0112475179433664 -0.111842105263157 0.754720686948925
0.00980053588779202 -0.111842105263157 0.766843549866428
0.0167442885166787 -0.111842105263157 0.773531699081882
0.01447664345495 -0.111842105263157 0.78019694754472
0.00673553470185862 -0.111842105263157 0.797084971692967
0.016980986315283 -0.111842105263157 0.800353316327952
0.0160770800049099 -0.111842105263157 0.807474466934433
0.0105983766142483 -0.111842105263157 0.818058471355214
0.0126117590664175 -0.111842105263157 0.834323576836742
0.0104828622147417 -0.111842105263157 0.841226221296447
0.0102393304705817 -0.111842105263157 0.850806226227191
0.012706251904621 -0.111842105263157 0.859844216455153
0.012534269745648 -0.111842105263157 0.876773683694381
0.0131048682694176 -0.111842105263157 0.8770437642873
0.0159599343452803 -0.111842105263157 0.881952895922123
0.0147802618148298 -0.111842105263157 0.8989846113425
0.00847479725151936 -0.111842105263157 0.905640527950492
0.0141583497837815 -0.111842105263157 0.916540661901841
0.00975980237031922 -0.111842105263157 0.928581747808882
0.00788643098447113 -0.111842105263157 0.939441496852288
0.0107075173967695 -0.111842105263157 0.949001812729736
0.0120582117926866 -0.111842105263157 0.958001719354573
0.0129404812477354 -0.111842105263157 0.968315624744259
0.0034600623239523 -0.111842105263157 0.987982217649986
0.00922797134858303 -0.111842105263157 0.990037224839964
0.00851741297860728 -0.110870473834303 1.0
0.0212442691783428 -0.110038728091348 1.0
0.0370111133120747 -0.096279992061204 0.999999999999999
0.037635720185208 -0.0851093977530767 1.0
0.0472276392676488 -0.0724393617198204 1.0
0.0672639627994991 -0.0634646762080002 1.0
0.0724733346265998 -0.0623778877725521 1.0
0.0893561405821045 -0.0344314146206044 1.0
0.0976728033546392 -0.0278303856509745 1.0
0.110884652002002 -0.0243267667723696 1.0
0.121401072144623 -0.0143650739841032 1.0
0.130865208413597 -0.00502996297264134 1.0
0.13524657362977 0.0115266941543702 1.0
0.155893464907515 0.0247782988042345 1.0
0.163490637426238 0.0336373208223393 1.0
0.174448023247335 0.0425912481474866 1.0
0.183661143745975 0.0499888212909102 1.0
0.201874996094027 0.0593603399635977 1.0
0.210622956582876 0.0695176071615614 1.0
0.231598852147992 0.0932226753685317 1.0
0.232124643707441 0.102649759483647 1.0
-0.00161348232953178 -0.111842105263157 0.0720309757769566
-0.00559902867309093 -0.111842105263157 0.0835669475389465
0.00199172873074996 -0.111842105263157 0.0875475673028638
-0.00502549999289122 -0.111842105263157 0.0964966247448548
-0.00511014674721132 -0.111842105263157 0.110823297301969
-0.002443313310057 -0.111842105263157 0.121994943380017
0.000296489819054981 -0.111842105263157 0.129879086711874
0.00266691332326996 -0.111842105263157 0.134870450750127
-0.00691376097499884 -0.111842105263157 0.145965617400838
0.00649787245643574 -0.111842105263157 0.148539997212902
-0.00504198789672944 -0.111842105263157 0.173061905421028
-0.0111699300398003 -0.111842105263157 0.188187229874565
0.00107263873537614 -0.111842105263157 0.185786421003853
-0.00373024952798065 -0.111842105263157 0.194536216892784
0.000257539100675561 -0.111842105263157 0.207092349107897
-0.00225588017905421 -0.111842105263157 0.215939709966462
0.000205533117123031 -0.111842105263157 0.222230693235689
0.00198172393756217 -0.111842105263157 0.23317697376947
-0.00651294625207196 -0.111842105263157 0.246722961833763
0.00401807531217008 -0.111842105263157 0.250825653656161
0.00495261789083548 -0.111842105263157 0.264286656975059
-0.00379386690206323 -0.111842105263157 0.28346660097668
0.00292171333845133 -0.111842105263157 0.280496697127676
0.000619476823816636 -0.111842105263157 0.293445596692249
0.00229348805053647 -0.111842105263157 0.299409269674545
0.00115596642192216 -0.111842105263157 0.320649551437199
-0.0010731089654503 -0.111842105263157 0.323347874879524
-0.00213135254539979 -0.111842105263157 0.337885068487567
-0.00189110714105427 -0.111842105263157 0.337152944822237
-0.00377972973244657 -0.111842105263157 0.359576975167929
-0.00272112678261524 -0.111842105263157 0.35947003969073
-0.000434644491386094 -0.111842105263157 0.365039895445046
0.00524586956534488 -0.111842105263157 0.380704152731156
-0.000434091940787134 -0.111842105263157 0.387799615468041
-0.00574908776102732 -0.111842105263157 0.39683778635452
-0.00424676388511928 -0.111842105263157 0.413811802150598
-0.00216805326089121 -0.111842105263157 0.422676718516102
-0.00162859749460569 -0.111842105263157 0.433597857552576
0.00034949803967105 -0.111842105263157 0.442309537373508
0.000459050618780861 -0.111842105263157 0.452413933086516
-0.00225583436502978 -0.111842105263157 0.45739111698896
-0.00147042589574555 -0.111842105263157 0.46709032764927
-0.00170870459472816 -0.111842105263157 0.48440097851483
-0.000535926722558655 -0.111842105263157 0.492140163376898
-0.00106456414924641 -0.111842105263157 0.503437982103492
0.00261917263785714 -0.111842105263157 0.507303542049092
-0.000623547414651566 -0.111842105263157 0.521334556373926
-0.00506933960247063 -0.111842105263157 0.525540995479262
-0.000298253519598673 -0.111842105263157 0.537063483774332
-0.00575402234654637 -0.111842105263157 0.551033857801912
-0.00472936570112689 -0.111842105263157 0.565716412938002
0.000491911770789356 -0.111842105263157 0.560877481761465
0.000541271457950044 -0.111842105263157 0.575404945392007
0.00189776741700771 -0.111842105263157 0.584972233479439
-0.00280920669378537 -0.111842105263157 0.606901909132274
-0.00119500701760929 -0.111842105263157 0.605321534686202
-0.00017036530129164 -0.111842105263157 0.617194864237378
-6.430605870303e-006 -0.111842105263157 0.623891859062582
-0.00197873948540248 -0.111842105263157 0.644217762798938
-0.00311620368989948 -0.111842105263157 0.647622137024724
-0.00715192949700406 -0.111842105263157 0.657649606455015
0.00262375587527835 -0.111842105263157 0.665293934904462
-0.00429321851403744 -0.111842105263157 0.680154875970579
-0.00577931811609743 -0.111842105263157 0.686575552501639
-0.00829035961840032 -0.111842105263157 0.696785600306323
-0.000373505718849502 -0.111842105263157 0.703098636442829
-0.00338198215998817 -0.111842105263157 0.709514983299388
0.000728193163884177 -0.111842105263157 0.721245276275527
-0.00168556438758216 -0.111842105263157 0.726651912670406
-0.00693644091814001 -0.111842105263157 0.745584823170111
-0.00603674874011591 -0.111842105263157 0.754356081581334
-0.00379016366456571 -0.111842105263157 0.758138951938886
-0.0051897779013725 -0.111842105263157 0.775014578612976
0.00547103107700908 -0.111842105263157 0.773943033992911
-0.000585822013400656 -0.111842105263157 0.795144843279712
-0.00432200225262692 -0.111842105263157 0.805094042095027
0.000118064192135997 -0.111842105263157 0.802450319756771
-0.00225506817333868 -0.111842105263157 0.819906298393824
5.20808062381212e-005 -0.111842105263157 0.830837023075014
0.000760472616084116 -0.111842105263157 0.840718146084915
-0.000322761217216644 -0.111842105263157 0.849880998211729
-0.00249771267134198 -0.111842105263157 0.855952564387242
-0.000766417616164827 -0.111842105263157 0.870494831640166
0.000555293513936782 -0.111842105263157 0.878408064071725
-0.00140549896220499 -0.111842105263157 0.887190941925416
-0.00209102546371532 -0.111842105263157 0.895805153522169
0.00352897249583741 -0.111842105263157 0.903584351491295
-0.00602462110241958 -0.111842105263157 0.918417776018175
0.00223172876496178 -0.111842105263157 0.931953777700538
-0.00862029908891853 -0.111842105263157 0.942357469326937
-0.00631200909528142 -0.111842105263157 0.953616698224766
-0.00186423393006767 -0.111842105263157 0.958422605334993
0.0031263932107507 -0.111842105263157 0.961519314753089
-0.00112144687049158 -0.111842105263157 0.977875232017249
0.00267259185842069 -0.111842105263157 0.979023735042209
0.0040719683160374 -0.111842105263157 0.992064332120189
-0.000374433065555547 -0.105060773400547 1.0
0.0175447594825399 -0.091770112444848 1.0
0.0289832827240862 -0.0806685833759986 1.0
0.0334911169845217 -0.0803359399609839 1.0
0.0440354133000982 -0.064661890460259 1.0
0.0627564196537564 -0.0508044678076085 1.0
0.066163999280297 -0.0473371140958862 1.0
0.0813548046136119 -0.0369601077629253 1.0
0.0866812927406835 -0.0276562645096208 1.0
0.108063403412251 -0.0150881254007788 1.0
0.117219344337618 0.0018180719093752 1.0
0.128714124407452 0.006306782493455 1.0
0.129265086164995 0.00990401946002349 1.0
0.146545536431763 0.0362702855590192 1.0
0.163769940637032 0.037798338075283 1.0
0.167106792143392 0.0500538377455336 1.0
0.181041327188269 0.0649744285047082 0.999999999999999
0.196103367226119 0.0696176318576256 1.0
0.212889600301426 0.0838814344563108 1.0
0.214242881173976 0.098483158023041 1.0
0.234432363916522 0.104793044191323 1.0
-0.0158343672996895 -0.111842105263157 0.0807966240072613
-0.0212726752133826 -0.111842105263157 0.094350083559186
-0.0195320732197284 -0.111842105263157 0.0999103722020226
-0.0192423990212275 -0.111842105263157 0.111803779122309
-0.0159823864947786 -0.111842105263157 0.125015610403659
-0.0194003904913292 -0.111842105263157 0.123907316853809
-0.0204736246850264 -0.111842105263157 0.149699853600881
-0.0100212952425631 -0.111842105263157 0.147708398807373
-0.014665973281388 -0.111842105263157 0.159747446778881
-0.00740884344768006 -0.111842105263157 0.160774477089035
-0.0150617502212656 -0.111842105263157 0.185476045847007
-0.0146606052277661 -0.111842105263157 0.186455355059323
-0.0160104482420836 -0.111842105263157 0.197661386484244
-0.0188737570028032 -0.111842105263157 0.209155142322592
-0.0201158483335596 -0.111842105263157 0.222024660678602
-0.0169849304334781 -0.111842105263157 0.227036796029495
-0.00886201460580851 -0.111842105263157 0.225023867472278
-0.0173309866252718 -0.111842105263157 0.248604934741333
-0.017143869070437 -0.111842105263157 0.256505376351556
-0.0166514337458315 -0.111842105263157 0.262857766936879
-0.0199246772316105 -0.111842105263157 0.281140771450706
-0.00707735679630432 -0.111842105263157 0.276949664690254
-0.0239265673478204 -0.111842105263157 0.300439458261261
-0.00849077163291448 -0.111842105263157 0.29703319174261
-0.0109598990462825 -0.111842105263157 0.313948969346806
-0.0243636158427524 -0.111842105263157 0.324510003718792
-0.0166064645409362 -0.111842105263157 0.334281278422069
-0.0151556748474824 -0.111842105263157 0.333972684461986
-0.00791347480695912 -0.111842105263157 0.351352453986007
-0.0135923977730673 -0.111842105263157 0.35872872269186
-0.0257510549596373 -0.111842105263157 0.374333426298794
-0.0095963091251736 -0.111842105263157 0.380753758972057
-0.020216373443827 -0.111842105263157 0.393892955802653
-0.0142931608127747 -0.111842105263157 0.403843676409841
-0.0189881477625684 -0.111842105263157 0.41952328562973
-0.0151894141265726 -0.111842105263157 0.419448904325818
-0.0183269819311681 -0.111842105263157 0.431266265345216
-0.0158001736270639 -0.111842105263157 0.446482344539334
-0.0171865613606744 -0.111842105263157 0.454622345068977
-0.0141159291191836 -0.111842105263157 0.457506714077538
-0.0126824140025496 -0.111842105263157 0.460660539101445
-0.0202378720533906 -0.111842105263157 0.484178072791816
-0.0110213020969258 -0.111842105263157 0.484565546382767
-0.016066099382079 -0.111842105263157 0.494277049368387
-0.0211473557766552 -0.111842105263157 0.509004889819291
-0.0231760219304686 -0.111842105263157 0.520885905368526
-0.0156310724706519 -0.111842105263157 0.523467294719275
-0.0170219841500012 -0.111842105263157 0.538986277024882
-0.00869159887973205 -0.111842105263157 0.540890125552369
-0.00997299337920128 -0.111842105263158 0.551740363076615
-0.011281106753147 -0.111842105263157 0.561116198664504
-0.01028860580923 -0.111842105263157 0.574330183031583
-0.0204007979638634 -0.111842105263157 0.587246738067931
-0.0144692427787327 -0.111842105263157 0.593654483439071
-0.0145020303878022 -0.111842105263157 0.598318712377675
-0.0105653497868479 -0.111842105263157 0.614388820897552
-0.0132627195537792 -0.111842105263157 0.619966906840346
-0.0164959244505972 -0.111842105263157 0.62641314168944
-0.0149148254756222 -0.111842105263157 0.641823181084459
-0.00913995724953936 -0.111842105263157 0.64564569729248
-0.020994459612659 -0.111842105263157 0.663976532118074
-0.0147601149574144 -0.111842105263157 0.666958164175963
-0.016526090139757 -0.111842105263157 0.683956966979971
-0.0073635815963857 -0.111842105263157 0.683811593429668
-0.0161914650362669 -0.111842105263157 0.701777615123874
-0.0207018965410449 -0.111842105263157 0.711570202153832
-0.0163145335092631 -0.111842105263157 0.728794172927105
-0.0198835161086436 -0.111842105263157 0.736711100861033
-0.0163733430634783 -0.111842105263157 0.733804474916861
-0.0111884879428834 -0.111842105263157 0.744910786907821
-0.0200533101272813 -0.111842105263157 0.760769587765508
-0.0183075081765065 -0.111842105263157 0.76485798014671
-0.0144099661871445 -0.111842105263157 0.77514938870724
-0.0155494912470804 -0.111842105263157 0.787103547582159
-0.0237681539285124 -0.111842105263157 0.799769996808939
-0.0154173039093222 -0.111842105263157 0.807126961109584
-0.0151707339532448 -0.111842105263157 0.811289724682604
-0.015542318805523 -0.111842105263157 0.829798316110254
-0.0152099165299138 -0.111842105263157 0.842103119379119
-0.0214529151610537 -0.111842105263157 0.851707336622049
-0.0155581479768738 -0.111842105263157 0.852097955786459
-0.0127391239313104 -0.111842105263157 0.857998489808965
-0.0200320841832714 -0.111842105263157 0.880018360308505
-0.0104626253985114 -0.111842105263157 0.882903367964634
-0.0111760299129806 -0.111842105263157 0.89355660041449
-0.0106775171895354 -0.111842105263158 0.904387669261849
-0.0145054996329319 -0.111842105263157 0.905700069462968
-0.0163745117799021 -0.111842105263157 0.920174729194714
-0.0115555115049303 -0.111842105263157 0.927611122815374
-0.0122262472147029 -0.111842105263157 0.949368564999035
-0.00937844198574402 -0.111842105263157 0.947241694788033
-0.0126084290902265 -0.111842105263157 0.967056627211265
-0.0208061419577207 -0.111842105263157 0.975975293285875
-0.0080119115199485 -0.111842105263157 0.977986976117813
-0.0200123030929575 -0.111842105263157 0.989393649591034
-0.0154529454298845 -0.109487963321325 1.0
-4.20171929358042e-005 -0.0995049243195963 1.0
0.0117852728867135 -0.0871061595556839 0.999999999999999
0.0102458634758355 -0.0853837942260446 1.0
0.0314221182873139 -0.0713620756877031 1.0
0.0307023129856868 -0.0653309192269397 1.0
0.0475603807897198 -0.048539462469702 1.0
0.0597020650265839 -0.0418360250044915 1.0
0.0750567451134343 -0.0211053452378523 1.0
0.0836971823859859 -0.0165289939989725 1.0
0.091251501574091 -0.010700348120456 1.0
0.105230530631694 0.00556986954123691 0.999999999999999
0.116884540940927 0.0131882327936676 1.0
0.134569173109771 0.0319452260380169 1.0
0.132623973805591 0.0344056124792293 1.0
0.148965491352571 0.0467999787342802 1.0
0.157676425012416 0.0594743515239876 1.0
0.167021981684876 0.0625377345390093 1.0
0.183476134316878 0.0772740997034607 1.0
0.207138086722524 0.10108317363394 1.0
-0.028366753073115 -0.111842105263157 0.0927333176811598
-0.0224613605540842 -0.111842105263157 0.0957786032660754
-0.0327946517622585 -0.111842105263157 0.112464581241296
-0.0267138909744194 -0.111842105263157 0.116637936810576
-0.0347380964756406 -0.111842105263157 0.132968829575727
-0.0292660725667417 -0.111842105263157 0.142158679709126
-0.027173018711435 -0.111842105263157 0.145820068700864
-0.0323479160309499 -0.111842105263157 0.165529747671221
-0.0294899221267503 -0.111842105263157 0.161338890414596
-0.023234265540941 -0.111842105263157 0.175175176463541
-0.0340935317342638 -0.111842105263157 0.191066764636091
-0.0200236977441684 -0.111842105263157 0.192401327879827
-0.0256547464106832 -0.111842105263157 0.198637029861207
-0.0291526205537276 -0.111842105263157 0.21341893111908
-0.0335907236963665 -0.111842105263157 0.230520336133862
-0.0318281233149157 -0.111842105263157 0.240961305707376
-0.0300578191972737 -0.111842105263157 0.245376706262233
-0.0304803252898775 -0.111842105263157 0.253556773584051
-0.0230965921518259 -0.111842105263157 0.259346696340604
-0.0303864199026261 -0.111842105263157 0.277894329781413
-0.0212161730271089 -0.111842105263157 0.278254382870965
-0.0317584450741237 -0.111842105263157 0.292795817523274
-0.0329941521871624 -0.111842105263157 0.301013095521105
-0.0280995029978833 -0.111842105263157 0.316257041809191
-0.0254431077892617 -0.111842105263157 0.321672436946943
-0.035163935698787 -0.111842105263157 0.334676212368028
-0.0273848495065603 -0.111842105263157 0.343874914741298
-0.0259091674561362 -0.111842105263157 0.350531803697212
-0.0244743665124947 -0.111842105263157 0.363816177182024
-0.0311878707576457 -0.111842105263157 0.370739707932098
-0.0288977862029983 -0.111842105263157 0.37207295402434
-0.0309525814093796 -0.111842105263157 0.393233355547422
-0.0358091973396613 -0.111842105263157 0.405938788081068
-0.0288901825147142 -0.111842105263157 0.406769104509041
-0.0275976910964198 -0.111842105263157 0.423484384564383
-0.0275739118520526 -0.111842105263157 0.431750613572247
-0.035526057002412 -0.111842105263157 0.441715499109908
-0.0343997863656599 -0.111842105263157 0.45349700603778
-0.0357902149387552 -0.111842105263157 0.458909814297728
-0.031062683309795 -0.111842105263157 0.470900098247124
-0.0383388282643489 -0.111842105263157 0.484232052317004
-0.0327905607373391 -0.111842105263157 0.493674229605945
-0.0261892381585218 -0.111842105263157 0.488573016938103
-0.0373196904544134 -0.111842105263157 0.513620759193561
-0.0367276197041157 -0.111842105263157 0.516702297038603
-0.0236838057093349 -0.111842105263157 0.526669356701999
-0.0296414829711381 -0.111842105263157 0.539202529553413
-0.021185887501399 -0.111842105263157 0.542427061996281
-0.0308410292298793 -0.111842105263157 0.554618965840724
-0.0254388450868203 -0.111842105263157 0.558051806315399
-0.0307554824324381 -0.111842105263157 0.579826606479193
-0.0283749989234749 -0.111842105263157 0.58289987223679
-0.038614449635986 -0.111842105263157 0.597073065678581
-0.0276271981116666 -0.111842105263157 0.609249073192469
-0.0338550105074078 -0.111842105263157 0.614381735564552
-0.0260848981934993 -0.111842105263157 0.61419114586562
-0.0308896292468419 -0.111842105263157 0.634535468598902
-0.0322117732639845 -0.111842105263157 0.642689847910321
-0.0205663992586329 -0.111842105263157 0.640693661047201
-0.0250878197645262 -0.111842105263157 0.658404759328381
-0.0291436443366505 -0.111842105263157 0.665520346258438
-0.0238811357916966 -0.111842105263157 0.676436180901009
-0.0270329009122518 -0.111842105263157 0.683692903534856
-0.0288688378798457 -0.111842105263157 0.699697169673394
-0.033778506800878 -0.111842105263157 0.707026444625058
-0.0288900168397892 -0.111842105263157 0.712221895187065
-0.028311303986045 -0.111842105263157 0.723735323850386
-0.0318390941289056 -0.111842105263158 0.742351833601562
-0.0338648232783763 -0.111842105263157 0.753438942759737
-0.0387961532356419 -0.111842105263157 0.760298404174018
-0.0268147026283116 -0.111842105263157 0.762963671120999
-0.0241139240670273 -0.111842105263157 0.777160842761908
-0.0325121852772825 -0.111842105263157 0.79395357895433
-0.0305077534857338 -0.111842105263157 0.795141105733198
-0.0305089820614879 -0.111842105263157 0.80693295386741
-0.0339908992706913 -0.111842105263157 0.817463062047064
-0.0299731548069719 -0.111842105263157 0.826903744661565
-0.0378428385744335 -0.111842105263157 0.842178754600659
-0.0308341692605702 -0.111842105263157 0.849117873381847
-0.0232010524228422 -0.111842105263157 0.846637482068357
-0.0342058279299797 -0.111842105263157 0.866448023741933
-0.0312438597849944 -0.111842105263157 0.870816571520024
-0.0323549863812345 -0.111842105263157 0.889199353434205
-0.0221341302990355 -0.111842105263157 0.893024533319222
-0.0307288067580909 -0.111842105263157 0.905411840782975
-0.0290727489499139 -0.111842105263157 0.915845452280111
-0.0308316340088036 -0.111842105263157 0.920704134152332
-0.0266335657302689 -0.111842105263157 0.928426798712368
-0.0327348564091186 -0.111842105263157 0.944593957527847
-0.0361323723305474 -0.111842105263157 0.95017324027818
-0.02495104010379 -0.111842105263157 0.956196664326971
-0.0350308446928551 -0.111842105263157 0.976298457442597
-0.0252305630930965 -0.111842105263157 0.974377060511637
-0.029668306090573 -0.111842105263157 0.995151726756744
-0.0244869934599233 -0.105377793950098 1.0
-0.0157465707667579 -0.104659655089821 1.0
-0.00564661571393954 -0.0946876889469264 0.999999999999999
0.00352432231084857 -0.0789940916505346 1.0
0.0105991696852084 -0.0736913007516181 1.0
0.0259486181730099 -0.0613348847735829 1.0
0.039887868482222 -0.0450432102033549 1.0
0.0412711385538756 -0.0436011612287785 1.0
0.0530948653712005 -0.0390228559596328 1.0
0.0634192059817899 -0.0154361624716137 1.0
0.0770451400454014 -0.0118598225167018 1.0
0.0915987829168194 0.00711534234537075 1.0
0.0945106147782479 0.00957465554599005 1.0
0.109572106728407 0.0272663525011154 1.0
0.118139825260988 0.0385606170935315 1.0
0.125828927707934 0.0359718476087149 1.0
0.151488188270441 0.0575533604022617 1.0
0.157093843043854 0.0671710426064004 1.0
0.163868262820434 0.0723997933538182 1.0
0.18032129065597 0.0941717920068835 1.0
0.19050692071904 0.102874177133081 1.0
0.196243059883832 0.111601076198772 1.0
-0.0449205667551875 -0.111842105263157 0.110750667987249
-0.0461078053494898 -0.111842105263157 0.107089721359872
-0.0438445084794758 -0.111842105263157 0.121775152319253
-0.0490421666165782 -0.111842105263157 0.139859750694231
-0.0465412037905004 -0.111842105263157 0.140858591664039
-0.0411905331004008 -0.111842105263157 0.149825138453543
-0.0492367940544806 -0.111842105263157 0.168644459270415
-0.0416922929058057 -0.111842105263157 0.170783891641962
-0.0375696073872852 -0.111842105263157 0.17139138694086
-0.0438376937051602 -0.111842105263157 0.189461778041186
-0.0440921925228017 -0.111842105263157 0.197262624303331
-0.0505465873195518 -0.111842105263157 0.208110409441332
-0.0367904411567643 -0.111842105263157 0.215879963209227
-0.0484782933477782 -0.111842105263157 0.225472086413328
-0.0518975149380976 -0.111842105263157 0.244387916282368
-0.0469907182868601 -0.111842105263157 0.256140201409596
-0.0487877410209264 -0.111842105263157 0.262963989951448
-0.0512036957270022 -0.111842105263157 0.266065090753364
-0.0501641423295398 -0.111842105263157 0.271519411202755
-0.0484624440595135 -0.111842105263157 0.282591299952766
-0.0517787737794408 -0.111842105263157 0.299974485062344
-0.0475147301570529 -0.111842105263157 0.309700193676826
-0.0439931624587815 -0.111842105263157 0.306561686026451
-0.0505010153659107 -0.111842105263157 0.3239813493068
-0.0488591290587508 -0.111842105263157 0.334662947544674
-0.0475730302999874 -0.111842105263157 0.346845311393194
-0.0490288424363999 -0.111842105263157 0.355942700335595
-0.0467306553340042 -0.111842105263157 0.359371452771477
-0.0512873655470965 -0.111842105263157 0.377916859335944
-0.0486433860289625 -0.111842105263157 0.382163490216742
-0.0361402900611521 -0.111842105263157 0.382052531125203
-0.0393796208295419 -0.111842105263157 0.395749372275414
-0.0419951098499319 -0.111842105263157 0.405294085155915
-0.0404538320579131 -0.111842105263157 0.412818701786696
-0.048743574232676 -0.111842105263157 0.43144012715983
-0.0407249571158561 -0.111842105263157 0.441201263275794
-0.0530455753714906 -0.111842105263157 0.453413294243999
-0.0389702667886808 -0.111842105263157 0.453196948432083
-0.0440781912945121 -0.111842105263157 0.462579316385398
-0.0408333485126198 -0.111842105263157 0.468548328925435
-0.0447684132920221 -0.111842105263157 0.49414530534894
-0.0454415226990862 -0.111842105263157 0.499868736502502
-0.0381679620999447 -0.111842105263157 0.498976293737618
-0.0397158695599749 -0.111842105263157 0.516716894429782
-0.0399691462382278 -0.111842105263157 0.52132644112689
-0.0400608964248271 -0.111842105263157 0.532722349123553
-0.0448822492737696 -0.111842105263157 0.545840348944503
-0.0382786315549038 -0.111842105263157 0.55127409297761
-0.0398170237119583 -0.111842105263157 0.562216968498013
-0.044880070835646 -0.111842105263157 0.567504861374952
-0.0377964138648643 -0.111842105263157 0.58223260672409
-0.0454154984662415 -0.111842105263157 0.584627686589153
-0.044020428771178 -0.111842105263157 0.596725124004346
-0.0441220230861517 -0.111842105263157 0.609628941797979
-0.0472048828331468 -0.111842105263157 0.623109957475484
-0.0497343889236373 -0.111842105263157 0.634645536486873
-0.0461778247372025 -0.111842105263157 0.636503719905162
-0.037992246539635 -0.111842105263157 0.639812936489604
-0.0476478387294112 -0.111842105263157 0.658461302992189
-0.038379847988005 -0.111842105263157 0.665554797616861
-0.0447661994730275 -0.111842105263157 0.677848224654318
-0.0466163937455403 -0.111842105263157 0.685991459660473
-0.0502172233611292 -0.111842105263157 0.702300035914897
-0.0383544705450413 -0.111842105263157 0.706327174677953
-0.0469682609486517 -0.111842105263157 0.717118116536926
-0.0447481148849851 -0.111842105263157 0.718835275965672
-0.0484507307392336 -0.111842105263157 0.738272677869743
-0.0473797820896478 -0.111842105263157 0.748063702849613
-0.0399921312848359 -0.111842105263157 0.753322788841505
-0.0429981749860539 -0.111842105263157 0.755881211479515
-0.0428843807676663 -0.111842105263157 0.770453492020685
-0.0466375133057366 -0.111842105263157 0.790852427475715
-0.0402467847877609 -0.111842105263157 0.791704716371307
-0.0456917775525665 -0.111842105263157 0.808720320233897
-0.0370951816462571 -0.111842105263157 0.807250436860071
-0.0464468740939751 -0.111842105263157 0.828871560174686
-0.0447738411298996 -0.111842105263157 0.83291569820337
-0.046809613364161 -0.111842105263157 0.840834502789645
-0.0422093806827168 -0.111842105263157 0.842125163290966
-0.04548944440083 -0.111842105263157 0.861007780897615
-0.0508771130236371 -0.111842105263157 0.87675546421463
-0.0455413216752769 -0.111842105263157 0.88267229268512
-0.045771271371193 -0.111842105263157 0.889044253064031
-0.0499469892652141 -0.111842105263157 0.904486211069184
-0.0504599981376531 -0.111842105263157 0.910474175628244
-0.0486722996450599 -0.111842105263157 0.925570327145707
-0.0409110536298602 -0.111842105263157 0.932290805378709
-0.0516725428253265 -0.111842105263157 0.943481762583392
-0.0510023791653898 -0.111842105263157 0.950057291021439
-0.0416664699340717 -0.111842105263157 0.956026498693245
-0.0488093059264912 -0.111842105263157 0.971095299161082
-0.0491436754131297 -0.111842105263157 0.980223667948567
-0.0352635840366621 -0.111842105263157 0.982796521079616
-0.0459743746499645 -0.111842105263157 0.998585640364011
-0.0345198636647496 -0.102418223211155 1.0
-0.032235482824008 -0.0958121773055959 1.0
-0.020524644319079 -0.0870896578849887 1.0
-0.00703728104619733 -0.0787212321771549 1.0
0.00667883641275398 -0.0629727328676692 1.0
0.0128659441043998 -0.0579790221456886 1.0
0.0288034478665041 -0.0478984748822084 1.0
0.0391553900968839 -0.0313326235057978 1.0
0.0478156066354259 -0.0205154500646014 1.0
0.0514647508536312 -0.0152279058726593 1.0
0.0705739467101334 -0.00273951269651724 1.0
0.071783033742378 0.000210918215665931 1.0
0.0927409181291967 0.0222289510216489 1.0
0.103623408741015 0.0330720330458434 1.0
0.116843248209252 0.0406424589659214 1.0
0.124866647041652 0.0523513611662664 1.0
0.140358512151944 0.0649876442171695 1.0
0.145884197503932 0.0747525307920696 1.0
0.155367354675577 0.0813987598739946 1.0
0.182720861728071 0.0992627373438479 1.0
0.187795503946311 0.11123562363595 1.0
-0.0542779545125303 -0.111842105263157 0.11139691750629
-0.0665482737148859 -0.111842105263157 0.128510853329624
-0.0546445214171921 -0.111842105263157 0.130529000904164
-0.0586880246121467 -0.111842105263157 0.136146636551334
-0.0599708384599621 -0.111842105263157 0.15214543002097
-0.057475988722057 -0.111842105263157 0.153537648879218
-0.0559209845733778 -0.111842105263157 0.162841465287054
-0.06523194169704 -0.111842105263157 0.179937699846384
-0.0579858126791857 -0.111842105263157 0.194084009016746
-0.0602870896931298 -0.111842105263157 0.196401765050154
-0.0525862902337038 -0.111842105263157 0.199684567821049
-0.0581744628943714 -0.111842105263157 0.218240383770887
-0.0487403771059973 -0.111842105263157 0.222059153941079
-0.0605074730395249 -0.111842105263157 0.231794877247301
-0.0597146928653006 -0.111842105263157 0.239133544208376
-0.0645609109611928 -0.111842105263157 0.259152484577361
-0.0580646653921317 -0.111842105263157 0.263768095063528
-0.0599076248795707 -0.111842105263157 0.274782561379749
-0.0618066183206344 -0.111842105263157 0.290925842644599
-0.0568461692838297 -0.111842105263157 0.29146224908513
-0.0589291537463706 -0.111842105263157 0.303665153465492
-0.0577488066007066 -0.111842105263157 0.315288942149902
-0.0589224082407827 -0.111842105263157 0.318314478451696
-0.0522961774040609 -0.111842105263157 0.329976964263686
-0.0614942275661918 -0.111842105263157 0.340823769883818
-0.0527222609538972 -0.111842105263157 0.341158899397372
-0.0541213707517251 -0.111842105263157 0.362282411624448
-0.0489105049565332 -0.111842105263157 0.362098756781075
-0.0585702908623858 -0.111842105263157 0.369736926940907
-0.0543621893930759 -0.111842105263157 0.387592456794609
-0.0578341174324443 -0.111842105263157 0.39913886847873
-0.0666019721504163 -0.111842105263157 0.411960070000285
-0.0596913419518793 -0.111842105263157 0.412747681481512
-0.0523188877969617 -0.111842105263157 0.421532031489868
-0.0575180632248258 -0.111842105263157 0.446022496545215
-0.0536244245622301 -0.111842105263157 0.437591945864257
