ply
format ascii 1.0
element vertex 854
property float x
property float y
property float z
end_header
-0.016177121807655 0.285521176888157 0.995398121400712
-0.0189079747781178 0.272376002608908 0.995490967167903
-0.0157337659054743 0.254212673500623 0.99561925669758
-0.021934482386501 0.24943179208409 0.99565302457266
-0.0153067247337929 0.224538240454162 0.995828850381439
-0.0194768509095907 0.223473534072266 0.99583637051611
-0.0143726145781911 0.195007149017115 0.99603743162823
-0.0188668266006456 0.186846907378207 0.996095068284796
-0.0153069547145672 0.187768284458887 0.996088560500258
-0.0218726182766252 0.158039031247718 0.996298541384784
-0.0227500684439942 0.15832111569051 0.996296548992294
-0.0228168403350451 0.133433852273477 0.996472330386755
-0.0207011354893691 0.125362986414815 0.996529335772657
-0.0155991082503263 0.104964008741826 0.996673415926463
-0.023076727083531 0.0968359530883362 0.996730825249983
-0.0222670756677707 0.0795930391412123 0.996852613789261
-0.0168637765612507 0.0674034937194019 0.996938709847963
-0.0171260506721979 0.0523069716962721 0.99704533819228
-0.0200288705774578 0.0440898507689188 0.997103376593323
-0.0215667833823166 0.0335227181725083 0.997178013377292
-0.02030559977934 0.0161282383064076 0.997300872442813
-0.0224303745407715 -0.00972497248506811 0.997483476426548
-0.0180722623775283 -0.0143967240284617 0.997516473505702
-0.0204564369304323 -0.0354763323176763 0.997665361026104
-0.0172785242815091 -0.0576292806548471 0.997821829661681
-0.0237400341728808 -0.0552246077804371 0.997804845200836
-0.0243966239502617 -0.0727494180480059 0.997928624803875
-0.0177422025482595 -0.0933479177328229 0.998074114202919
-0.0188122061390742 -0.112320073651369 0.998208116562576
-0.0201870167740883 -0.136831751727585 0.998381245157737
-0.0192570996746047 -0.144956786793868 0.998438633146528
-0.0201046354179785 -0.15604268915877 0.998516934056672
-0.0216998540929515 -0.185322840015762 0.998723742883397
-0.0261127530651382 -0.183457858658484 0.998710570321266
-0.0258579877235236 -0.207985343215423 0.998883810559287
-0.0250679001755324 -0.238175780995097 0.999097048839581
-0.0224405498058012 -0.247291163684033 0.9991614317592
-0.0222008550960105 -0.257525490767234 0.999233717902352
-0.0216930995636013 -0.276433653931013 0.999367268274362
-0.0267176976768783 -0.286701522628351 0.999439791325511
-0.0208465793094761 -0.315395259439274 0.999642458247317
-0.00942658575887388 0.36601629250654 0.360225088889809
-0.00991402757882628 0.36601629250654 0.359787716701398
-0.0070986412618325 0.36601629250654 0.373749527287942
-0.011258823337464 0.36601629250654 0.382064623408539
-0.00620197672442612 0.36601629250654 0.392428360014903
-0.00714083601872009 0.36601629250654 0.406023307351647
-0.00597789735674655 0.36601629250654 0.407230924998197
-0.00505393469330179 0.36601629250654 0.413304996770906
-0.00548191149540142 0.36601629250654 0.429720849545882
-0.00469886529202628 0.36601629250654 0.434191013455138
-0.00464099974191842 0.36601629250654 0.44615425233081
-0.00915421765223207 0.36601629250654 0.449618970310689
-0.0084374638825755 0.36601629250654 0.459276772713711
-0.00622967693193879 0.36601629250654 0.469655746637154
-0.0109566428919796 0.36601629250654 0.477527159154029
-0.00908480864319338 0.36601629250654 0.491497344271018
-0.0107788967210996 0.36601629250654 0.500456491030355
-0.00906891253444176 0.36601629250654 0.508830367739035
-0.0107107211639126 0.36601629250654 0.513898447275308
-0.0127713811875682 0.36601629250654 0.530456549329769
-0.0116146574412072 0.36601629250654 0.530053404197542
-0.012733603794215 0.36601629250654 0.540598828174752
-0.00605405156086493 0.36601629250654 0.556337542657858
-0.011253136396051 0.36601629250654 0.562185804090137
-0.0126099189252616 0.36601629250654 0.569656986646979
-0.00788005334896666 0.36601629250654 0.580349947188819
-0.0105035409667697 0.36601629250654 0.586057951679627
-0.00850222387275527 0.36601629250654 0.601548303472644
-0.00875859816588318 0.36601629250654 0.603853327036836
-0.00517397047481748 0.36601629250654 0.612762924261911
-0.0079815919386021 0.36601629250654 0.622073685352971
-0.00515772209339473 0.36601629250654 0.629876755029165
-0.00913734445318238 0.36601629250654 0.642132715805706
-0.00794634362345911 0.36601629250654 0.64222474170659
-0.0078975816593599 0.36601629250654 0.65764564000329
-0.0132058836466045 0.36601629250654 0.669906396752076
-0.00685647723135088 0.36601629250654 0.675912384183834
-0.0048001959501612 0.36601629250654 0.688446052479275
-0.00701154556387813 0.36601629250654 0.688123277298184
-0.00842522182299894 0.36601629250654 0.69901771126683
-0.00782420791537407 0.36601629250654 0.713338268897142
-0.00884539072939977 0.36601629250654 0.717262659590288
-0.0102217645576049 0.36601629250654 0.722574969311659
-0.00521770779542359 0.36601629250654 0.732836058261395
-0.0112193758512253 0.36601629250654 0.738967145509575
-0.0061434322148 0.36601629250654 0.751296990772693
-0.00887369536769382 0.36601629250654 0.760038463693071
-0.0125436599668335 0.36601629250654 0.771581042625524
-0.0120866979945681 0.36601629250654 0.778965678161855
-0.0108854851369642 0.36601629250654 0.787296981302698
-0.00806314668841696 0.36601629250654 0.796521260249661
-0.00923497277207689 0.36601629250654 0.806744341813883
-0.00520537280542002 0.36601629250654 0.812693400318781
-0.00581740344337659 0.36601629250654 0.821011311807808
-0.0112938412154869 0.36601629250654 0.825496864714585
-0.00946327050357737 0.36601629250654 0.84047627284599
-0.00583462202315174 0.36601629250654 0.850309030968761
-0.00467820137857779 0.36601629250654 0.856653674647954
-0.0129188229675667 0.36601629250654 0.863229242402971
-0.00601711181223784 0.36601629250654 0.874792838255277
-0.0117042603855577 0.36601629250654 0.888546350746112
-0.0074938861621746 0.36601629250654 0.88877085693167
-0.0116648780541977 0.36601629250654 0.902447843354483
-0.00643803736838314 0.36601629250654 0.910949612808123
-0.0090380028017145 0.36601629250654 0.921754336663492
-0.00943410604506853 0.36601629250654 0.932150923552334
-0.00626879026125492 0.36601629250654 0.936484665258283
-0.010899933622219 0.36601629250654 0.943054768446085
-0.0128970658205905 0.36601629250654 0.957829272241899
-0.0114460068845365 0.36601629250654 0.960366074046972
-0.00772060985875465 0.36601629250654 0.969801768163499
-0.0102713983064777 0.36601629250654 0.982479744260195
-0.00464609097431918 0.36601629250654 0.990622894073695
-0.0112877621351625 0.36601629250654 0.99454762970951
-0.00504879308554064 0.354838987866305 0.994908522312596
-0.00464659538216836 0.334516319508477 0.995052063485574
-0.00992696571193566 0.324169436704513 0.995125144621781
-0.00772108375249857 0.316666361936958 0.995178139638681
-0.0085334318750683 0.302380605427986 0.995279041459745
-0.00727754395270496 0.298475129682865 0.995306626251251
-0.0119656612640062 0.276448654366608 0.9954622015944
-0.00950968611003782 0.26634398542567 0.995533571948273
-0.00705951365053417 0.253709825954166 0.995622808363403
-0.013049848371599 0.250699198371569 0.995644072746947
-0.00486022319358238 0.226711219446011 0.995813502399183
-0.0102404586383972 0.212649117007121 0.995912824527709
-0.0138032988725931 0.206454759595271 0.995956575934418
-0.0101539713651229 0.192952026408342 0.996051947178289
-0.00810761232633086 0.172969144768125 0.99619308840146
-0.00675254433169482 0.163425924770093 0.9962604931816
-0.0135134303704529 0.15562849787856 0.996315567238929
-0.00536201410614444 0.136463272359342 0.996450933269757
-0.00693992007789993 0.127204655578333 0.996516327867036
-0.00645435159421727 0.106945451488928 0.996659420785122
-0.0075776285172806 0.0909470343183348 0.996772419311005
-0.00932746965423856 0.0822072579670666 0.996834149283022
-0.00919912177857929 0.0615349253186297 0.996980160172159
-0.00912879344803475 0.0612458994871476 0.996982201592416
-0.0145111148316957 0.0462899912957429 0.997087836766251
-0.0147600743762054 0.020221704372026 0.997271959855634
-0.0100483555153705 0.018272381957238 0.997285728127645
-0.00520528790399121 -0.0060240335161935 0.997457336300096
-0.0116878823350289 -0.0128761627925464 0.997505733619602
-0.0129584657155009 -0.0320175906608606 0.997640931565085
-0.0129445353620539 -0.047517280868339 0.997750407529265
-0.0114298377064972 -0.0623901894500504 0.997855456468008
-0.00733329902366538 -0.0801290125027113 0.997980747666162
-0.00905725957058783 -0.0872111995642037 0.998030769908329
-0.0061139561784911 -0.103288546665413 0.998144325924726
-0.0056915089006732 -0.117337929366684 0.998243558212389
-0.0122722279896236 -0.142207978944661 0.99841921802367
-0.00646634411302155 -0.156786175509578 0.998522185380022
-0.0107934690964643 -0.180828087581017 0.998691995967816
-0.0122493079195429 -0.188675876958962 0.998747425740756
-0.0145073124833467 -0.212829087805349 0.998918022443661
-0.00859378752173558 -0.217254588540527 0.998949280227106
-0.00657877417414543 -0.246324234600439 0.999154602236009
-0.0157700486378845 -0.256488144756443 0.999226391016899
-0.0155379116970106 -0.268894708873208 0.999314019901777
-0.00956163392978793 -0.290127196559463 0.999463987225658
-0.00557086768073337 -0.308856962093736 0.999596277556192
0.00413134518485188 0.36601629250654 0.352302690051685
0.00434398684817328 0.36601629250654 0.367301183991539
-0.00431509892015764 0.36601629250654 0.378209004365078
-0.00243664824742885 0.36601629250654 0.388965366779515
0.00239338231223819 0.36601629250654 0.385109353882971
0.00227931057668223 0.36601629250654 0.404292722673417
0.00282284574161809 0.36601629250654 0.408888015297835
-0.00422515480774203 0.36601629250654 0.424034726084714
0.00394117228940629 0.36601629250654 0.423961733114106
0.00240294796285166 0.36601629250654 0.44085351629474
0.00316069894909195 0.36601629250654 0.44671716550972
0.00267251612921824 0.36601629250654 0.459902850326682
-0.00360954683206089 0.36601629250654 0.461345028195473
0.000365268072228462 0.36601629250654 0.469427556328752
0.00388270661936725 0.36601629250654 0.483228901321026
0.00165523042570586 0.36601629250654 0.490491651046099
0.000798407224176834 0.36601629250654 0.495972719944795
-0.000562280298668912 0.36601629250654 0.509868546945984
-0.00395820161354389 0.36601629250654 0.519407385618274
-0.00417919115831563 0.36601629250654 0.530889709325995
-0.00397461177192909 0.36601629250654 0.531857124046408
0.00102132015655672 0.36601629250654 0.545676225037051
0.000976269737980785 0.36601629250654 0.550983155810799
0.00178291677034697 0.36601629250654 0.553957344499722
0.00372122376695252 0.36601629250654 0.570018639512604
-0.0037939527980859 0.36601629250654 0.580341203582546
0.00431713013628818 0.36601629250654 0.591735301488445
-0.00263522122313718 0.36601629250654 0.597232911615671
-0.000857835609236989 0.36601629250654 0.599125336753656
0.00176721159843518 0.36601629250654 0.607971180763759
-0.000711107157415853 0.36601629250654 0.615733783711206
-0.00204892241745731 0.36601629250654 0.635734862566775
-0.00420536927204584 0.36601629250654 0.631429757332825
0.0029529936431292 0.36601629250654 0.648381036070676
-0.00261421617894832 0.36601629250654 0.655965198484346
0.00278859562990922 0.36601629250654 0.664070126116717
-0.00178409288830106 0.36601629250654 0.674484607009493
0.00388266990462246 0.36601629250654 0.676264312490166
-0.00311911536948418 0.36601629250654 0.697324279883031
-0.0034798120790222 0.36601629250654 0.699871756482449
-0.000329722618582076 0.36601629250654 0.711970413919305
-0.00276191853084987 0.36601629250654 0.720384505665305
-0.00311939796394178 0.36601629250654 0.724404894011029
0.00239568009469384 0.36601629250654 0.736293702524305
-0.00217759295824871 0.36601629250654 0.745864284353924
0.0018284873973874 0.36601629250654 0.751128961541233
0.00283746371079593 0.36601629250654 0.76012658815398
-0.00413371198925049 0.36601629250654 0.768698464835892
-0.00249186631049063 0.36601629250654 0.777368899828237
0.00321604628709378 0.36601629250654 0.788230812235296
-0.00280619027558594 0.36601629250654 0.794608238118163
0.000164755178855525 0.36601629250654 0.811394945921671
-0.0020201044969294 0.36601629250654 0.81706920060368
-0.000455989744563257 0.36601629250654 0.821632894626046
0.00150816444905173 0.36601629250654 0.829016127910295
0.000895440389574507 0.36601629250654 0.843224598277262
0.000894656838267359 0.36601629250654 0.848482789072478
-0.000577547568150946 0.36601629250654 0.85756203100292
0.00276245960569482 0.36601629250654 0.859014931231998
-0.00246222317700609 0.36601629250654 0.871488680935339
-0.000993836299017301 0.36601629250654 0.883593266683949
-0.000251352361796703 0.36601629250654 0.890571897911274
-0.00415282704929944 0.36601629250654 0.905561900925281
-0.00437407200783374 0.36601629250654 0.902753362231442
-0.00408639561039828 0.36601629250654 0.915637607881786
0.00209109575737576 0.36601629250654 0.925305309494083
-0.00259947357009313 0.36601629250654 0.937619884380879
0.00232167638192715 0.36601629250654 0.948798375587753
0.00287983303230466 0.36601629250654 0.955801118388889
-0.00165644186321668 0.36601629250654 0.96237408378402
-0.00316321082407258 0.36601629250654 0.971154011970007
0.00156059867349948 0.36601629250654 0.985184599149696
0.00275497582690435 0.36601629250654 0.989720752787917
-0.00107694018946096 0.354438368645388 0.994911351928859
-0.00307219001284328 0.357209980314387 0.99489177574019
0.00213142916615811 0.341066523495214 0.995005798696573
0.00263490935923819 0.329220090237702 0.995089471317484
0.00396083745381137 0.318360684906524 0.995166172454934
-0.00182345160452361 0.301568020025119 0.995284780837066
-6.8042840908162e-005 0.285176247917061 0.995400557670804
-0.00342060747789772 0.275772588132367 0.99546697672228
0.000485652391100981 0.259151307083544 0.995584374602132
-0.00437094076215751 0.253053192224198 0.995627446237434
-0.00193569013364896 0.248746637448148 0.995657863892889
0.00274962634426284 0.234084830397803 0.995761421799014
-0.00422012141485402 0.214717128006348 0.995898217945574
-0.00458115103028323 0.201480804445936 0.995991707509854
-0.00321188603768372 0.195286829308386 0.99603545621652
-0.00382147001102647 0.173088954679999 0.996192242171281
0.00292981462130385 0.158281699232809 0.996296827394937
-0.0037041770097518 0.152656492862277 0.996336558827171
-0.000367140171353952 0.128907618102568 0.996504299661194
0.0019670735717928 0.126221600620897 0.996523271288993
0.00321210487312726 0.109343459142041 0.996642483401444
0.00314976412415289 0.0958684321056398 0.99673765895382
-0.00443667577801765 0.0902665870606924 0.996777225382521
-0.00212717573035487 0.0665989536183601 0.99694439240046
0.00195873758998023 0.059444539620647 0.996994924789176
0.000524894790590235 0.0321576336432001 0.997187655114839
0.00130700259655248 0.0222609203170117 0.997257556656037
0.00357451477909352 0.0160988461187342 0.997301080042968
0.00504267877097067 -0.00158782362895315 0.99742600287677
1.53668557132583e-005 -0.0222957151305047 0.997572264921877
-0.00202311203548777 -0.0230430089822216 0.997577543138011
-0.00472446026880229 -0.0448954664436314 0.997731889374502
-0.00132847655507685 -0.0660168065465473 0.997881071651153
-0.00359362873668907 -0.0770796319750217 0.997959209566436
-0.00500274734946889 -0.101749472183059 0.998133455277594
0.000186349311105855 -0.104554155827329 0.998153265057149
-0.000815704397621521 -0.12439775089806 0.998293422484432
-0.00441347483052761 -0.139339560458791 0.998398958078135
0.00414179017784922 -0.149742172499087 0.998472432835879
0.00150094917372253 -0.175284754878832 0.998652842818029
-0.00109490157706682 -0.199639448721666 0.998824862616816
0.000133561495187481 -0.201674165660793 0.998839234039456
-0.00532047586524689 -0.222682057248157 0.998987615017148
0.00540314719384917 -0.242365122359118 0.999126638604213
-0.00552421199280563 -0.269813287079313 0.999320507917567
-0.00182112633850095 -0.284177082073188 0.999421960932768
0.00269533101857861 -0.300552804651057 0.999537624406964
-0.00291316163276019 -0.314541947051053 0.999636431210957
0.00481808152728797 0.36601629250654 0.35632261389477
0.00650277473299268 0.36601629250654 0.369609158408173
0.00655409781766777 0.36601629250654 0.37147633182589
0.00906782869012215 0.36601629250654 0.390624440269583
0.00693944787242159 0.36601629250654 0.395568815910425
0.00828648623661933 0.36601629250654 0.397072222262706
0.00820877058633433 0.36601629250654 0.410071434666905
0.00433038055412926 0.36601629250654 0.420021617492761
0.00898930192133042 0.36601629250654 0.429189238658357
0.0064576773994332 0.36601629250654 0.434464151877446
0.0089756454427938 0.36601629250654 0.436714877141721
0.00482505661381397 0.36601629250654 0.452327044902507
0.00495480174151992 0.36601629250654 0.462076834101649
0.0099188918666007 0.36601629250654 0.469250850305001
0.0116431120562429 0.36601629250654 0.480274391339775
0.0130923936223426 0.36601629250654 0.48515184489602
0.0102332869601872 0.36601629250654 0.493699554847292
0.00530340284979891 0.36601629250654 0.512158561193244
0.00983154774712596 0.36601629250654 0.51308586929235
0.0120927589506865 0.36601629250654 0.524677759449368
0.00863424926122224 0.36601629250654 0.535541132254431
0.0109258745709588 0.36601629250654 0.544712092248254
0.00672772510358229 0.36601629250654 0.553491253122348
0.00710330847932042 0.36601629250654 0.558208414828608
0.00849275315822943 0.36601629250654 0.562088929140608
0.00714456888226506 0.36601629250654 0.572246549747198
0.0112361967689867 0.36601629250654 0.586813820669763
0.0057592742502851 0.36601629250654 0.594259302803025
0.0112618075049785 0.36601629250654 0.605249164051621
0.00692026780581209 0.36601629250654 0.610176537883739
0.0126122570967741 0.36601629250654 0.616994615601544
0.00695455256311567 0.36601629250654 0.630092655615015
0.0118704511604041 0.36601629250654 0.639100947502869
0.012271466171991 0.36601629250654 0.649999744925396
0.00662658240636873 0.36601629250654 0.652372660473104
0.00981914358253273 0.36601629250654 0.672079194533509
0.0127854365202029 0.36601629250654 0.67259063906106
0.00711445009555133 0.36601629250654 0.681947442704093
0.00558557613325552 0.36601629250654 0.691276886677461
0.0090800807139886 0.36601629250654 0.699841946103352
0.0132383327972682 0.36601629250654 0.701060763945366
0.00993136957290797 0.36601629250654 0.714104350615712
0.00886780432644894 0.36601629250654 0.722711145575521
0.00601436732643309 0.36601629250654 0.731610487652333
0.00569095778336569 0.36601629250654 0.744365915795748
0.00855254625149183 0.36601629250654 0.75879389366702
0.00669399486362051 0.36601629250654 0.759640369548367
0.01308718005156 0.36601629250654 0.768924908103627
0.00434452924090816 0.36601629250654 0.783221729550994
0.0117485768575704 0.36601629250654 0.787697539025511
0.0122962647197137 0.36601629250654 0.796908535647475
0.00615944876371065 0.36601629250654 0.803259642673035
0.00664383345649323 0.36601629250654 0.807575241640006
0.0073907975966537 0.36601629250654 0.820033344897712
0.0118131684520077 0.36601629250654 0.829118913521321
0.0129316902822034 0.36601629250654 0.837202947340587
0.0058595530024186 0.36601629250654 0.847191122406741
0.0129079287584309 0.36601629250654 0.85902899794499
0.00525982872346816 0.36601629250654 0.865377952744377
0.00918037088966171 0.36601629250654 0.873103826169791
0.0117314628645125 0.36601629250654 0.883381700472385
0.00719539005818252 0.36601629250654 0.893491473963943
0.0126978004320616 0.36601629250654 0.896423541034724
0.00836392841480577 0.36601629250654 0.908507115923043
0.00861125494671691 0.36601629250654 0.924848885452167
0.00586757621244678 0.36601629250654 0.927873741182009
0.00866557829195691 0.36601629250654 0.939640837037234
0.00530485641830634 0.36601629250654 0.945690688896656
0.00893113150312796 0.36601629250654 0.95518797826299
0.00983026391514159 0.36601629250654 0.962680154357862
0.00827033455358493 0.36601629250654 0.969167266876308
0.00904547660875393 0.36601629250654 0.980527979211327
0.0110521946752685 0.364192425487648 0.994842457985612
0.0110205658954865 0.364765458550364 0.994838410592006
0.00927895431756663 0.349863072489787 0.994943667733325
0.00984351448175489 0.32916262097627 0.995089877229003
0.00890908575476546 0.32380251394577 0.995127736236339
0.0117148247034298 0.313156289559083 0.995202931654054
0.00898211967434899 0.297251881168534 0.995315266185904
0.00985940994046603 0.288355730719001 0.995378100644846
0.00604581281334365 0.283514508654246 0.995412294712356
0.0104511582683014 0.267683898390205 0.995524108000172
0.00623043975723164 0.249926812064907 0.995649528193767
0.0132857684655443 0.240720581739523 0.995714552779926
0.0118637849035935 0.231201879287977 0.995781784390021
0.00953687800968401 0.213674665481163 0.995905580969514
0.00926361927424747 0.202127178608567 0.995987142100241
0.004686691121903 0.191205748960663 0.996064281322053
0.0111882124446077 0.176390922825649 0.996168920018284
0.00979095240042147 0.167827297389895 0.996229405817606
0.00580997874258633 0.154225778139499 0.996325474797974
0.00614817706091888 0.137085542281818 0.996446538110961
0.0110206116393189 0.126751907283576 0.996519525676504
0.0080933660793189 0.11311084614064 0.996615873945474
0.00915156413520544 0.0998353503290931 0.99670964018754
0.0132778136108261 0.0881468371005936 0.996792197402452
0.00831038461601851 0.0741935546703094 0.996890750923656
0.00928895597690763 0.0552095639358606 0.997024836873879
0.0075848961335785 0.0431481607499588 0.99711002785031
0.012125358219152 0.0263685097887549 0.997228544313736
0.00787696621872084 0.00797265703424636 0.997358476182712
0.00939597132873536 0.00378313409497278 0.997388067229829
0.00842871039674906 -0.0100453872334949 0.997485739550072
0.00535334130565016 -0.0349905862611546 0.997661930149927
0.00889408259613957 -0.058870406068069 0.997830595862777
0.0116288321520614 -0.0573328554660988 0.997819735978975
0.013070260134853 -0.0862358727243396 0.99802388107089
0.00508746832506921 -0.0957173122886566 0.998090849489241
0.0113176913542228 -0.116217960574391 0.998235647753422
0.00757859295664808 -0.130246527558093 0.998334733017453
0.0112004048388998 -0.152728609972385 0.998493526362103
0.00783018040696534 -0.163864601107954 0.998572181054574
0.00694944676492657 -0.177329086880162 0.998667282152877
0.00929077921604602 -0.196177600891758 0.998800411216566
0.00982939618308861 -0.210145828031348 0.998899070293846
0.0120402241320885 -0.224613441652576 0.999001256591079
0.0157666716555002 -0.245330701047478 0.999147584802615
0.0159116878174597 -0.254592423889145 0.999213001338332
0.00654985550692704 -0.282570498536682 0.99941061346199
0.011314773534217 -0.29973608728593 0.999531855845153
0.0118290431587921 -0.324217441652712 0.999704770260723
0.0156880535781107 0.36601629250654 0.357413412553223
0.0211927631939121 0.36601629250654 0.36452991259551
0.0133916750722022 0.36601629250654 0.371807373866562
0.0190251551675383 0.36601629250654 0.383613425006322
0.0169838874970026 0.36601629250654 0.386668677542099
0.0204332594033155 0.36601629250654 0.394038483516496
0.0211528042750473 0.36601629250654 0.410753819066028
0.0178428400469921 0.36601629250654 0.412189790572515
0.0218930439542229 0.36601629250654 0.429879643577486
0.013186399123811 0.36601629250654 0.437721409707793
0.0133769665083254 0.36601629250654 0.449508504235339
0.0207164610819948 0.36601629250654 0.453978157788183
0.0212350990893135 0.36601629250654 0.460216886915567
0.020823062297852 0.36601629250654 0.476717551602377
0.0142062978115543 0.36601629250654 0.476551143442124
0.013085490929091 0.36601629250654 0.488387374218876
0.0158795822175231 0.36601629250654 0.495849923713477
0.0198250938574526 0.36601629250654 0.501178097436144
0.0135659587232226 0.36601629250654 0.514560954431958
0.0150402561982821 0.36601629250654 0.524985163382032
0.0195705560571036 0.36601629250654 0.531885768556502
0.0214090739434299 0.36601629250654 0.544630291105933
0.0164364439170912 0.36601629250654 0.552607408631591
0.0179196652812225 0.36601629250654 0.557482099771534
0.0188882731916343 0.36601629250654 0.566679485551413
0.0183148725542808 0.36601629250654 0.577765487096889
0.0147204932511926 0.36601629250654 0.583287855242412
0.0194134967119412 0.36601629250654 0.594769332670928
0.0131342463851134 0.36601629250654 0.608740963062368
0.0210890399921111 0.36601629250654 0.60780395116661
0.0195271705830986 0.36601629250654 0.62431375252417
0.0156771635939804 0.36601629250654 0.629308688574288
0.0135697185938853 0.36601629250654 0.638712252070312
0.0152816695642078 0.36601629250654 0.640912173010659
0.017896838249507 0.36601629250654 0.653681269336323
0.0146196880283161 0.36601629250654 0.66743509587118
0.0175004452625714 0.36601629250654 0.676735663952741
0.0175314357534528 0.36601629250654 0.680128760319243
0.0138002212854039 0.36601629250654 0.684759794523507
0.021172919700673 0.36601629250654 0.701463049167681
0.0215948456494873 0.36601629250654 0.703622069560448
0.0215830240382344 0.36601629250654 0.721295010875488
0.0184629760948857 0.36601629250654 0.722840067846907
0.0162439218309505 0.36601629250654 0.732379755804005
0.0216643220658942 0.36601629250654 0.744455345854201
0.0190338514813627 0.36601629250654 0.756030181029934
0.0207661359072573 0.36601629250654 0.762530758188265
0.021321725047222 0.36601629250654 0.772941771063733
0.0174798425001285 0.36601629250654 0.77515352481417
0.0142459957832914 0.36601629250654 0.793484152055108
0.0165993491587038 0.36601629250654 0.796337556375663
0.018942917929938 0.36601629250654 0.807429458985099
0.0155379461937347 0.36601629250654 0.812517516899114
0.0136052476935171 0.36601629250654 0.81768418823361
0.0168069852418986 0.36601629250654 0.829190616446088
0.0186887679803915 0.36601629250654 0.840626556291749
0.0147124335399961 0.36601629250654 0.854506239757557
0.0165017829897671 0.36601629250654 0.857256121447493
0.013694855318874 0.36601629250654 0.866738111372134
0.0140734376181897 0.36601629250654 0.871088455315847
0.018461166124566 0.36601629250654 0.882900880589556
0.0172963866268512 0.36601629250654 0.889470233851183
0.0160837498946674 0.36601629250654 0.898112818664125
0.0210852295570661 0.36601629250654 0.91349111841335
0.0207781761523044 0.36601629250654 0.917134444729834
0.0171623530249164 0.36601629250654 0.929455206362276
0.0191391864299757 0.36601629250654 0.936791528072562
0.0152754103635196 0.36601629250654 0.945282908877774
0.0174384276334528 0.36601629250654 0.955276312954094
0.0131642971087541 0.36601629250654 0.957409141816748
0.0196044363005175 0.36601629250654 0.965128880038229
0.0130908789197805 0.36601629250654 0.98574225470867
0.0207790193640027 0.36601629250654 0.990202829487314
0.0212432762441581 0.363415134228555 0.994847948076634
0.0198935209095727 0.349540632293559 0.994945945162802
0.0154680264799527 0.344348924302329 0.994982614749773
0.0217567870085687 0.32655098032645 0.99510832352531
0.0144155375072655 0.314763452719209 0.995191580089334
0.0160200454903951 0.298373399658869 0.995307344781254
0.0161112167808661 0.295642281248447 0.99532663496172
0.0166121342817292 0.283340101975963 0.995413526565317
0.0173811747124859 0.272508482285567 0.995490031449825
0.0204546719441246 0.255703652295322 0.995608725755417
0.0147212290138226 0.239524760764567 0.995722998990944
0.0178735825280604 0.232583510223121 0.995772025783446
0.0169388467140318 0.216379930533461 0.995886473394073
0.0215200633961358 0.203099693459608 0.99598027312418
0.0216894899304173 0.183984593963974 0.996115285109559
0.0176928124276924 0.172326112649773 0.996197630205859
0.0232856622554364 0.170222326527567 0.9962124894715
0.0224243867968889 0.157834609464045 0.996299985237632
0.0178293941885069 0.138197263349797 0.99643868590655
0.0212834971902451 0.130725120713893 0.996491462446507
0.015450263256137 0.108205918414768 0.99665051797286
0.0167444605077215 0.0880318205685787 0.996793009776477
0.0190013930650306 0.0870286925827238 0.996800094976374
0.0204056977368039 0.0766049161680415 0.99687371922035
0.019905112477769 0.054629568574872 0.997028933442941
0.0235524478051357 0.0463184299297447 0.997087635901147
0.021853258541859 0.0320028042288807 0.997188748691497
0.0191071477778452 0.00292751411827738 0.997394110564932
0.0238039990085447 -0.00273246909627622 0.997434087629723
0.0197719161302725 -0.0149193000913133 0.99752016451614
0.0219107530252195 -0.0404779475515281 0.997700687967666
0.017095206506123 -0.0494087923206664 0.997763767476285
0.0155582191576143 -0.0765027291000671 0.997955134839932
0.0186724074670212 -0.0885815101745267 0.998040448558242
0.0245767318532451 -0.0931169679600466 0.998072482980055
0.0238307527608334 -0.10639442235821 0.998166263055826
0.0170577129921787 -0.130286933202968 0.99833501840683
0.0207351465595115 -0.145484752812278 0.998442362226797
0.0190782451845281 -0.164463504967691 0.998576411176377
0.0241410187363137 -0.173048811876844 0.998637050114258
0.0206982830206168 -0.193928965131354 0.998784528862489
0.0230213262743055 -0.223653138345653 0.998994473866455
0.0202635947108736 -0.220303438924019 0.998970814582367
0.0169629563692151 -0.246145191924778 0.999153337638505
0.0192404315426747 -0.263714948423027 0.999277434701563
0.0253207946864678 -0.27455972860132 0.99935403254
0.0198542615835349 -0.304783460221557 0.99956750597824
0.0257624323658198 -0.317389431529917 0.999656543297369
0.0276953808426953 0.36601629250654 0.359706020353399
0.0285129221456096 0.36601629250654 0.364699482408996
0.0287307555268137 0.36601629250654 0.376199281905719
0.0258215786868372 0.36601629250654 0.386269990960744
0.0272457446328911 0.36601629250654 0.393734518669193
0.0285487961608994 0.36601629250654 0.404721900731704
0.0275550347876302 0.36601629250654 0.405065075486504
0.0283603469360767 0.36601629250654 0.421011991202979
0.0272742992014728 0.36601629250654 0.429635810653765
0.0222887545993101 0.36601629250654 0.438102628982722
0.0264783835280143 0.36601629250654 0.444410718560458
0.0239772534977271 0.36601629250654 0.451908467015899
0.0292556326344841 0.36601629250654 0.46383057840105
0.0294475185326284 0.36601629250654 0.4727687563231
0.0259834919997012 0.36601629250654 0.486300915164283
0.0273279132819762 0.36601629250654 0.493367908964924
0.0253862990249419 0.36601629250654 0.502948308643372
0.0258916360629932 0.36601629250654 0.500992163853499
0.0296114092819563 0.36601629250654 0.522439060056553
0.0268086266870876 0.36601629250654 0.51876937351829
0.027057352826018 0.36601629250654 0.534702016570408
0.0306512545681516 0.36601629250654 0.538161968308634
0.0279876466795401 0.36601629250654 0.552310297554576
0.0272484779494309 0.36601629250654 0.559924098022348
0.0233719330324798 0.36601629250654 0.565675834291359
0.0244115150115303 0.36601629250654 0.573667471420633
0.0221227808496596 0.36601629250654 0.583397144135882
0.0245036792919659 0.36601629250654 0.601004333015754
0.0230556331130234 0.36601629250654 0.594915628333356
0.026793646449279 0.36601629250654 0.611542316181007
0.026174491501548 0.36601629250654 0.623955093442181
0.0242358038646543 0.36601629250654 0.635290671675264
0.0275233341618879 0.36601629250654 0.640395168544898
0.0281665906443154 0.36601629250654 0.645190711128768
0.0263466222115486 0.36601629250654 0.657597195427875
0.022957347790776 0.36601629250654 0.66888638504805
0.0284248418478893 0.36601629250654 0.67816251757346
0.0220776414621327 0.36601629250654 0.68527089454739
0.0289477594952689 0.36601629250654 0.693615327150955
0.0297699878575864 0.36601629250654 0.698021124826878
0.0265051126876036 0.36601629250654 0.703238761436115
0.0294514642655496 0.36601629250654 0.715099550021088
0.0236962467060569 0.36601629250654 0.728288040010959
0.0236311130194484 0.36601629250654 0.735444802303681
0.0245307811215143 0.36601629250654 0.746339866973977
0.0247257663634151 0.36601629250654 0.755133278193446
0.0283543603959122 0.36601629250654 0.755123208733772
0.0272132656998927 0.36601629250654 0.769668523017588
0.0299396780582287 0.36601629250654 0.784071548029357
0.0294932305036278 0.36601629250654 0.793109129816086
0.0270353360359541 0.36601629250654 0.792065037094588
0.0238722429713103 0.36601629250654 0.801603158024777
0.0271722021696663 0.36601629250654 0.815340641973884
0.0236788261806909 0.36601629250654 0.823813358104638
0.0293398340699778 0.36601629250654 0.827602435894949
0.0267153694702542 0.36601629250654 0.832412002108597
0.030004987415166 0.36601629250654 0.850552295319387
0.0296021209223343 0.36601629250654 0.858119740874253
0.0261370478120945 0.36601629250654 0.866478857245197
0.0261135076813872 0.36601629250654 0.875109058341085
0.0264686932702896 0.36601629250654 0.879626008664147
0.0252841090051157 0.36601629250654 0.895440203742688
0.0245094901866445 0.36601629250654 0.907447611545616
0.0244408485875454 0.36601629250654 0.905467578453012
0.0255776260141168 0.36601629250654 0.919526112832645
0.0220827693694412 0.36601629250654 0.925724738296371
0.0299744759822932 0.36601629250654 0.942316440023454
0.0239826788651289 0.36601629250654 0.944653211448232
0.025584110994343 0.36601629250654 0.948904213177187
0.030572522960186 0.36601629250654 0.96232537376834
0.0262284303365196 0.36601629250654 0.97068974785461
0.0296692287825245 0.36601629250654 0.979716898467918
0.0235754218799011 0.36601629250654 0.981795781852049
0.0268316397987675 0.357555537549618 0.994889335032601
0.0308096218138623 0.349607987013431 0.994945469429236
0.0241456399257935 0.341494160882658 0.99500277824812
0.0277848537331703 0.32883467965379 0.995092193513522
0.0246897291843852 0.314089032454814 0.995196343591553
0.0249263045487723 0.311029546757252 0.995217953065171
0.0278015571314293 0.289434535319362 0.995370480932955
0.0296542703162404 0.271918362532743 0.995494199528545
0.0254913526437391 0.268589430234192 0.995517712132229
0.0318159682056738 0.25351885779064 0.995624157191899
0.0236482494019184 0.245576601884252 0.995680254191999
0.0254391828697469 0.23503299713755 0.995754724796258
0.0298220767775418 0.216233238945261 0.995887509492397
0.0302290965514277 0.208683748255551 0.995940832349903
0.0304998620382315 0.183450640441401 0.996119056480208
0.0313611381791857 0.179536791173084 0.996146700414801
0.0271396272218074 0.163787341650866 0.996257940455645
0.0309752670125572 0.143023189017975 0.996404599879119
0.0321162212688474 0.1381273711594 0.996439179562541
0.0291209529030723 0.131598929925278 0.9964852906389
0.0311086517302859 0.107387883322221 0.99665629584192
0.0260659371889595 0.0881195388931584 0.996792390212601
0.031519302421143 0.0862933768669935 0.996805288589657
0.0319309437175133 0.0610037889059338 0.99698391164526
0.0324240440060374 0.0623435124745929 0.996974449034882
0.0283593420268868 0.0480255017764533 0.997075578670722
0.0277955535727572 0.0296204903990861 0.997205575228028
0.0267150657327954 0.00904445927428968 0.997350905929238
0.03506094716129 -0.00842333304191715 0.997474282808409
0.0268666845280622 -0.0120791447013319 0.997500104195863
0.0337578652263173 -0.0357384565283274 0.997667212437346
0.0317081421240299 -0.047555500957283 0.997750677481827
0.0315225209574454 -0.0713098303227077 0.997918456842313
0.0278091746908785 -0.082250000480309 0.997995728430342
0.0289961955406437 -0.100902380995284 0.998127472182236
0.0358806499855634 -0.107989038978927 0.998177526003002
0.0267784083710535 -0.119334767678047 0.998257662094242
0.0326683287074301 -0.138916147184407 0.998395967465042
0.0345882667249628 -0.162664477232561 0.99856370445171
0.0332196409137039 -0.182607018401496 0.998704560745833
0.0290971067060727 -0.189267173280032 0.998751602129703
0.0269850606136193 -0.212686331712328 0.998917014142158
0.0358431113171148 -0.225234587400923 0.999005643809713
0.0331381333474858 -0.24415642244933 0.9991392907477
0.0337799990663894 -0.251126495924128 0.999188521119653
0.0377189601647893 -0.286451003375424 0.999438021881322
0.0328277405057581 -0.285460138680414 0.999431023298357
0.0385097432819814 -0.313570946701334 0.99962957293198
0.0364328895412325 0.36601629250654 0.360736498647617
0.0364765921712875 0.36601629250654 0.369981654656158
0.0313445868491947 0.36601629250654 0.373843512717591
0.0355159971662404 0.36601629250654 0.382839896063908
0.0316066936500295 0.36601629250654 0.39265460632146
0.0340004631771858 0.36601629250654 0.399712870431832
0.0348171593086759 0.36601629250654 0.409221964130908
0.0375659180155628 0.36601629250654 0.420654148284247
0.0394708734007124 0.36601629250654 0.431504335630125
0.0340727896952943 0.36601629250654 0.434676136665923
0.0388740444366577 0.36601629250654 0.443598945509363
0.0337188671142221 0.36601629250654 0.454716005819529
0.0345378877000513 0.36601629250654 0.462742999207912
0.0332103079131174 0.36601629250654 0.466228317299406
0.031820998622678 0.36601629250654 0.481864908683619
0.0362808682292693 0.36601629250654 0.490503821965569
0.0319074577610759 0.36601629250654 0.498058677920478
0.0321316917222697 0.36601629250654 0.504082427551777
0.0357465325916296 0.36601629250654 0.515644432219921
0.0329128327865138 0.36601629250654 0.517335291773874
0.0350486141635455 0.36601629250654 0.535086828917216
0.032840011961178 0.36601629250654 0.544522173428269
0.0310582789975925 0.36601629250654 0.549595532339798
0.0393561988624868 0.36601629250654 0.55329577999065
0.0330770165729307 0.36601629250654 0.566471902861655
0.0344668156898563 0.36601629250654 0.577314827868051
0.0362030947399411 0.36601629250654 0.580016841814044
0.0316529443145744 0.36601629250654 0.598294140539548
0.0384577881415476 0.36601629250654 0.608558063576941
0.0361904841334719 0.36601629250654 0.615093976624564
0.0329842311496877 0.36601629250654 0.621386401849957
0.0395303421104459 0.36601629250654 0.624998554675569
0.0386749454053454 0.36601629250654 0.633984341099618
0.0366885654193888 0.36601629250654 0.645382378078062
0.0348058770290677 0.36601629250654 0.657034192910619
0.0331050821831115 0.36601629250654 0.661565981155103
0.0356662248134494 0.36601629250654 0.668309881388691
0.0353247345451691 0.36601629250654 0.687058303489218
0.0321645171144801 0.36601629250654 0.690944963434925
0.0334895260715043 0.36601629250654 0.695833952106207
0.0334736073695339 0.36601629250654 0.706655010452819
0.0317167259100213 0.36601629250654 0.721172969929221
0.0382194381534882 0.36601629250654 0.720775024736101
0.0365068305916402 0.36601629250654 0.735811909731203
0.0312384203635002 0.36601629250654 0.743467735536049
0.0319562094599586 0.36601629250654 0.752030308313683
0.0352220417318972 0.36601629250654 0.766748188147717
0.033654250450957 0.36601629250654 0.766867077024176
0.032241284837596 0.36601629250654 0.782217637187499
0.0341188231661623 0.36601629250654 0.785916623166339
0.031743833035818 0.36601629250654 0.794634585642791
0.0368517272365653 0.36601629250654 0.806016034304066
0.0378653863661341 0.36601629250654 0.814404278734456
0.0331005276577497 0.36601629250654 0.827637696991971
0.0370107532546188 0.36601629250654 0.83304312276551
0.0380038815221728 0.36601629250654 0.842323043733478
0.0352180733088322 0.36601629250654 0.850759761042681
0.0340903816938427 0.36601629250654 0.856112966029958
0.0321215192765197 0.36601629250654 0.867506851089373
0.0350668741748867 0.36601629250654 0.87519978817133
0.0341998254271504 0.36601629250654 0.888989736466267
0.0346590762596454 0.36601629250654 0.893684520517228
0.0365006573024589 0.36601629250654 0.900782303312785
0.0311367391580931 0.36601629250654 0.912882751791448
0.0394275541953097 0.36601629250654 0.917246046540424
0.0322211423623853 0.36601629250654 0.929524939867999
0.0311687917483274 0.36601629250654 0.932937291598969
0.0376655505547203 0.36601629250654 0.944288582530328
0.0333644745874622 0.36601629250654 0.958920227132903
0.0312276464643892 0.36601629250654 0.957505937017331
0.0387607824452447 0.36601629250654 0.974966255711038
0.0376286144651465 0.36601629250654 0.980291846238287
0.0328398817000256 0.36601629250654 0.99236540878965
0.0392332235427635 0.35918516104755 0.994877824828121
0.036427595698399 0.342082244074776 0.994998624553845
0.0368617707133868 0.334883869438903 0.995049467441235
0.0311778564380285 0.321762007902986 0.995142148548034
0.0373693671747391 0.320099152445507 0.995153893473388
0.0357370114073297 0.305081120894656 0.995259967431133
0.0397004133060482 0.288802992450301 0.99537494158756
0.0398424959228808 0.282352332453754 0.995420503286747
0.0389966205747641 0.27175114548525 0.995495380600376
0.0372236807741644 0.254930150009543 0.995614189084515
0.040917664310648 0.251254782130198 0.995640148599636
0.0393860977222874 0.231037602473175 0.995782944694675
0.0342573664050416 0.216647136758714 0.99588458608802
0.038510435986594 0.207750486372171 0.99594742407807
0.0345876900746301 0.197621253262474 0.996018967931286
0.0338232949693583 0.186016013747636 0.996100936975081
0.0332107077017996 0.161367197598651 0.996275034191069
0.0375630278764842 0.153668428914102 0.996329411414966
0.039729077957898 0.138189180313785 0.996438742997895
0.0408402634341941 0.128532008929466 0.996506952628823
0.040251586990583 0.107037244397412 0.996658772442024
0.0410820869433497 0.0976686825704659 0.996724943592882
0.0345885145599444 0.0873843224182864 0.996797583124936
0.036343338260103 0.0653364905401399 0.996953309311758
0.0405034147753699 0.0549667022418674 0.997026552231913
0.0411239577017004 0.0369607669095857 0.997153730072572
0.0411021872658429 0.0229994259998044 0.997252340511676
0.0436582826371839 0.00618344372255881 0.99737111358706
0.0424320258414592 -0.00888482525611253 0.997477542377112
0.0400993534132112 -0.0287141461494943 0.997617598984359
0.0402167350608041 -0.0269424023539208 0.997605084969065
0.0418485826903814 -0.0386996454870037 0.99768812763062
0.0418946006856958 -0.0596269927863572 0.99783593971542
0.0367313512639948 -0.0845752175741181 0.998012151686541
0.0398811140480492 -0.0914460810736389 0.998060681327862
0.042864792823219 -0.115203172821611 0.998228480199349
0.0421849283286675 -0.123835599455647 0.99828945194887
0.0385781484381939 -0.145478737320026 0.998442319738733
0.0453324822678301 -0.159870098644587 0.998543967457867
0.0460756923958171 -0.174952483471757 0.998650495949661
0.043608994074974 -0.191573866201781 0.998767894547699
0.047873974854066 -0.216959614969051 0.998947196797327
0.0383509920217749 -0.236479436317195 0.999085067376293
0.0475177322764764 -0.237155710053681 0.999089843969784
0.046689727837267 -0.271257638827271 0.999330709527928
0.0447038169829409 -0.280001084055637 0.999392465413614
0.043836480114913 -0.299278892402782 0.999528626628957
0.0405040567778791 -0.321136375511306 0.999683008362129
0.0424020814734723 0.36601629250654 0.360312644729829
0.0415762641411144 0.36601629250654 0.364154746002722
0.0405751644722057 0.36601629250654 0.372411569308249
0.0401023586318521 0.36601629250654 0.381590856808311
0.0415853173160687 0.36601629250654 0.398216092181805
0.0411092644212068 0.36601629250654 0.407906513506728
0.0436822837509059 0.36601629250654 0.406407448852352
0.041046976876324 0.36601629250654 0.419039625816256
0.0428377417687619 0.36601629250654 0.435308808982235
0.0448609423133373 0.36601629250654 0.441446472264836
0.0473792733309426 0.36601629250654 0.445132261944125
0.0450248753230744 0.36601629250654 0.451350951955019
0.0429454175188566 0.36601629250654 0.465610578202031
0.0459921460727548 0.36601629250654 0.468650510650124
0.0472025709522349 0.36601629250654 0.480649720223862
0.0422865178200882 0.36601629250654 0.487779717679367
0.0413077441990894 0.36601629250654 0.493426439380505
0.0437758679460068 0.36601629250654 0.509668034851296
0.0476549444248146 0.36601629250654 0.514077874980688
0.0456589213126114 0.36601629250654 0.52665052888143
0.041835899659313 0.36601629250654 0.53919110037658
0.0437122904475265 0.36601629250654 0.541032204572574
0.0403269330321903 0.36601629250654 0.549304462194599
0.0396054615199003 0.36601629250654 0.563028733001969
0.0433238110329824 0.36601629250654 0.569406176746937
0.0402913324707681 0.36601629250654 0.570182181527725
0.0429953549263594 0.36601629250654 0.590936944741113
0.0447312135162765 0.36601629250654 0.594967533150701
0.0482751004777018 0.36601629250654 0.608962618843182
0.0476808876444773 0.36601629250654 0.615792153542527
0.0410129409430545 0.36601629250654 0.61806758517678
0.0454421330860051 0.36601629250654 0.622350467633501
0.0401234472620165 0.36601629250654 0.637260025447204
0.0456380339631461 0.36601629250654 0.639308481586688
0.048310872962438 0.36601629250654 0.657520106720826
0.0464259080416442 0.36601629250654 0.666585139838379
0.0417954995624793 0.36601629250654 0.673230226122731
0.039836432336517 0.36601629250654 0.683598697493497
0.0412449309973859 0.36601629250654 0.691774778797977
0.0400274551783873 0.36601629250654 0.700384966818647
0.0423619972709401 0.36601629250654 0.707740774727824
0.0402480269871078 0.36601629250654 0.718151616292747
0.0457895219713669 0.36601629250654 0.72251877483447
0.04323084805931 0.36601629250654 0.73592480604651
0.0436635361813599 0.36601629250654 0.745067283192555
0.0469346571896943 0.36601629250654 0.752598465494477
0.0479267053795128 0.36601629250654 0.762741561891045
0.0408446388081137 0.36601629250654 0.768234029370074
0.0428360535485886 0.36601629250654 0.780693887376519
0.0470492850409926 0.36601629250654 0.793246307257351
0.0464562231279109 0.36601629250654 0.798709949337193
0.0459040672145876 0.36601629250654 0.805030992530801
0.0399043134571478 0.36601629250654 0.814154199104323
0.0435130143582154 0.36601629250654 0.816100091131157
0.0433585383770252 0.36601629250654 0.830556617126217
0.0418339575853479 0.36601629250654 0.83814189600221
0.0450672393787068 0.36601629250654 0.848263788350493
0.0430094223007106 0.36601629250654 0.859103391397725
0.0427936414919208 0.36601629250654 0.863986399063785
0.0448618647024841 0.36601629250654 0.87142297502704
0.0475719375088622 0.36601629250654 0.888619216944408
0.0397222778970192 0.36601629250654 0.898826567506747
0.040469268932116 0.36601629250654 0.903993033844085
0.0398728815077465 0.36601629250654 0.908753453225559
0.0481701301958871 0.36601629250654 0.915833555612543
0.0440702391659334 0.36601629250654 0.933397176465257
0.04589311514337 0.36601629250654 0.936656624340177
0.0436939783335997 0.36601629250654 0.948482293426856
0.0466370045790236 0.36601629250654 0.953997901727183
0.0448967938842917 0.36601629250654 0.961397493821769
0.0475261295994344 0.36601629250654 0.969113366343547
0.0419094365120435 0.36601629250654 0.982916683039364
0.0415237610369742 0.36601629250654 0.983737060652665
0.0463968338124851 0.363193482934866 0.994849513623349
0.0397125560241474 0.351078856593903 0.994935080520597
0.0414634491589819 0.344672305195149 0.994980330676055
0.044821422352163 0.329579321064701 0.995086934031859
0.0451116164108539 0.318389381054687 0.995165969770981
0.0463925989314437 0.299658671375728 0.99529826677011
0.0485028528753513 0.294213065621921 0.995336729664042
0.0426482615351836 0.285599874225557 0.995397565553029
0.0414143688934825 0.266044071351546 0.995535690273349
0.0443404629064921 0.245746899248932 0.995679051363559
0.046705462646266 0.238316480946939 0.995731533200097
0.04481565214501 0.229908815373086 0.995790917438291
0.050013284137264 0.22022736383007 0.995859298562568
0.0501744520140922 0.199944017649108 0.996002561998819
