ply
format ascii 1.0
element vertex 890
property float x
property float y
property float z
end_header
0.190997526323864 0.111842105263157 0.333029837656716
0.189458900923181 0.111842105263157 0.340793085011928
0.18709214523548 0.111842105263157 0.348228521389132
0.193048116417197 0.111842105263157 0.362279321874809
0.192246593070412 0.111842105263157 0.375692458786912
0.19151002057226 0.111842105263157 0.379320469181978
0.190025681766253 0.111842105263157 0.394926757212483
0.192598608278196 0.111842105263157 0.398166155588209
0.19552971143643 0.111842105263157 0.402332641012368
0.18435249292451 0.111842105263157 0.429827334330648
0.199398227868769 0.111842105263157 0.431158999564772
0.190875127715104 0.111842105263157 0.448094891177301
0.193479308253056 0.111842105263157 0.453029520504929
0.183928548461107 0.111842105263157 0.472513789061667
0.190457389913513 0.111842105263157 0.477244181718874
0.189983837848573 0.111842105263157 0.484385211792175
0.185938971257246 0.111842105263157 0.492799915070154
0.191910393664873 0.111842105263157 0.50446663986007
0.190376751770606 0.111842105263157 0.523253501180743
0.181645761258516 0.111842105263157 0.534489429296016
0.190039777896742 0.111842105263157 0.543084367450463
0.18824620379025 0.111842105263157 0.54686567703702
0.182712741939211 0.111842105263157 0.560718187403486
0.191079941941705 0.111842105263157 0.571783841689153
0.190999000206745 0.111842105263157 0.569381145072462
0.184340382555754 0.111842105263157 0.587651162061391
0.18971156706325 0.111842105263157 0.592107370180976
0.193002534450728 0.111842105263157 0.600578974295385
0.190943106056215 0.111842105263157 0.619730234421949
0.181058767172872 0.111842105263157 0.628551108341254
0.182176893224469 0.111842105263157 0.641974427816213
0.188337167188746 0.111842105263157 0.649309424847216
0.183773459316418 0.111842105263157 0.659019219553033
0.191620806223737 0.111842105263157 0.661342243566636
0.190770672634656 0.111842105263157 0.680345483234361
0.190248980141031 0.111842105263157 0.691973733996533
0.191668792811149 0.111842105263157 0.70298687459695
0.190951197365906 0.111842105263157 0.709196540836085
0.191100863524908 0.111842105263157 0.710890358167413
0.188829391306206 0.111842105263157 0.723191724170785
0.193054735297704 0.111842105263157 0.743967135247662
0.195128396151776 0.111842105263157 0.742900627500094
0.192068011655197 0.111842105263157 0.766197055105829
0.188597852761221 0.111842105263157 0.778369166564725
0.196929522626563 0.111842105263158 0.769230551112537
0.191483394757909 0.111842105263157 0.789711640147372
0.18890456781002 0.111842105263157 0.805226172290651
0.195959359557506 0.111842105263157 0.80391859171756
0.192681316284652 0.111842105263157 0.815086164294358
0.185251848215346 0.111842105263157 0.827809369957287
0.187090503747099 0.111842105263157 0.842693408801222
0.188603008322719 0.111842105263157 0.845999647295451
0.194657640813151 0.111842105263157 0.867175353388229
0.19005969651063 0.111842105263157 0.8729319031817
0.194005013067051 0.111842105263157 0.881395046618182
0.195685779979431 0.111842105263157 0.889551368697371
0.196929541310306 0.111842105263157 0.898334176386905
0.189408741254425 0.111842105263157 0.908434012458648
0.187757441859276 0.111842105263157 0.926676827184991
0.192567618788448 0.111842105263157 0.926217994667917
0.188127474780339 0.111842105263157 0.950871653632409
0.183449038197596 0.111842105263157 0.958456501183264
0.194695646144022 0.111842105263157 0.955825314382356
0.191710327208849 0.111842105263157 0.977309898714729
0.188141439342402 0.111842105263157 0.982874502716662
0.186920127928443 0.111842105263157 0.993247940324278
0.188545583994059 0.105186881271101 1.0
0.209328857006954 0.101759950854692 1.0
0.220070489491997 0.0886631411089366 1.0
0.232245124869208 0.0835841415212289 1.0
0.241033769188763 0.0696562189020558 1.0
0.249294011286057 0.053978884895738 1.0
0.262846141399984 0.0526002286022304 1.0
0.281140270562124 0.0327892810991018 1.0
0.291085757032746 0.0318366607055621 1.0
0.30368393238623 0.0173352386435932 1.0
0.328873938916557 -0.0100998123361619 1.0
0.343433563038435 -0.0160629308228849 1.0
0.346579086212382 -0.030515275106202 1.0
0.363788440390985 -0.0365033411228467 1.0
0.368144790680854 -0.0465562021539403 1.0
0.205007614590077 0.111842105263157 0.00246874866298889
0.201846778782927 0.111842105263157 0.013498372415399
0.206723505615004 0.111842105263157 0.0223619798111544
0.202891877633904 0.111842105263157 0.0189740015998401
0.20555677687605 0.111842105263157 0.0329357073954627
0.20309087848841 0.111842105263157 0.0508236491300104
0.199522774071957 0.111842105263157 0.0630109469738351
0.200516278559446 0.111842105263157 0.0731486719906262
0.206012368066115 0.111842105263157 0.078650412530387
0.202006625125784 0.111842105263157 0.0964697350647167
0.20388985196585 0.111842105263157 0.100740431015202
0.209467593428825 0.111842105263157 0.104101778764934
0.200969303038651 0.111842105263157 0.116317442156927
0.208173536660792 0.111842105263157 0.118112941663269
0.207146923119132 0.111842105263157 0.142859373626427
0.203427654513202 0.111842105263157 0.15190599005608
0.210491056492614 0.111842105263157 0.150107486894271
0.211261092535424 0.111842105263157 0.163983317692761
0.216800168405794 0.111842105263157 0.172067420779722
0.203358577251581 0.111842105263157 0.18516803651601
0.204758506580241 0.111842105263157 0.198009407933097
0.204895737850431 0.111842105263157 0.212582583110723
0.19851504828699 0.111842105263157 0.221834291786052
0.203947053286317 0.111842105263157 0.22935775184466
0.206960123359601 0.111842105263157 0.231934779404296
0.20534412127798 0.111842105263157 0.254131889705289
0.20499019267128 0.111842105263157 0.260734261849155
0.20288990863112 0.111842105263157 0.274308860431865
0.20601038875437 0.111842105263157 0.280802277779557
0.211229092313061 0.111842105263157 0.289707770564653
0.21073392574768 0.111842105263157 0.298195183285274
0.211533410123254 0.111842105263157 0.307759291734039
0.206332522763794 0.111842105263157 0.318661442508023
0.200193414569702 0.111842105263157 0.342863743166131
0.212508478252529 0.111842105263157 0.337164239088588
0.210147770853245 0.111842105263157 0.34692278870602
0.203044757586223 0.111842105263157 0.36597341331489
0.20786707167606 0.111842105263157 0.376067571354566
0.20611663522303 0.111842105263157 0.382096125147865
0.207371731947893 0.111842105263157 0.388881099107236
0.201889586182313 0.111842105263157 0.403000885212369
0.2016132216047 0.111842105263157 0.41661256923728
0.202239522275822 0.111842105263157 0.426833912741498
0.201800799105673 0.111842105263157 0.438608277687037
0.202520582884708 0.111842105263157 0.448494611104598
0.209315805075658 0.111842105263157 0.444144562589082
0.217366737766727 0.111842105263157 0.461349953817799
0.21394333185201 0.111842105263157 0.476143198121264
0.21337222320031 0.111842105263157 0.479819467941836
0.201631009599622 0.111842105263157 0.49303307605128
0.213962846716555 0.111842105263157 0.497330582316329
0.208412727301178 0.111842105263157 0.516676522908929
0.202173545075735 0.111842105263157 0.527451063421943
0.210604471610461 0.111842105263157 0.530826532500041
0.199052444452615 0.111842105263157 0.551709050951788
0.197990137525634 0.111842105263157 0.565036059289835
0.217233589818359 0.111842105263157 0.564945106102761
0.209944085539154 0.111842105263157 0.572160066910558
0.20614430110497 0.111842105263157 0.581013729408624
0.197731482671669 0.111842105263157 0.606745445437032
0.209423690850619 0.111842105263157 0.604443436569298
0.204443850520139 0.111842105263157 0.61834076840297
0.201341050718328 0.111842105263157 0.634934969959625
0.207109142026962 0.111842105263157 0.636964434199143
0.198302530686301 0.111842105263157 0.647287580562688
0.211213366870206 0.111842105263157 0.656459761763744
0.209283797533332 0.111842105263157 0.664881802293797
0.212368104036905 0.111842105263157 0.677603117369702
0.201157069770577 0.111842105263157 0.690629661598204
0.211883180467708 0.111842105263157 0.694909434677585
0.212560703095058 0.111842105263157 0.705268461477045
0.211990253344667 0.111842105263157 0.713460007304443
0.213416152556811 0.111842105263157 0.721436361545626
0.202423279983363 0.111842105263157 0.747265394049359
0.209665845956443 0.111842105263157 0.748269396309976
0.207171223238047 0.111842105263157 0.759579513590487
0.207315725135586 0.111842105263157 0.775460273611256
0.209069168487771 0.111842105263157 0.779045175458635
0.202722709541578 0.111842105263157 0.794422160708609
0.203140426734907 0.111842105263157 0.798890599205048
0.203374318963864 0.111842105263157 0.820916440968568
0.209822793395363 0.111842105263157 0.818267524088477
0.206766171171706 0.111842105263157 0.829878614309067
0.209709456007773 0.111842105263158 0.83669211029703
0.208379491478141 0.111842105263157 0.85718592413766
0.205463984232573 0.111842105263157 0.856320101984891
0.207927894689166 0.111842105263157 0.865622679359213
0.204708212906482 0.111842105263157 0.887499434301224
0.201704522038639 0.111842105263158 0.894122631895809
0.214103461680283 0.111842105263158 0.902458224583927
0.210343016699852 0.111842105263157 0.913586975116841
0.205309718747404 0.111842105263157 0.921902181575579
0.20662566892333 0.111842105263157 0.937227771555862
0.199247860283336 0.111842105263157 0.947067228371864
0.207181762992701 0.111842105263157 0.95230199937261
0.204781531379207 0.111842105263157 0.960466243458324
0.207023111030201 0.111842105263157 0.969809751475142
0.205739344812542 0.111842105263157 0.993254962039648
0.209631940906773 0.111842105263157 0.994699997039367
0.214124294242719 0.0992001706531481 1.0
0.221281096364678 0.0948815382688701 1.0
0.23287666633539 0.0869807724605246 1.0
0.246469461000882 0.0802845772118891 1.0
0.266304200465519 0.0640725325293714 1.0
0.281254353274843 0.0488769976494431 1.0
0.285951583451192 0.0337243805396379 1.0
0.307782619755655 0.028232843454793 1.0
0.323773683690782 0.0155328942612425 1.0
0.332947996194937 0.0014417556693982 1.0
0.343449353428357 -0.00178705766506039 1.0
0.35676581290169 -0.0177564701022927 1.0
0.226463751442321 0.111842105263157 0.00179379595758039
0.220577187307955 0.111842105263157 0.012682074695228
0.217606677851854 0.111842105263157 0.026172095385287
0.220697440553686 0.111842105263157 0.0430991940945494
0.228529863840281 0.111842105263157 0.0411036108752349
0.22233791076141 0.111842105263157 0.045537935870413
0.224043141779794 0.111842105263157 0.0661249495744879
0.22109361510449 0.111842105263157 0.0669619893282671
0.219881891039138 0.111842105263157 0.0901031536831396
0.221207702116396 0.111842105263157 0.0955885385463449
0.220574797250069 0.111842105263157 0.103062069650119
0.216052827540825 0.111842105263157 0.120652713546547
0.229387291384664 0.111842105263157 0.119131839105838
0.21253567404222 0.111842105263157 0.144079638118176
0.227084193234303 0.111842105263157 0.144627394075255
0.225515849153189 0.111842105263157 0.148245855427109
0.226533309526852 0.111842105263157 0.160655458469514
0.220379823630364 0.111842105263157 0.184593939447242
0.224701611751829 0.111842105263157 0.186548217827163
0.220528443362045 0.111842105263157 0.202911003137622
0.222096588122082 0.111842105263157 0.211115797480039
0.226803344174114 0.111842105263157 0.21807771077885
0.223546962005982 0.111842105263157 0.2263818355693
0.223905527268043 0.111842105263157 0.238248504213653
0.224160082743555 0.111842105263157 0.241911153359719
0.218422538274653 0.111842105263157 0.262139104765285
0.218976834630246 0.111842105263157 0.264525621152317
0.228185425162675 0.111842105263157 0.272379666388769
0.214765160507371 0.111842105263157 0.297575451718251
0.217448599045954 0.111842105263157 0.309596522969959
0.225124202459403 0.111842105263157 0.308998388424566
0.220120408653796 0.111842105263157 0.316999517411433
0.22824553050379 0.111842105263157 0.322744277832674
0.212302398014935 0.111842105263157 0.34931446316505
0.229209897660649 0.111842105263157 0.352213758874304
0.221270822865541 0.111842105263157 0.370091505441524
0.229432878445284 0.111842105263157 0.369126035780241
0.22097370670653 0.111842105263157 0.38734316269277
0.221292058198039 0.111842105263157 0.397809733002559
0.221390242345724 0.111842105263157 0.412472890149647
0.218573925499099 0.111842105263157 0.425970610434152
0.222576669135397 0.111842105263157 0.423082392757975
0.220339732584678 0.111842105263157 0.444131082063315
0.222982643313371 0.111842105263157 0.442857931459071
0.230528392759998 0.111842105263157 0.446846803483396
0.227099183441992 0.111842105263157 0.462700490077648
0.223173819736194 0.111842105263157 0.471105595467738
0.22978244981855 0.111842105263157 0.48676364842636
0.224876702422086 0.111842105263157 0.489646069861236
0.232052311197669 0.111842105263157 0.50205378066137
0.220702515021259 0.111842105263157 0.521226929039967
0.213694708998072 0.111842105263157 0.527967736622606
0.222144567632158 0.111842105263157 0.540320235093904
0.223802946241126 0.111842105263157 0.541835163960615
0.223932808411054 0.111842105263157 0.563206093734147
0.225321625293967 0.111842105263157 0.570979329364414
0.223839005462488 0.111842105263157 0.577197890143138
0.220152795146779 0.111842105263157 0.585726070040938
0.220177261371575 0.111842105263157 0.604951127941288
0.230332771129099 0.111842105263157 0.609549040688433
0.221601974376649 0.111842105263157 0.62061433691971
0.225756015192115 0.111842105263157 0.62793990153492
0.22225451028073 0.111842105263157 0.640929081213666
0.220681758763785 0.111842105263157 0.644591038126372
0.229401779724099 0.111842105263157 0.660565178973549
0.223176006976858 0.111842105263157 0.665465114734735
0.224543666608053 0.111842105263157 0.676389467652604
0.21814016426896 0.111842105263157 0.69557392049327
0.226092262616708 0.111842105263157 0.696665921176797
0.222879729374738 0.111842105263157 0.709129532249689
0.220649748263101 0.111842105263157 0.725623045055691
0.225398093797579 0.111842105263157 0.724694281918433
0.221690782828091 0.111842105263157 0.740759628409603
0.22303881028697 0.111842105263157 0.752130083524652
0.22143054342139 0.111842105263157 0.76011072080457
0.218688368010708 0.111842105263157 0.777889030078717
0.220524735394905 0.111842105263157 0.784089265714776
0.219308806325269 0.111842105263157 0.796570911940705
0.22094047919583 0.111842105263157 0.801417018817264
0.213838495271135 0.111842105263157 0.823612060465487
0.222957326617629 0.111842105263157 0.820800962845007
0.226438765982989 0.111842105263157 0.830713075803945
0.230397279078849 0.111842105263157 0.846932330238355
0.225010583820519 0.111842105263157 0.852201568835548
0.226174114395127 0.111842105263157 0.862054686395823
0.216221680174508 0.111842105263157 0.882049348581341
0.221284363600462 0.111842105263157 0.879214654843901
0.220465258595416 0.111842105263157 0.894597544908489
0.219323853521512 0.111842105263157 0.913661375448348
0.217953288137148 0.111842105263157 0.919788524927888
0.222078723441155 0.111842105263157 0.92863984390186
0.22227638229114 0.111842105263157 0.93820910245702
0.219971629771654 0.111842105263157 0.952093932490296
0.217899078976903 0.111842105263157 0.960771982077951
0.224231781236637 0.111842105263157 0.961734852390465
0.225664877276443 0.111842105263157 0.980352583321397
0.223629337532721 0.111842105263157 0.990434182543996
0.221815012193674 0.109657879757826 0.999999999999999
0.237667912042586 0.105167214544433 1.0
0.24215733097614 0.0938317279950288 1.0
0.26024578442149 0.079160546198842 1.0
0.265200954287138 0.0705477627052534 1.0
0.278971464509316 0.0562399722746963 1.0
0.291709984458804 0.0521057151737821 1.0
0.30596899766243 0.0378535016456959 1.0
0.322778057419628 0.0253809557357814 1.0
0.327759862736932 0.0166858191868987 1.0
0.342682346669355 0.00175596275541554 1.0
0.364582915282384 -0.00992345433138364 1.0
0.243663775530744 0.111842105263157 0.000129490822747345
0.240865645626869 0.111842105263157 0.0107266780743805
0.243372396600665 0.111842105263157 0.0144929462222671
0.232481373454789 0.111842105263157 0.0459362423505028
0.235536361949075 0.111842105263157 0.0468735886461226
0.244463233672918 0.111842105263157 0.045550297101742
0.242996867380315 0.111842105263157 0.0608647259075684
0.234836785916172 0.111842105263157 0.0849273404287621
0.237939377876234 0.111842105263157 0.0896398445694312
0.237862558901692 0.111842105263157 0.0982377526618599
0.244538228388868 0.111842105263157 0.103818300286258
0.238448383210548 0.111842105263157 0.120261386689189
0.231373114404069 0.111842105263157 0.129779145716061
0.237187444409589 0.111842105263157 0.145337598423442
0.23624275444653 0.111842105263157 0.157544638083146
0.241208190510318 0.111842105263157 0.156660281244854
0.228638982221299 0.111842105263157 0.17553089990541
0.240811828033804 0.111842105263157 0.174109882235759
0.234102694943815 0.111842105263157 0.196063297220817
0.24682538417276 0.111842105263157 0.190199449667357
0.240191289111011 0.111842105263157 0.208477646124735
0.238588801394976 0.111842105263157 0.218941036543471
0.24469303498152 0.111842105263157 0.225907990007611
0.236920314835693 0.111842105263157 0.241447490004751
0.237483822917897 0.111842105263157 0.245665751003511
0.237445786323461 0.111842105263157 0.260357756205732
0.237716391337697 0.111842105263157 0.267402361630163
0.236221222220596 0.111842105263157 0.283290876519697
0.242849322634894 0.111842105263157 0.283041558601778
0.239410908871726 0.111842105263157 0.30028634416879
0.236519322928185 0.111842105263157 0.315695506411066
0.239284017068777 0.111842105263157 0.318585913285292
0.242309597470611 0.111842105263157 0.334118175487802
0.240011262249377 0.111842105263157 0.34393455477238
0.234945452778551 0.111842105263157 0.350965955277948
0.243830007918381 0.111842105263157 0.361368202345022
0.237004918785163 0.111842105263157 0.373474514310322
0.236163248614873 0.111842105263157 0.387386528816514
0.241432461991544 0.111842105263157 0.390526228185043
0.231331653907197 0.111842105263157 0.407075314253607
0.243468829176122 0.111842105263157 0.414363596537597
0.235725989138005 0.111842105263157 0.424277422628368
0.236230308507283 0.111842105263157 0.441951139945072
0.234161595844311 0.111842105263157 0.453533924499474
0.23180156563985 0.111842105263157 0.463579380015238
0.235192812111146 0.111842105263157 0.464411055845498
0.232001259984543 0.111842105263157 0.474880443074258
0.238795379407656 0.111842105263157 0.488079132194729
0.237918827540415 0.111842105263157 0.490381358212701
0.238275347751008 0.111842105263157 0.50438582403004
0.243611315741097 0.111842105263157 0.510856440144076
0.246249310595198 0.111842105263157 0.527717138333829
0.238668379448463 0.111842105263157 0.541539678587805
0.238990613541694 0.111842105263157 0.549408540228322
0.236333789142979 0.111842105263157 0.56210612571855
0.237597566113512 0.111842105263157 0.571060003555713
0.235965244399738 0.111842105263157 0.581146094907891
0.237433894042721 0.111842105263157 0.588762313872698
0.238314313716467 0.111842105263157 0.601703307260081
0.240222772053516 0.111842105263157 0.606435861367904
0.236646870380582 0.111842105263157 0.623225099268021
0.235697865097258 0.111842105263157 0.6348478355747
0.236864214040333 0.111842105263157 0.646602218634723
0.242318893224647 0.111842105263157 0.651888529443728
0.229838179892659 0.111842105263157 0.670416650206358
0.240672432767809 0.111842105263157 0.675801670198096
0.238894859361474 0.111842105263157 0.686553193724944
0.24251916990101 0.111842105263157 0.694294287925382
0.23969560953121 0.111842105263157 0.702500418647789
0.228098650061011 0.111842105263157 0.715467314992192
0.247727305657964 0.111842105263157 0.716650386894064
0.231015025797115 0.111842105263157 0.738723804827602
0.233471057040876 0.111842105263157 0.750262895553705
0.239054941287787 0.111842105263157 0.758295116397389
0.236725561061149 0.111842105263157 0.763195170676521
0.236089521685105 0.111842105263157 0.783012681305298
0.235260126536339 0.111842105263157 0.788099111881674
0.238662168599729 0.111842105263157 0.786770291843994
0.238242477283238 0.111842105263157 0.807567355428021
0.232072983283768 0.111842105263157 0.816279803410324
0.24171998497548 0.111842105263157 0.822897367073551
0.238627035076996 0.111842105263157 0.839862744962323
0.232080420348711 0.111842105263157 0.851020966249397
0.234979665854873 0.111842105263157 0.860475652144261
0.230471704486336 0.111842105263157 0.86751331903435
0.236872521534831 0.111842105263157 0.877965912517817
0.243407335356751 0.111842105263158 0.882082852094406
0.234890158679937 0.111842105263157 0.907608709554456
0.232656085446137 0.111842105263157 0.917150119038391
0.236214553648385 0.111842105263157 0.928178742929484
0.243752871692552 0.111842105263157 0.92556715278845
0.242296608875187 0.111842105263157 0.939216293062322
0.243686294632684 0.111842105263157 0.943759167088327
0.242023166200074 0.111842105263157 0.960392695739679
0.237261065098269 0.111842105263157 0.970799737106661
0.239951963353124 0.111842105263157 0.980144277227233
0.24153798012048 0.111842105263157 0.997009315391089
0.241316205620018 0.111842105263157 0.998168759627426
0.247107970252584 0.101403222087165 1.0
0.262757794501339 0.090391740614177 1.0
0.268669019510064 0.0809004676851501 1.0
0.284503318160557 0.072979952050661 1.0
0.305241206975425 0.0528431323746982 1.0
0.315193688146382 0.0399812943412886 1.0
0.322663629521684 0.0386322763828794 1.0
0.342575199244773 0.0253864445342037 1.0
0.354555689773198 0.0170851905601576 1.0
0.367293585425762 -0.00500757150497689 1.0
0.245989681384805 0.111842105263157 0.0115567533627427
0.254977250873029 0.111842105263157 0.0144288024727902
0.249015229021901 0.111842105263157 0.028898211210881
0.253444766801303 0.111842105263157 0.0351926334731845
0.257846767758424 0.111842105263157 0.0394793768216249
0.250513681210845 0.111842105263157 0.0557576605043897
0.252212826679406 0.111842105263157 0.0660087397556235
0.25683062681743 0.111842105263157 0.0678239349978389
0.247910259364083 0.111842105263157 0.0877248941475997
0.26205223223796 0.111842105263157 0.0910482691468639
0.247535798832681 0.111842105263157 0.103905724059606
0.25720522878668 0.111842105263157 0.116749785438688
0.253258084131255 0.111842105263157 0.129357949555474
0.252910221199124 0.111842105263157 0.142864146562371
0.254436441096501 0.111842105263157 0.150160035254146
0.251870005815018 0.111842105263157 0.154953053786368
0.259077008313688 0.111842105263157 0.165058548086614
0.243255660362438 0.111842105263157 0.183679546047221
0.250381099478795 0.111842105263157 0.189680161140044
0.246557524685451 0.111842105263157 0.207635345443837
0.255088146866474 0.111842105263157 0.214100992985526
0.260070134599126 0.111842105263157 0.208304342435292
0.254282761652826 0.111842105263157 0.235497308284356
0.257381134048817 0.111842105263157 0.236414248425655
0.24677259280178 0.111842105263157 0.255957854647682
0.249323946990989 0.111842105263157 0.266924303512005
0.256468161423911 0.111842105263157 0.27678668830036
0.261373016193829 0.111842105263157 0.271335011872924
0.246952316061418 0.111842105263157 0.294328285675417
0.250182297157176 0.111842105263157 0.307396400182354
0.251225658003123 0.111842105263157 0.315430393578286
0.257142237651264 0.111842105263157 0.32740319878387
0.255557234671261 0.111842105263157 0.3295895389997
0.261811332476836 0.111842105263157 0.339771791003021
0.250557694393602 0.111842105263157 0.36353302717153
0.250947441450139 0.111842105263157 0.363356491404973
0.262388247774302 0.111842105263157 0.367711125450796
0.245538452866092 0.111842105263157 0.390015934838322
0.253207625647141 0.111842105263157 0.394490730747508
0.253642560784055 0.111842105263157 0.407086301761827
0.256309975652261 0.111842105263157 0.415626774521685
0.252135529019573 0.111842105263157 0.427837699014208
0.253368140412683 0.111842105263157 0.442151474201789
0.249846642696618 0.111842105263157 0.447385496682829
0.255060477511505 0.111842105263157 0.459812648990228
0.251350239597137 0.111842105263157 0.470914276470565
0.2478771384473 0.111842105263157 0.48181173395725
0.260188488756176 0.111842105263157 0.486531072859942
0.245180587302889 0.111842105263157 0.503313843991809
0.254539129541444 0.111842105263157 0.507188765494035
0.259103479035751 0.111842105263157 0.517897002486365
0.260495844222221 0.111842105263157 0.522014012287553
0.250532415884605 0.111842105263157 0.545394853355421
0.251982658475219 0.111842105263157 0.55088482691779
0.249892440485436 0.111842105263157 0.560817459009901
0.250899907776425 0.111842105263157 0.573360249678334
0.262115154643341 0.111842105263157 0.577438272960629
0.25871114001127 0.111842105263157 0.59372597233884
0.246879077511604 0.111842105263157 0.603566713941573
0.247368709141289 0.111842105263157 0.61913717721743
0.257379575711917 0.111842105263157 0.613016724761179
0.258527623562224 0.111842105263157 0.622884996963253
0.255449295528108 0.111842105263157 0.636856383397118
0.250497272956895 0.111842105263157 0.653563442186799
0.25825006165908 0.111842105263157 0.659174245079743
0.252448629181511 0.111842105263157 0.674200675463757
0.249525455554082 0.111842105263157 0.690387878838393
0.250421546137221 0.111842105263157 0.695931960475971
0.254016747722966 0.111842105263157 0.712800833635187
0.250787269982741 0.111842105263157 0.718722697315383
0.256516967471303 0.111842105263157 0.729385740273634
0.251159596515291 0.111842105263157 0.737438189342838
0.253097013655493 0.111842105263157 0.74337683464928
0.25210873210524 0.111842105263157 0.762407049143576
0.25948128181851 0.111842105263157 0.761823285911274
0.250677481748381 0.111842105263157 0.783554976726292
0.253600966117639 0.111842105263157 0.783876659115088
0.247535060935172 0.111842105263157 0.805976493506961
0.262240886779878 0.111842105263157 0.801090879022931
0.246468056533067 0.111842105263158 0.823317761595688
0.254440999915494 0.111842105263157 0.825595477069788
0.250287612125663 0.111842105263157 0.842049319195651
0.254065784124307 0.111842105263157 0.850662907603252
0.254871509086277 0.111842105263157 0.865511630257788
0.251837194108868 0.111842105263157 0.873660381235692
0.244082028123252 0.111842105263157 0.885763845274943
0.24447587942291 0.111842105263157 0.895457025653226
0.253036114178523 0.111842105263157 0.895992299639241
0.249053025363798 0.111842105263157 0.910378322912648
0.243763320670438 0.111842105263157 0.928674190357458
0.249932705456197 0.111842105263157 0.937318018712123
0.25941946685029 0.111842105263157 0.945822925297585
0.253751053071437 0.111842105263157 0.95157667352391
0.254726014509167 0.111842105263157 0.958358051195313
0.252899989538764 0.111842105263157 0.974820765788453
0.263591780795833 0.111842105263157 0.981261639271888
0.253658823979887 0.111842105263157 0.997607906382675
0.254511526601069 0.104279287494144 1.0
0.268379775347066 0.0991753201597278 1.0
0.287708992011797 0.0850006936307603 1.0
0.293294886480375 0.0832693614513602 1.0
0.306146557399052 0.0676677040479302 1.0
0.327429133875201 0.0456424545704146 1.0
0.343538813646624 0.0435306262743436 1.0
0.349298921619239 0.0294268046953072 1.0
0.363181875032254 0.0157732568186879 1.0
0.263440735077182 0.111842105263157 0.00179632777279677
0.260879222238188 0.111842105263157 0.0132407029151738
0.271670034187488 0.111842105263157 0.0114741726442575
0.274326121101625 0.111842105263157 0.0266710952468071
0.266608592653837 0.111842105263157 0.0486862176257532
0.271873537939122 0.111842105263157 0.0481613151307552
0.270725602207962 0.111842105263157 0.0580349059697883
0.266015667815748 0.111842105263157 0.0747457966687037
0.267880028021946 0.111842105263157 0.0809691263464092
0.27684871580631 0.111842105263157 0.0873980989682415
0.263557079347794 0.111842105263157 0.111612680521177
0.264917146576125 0.111842105263157 0.123160720765194
0.275406435939678 0.111842105263157 0.119382023746102
0.279454415020997 0.111842105263157 0.131377974248421
0.262114316836387 0.111842105263157 0.150335900862877
0.272897519083827 0.111842105263157 0.155013750326232
0.269405230458541 0.111842105263157 0.171653213247832
0.268609513096601 0.111842105263157 0.177108296083984
0.274746151473564 0.111842105263157 0.183309597739563
0.268502305079698 0.111842105263157 0.197998303104549
0.270869195569085 0.111842105263157 0.206100567960158
0.274965623302297 0.111842105263157 0.21436081520045
0.273824093880408 0.111842105263157 0.233111037762609
0.271859475263558 0.111842105263157 0.23860784541161
0.265938111675576 0.111842105263157 0.252172937536494
0.261451050347329 0.111842105263157 0.266844343665014
0.272097210710116 0.111842105263157 0.265959635464393
0.273639881019049 0.111842105263157 0.286845725034821
0.274640755487717 0.111842105263157 0.284143094560506
0.271557811849706 0.111842105263157 0.303009384966911
0.271487476546067 0.111842105263157 0.308384912288648
0.263114302495289 0.111842105263157 0.328090462196022
0.266828347325209 0.111842105263157 0.335224896727355
0.264152264393319 0.111842105263157 0.342556506401796
0.262303012546935 0.111842105263157 0.365633953184535
0.274557401362725 0.111842105263157 0.355474651697266
0.270090456154109 0.111842105263157 0.37547056580598
0.262180647452615 0.111842105263157 0.388988734972883
0.276317971725538 0.111842105263157 0.395865306038435
0.273471568085949 0.111842105263157 0.403611900996901
0.272706432793317 0.111842105263157 0.416615070539976
0.265242018375666 0.111842105263157 0.427817981028814
0.260441220487379 0.111842105263157 0.447047584287979
0.265651054344746 0.111842105263157 0.445807755364323
0.265195038045967 0.111842105263157 0.461854883480594
0.269849364867377 0.111842105263157 0.477594123074386
0.275688137489121 0.111842105263157 0.476409567424081
0.274688050284598 0.111842105263157 0.481036546961567
0.270576156310736 0.111842105263157 0.500759839166948
0.267077583765769 0.111842105263157 0.510899611460024
0.273013411214008 0.111842105263157 0.520267470697684
0.266641153471364 0.111842105263157 0.530602694833602
0.27145293323474 0.111842105263157 0.540824857814848
0.261089397311801 0.111842105263157 0.55477729242235
0.272104726507907 0.111842105263157 0.565076024926622
0.271322176236044 0.111842105263157 0.571484144891599
0.266109541125488 0.111842105263157 0.586057340975187
0.276425694293596 0.111842105263157 0.596872242282497
0.272090819020706 0.111842105263157 0.606612822460603
0.267480364120662 0.111842105263157 0.620313734519673
0.276692183573337 0.111842105263157 0.624907035355687
0.278702476734803 0.111842105263157 0.629959750664961
0.268964543547473 0.111842105263157 0.652427694935683
0.27449858734601 0.111842105263157 0.650219465471815
0.276350653615915 0.111842105263157 0.66294233652503
0.26590169657624 0.111842105263157 0.681687596093024
0.269058124041329 0.111842105263157 0.678993295776336
0.266354976111092 0.111842105263157 0.695884371828881
0.267778485359021 0.111842105263157 0.709037689721282
0.273548358710367 0.111842105263157 0.720252348891534
0.273457441239499 0.111842105263157 0.726749937462971
0.278730494634141 0.111842105263157 0.731670587994945
0.274494903418025 0.111842105263157 0.743087740094451
0.263494150616089 0.111842105263157 0.758378178986858
0.270194620261518 0.111842105263157 0.775553297750328
0.277633581538695 0.111842105263157 0.773245078324579
0.276189168542407 0.111842105263157 0.791582203907896
0.267490398494099 0.111842105263157 0.80651072053858
0.266448223872055 0.111842105263157 0.817860859758922
0.274225460109408 0.111842105263158 0.821889060717976
0.268396702779687 0.111842105263157 0.830634543367635
0.270695244553275 0.111842105263157 0.848863925678169
0.268883958280323 0.111842105263157 0.848711636620284
0.278700070383802 0.111842105263157 0.863136501146943
0.265481378651686 0.111842105263157 0.881374237536237
0.263387819090976 0.111842105263157 0.887550996282761
0.269869326146232 0.111842105263157 0.896114132417861
0.261668644884481 0.111842105263158 0.912773950634577
0.27594092651566 0.111842105263157 0.914057215600056
0.273385445844962 0.111842105263157 0.924429150734455
0.277822222153738 0.111842105263157 0.93052135898868
0.269344711456366 0.111842105263157 0.939692731077003
0.272990778802213 0.111842105263157 0.954639760147666
0.270678108852263 0.111842105263157 0.961143743472321
0.271253688986567 0.111842105263157 0.983946145993516
0.271890686877447 0.111842105263157 0.985497823171229
0.274191948676026 0.111842105263157 0.992403352409373
0.283416205131846 0.105995153423789 1.0
0.287578854231171 0.0923071873307399 1.0
0.304652964027045 0.0848155332485977 1.0
0.317383502136491 0.0680627120151981 1.0
0.332359216577465 0.0630191420618461 1.0
0.339335863309718 0.0459779868518751 1.0
0.362503540495253 0.038145772152 1.0
0.363679887012605 0.0355811027241701 1.0
0.283213993772562 0.111842105263157 0.0204327439861116
0.288666778951684 0.111842105263157 0.0221924418952933
0.288228280959149 0.111842105263157 0.0248383161513285
0.282341421924104 0.111842105263157 0.048461196459693
0.280930120015529 0.111842105263157 0.0517208750850386
0.28203791136678 0.111842105263157 0.0751302353997544
0.287922630396394 0.111842105263157 0.078444703844632
0.285388387141986 0.111842105263157 0.0797867782774322
0.287073730002013 0.111842105263157 0.0967020227527804
0.290436989492439 0.111842105263157 0.0993390167538259
0.287771664366389 0.111842105263157 0.116245975183165
0.29177087448166 0.111842105263157 0.117103088206921
0.281035136640785 0.111842105263157 0.141410982054395
0.288832084358791 0.111842105263157 0.148071722933838
0.283001787840602 0.111842105263157 0.167711823326521
0.284991709124074 0.111842105263157 0.165343280793861
0.293787429783013 0.111842105263157 0.17787551839671
0.281988255814794 0.111842105263157 0.189803814755582
0.289930802991077 0.111842105263157 0.197687788382321
0.281173621625188 0.111842105263157 0.211794726452197
0.279185483124193 0.111842105263157 0.226827930063978
0.284545742229751 0.111842105263157 0.231260331237096
0.282466688266255 0.111842105263157 0.241636032767368
0.285083187742146 0.111842105263157 0.247709947326133
0.286415073283732 0.111842105263157 0.255330383225012
0.290582369917258 0.111842105263157 0.274011288061389
0.277443162909569 0.111842105263157 0.282319517390251
0.292123594204143 0.111842105263157 0.288114781701198
0.285999829962478 0.111842105263157 0.305607708201912
0.282828205184209 0.111842105263157 0.312724506986006
0.287306963397717 0.111842105263157 0.320893951908539
0.288833443495041 0.111842105263157 0.327006278544785
0.289699231692756 0.111842105263157 0.336670409534919
0.28745661216266 0.111842105263157 0.35281207668974
0.285881145136142 0.111842105263157 0.361958315516578
0.28605369898343 0.111842105263157 0.368226502306031
0.287254732795167 0.111842105263157 0.383223542280923
0.287431002078579 0.111842105263157 0.396345604289665
0.288661422531344 0.111842105263157 0.407467856500762
0.289751715240748 0.111842105263157 0.419105159858024
0.287508245993438 0.111842105263157 0.421135794002949
0.281254308757876 0.111842105263157 0.442419552787217
0.290258410326048 0.111842105263157 0.444420724725397
0.287306303688134 0.111842105263157 0.457955647579031
0.285281241256108 0.111842105263157 0.477950708158809
0.285248740434039 0.111842105263157 0.477423451048674
0.288016281790398 0.111842105263157 0.490209033807806
0.291602486242597 0.111842105263157 0.495449574548079
0.289103375199585 0.111842105263157 0.507853683112083
0.283333857346034 0.111842105263157 0.523314137121695
0.288138321385228 0.111842105263157 0.526408422599041
0.28283493722914 0.111842105263157 0.544504476685791
0.284162071397913 0.111842105263157 0.552391597678221
0.283727339495762 0.111842105263157 0.564424114289438
0.275492266003935 0.111842105263157 0.578300200485494
0.283677603758333 0.111842105263157 0.586084600146348
0.282250380639886 0.111842105263157 0.593130161745217
0.28869567902443 0.111842105263157 0.610503719675783
0.275206447418751 0.111842105263157 0.618253947137085
0.286463126130664 0.111842105263157 0.628946544488852
0.280245567781723 0.111842105263157 0.644029564657806
0.283520614206888 0.111842105263157 0.653137120992629
0.289787444537928 0.111842105263157 0.658384728821457
0.287582693030014 0.111842105263157 0.663687775700907
0.28765925603035 0.111842105263157 0.679913690077084
0.285129215778766 0.111842105263157 0.689290854780038
0.284152637045292 0.111842105263157 0.699831562569113
0.294496249434203 0.111842105263157 0.705284138693723
0.282744193944825 0.111842105263157 0.719659280042182
0.288813337521343 0.111842105263157 0.725283133085324
0.279964691253936 0.111842105263157 0.744156256994126
0.284250117160221 0.111842105263157 0.754656487515916
0.286756477004243 0.111842105263157 0.758682309680915
0.278097608573326 0.111842105263157 0.776983333963354
0.281267623115642 0.111842105263157 0.788007791719596
0.293399146548786 0.111842105263157 0.785724455352861
0.289556627716856 0.111842105263157 0.804007625721808
0.277997085186674 0.111842105263157 0.821579700108137
0.276555371697813 0.111842105263157 0.82509343559686
0.281885855383532 0.111842105263157 0.839706856520132
0.282970401511751 0.111842105263157 0.844952484289279
0.283369285130867 0.111842105263157 0.862521363396814
0.291821096952906 0.111842105263157 0.863097471463425
0.282244105328623 0.111842105263157 0.876768110695066
0.295531317994992 0.111842105263157 0.886004118420716
0.291158084330009 0.111842105263157 0.89348928354474
0.286526715220212 0.111842105263157 0.905023256212563
0.291009954871972 0.111842105263158 0.9143929047621
0.288522905628545 0.111842105263157 0.925384502157136
0.281931659650309 0.111842105263157 0.942700145394336
0.282453484602881 0.111842105263157 0.954660494998233
0.292802172817349 0.111842105263157 0.952904567585359
0.287221122218798 0.111842105263157 0.976227221855202
0.286276835363984 0.111842105263157 0.978012393982041
0.289655359072724 0.111842105263157 0.989396188009628
0.286124464935589 0.104601959108226 0.999999999999999
0.305861424471511 0.100788892665746 1.0
0.307507099052676 0.0882877565803417 1.0
0.328595286909126 0.076553420417741 1.0
0.337490202597895 0.0687188463983795 1.0
0.345361978613667 0.0663130160220298 1.0
0.373537859870397 0.0368476027867609 1.0
0.304092693272794 0.111842105263157 0.00766964020357288
0.296206041585759 0.111842105263157 0.0228533182835258
0.306484410325375 0.111842105263157 0.0243420748442136
0.306946454178545 0.111842105263157 0.0360147761544625
0.304557500126926 0.111842105263157 0.0555375021958771
0.30642902514907 0.111842105263157 0.0534510635369098
0.299419277730663 0.111842105263157 0.0684120846261136
0.300405187802361 0.111842105263157 0.0904453825387663
0.305899894231976 0.111842105263157 0.0869100762192999
0.305730270105224 0.111842105263157 0.103468849554818
0.295086658934584 0.111842105263157 0.125718079937945
0.297145913410912 0.111842105263157 0.12983190173314
0.299016623735981 0.111842105263157 0.135489702873877
0.30181191563013 0.111842105263157 0.139582648500707
0.301914859828388 0.111842105263157 0.164976207445299
0.293448168757465 0.111842105263157 0.175068718630664
0.297994449490737 0.111842105263157 0.181045516866196
0.295906681879551 0.111842105263157 0.193418088438374
0.299961563802899 0.111842105263157 0.205535846988551
0.302248987173274 0.111842105263157 0.207022629620845
0.303341303393296 0.111842105263157 0.221040530684889
0.305949480736691 0.111842105263157 0.226919158465406
0.292391528954786 0.111842105263157 0.24697291031444
0.298490283296057 0.111842105263157 0.25390361861927
0.298904570097715 0.111842105263157 0.262788331802773
0.299028845668616 0.111842105263157 0.271215782119735
0.299145286335434 0.111842105263157 0.282555471854563
0.306664563617302 0.111842105263157 0.286875209909492
0.292213622307373 0.111842105263157 0.307765560880356
0.303105984877913 0.111842105263157 0.315105755728739
0.301213105310305 0.111842105263157 0.324900413026675
0.305715973495266 0.111842105263157 0.330109747794253
0.308993402813631 0.111842105263157 0.342091942656433
0.296586173287804 0.111842105263157 0.356355802575979
0.306394743625996 0.111842105263157 0.363279201561022
0.292417769551137 0.111842105263157 0.383432780683631
0.294217596764704 0.111842105263157 0.389556192591846
0.299079519347447 0.111842105263157 0.392280206210875
0.292639051397114 0.111842105263157 0.412078995271465
0.307670213653843 0.111842105263157 0.413102937431908
0.294436042508924 0.111842105263157 0.432301695630317
0.301175736487898 0.111842105263157 0.444417292348175
0.305275850672717 0.111842105263157 0.440117932136638
0.299488295057932 0.111842105263157 0.457265296639503
0.307280793874316 0.111842105263157 0.471961970514665
0.298903094237949 0.111842105263157 0.485710574019341
0.30541924316518 0.111842105263157 0.489084530850522
0.302788225716367 0.111842105263157 0.506505550205684
0.305664639038652 0.111842105263157 0.513944166501922
0.307076555542388 0.111842105263157 0.520935446366703
0.305499925502252 0.111842105263157 0.526906162537345
0.308386656312457 0.111842105263157 0.545737333151165
0.298697649461322 0.111842105263157 0.554873555617417
0.301536361196854 0.111842105263157 0.574636409462007
0.299505099577052 0.111842105263157 0.577270843030923
0.295825615414353 0.111842105263157 0.587093507727145
0.303879806041488 0.111842105263157 0.590401814649254
0.30058950925634 0.111842105263157 0.610308677847262
0.30840275495266 0.111842105263157 0.61274815778466
0.308505583681928 0.111842105263157 0.623557822469801
0.299996276586055 0.111842105263157 0.633870028515376
0.294148770151458 0.111842105263157 0.650201210584975
0.309103576662132 0.111842105263157 0.660277283351246
0.311373708292166 0.111842105263157 0.659377919082639
0.30541835836603 0.111842105263157 0.683116345514713
0.308391313828222 0.111842105263157 0.684379555866035
0.30118762647178 0.111842105263157 0.70940102751905
0.295223760268657 0.111842105263157 0.716590397674652
0.306235946879717 0.111842105263157 0.718465297045872
0.308614822209188 0.111842105263157 0.734537541779896
0.296118655965407 0.111842105263157 0.742840054759337
0.299297949350938 0.111842105263157 0.755076982769175
0.305989909287242 0.111842105263157 0.755885019315288
0.309331766545332 0.111842105263157 0.770629879967343
0.297461058066698 0.111842105263157 0.795086193595119
0.299302633244092 0.111842105263157 0.798660394531459
0.29796841351667 0.111842105263157 0.811573096974015
0.297477497091169 0.111842105263157 0.825626984888424
0.303825751117238 0.111842105263157 0.821528965734807
0.306505379410034 0.111842105263158 0.831453476896069
0.296282761204706 0.111842105263157 0.855275400774342
0.304798994893402 0.111842105263157 0.849355567052215
0.311634450233494 0.111842105263157 0.862857928717733
0.300845801077563 0.111842105263157 0.87269316353208
0.304003738479632 0.111842105263157 0.890262505972158
0.304630974612264 0.111842105263157 0.894170293502491
0.293843907350922 0.111842105263157 0.914529741882084
0.304822287186539 0.111842105263157 0.91735912418906
0.309315001098793 0.111842105263157 0.931405196412981
0.30486333166414 0.111842105263157 0.939347461223945
0.292099081899122 0.111842105263157 0.953878014952492
0.305334603300551 0.111842105263157 0.963383370485667
0.305038852490287 0.111842105263157 0.970159537138552
0.308043844725744 0.111842105263157 0.980554955864497
0.296671043728151 0.111842105263157 0.995430748260178
0.311340487551035 0.109886564622668 1.0
0.318931392210545 0.102140589785677 1.0
0.332117082035839 0.0852304352224193 1.0
0.344968759631147 0.085641187617746 1.0
0.367535812319586 0.0590088312816208 1.0
0.370021689056682 0.055305578620159 1.0
0.312654857512016 0.111842105263157 0.000973314706116401
0.322407973041461 0.111842105263157 0.0124488002869646
0.31671677616967 0.111842105263157 0.0256905177725945
0.315828464208475 0.111842105263157 0.0352294038195884
0.310649113959085 0.111842105263157 0.0487587892854032
0.318163836402857 0.111842105263157 0.0433087326444356
0.322350984603168 0.111842105263157 0.0554957464208702
0.328000367455394 0.111842105263157 0.0635726904157043
0.32159246266652 0.111842105263157 0.0790411232857494
0.319602440755489 0.111842105263157 0.0971167804351621
0.316453604687919 0.111842105263157 0.102193361600774
0.322224193956574 0.111842105263157 0.114614864425277
0.321323655860617 0.111842105263157 0.123444420920806
0.323872174502062 0.111842105263157 0.126712326983811
0.311702715940964 0.111842105263157 0.152551506816861
0.320888612421433 0.111842105263157 0.156958829965921
0.320949903091594 0.111842105263157 0.162195735710614
0.319452249131353 0.111842105263157 0.172396849736857
0.32205210186925 0.111842105263157 0.187740089396104
0.322852818037302 0.111842105263157 0.195527130620508
0.325052689387296 0.111842105263157 0.201840653274369
0.319171717810011 0.111842105263157 0.222199872102847
0.318219070256829 0.111842105263157 0.229070838034623
0.319390332964479 0.111842105263157 0.242906303569237
0.317248960728358 0.111842105263157 0.24984448822045
0.322280305928119 0.111842105263157 0.261133963220919
0.322010771232941 0.111842105263157 0.268343855740238
0.319338879674682 0.111842105263157 0.284634210555483
0.313593693732321 0.111842105263157 0.298588283995208
0.321358069516108 0.111842105263157 0.310478092322802
0.3242124831727 0.111842105263157 0.307205645788013
0.319490605077308 0.111842105263157 0.324261625705155
0.319067093551161 0.111842105263157 0.332301522147645
0.317674793815313 0.111842105263157 0.346231740568517
0.323694810988888 0.111842105263157 0.35564879051821
0.320104205265451 0.111842105263157 0.364762792979613
0.317467655371433 0.111842105263157 0.379287527920157
0.310951904173075 0.111842105263157 0.390592237205637
0.321523319282065 0.111842105263157 0.396584378110433
0.318916395404171 0.111842105263157 0.405787821986119
0.319817081998454 0.111842105263157 0.419883403705327
0.327631057829105 0.111842105263157 0.423930616758866
0.312806400387286 0.111842105263157 0.444982805904345
0.315618191133995 0.111842105263157 0.45359066197816
0.315401596939691 0.111842105263157 0.462882752337387
0.316312794028294 0.111842105263157 0.473480018429425
0.317060306291241 0.111842105263157 0.482785331182897
0.313879084988359 0.111842105263157 0.4931630900222
0.313007988023442 0.111842105263157 0.513847404259894
0.321137541193068 0.111842105263157 0.518433940137463
0.313576515088481 0.111842105263157 0.53074729795488
0.321463844425186 0.111842105263157 0.536451698012794
0.327462671227267 0.111842105263157 0.542608912667186
0.323497182874669 0.111842105263157 0.554262801445296
0.322086733835044 0.111842105263157 0.566138888492338
0.323397266161415 0.111842105263157 0.573757828110186
0.320871345810119 0.111842105263157 0.586364996706797
0.314242508614235 0.111842105263157 0.60549305902505
0.323773302410228 0.111842105263157 0.603951089078265
0.313446860556719 0.111842105263157 0.621324136228184
0.316412643654624 0.111842105263157 0.625090629848179
0.3199973799195 0.111842105263157 0.635068694051787
0.313776898787566 0.111842105263157 0.653781046089827
0.319411600239043 0.111842105263157 0.66726150039605
0.321305644733023 0.111842105263157 0.673444171381806
0.31689396917638 0.111842105263157 0.685376509658481
0.30813194763342 0.111842105263157 0.698686265858379
