ply
format ascii 1.0
element vertex 1052
property float x
property float y
property float z
end_header
-0.066747909777709 -0.125 0.56751605750988
-0.0703587314300845 -0.125 0.57464125512572
-0.0639653289130896 -0.125 0.586152127220959
-0.0708978205009979 -0.125 0.601830792838162
-0.0623313197097925 -0.125 0.609847394085108
-0.065979836937439 -0.125 0.619121780308587
-0.0676086105379164 -0.125 0.625058389876253
-0.066496357758878 -0.125 0.633957923998823
-0.0712856683834684 -0.125 0.642780126257647
-0.0639709584071441 -0.125 0.653067604614107
-0.0710731675153429 -0.125 0.658439831920025
-0.0666898171123858 -0.125 0.669609755244723
-0.0699678167831346 -0.125 0.682934982025208
-0.0631520102296466 -0.125 0.696385594262136
-0.0640700330460936 -0.125 0.701620016226862
-0.0664582433906848 -0.125 0.707876185610048
-0.067175005338287 -0.125 0.724356793766238
-0.0656475969249619 -0.125 0.733739516300963
-0.071256709409644 -0.125 0.73395213146404
-0.0637822393683987 -0.125 0.750510242176877
-0.0627717018742051 -0.125 0.754669763690373
-0.0706029296489456 -0.125 0.763141654576935
-0.0700994044413835 -0.125 0.78146665473542
-0.0668389531052307 -0.125 0.784643321698356
-0.064504394090314 -0.125 0.793919789631293
-0.0678839091475528 -0.125 0.802741282142491
-0.0678746510358534 -0.125 0.816252225044192
-0.0672595560319997 -0.125 0.824998649613238
-0.0631550125867763 -0.125 0.836920991571587
-0.0694371653090576 -0.125 0.84041349516336
-0.0624318774535795 -0.125 0.853634506315839
-0.0643608830994079 -0.125 0.858681065330249
-0.0642052499269883 -0.125 0.869677876884587
-0.0688048860180227 -0.125 0.87973289504087
-0.0666596340518819 -0.125 0.89373023939348
-0.0692846885162413 -0.125 0.902309901192363
-0.0648521877834225 -0.125 0.912161821897644
-0.0625055425076302 -0.125 0.919353771921953
-0.0648708941752004 -0.125 0.932964181281111
-0.071964673816076 -0.125 0.933427509027181
-0.0667464969798898 -0.125 0.94781570374831
-0.068653437783363 -0.125 0.961491519154376
-0.0702399246993543 -0.125 0.968691609892842
-0.0710564975067329 -0.125 0.983918487576304
-0.0648304076434488 -0.125 0.982708216250056
-0.0664435348472022 -0.122522676735912 1.0
-0.0694121784191579 -0.117607814223112 1.0
-0.0681258270336585 -0.0988694095637448 1.0
-0.0716491627313516 -0.0836905567807959 1.0
-0.0712531195936529 -0.0683943436058261 1.0
-0.0659077193959714 -0.0585203068849611 1.0
-0.0733295985615293 -0.039846048191186 1.0
-0.0671375348935811 -0.0382332740427276 1.0
-0.0738750809358504 -0.0194579385531441 1.0
-0.0648828455106539 -0.0103568757353898 1.0
-0.0693330146709408 0.00613867927844061 1.0
-0.0732110148999666 0.0313039424469661 1.0
-0.0726558554319061 0.050431057356402 1.0
-0.0763755717990897 0.0687677726325737 1.0
-0.0767163763292897 0.0686513013434982 1.0
-0.0740169024247295 0.09594514036589 1.0
-0.0741274625047984 0.103814580116647 1.0
-0.056993728089797 -0.125 0.114512933738882
-0.0534772010507999 -0.125 0.125207181275621
-0.0577185442775278 -0.125 0.133462612950996
-0.0573554799388504 -0.125 0.14794646754007
-0.0588429480507854 -0.125 0.153728130004073
-0.0573144831836701 -0.125 0.165503932049839
-0.0550626744390261 -0.125 0.173125405963672
-0.0575014415509887 -0.125 0.183599163156411
-0.0562434790184779 -0.125 0.196436817977466
-0.0549427491678522 -0.125 0.195266797580762
-0.0563068360818253 -0.125 0.213909592201219
-0.0535042718870102 -0.125 0.226924267993192
-0.0540687927147696 -0.125 0.226532646625905
-0.0560491996671495 -0.125 0.238167960203888
-0.0577938638840738 -0.125 0.253807538356766
-0.0575596640231472 -0.125 0.26343771514818
-0.0617523456519642 -0.125 0.271875597496382
-0.0603362795751702 -0.125 0.278452580418802
-0.0608882400417446 -0.125 0.293521407812753
-0.0582858181764165 -0.125 0.299262314827512
-0.0582475991412304 -0.125 0.31192202159602
-0.0566515509093659 -0.125 0.322105762031962
-0.0581746124364163 -0.125 0.331153224863269
-0.0534314917708338 -0.125 0.330375264741154
-0.0585329821995268 -0.125 0.34862227856509
-0.0593790245350609 -0.125 0.356602220448914
-0.0526416967464322 -0.125 0.364302125182007
-0.0586637049643672 -0.125 0.369176877736875
-0.0536644741209156 -0.125 0.385899019407907
-0.0561160760010366 -0.125 0.385561278440234
-0.0544130515179116 -0.125 0.398199572438463
-0.053939365636399 -0.125 0.414205714655254
-0.0549443393236126 -0.125 0.427215224851329
-0.0527538151030606 -0.125 0.427029321119021
-0.0551181296710327 -0.125 0.444148214596801
-0.0599746170969479 -0.125 0.445572947681605
-0.0607562133979708 -0.125 0.468576873972384
-0.0558013547912087 -0.125 0.468955489518394
-0.0595036838708398 -0.125 0.486695770613642
-0.0597642678022592 -0.125 0.494731558977159
-0.059657401973368 -0.125 0.495046409583883
-0.0570320877921656 -0.125 0.512484417650184
-0.0551451036915698 -0.125 0.518101497890493
-0.058780816034614 -0.125 0.523523172604212
-0.0530511786634952 -0.125 0.536573832537644
-0.058243904772629 -0.125 0.552825337027408
-0.0586640571262628 -0.125 0.556467848506164
-0.0605465290890247 -0.125 0.565246518560833
-0.0572541328181032 -0.125 0.571338516543178
-0.0545773739995973 -0.125 0.586328627537104
-0.0593074543376257 -0.125 0.592258285190207
-0.0590182921654421 -0.125 0.601319584732729
-0.0595944761331696 -0.125 0.613489191271236
-0.0609888222341903 -0.125 0.620360429420201
-0.0619082789870453 -0.125 0.629688787150282
-0.0544150020996596 -0.125 0.650432118350161
-0.0541952714922531 -0.125 0.650663794981728
-0.0581079688698155 -0.125 0.662829128909591
-0.0567191996625851 -0.125 0.673026388445659
-0.0564633120746991 -0.125 0.682873301119217
-0.0564009674839189 -0.125 0.686227745432863
-0.0531356213434582 -0.125 0.699875275626655
-0.061007449284204 -0.125 0.710399319822468
-0.0601968698746724 -0.125 0.719115844486575
-0.0591185708483193 -0.125 0.728076815599582
-0.0563493538018852 -0.125 0.74014951788833
-0.0589923773509546 -0.125 0.749642025154466
-0.0621669686987754 -0.125 0.761948904229351
-0.0533686306971311 -0.125 0.767345965339939
-0.0607607084441245 -0.125 0.779429100386659
-0.0609883702175891 -0.125 0.791372334415815
-0.0592907128364767 -0.125 0.793262131687638
-0.0610681404327375 -0.125 0.801689302564149
-0.0596485862048547 -0.125 0.8161518607259
-0.0561518362691849 -0.125 0.821627873571815
-0.0567203413327017 -0.125 0.839999863131817
-0.0541274414600618 -0.125 0.843261563577091
-0.0539821763190972 -0.125 0.855164016611784
-0.0575961231202832 -0.125 0.861384289973396
-0.0531829547027425 -0.125 0.874909012296701
-0.0547458913523017 -0.125 0.884733442114753
-0.0589719606235203 -0.125 0.897048090868728
-0.0596784931299644 -0.125 0.909077593947804
-0.0590882927086653 -0.125 0.908714179951583
-0.0534873704599787 -0.125 0.920973856808963
-0.0598427972123819 -0.125 0.935276991456751
-0.0528714531657617 -0.125 0.943096780477313
-0.0604514612636187 -0.125 0.947314043139029
-0.0593797498618741 -0.125 0.963463121608246
-0.0598266052015618 -0.125 0.968997968268344
-0.0559027160745188 -0.125 0.976869754737115
-0.0542335914124754 -0.125 0.987787091452217
-0.0541638801778647 -0.125 0.9916292982877
-0.0556649796411324 -0.116103547871825 1.0
-0.0574240002972994 -0.09628681286789 1.0
-0.0626867940075527 -0.0839522326989623 1.0
-0.0538394441185817 -0.0715899083914317 1.0
-0.0632632318334623 -0.0622292602696457 1.0
-0.0540480054486548 -0.0497714856685385 1.0
-0.0582939164848328 -0.0248919218236518 1.0
-0.0636138595013406 -0.0130200321956937 1.0
-0.0631541389509578 -0.00287953993396425 1.0
-0.0560055341300375 0.0161715754152021 1.0
-0.0595867081737766 0.0245351416955031 1.0
-0.0599101208437082 0.0460303854441771 1.0
-0.0576368020143124 0.0666789799475245 1.0
-0.0652239366649909 0.0828906423421399 1.0
-0.0615932225011389 0.100771053565781 1.0
-0.0661109113434309 0.108427580265626 1.0
-0.0670022394407275 0.124632831190591 1.0
-0.0490417261049706 -0.125 0.11538253464795
-0.0513834069261282 -0.125 0.118099240978095
-0.0442285396172485 -0.125 0.142435311438629
-0.0522750297597167 -0.125 0.140291965102185
-0.0476680758240656 -0.125 0.150987889988548
-0.0521870198580398 -0.125 0.160614702473543
-0.0437921598224428 -0.125 0.177129286315749
-0.0452625382543165 -0.125 0.181835681355012
-0.0468360379677116 -0.125 0.1946591099805
-0.0494497166651017 -0.125 0.207730356258408
-0.0444056311190345 -0.125 0.204782294726266
-0.0498745411522415 -0.125 0.218089360637854
-0.0500752631558459 -0.125 0.237424714312135
-0.0494078043802818 -0.125 0.238849619997513
-0.0453893985565859 -0.125 0.253873856078102
-0.0445395356352535 -0.125 0.264217217186645
-0.0459967641534565 -0.125 0.267965506802505
-0.0451228116569819 -0.125 0.278898923358731
-0.0524433484538803 -0.125 0.288985824682298
-0.0439653793680608 -0.125 0.29933927640904
-0.0463251023292469 -0.125 0.301824848653801
-0.0448873850637367 -0.125 0.314282866473489
-0.0525949652145379 -0.125 0.325794899778434
-0.0523935326992851 -0.125 0.339052963671495
-0.0463058196354958 -0.125 0.346794430661771
-0.0516124113559988 -0.125 0.355796777367255
-0.044999767848609 -0.125 0.361270549732596
-0.0499522912393572 -0.125 0.379348489998247
-0.0525029080411513 -0.125 0.378682156740883
-0.0469543019129021 -0.125 0.392825616686433
-0.0443448941083788 -0.125 0.405629750424357
-0.0505533091694323 -0.125 0.412477349796212
-0.0461541786769933 -0.125 0.426536807374377
-0.0469068843380634 -0.125 0.424368909021644
-0.0505600533654584 -0.125 0.437055619698536
-0.0520752543418748 -0.125 0.455077879735566
-0.0435147174496242 -0.125 0.459884536836202
-0.0486656845826776 -0.125 0.478485884357553
-0.0458747668759755 -0.125 0.485945801018942
-0.0519502594914478 -0.125 0.489417770552539
-0.043999242126161 -0.125 0.503833392270137
-0.05005417994381 -0.125 0.506925180819485
-0.047424269382186 -0.125 0.523216426116895
-0.0486603185414957 -0.125 0.528010196861775
-0.0525269783333327 -0.125 0.533019248666657
-0.0511708014074087 -0.125 0.547308425063599
-0.0524270944386186 -0.125 0.556998922383048
-0.051657745387044 -0.125 0.57077419854385
-0.0487645613536875 -0.125 0.575741834596044
-0.0483510798719195 -0.125 0.585455205659931
-0.0483349092721957 -0.125 0.599735068763946
-0.045420536621359 -0.125 0.599775538700031
-0.0464042546302824 -0.125 0.619765536902988
-0.0468773626371494 -0.125 0.620059136096072
-0.0474729256098188 -0.125 0.637828580011944
-0.0467804045411327 -0.125 0.641059255437107
-0.0431749248607265 -0.125 0.65382451762448
-0.0442380519242369 -0.125 0.661128883149486
-0.0468863614649911 -0.125 0.67140909482179
-0.0438306902985435 -0.125 0.674812852584143
-0.0527512335034269 -0.125 0.688580774615613
-0.0507645897640447 -0.125 0.700220369975784
-0.0447702415582085 -0.125 0.715898140140614
-0.0500041555773158 -0.125 0.718844229788256
-0.0492156021171773 -0.125 0.728808799119253
-0.0493003586671746 -0.125 0.742593074343373
-0.0501368648764468 -0.125 0.74550771704571
-0.0511159463831863 -0.125 0.760420496680924
-0.0492404837782378 -0.125 0.764903346231773
-0.0433130996673602 -0.125 0.775662661965116
-0.0495846285292644 -0.125 0.784915760362874
-0.0466709103679428 -0.125 0.796826341129695
-0.0483881300861409 -0.125 0.810235912587693
-0.0470153476636252 -0.125 0.820737221661934
-0.0500791279640171 -0.125 0.828923059001894
-0.0516067499335285 -0.125 0.836703008274159
-0.0485173044927931 -0.125 0.841293906605355
-0.0509409248306163 -0.125 0.856817944645345
-0.0492384366958118 -0.125 0.860624515703006
-0.0445021893265636 -0.125 0.871670315982646
-0.0432881848421741 -0.125 0.884467976456203
-0.0503858522618273 -0.125 0.890158221811903
-0.0458470414543837 -0.125 0.898721517508967
-0.0468000616629057 -0.125 0.909003476238082
-0.0524163003246703 -0.125 0.919284404805712
-0.0483977604461973 -0.125 0.93349681671878
-0.0484021517585548 -0.125 0.945313302999805
-0.0451230818418947 -0.125 0.951718883427724
-0.0457864521199381 -0.125 0.95457811702596
-0.0520852419504347 -0.125 0.968311312693697
-0.0514455130969315 -0.125 0.981384223297101
-0.0497920915889453 -0.125 0.985314982153609
-0.0522131071703724 -0.125 0.992716400661334
-0.0458551344452875 -0.116768191537707 1.0
-0.0525114771232404 -0.103162571638008 1.0
-0.0444617565743677 -0.0844106335397976 1.0
-0.0479841494106002 -0.0645110119528635 1.0
-0.0536449637237884 -0.057180945132353 1.0
-0.0470027964188618 -0.040697412119949 1.0
-0.0538213192306464 -0.0235269899806525 1.0
-0.051818095603576 -0.00942490936045989 1.0
-0.051859927544457 -0.00619476992719112 1.0
-0.0510047137620815 0.0154915657041359 1.0
-0.0521880877282199 0.0353643188627255 1.0
-0.0499056702536531 0.0508826763764119 1.0
-0.0472401852779294 0.0588021597744146 1.0
-0.0532686727898768 0.077487516671817 1.0
-0.047655772502883 0.0798114819643425 1.0
-0.0535482222097785 0.0989256367945286 1.0
-0.0560907391394407 0.118392950441478 1.0
-0.0410757190587857 -0.125 0.11629426474459
-0.0338564366363623 -0.125 0.123317708510751
-0.0386109594308245 -0.125 0.135297259102187
-0.0357413624014991 -0.125 0.145570772612885
-0.0337819755837657 -0.125 0.149466191170546
-0.0390027290975394 -0.125 0.165012333215656
-0.0420801635323705 -0.125 0.173358315134476
-0.0338925226439965 -0.125 0.181233134232601
-0.0338546361373692 -0.125 0.192052322712777
-0.0384728302038871 -0.125 0.198420225941438
-0.0427079003357264 -0.125 0.209661710801936
-0.0358529468315393 -0.125 0.219977103195403
-0.0412531824812533 -0.125 0.228378419424176
-0.0343331180323475 -0.125 0.241878896680633
-0.0408578369776737 -0.125 0.24578932929714
-0.0364638674433773 -0.125 0.25868526418111
-0.042897038456133 -0.125 0.269118189579216
-0.0371824943565657 -0.125 0.284933133069156
-0.041280516597186 -0.125 0.286625750770195
-0.0417347151356262 -0.125 0.289907463417344
-0.0339415571390787 -0.125 0.313805624286005
-0.0393383564971398 -0.125 0.320348130502874
-0.0426005603158538 -0.125 0.326881968185959
-0.0371705516515086 -0.125 0.340052747678576
-0.0380663721175827 -0.125 0.349957585494733
-0.0399396762543012 -0.125 0.355069824610963
-0.0397761309385762 -0.125 0.36191212986534
-0.0340083650775349 -0.125 0.380989082157432
-0.0336357880331739 -0.125 0.380810747162069
-0.0338514907369662 -0.125 0.400898165049506
-0.0338676672972422 -0.125 0.401913706618799
-0.0339539853210536 -0.125 0.407534672090004
-0.0346144749013087 -0.125 0.421047124887678
-0.0405578301494189 -0.125 0.43016935727828
-0.0392268704157446 -0.125 0.441474566524491
-0.040228832776088 -0.125 0.452567364256887
-0.0414470930904415 -0.125 0.462377202156361
-0.0431495913236905 -0.125 0.465127557745861
-0.0411043952598644 -0.125 0.483288927393797
-0.0403286646198876 -0.125 0.492973650047176
-0.0410605350481483 -0.125 0.502231237323985
-0.0383768845239609 -0.125 0.504730001599119
-0.0357233814340862 -0.125 0.515199178555578
-0.0360309404243078 -0.125 0.529568194567872
-0.0365809005292707 -0.125 0.540946858879669
-0.0409440024766033 -0.125 0.550469386895075
-0.0423022439217122 -0.125 0.561714054270932
-0.0378622683084899 -0.125 0.570268190763642
-0.0401545702894035 -0.125 0.578438194498971
-0.0403001660266064 -0.125 0.590592050837488
-0.0421480737948198 -0.125 0.593934069365848
-0.0376858757168614 -0.125 0.609108056763525
-0.0395278172918605 -0.125 0.621030766430711
-0.0357686522221096 -0.125 0.628351189373559
-0.033659190847127 -0.125 0.636514269666418
-0.0385122263881412 -0.125 0.639731776254164
-0.0366639557425681 -0.125 0.650118292477727
-0.0336103411147478 -0.125 0.665934378076915
-0.0344555650722759 -0.125 0.66687135923936
-0.0372347931773233 -0.125 0.678342392945482
-0.0386239110103314 -0.125 0.690035855948421
-0.0409778976418477 -0.125 0.695255435691986
-0.0424258116588453 -0.125 0.713689146963103
-0.0389127458095595 -0.125 0.720337482416826
-0.0358001598684626 -0.125 0.725828067977486
-0.038968263668667 -0.125 0.73982114934861
-0.0369922037061688 -0.125 0.746259278599189
-0.0401418460206537 -0.125 0.75608655768786
-0.038028366614444 -0.125 0.760980715867611
-0.0409927114523818 -0.125 0.776572954381904
-0.0431237895776386 -0.125 0.790821239985009
-0.0350943816560196 -0.125 0.790406706741367
-0.0371700572787239 -0.125 0.801509516464001
-0.0352679790074596 -0.125 0.817161087060031
-0.0353615306436689 -0.125 0.818308319961189
-0.0431926349516454 -0.125 0.836531575884425
-0.0353778575113905 -0.125 0.849200816130397
-0.0430655841699598 -0.125 0.848065580461554
-0.0376713084332625 -0.125 0.86084026332194
-0.0411666745557994 -0.125 0.867385441847468
-0.0341363547879451 -0.125 0.88593085039421
-0.0346877747531366 -0.125 0.887881325235889
-0.0377593217334022 -0.125 0.907795798307406
-0.0398918657658583 -0.125 0.912765587202991
-0.0380225164440935 -0.125 0.922936962947761
-0.042613686559075 -0.125 0.923226826648491
-0.0380267352400428 -0.125 0.936884038732213
-0.0369102879504685 -0.125 0.949341074840426
-0.0339403576855774 -0.125 0.956752004441524
-0.0413344626296803 -0.125 0.968143409123737
-0.0339783379812759 -0.125 0.982520142898582
-0.04050786957051 -0.125 0.986689395972394
-0.0427254413034758 -0.125 0.995365827942701
-0.0415151528113183 -0.113923706649231 1.0
-0.04139109414147 -0.102875437613552 1.0
-0.0376177181988022 -0.0889395889049464 1.0
-0.0384788935243581 -0.0739837069876192 1.0
-0.043616984884061 -0.0567134634504373 1.0
-0.0352496910802479 -0.0392332732064591 1.0
-0.0348230585433276 -0.0314050846970497 1.0
-0.0430752893584441 -0.0221141966370579 1.0
-0.0419908922033742 -0.00189814802080554 1.0
-0.0402233702665263 0.0138338883261873 1.0
-0.0367414215641306 0.0346286022118605 1.0
-0.0369690536803475 0.0473046448465846 1.0
-0.0382708609883327 0.0702239948289822 1.0
-0.0361493127116806 0.0688592096361283 1.0
-0.0452899200604622 0.0939897255246702 1.0
-0.0420212409045634 0.108768240785696 1.0
-0.0331886391154598 -0.125 0.115019823518864
-0.0324631508777565 -0.125 0.129702568090305
-0.0307975733381366 -0.125 0.131107896866056
-0.028977917833496 -0.125 0.141404749483284
-0.0239062269318671 -0.125 0.15741907244001
-0.0270954630920836 -0.125 0.166384434492813
-0.0278544993628614 -0.125 0.172775564269434
-0.0254839017462416 -0.125 0.179566944036635
-0.0262715047620279 -0.125 0.192755430026782
-0.0330013889605179 -0.125 0.203380811712447
-0.0278792247190183 -0.125 0.207088858593465
-0.0332219981731506 -0.125 0.218046555036119
-0.0258278114139951 -0.125 0.23215936364066
-0.0264373349223115 -0.125 0.247075944495016
-0.0287134679762259 -0.125 0.244677229396388
-0.0254840735532677 -0.125 0.261423502773154
-0.0277898602931373 -0.125 0.272168388655916
-0.032679784183474 -0.125 0.277973109032054
-0.02967554325806 -0.125 0.290087532109964
-0.0301580850570639 -0.125 0.298130789717393
-0.0276496746600597 -0.125 0.306650409306032
-0.0305479091851897 -0.125 0.313481139518352
-0.0280122486493773 -0.125 0.320687077214107
-0.0332419501025279 -0.125 0.337018768938563
-0.0273818505990206 -0.125 0.340950005482773
-0.0283698658599191 -0.125 0.357332744287955
-0.0245876445869305 -0.125 0.367095329843634
-0.033488933864408 -0.125 0.373717265331599
-0.0312460239541231 -0.125 0.382979823095986
-0.0276589230767506 -0.125 0.397466838474303
-0.033166831739775 -0.125 0.406189846049809
-0.0299115515785858 -0.125 0.408041197567619
-0.0273759937834343 -0.125 0.418036705677067
-0.0299649937716249 -0.125 0.428246840075468
-0.0289898717084295 -0.125 0.440633680962235
-0.0334115493308923 -0.125 0.446496127025932
-0.0269700203960629 -0.125 0.464611632037287
-0.0281155248459194 -0.125 0.473404357451763
-0.030323454572076 -0.125 0.485545175577937
-0.0303161080693042 -0.125 0.495314045101379
-0.0317521613466197 -0.125 0.500682948809806
-0.0314871821372227 -0.125 0.511925368900988
-0.0263958414522434 -0.125 0.514070871903257
-0.0267060440655353 -0.125 0.53007900050645
-0.0330964737876697 -0.125 0.535245125749384
-0.0259334183384294 -0.125 0.544437941647555
-0.0305385901735799 -0.125 0.556722086200611
-0.0318196236499901 -0.125 0.563053728857005
-0.0260266149874397 -0.125 0.577057944610776
-0.0333629362435627 -0.125 0.592124014526018
-0.0252877840458742 -0.125 0.601730780194346
-0.0306009688990225 -0.125 0.608062826738202
-0.0335465572410094 -0.125 0.615070374629753
-0.0301152772342433 -0.125 0.619248767886875
-0.028725998729851 -0.125 0.632074905745438
-0.0290372508059577 -0.125 0.645761806571926
-0.0332153961255044 -0.125 0.646316508556562
-0.0298499867879714 -0.125 0.660054631020672
-0.0284976493401439 -0.125 0.674400232711844
-0.0274288800593592 -0.125 0.682009102625143
-0.027593356445739 -0.125 0.691607949159029
-0.0305488402837765 -0.125 0.692709644805206
-0.0251239795433258 -0.125 0.705103344767022
-0.0274992384881698 -0.125 0.716465394911039
-0.0318414969403431 -0.125 0.731206314560469
-0.026282472074162 -0.125 0.739229492049448
-0.0310204995714601 -0.125 0.740421794777666
-0.0285512360298352 -0.125 0.752438942311009
-0.0273770512713433 -0.125 0.767354355993347
-0.0242332495076934 -0.125 0.779457778472774
-0.0267734761488733 -0.125 0.787696549304919
-0.0298405312856488 -0.125 0.793817273378294
-0.030707591260868 -0.125 0.802529792962368
-0.0323361119069328 -0.125 0.811197739949245
-0.0248092068453904 -0.125 0.817849336458496
-0.0294372422190657 -0.125 0.832851076380799
-0.024034177034747 -0.125 0.841799110661046
-0.0254353219867962 -0.125 0.853609052983628
-0.0261416962020556 -0.125 0.8593381988706
-0.0280734054991904 -0.125 0.877711173318506
-0.0304553688728922 -0.125 0.877253402784567
-0.0334454595137394 -0.125 0.891157994808704
-0.0248170144627874 -0.125 0.897059181765289
-0.0298460386353132 -0.125 0.915361941339262
-0.0293051733315123 -0.125 0.916554266846577
-0.0260766117419198 -0.125 0.934949245216207
-0.0280252575591754 -0.125 0.937534600174916
-0.0318609708796911 -0.125 0.950346476760183
-0.0318888847314976 -0.125 0.959897311377718
-0.0317328289437128 -0.125 0.974081882928112
-0.0249438493492218 -0.125 0.983864653687708
-0.0243140667444697 -0.125 0.988518303597879
-0.030571531902129 -0.121373818526521 1.0
-0.0239775734831982 -0.119553101368697 1.0
-0.031520260811062 -0.0915384509441926 1.0
-0.0259429550408407 -0.0874282544753822 1.0
-0.0248313531403146 -0.071760767036539 1.0
-0.0332315688090792 -0.0625180554221005 1.0
-0.0335797486864531 -0.0370377575578593 1.0
-0.0287841426414857 -0.033466990097494 1.0
-0.029419723299719 -0.0061262791005614 1.0
-0.0301300203115808 -0.00690777283432409 1.0
-0.0257991091251635 0.0110448575971107 1.0
-0.0351169603174284 0.0364586076819187 1.0
-0.0303714129090848 0.046294626085595 1.0
-0.0261633975189816 0.0691291281372233 1.0
-0.0272641366404559 0.0764470901473193 1.0
-0.0324209559467553 0.0821408838448381 1.0
-0.0360092370144691 0.106007332403997 1.0
-0.0303443816169602 0.115401038987873 1.0
-0.0142981016359722 -0.125 0.117614384234534
-0.014708988595413 -0.125 0.120192822383799
-0.0208894886472407 -0.125 0.136650672953512
-0.0239600905115926 -0.125 0.145535836589486
-0.021565890413784 -0.125 0.156465985981865
-0.017336407592589 -0.125 0.162848394667776
-0.0206639513435574 -0.125 0.169654914234385
-0.0146149274457881 -0.125 0.175895739753325
-0.0187452881985112 -0.125 0.199842607592783
-0.0146043747528364 -0.125 0.196111880150128
-0.023483140076311 -0.125 0.20899802051685
-0.021746548468969 -0.125 0.220777415958526
-0.0159857067088228 -0.125 0.225155923222597
-0.0236441992435883 -0.125 0.240706029170822
-0.017346242955952 -0.125 0.24720992968782
-0.0183808953338805 -0.125 0.255458690545073
-0.014408960251977 -0.125 0.266116569675044
-0.0211120656934932 -0.125 0.281022103182365
-0.0212521774609886 -0.125 0.283459488554459
-0.0183844008628298 -0.125 0.30054584510575
-0.0177763311260865 -0.125 0.298613019735287
-0.0213519974410057 -0.125 0.31202628590835
-0.0236664788171744 -0.125 0.332797212972489
-0.022983333077678 -0.125 0.339000454235802
-0.0186040826968305 -0.125 0.351224550852888
-0.0192278070001692 -0.125 0.360431620802541
-0.0234881513206656 -0.125 0.362254641821879
-0.0155661190281221 -0.125 0.374152383293983
-0.0169660683779492 -0.125 0.382976852387744
-0.0195116253408726 -0.125 0.392347082011906
-0.0219134308841145 -0.125 0.406708904233246
-0.0212708256814571 -0.125 0.411260720052852
-0.0148236337798886 -0.125 0.421478835373247
-0.0224397070567693 -0.125 0.430977759385944
-0.0172614718168729 -0.125 0.441877638860586
-0.0187932159873353 -0.125 0.452394618697319
-0.018066555052834 -0.125 0.456354753064148
-0.0231637951276852 -0.125 0.469215168422966
-0.0231934901925219 -0.125 0.47475302863971
-0.0224439043143496 -0.125 0.485873776021051
-0.022783378849345 -0.125 0.497506369999285
-0.0218880561409712 -0.125 0.512020364171198
-0.0195294073895198 -0.125 0.515592552531036
-0.0209993847429362 -0.125 0.521431817563612
-0.0174777133054468 -0.125 0.540254621072753
-0.0202150286351876 -0.125 0.549365812492963
-0.0209819080413929 -0.125 0.560393646623294
-0.0226877250932384 -0.125 0.565080326404727
-0.0147789489464676 -0.125 0.573689386560986
-0.0206174417372993 -0.125 0.58679807799868
-0.022602047356629 -0.125 0.595505823363058
-0.0183476027541146 -0.125 0.59961981270301
-0.0176730315040718 -0.125 0.61036681319443
-0.0155315688360061 -0.125 0.622561405567159
-0.0220189085314261 -0.125 0.626231093295693
-0.0162911489325763 -0.125 0.644652585494638
-0.0235679013752794 -0.125 0.649321799670397
-0.0223463576205313 -0.125 0.659122913903586
-0.0163519043933301 -0.125 0.667441116384144
-0.01663856779831 -0.125 0.677979918465874
-0.0211900385255923 -0.125 0.693857555676722
-0.0167888709460332 -0.125 0.69987671855559
-0.0150209353806234 -0.125 0.708415281246531
-0.015718582176861 -0.125 0.717748683293764
-0.0183170518930709 -0.125 0.733265759603078
-0.0219485843133271 -0.125 0.739177231598501
-0.0210746424820026 -0.125 0.755377101184883
-0.0176609957152764 -0.125 0.757690560900951
-0.022930369241212 -0.125 0.768448253467976
-0.0177759735367935 -0.125 0.78393609492207
-0.016959589431486 -0.125 0.779765415323682
-0.0186854626800778 -0.125 0.794256631090684
-0.0205505331199329 -0.125 0.807363029241151
-0.0235073878675702 -0.125 0.809825382335323
-0.0215437713640568 -0.125 0.822829384421783
-0.0225413952616825 -0.125 0.834467127078409
-0.0232895308595447 -0.125 0.848624437471434
-0.0228582643264251 -0.125 0.8515755353642
-0.018360207745493 -0.125 0.862995787892668
-0.0221217205716695 -0.125 0.876509896802516
-0.0219507569403134 -0.125 0.882986961841855
-0.0191974128806371 -0.125 0.890667073521153
-0.0158105424341679 -0.125 0.899390740378517
-0.016703198102445 -0.125 0.907147258003132
-0.0191285045228854 -0.125 0.923863387351774
-0.0184309471009835 -0.125 0.936185224763321
-0.0148814474867058 -0.125 0.937674095284014
-0.0162007927396473 -0.125 0.949068014717036
-0.0211972317980679 -0.125 0.958764279619477
-0.0144439989444134 -0.125 0.969131418513565
-0.0162251636519862 -0.125 0.974388428144436
-0.0153124394533662 -0.125 0.987725477811846
-0.0170485967550186 -0.125 0.999813256091965
-0.0211929152781797 -0.113579934320968 1.0
-0.023203725920513 -0.099601996160716 1.0
-0.0230053698204927 -0.0853197484762083 1.0
-0.022624541560015 -0.0657498152941631 1.0
-0.0147818022195326 -0.065472153053824 1.0
-0.0212101762496167 -0.0416087295375749 1.0
-0.023734840739056 -0.0296617656544278 1.0
-0.0155866025283148 -0.00646094253491336 1.0
-0.0191886159163659 -0.00193022379313756 1.0
-0.0249179498708975 0.0181533917816745 1.0
-0.0157812370458016 0.0223922990811234 1.0
-0.0233774298176579 0.0385640806054695 1.0
-0.0165270660762682 0.0593983300094498 1.0
-0.0186883011641413 0.0776902563667945 1.0
-0.0161822166444859 0.100804582353977 1.0
-0.0205854647561762 0.0986602841857045 1.0
-0.0175097136956774 0.117085277165953 1.0
-0.0110447416325202 -0.125 0.119630173708621
-0.0116420477108465 -0.125 0.121077931239822
-0.00787124080293028 -0.125 0.135903089918966
-0.00770251116196558 -0.125 0.138454419724726
-0.0136087542662258 -0.125 0.150620025033821
-0.00505832529564804 -0.125 0.165545356478775
-0.0118704507379126 -0.125 0.16518327885154
-0.00498921117478568 -0.125 0.178010340926229
-0.00826364507503602 -0.125 0.194182632083053
-0.0141626843793466 -0.125 0.198345779744826
-0.0102298636631903 -0.125 0.206247723513112
-0.0130185815066949 -0.125 0.225574146622319
-0.00685718018028003 -0.125 0.230245643749727
-0.0124346492492715 -0.125 0.245483901920526
-0.0106133710598365 -0.125 0.251220982174074
-0.00786763211828129 -0.125 0.256688740869082
-0.00736104530654497 -0.125 0.271043727885268
-0.0129744292227699 -0.125 0.277568107626291
-0.00879650194027964 -0.125 0.285866217480565
-0.00682092785182875 -0.125 0.29317504009498
-0.0140132488945477 -0.125 0.301546192400167
-0.00740843207612202 -0.125 0.311190407347174
-0.00479004371136582 -0.125 0.328573281180005
-0.00994996360405609 -0.125 0.33149455498681
-0.0117886660479272 -0.125 0.34513996261548
-0.00790959718530126 -0.125 0.35349181700445
-0.0138514157086752 -0.125 0.362703337480187
-0.00576695578998698 -0.125 0.37470034139915
-0.00982780454185161 -0.125 0.38897795569584
-0.00866685350994623 -0.125 0.391945079744342
-0.00585368900256322 -0.125 0.398341846280235
-0.00855204230124962 -0.125 0.414333723507424
-0.0141607266112889 -0.125 0.419174619312142
-0.0083704201663618 -0.125 0.439380524844151
-0.01437536983704 -0.125 0.444370014866783
-0.0123853606213517 -0.125 0.452975619560696
-0.00635952333557788 -0.125 0.458434433825416
-0.0110525822606758 -0.125 0.47101449747261
-0.00827743056398295 -0.125 0.472828890924345
-0.00836680350469188 -0.125 0.488840797142595
-0.00568927546601422 -0.125 0.496494505153823
-0.00675381140531761 -0.125 0.507889021556445
-0.0086379122586418 -0.125 0.51946781628174
-0.0118378193070043 -0.125 0.528277952887643
-0.0116964451616859 -0.125 0.539179579665273
-0.0112914888312438 -0.125 0.548189722489374
-0.0140021574504917 -0.125 0.548716068606581
-0.0133485311731643 -0.125 0.568505813733805
-0.0076413772446462 -0.125 0.574089792016177
-0.00927960673730999 -0.125 0.586143853984774
-0.0129613209966894 -0.125 0.596114538744208
-0.00609965254981482 -0.125 0.603387255558527
-0.00986497183822777 -0.125 0.613982830201401
-0.0109292450034801 -0.125 0.626810972083639
-0.00686656885934556 -0.125 0.63197632340027
-0.0141894597894528 -0.125 0.646469673630431
-0.0129753420838625 -0.125 0.656750027382714
-0.0105388186455392 -0.125 0.662154638515999
-0.00503897866351133 -0.125 0.664801516285926
-0.0139014026504544 -0.125 0.681612914657304
-0.00577685477769679 -0.125 0.687202615574917
-0.00474330380208576 -0.125 0.696977111469061
-0.0104628367601441 -0.125 0.707858176915276
-0.0102991413871957 -0.125 0.716778580915184
-0.0073037174402612 -0.125 0.73231064649727
-0.0141658223718494 -0.125 0.737810162417473
-0.00903497171317041 -0.125 0.749970000055564
-0.0130996993186308 -0.125 0.762470707619978
-0.00830656877614944 -0.125 0.770808398711296
-0.00587724306568571 -0.125 0.773239749813061
-0.0067088015187366 -0.125 0.787095210058072
-0.00992160406660159 -0.125 0.798951633811385
-0.00996194180075982 -0.125 0.813821385828797
-0.00861320423258372 -0.125 0.812558113118688
-0.00634645675476381 -0.125 0.821567175271517
-0.00520548751195887 -0.125 0.833184981419942
-0.00706028315409568 -0.125 0.841949250273619
-0.00938789010864372 -0.125 0.858472471530086
-0.0142552648484459 -0.125 0.863977937551472
-0.0104644485072696 -0.125 0.868886838721593
-0.00500958990986122 -0.125 0.875593010957752
-0.00810273358713004 -0.125 0.890283112474007
-0.0104678530377321 -0.125 0.903320286520549
-0.00815287593392677 -0.125 0.910464097105925
-0.00558761017871096 -0.125 0.920205784086976
-0.00995670373198559 -0.125 0.929000603322662
-0.0112432015145276 -0.125 0.943994806330011
-0.00482594441655021 -0.125 0.954583016484159
-0.0124329350297045 -0.125 0.95825013561591
-0.0101309740815883 -0.125 0.972167460725268
-0.00689610111598088 -0.125 0.976082879607343
-0.00647689019270925 -0.125 0.98583375345031
-0.00485136440411699 -0.125 0.999843495071472
-0.00783983299836211 -0.115882584929169 1.0
-0.00632620342686463 -0.103148401722309 1.0
-0.00793934979495403 -0.0866599759349662 1.0
-0.0142773791303707 -0.0712267730926386 1.0
-0.0109597123012102 -0.0637381662200514 1.0
-0.00917943454775272 -0.0430023940680497 1.0
-0.0105858317406313 -0.0400022286460491 1.0
-0.0136995064993529 -0.0153216842501909 1.0
-0.00513493556254818 0.00536815912292798 1.0
-0.00601081446185325 0.0115441544858848 1.0
-0.00671963177673901 0.0319360364495043 1.0
-0.0081947622746707 0.0397064431593401 1.0
-0.0119943578697089 0.0610749340701853 1.0
-0.0103040796755256 0.088812014321606 1.0
-0.0130190046759656 0.0929547591338507 1.0
-0.00973487834566317 0.106658877731349 1.0
0.00270963821723313 -0.125 0.120868390653924
0.00437200194681125 -0.125 0.133099432559178
0.00407289152046164 -0.125 0.128208299049627
0.00373320683440714 -0.125 0.142657229446939
0.000430181907159544 -0.125 0.150293683028441
0.000964775912328297 -0.125 0.164012654996258
0.000135448796140636 -0.125 0.167684494051346
-0.00431487200459107 -0.125 0.187552630512049
0.00444860192815499 -0.125 0.190451383623922
-0.00384782856721422 -0.125 0.201542717880082
-0.00438105977801645 -0.125 0.211705115829614
-0.00373986574333357 -0.125 0.219318923378962
0.00479041225808985 -0.125 0.228312915472703
-0.00373918966123898 -0.125 0.242386855885283
0.000624176139676524 -0.125 0.246628419220366
-0.000954680405760688 -0.125 0.258979590829142
0.0028399811352155 -0.125 0.266415646687395
-2.43428125895617e-005 -0.125 0.275894585978939
0.00243475256089709 -0.125 0.281621610832706
-0.00105867349028815 -0.125 0.295688091997881
0.00434679105724756 -0.125 0.313807595712667
-0.0041057779711437 -0.125 0.315735269650056
-0.000171538977893348 -0.125 0.323964662220453
-0.00344733570249006 -0.125 0.33558191115417
-0.00310545065298123 -0.125 0.343884514382184
-0.00411788905117716 -0.125 0.362188341111154
-0.0025280656388938 -0.125 0.36442599796696
-0.00300153558803634 -0.125 0.368981070241536
0.00418684801478009 -0.125 0.384234487852992
-0.00342359899600064 -0.125 0.395520311638325
6.82027934456597e-006 -0.125 0.399747227645705
-0.00401820254776986 -0.125 0.417220488250872
-0.00350025598650139 -0.125 0.41739335756204
0.00484517825570252 -0.125 0.429318753726831
0.00205468594969888 -0.125 0.44289831364706
0.00312143240368173 -0.125 0.446186493372956
0.0038697821734624 -0.125 0.462400829866769
-0.00162481666508579 -0.125 0.465589733240388
0.00425130578658001 -0.125 0.474206415431464
-0.00406810113897083 -0.125 0.487169940332064
-4.37737576511332e-005 -0.125 0.496472149836901
-0.00340649966422768 -0.125 0.510918938905359
0.003660421911584 -0.125 0.517113977289474
0.00256815780466435 -0.125 0.529139084370472
-0.00078841435417909 -0.125 0.539368950758724
-0.00186155294753965 -0.125 0.546456625336871
-0.00361790192327588 -0.125 0.555892007874279
-0.00372446032256241 -0.125 0.563209045751918
0.0032121326690282 -0.125 0.569221302744314
0.00205266382070518 -0.125 0.586517257428266
0.00445121942750959 -0.125 0.597979261072247
0.000929358927139134 -0.125 0.60114543834452
0.00284219372304267 -0.125 0.612700888985864
-6.02934560012813e-005 -0.125 0.621561367009924
0.00465216507628929 -0.125 0.631056705007663
-0.000782709739058141 -0.125 0.642532029691189
-0.00418908242597416 -0.125 0.647994992771771
-0.00456006756724336 -0.125 0.669553839907419
-0.00256430743346192 -0.125 0.666535535408932
0.00238095810008221 -0.125 0.685915319349293
0.00198084144844662 -0.125 0.691689693926727
0.00427943891639898 -0.125 0.700322296764809
0.00322368970043985 -0.125 0.707631525728768
0.00186901400934358 -0.125 0.716766067433153
0.000500159769273867 -0.125 0.734936801192623
0.00149006481283664 -0.125 0.739291174559938
0.00122078613108351 -0.125 0.743133921725921
-0.00189231793099215 -0.125 0.754471824311634
0.00014797157523222 -0.125 0.76741647056702
0.00299012780971247 -0.125 0.778221429168487
0.0021153879388795 -0.125 0.783109413098285
-0.00272833316978294 -0.125 0.795635972849641
-0.00169655675982078 -0.125 0.80441777380498
0.00362086647354243 -0.125 0.813029259979322
-0.00386852594463288 -0.125 0.821260625832907
-0.00424907160093907 -0.125 0.832376463832459
0.00390290296873608 -0.125 0.845408952588861
-0.00379951887309321 -0.125 0.850741669023344
-0.00450786381839319 -0.125 0.862597891885541
-0.00371697797563908 -0.125 0.872842258318165
0.000872785157799871 -0.125 0.878468856600115
-0.00425640468161365 -0.125 0.885148431734482
0.000775618581773996 -0.125 0.901315465322459
-0.0016206083493488 -0.125 0.910936273596975
0.00141495988091456 -0.125 0.920271766995015
0.00392768100845231 -0.125 0.923058028587386
-0.00228967550617665 -0.125 0.935373961562556
-7.5902069298972e-005 -0.125 0.951795103427656
0.00385082321962621 -0.125 0.962103194093185
0.00225021072894704 -0.125 0.965865806709962
-0.00145638788007046 -0.125 0.983770344556337
-0.00220900877278296 -0.125 0.984770525784344
0.00412050619039572 -0.125 0.997390501294156
-7.99709111263813e-005 -0.125 0.999775280677956
0.002235727063709 -0.0989987186749524 1.0
0.000644039270889685 -0.0916930499281974 1.0
-0.00230593471118917 -0.0650916365501573 1.0
-0.000700268596818487 -0.0582603730664166 1.0
-0.00361811225704761 -0.0527788013470167 1.0
0.00348377537916156 -0.0272891300850575 1.0
-0.00303069684642221 -0.0207100438896011 1.0
-0.0028309634605328 -0.00374348986830908 1.0
-0.00197874543537602 0.0220378475303287 1.0
-0.00483616331151593 0.027938464243995 1.0
-0.004678348413858 0.035983366560667 1.0
-0.00463310977094661 0.057946629331719 1.0
-0.00258598108123204 0.0832115047487791 1.0
-0.00138770810439831 0.101163267019192 1.0
0.000357205274414019 0.0970757408410181 1.0
0.00817937127945528 -0.125 0.107413325747466
0.00691115652711 -0.125 0.125020419821962
0.0102673415855244 -0.125 0.140240249093551
0.0141473244973644 -0.125 0.144821568622496
0.0140324853846334 -0.125 0.160585457783941
0.00768570553017545 -0.125 0.165239226362964
0.00728171400166044 -0.125 0.176171591560187
0.00951517810554808 -0.125 0.18098726931418
0.0123065276626551 -0.125 0.189019794511309
0.0063287693688317 -0.125 0.200360378581756
0.00987130391459251 -0.125 0.203902668636174
0.0135540635867213 -0.125 0.213380616094224
0.0143631885443298 -0.125 0.230341957105237
0.0108285318291584 -0.125 0.237822146055923
0.0139661965237914 -0.125 0.240568769960347
0.00833711341107313 -0.125 0.25911234857056
0.00529399745691933 -0.125 0.267607284336847
0.013999796011757 -0.125 0.284069966842338
0.00744242937104589 -0.125 0.283940354418299
0.0110640776199443 -0.125 0.29728987299971
0.0118037459910736 -0.125 0.312556899220124
0.00680542736476525 -0.125 0.317714051767476
0.0139273508881235 -0.125 0.328017614698081
0.00772951770133523 -0.125 0.335285175322305
0.00814470929376337 -0.125 0.341629125107054
0.00942993510021828 -0.125 0.349762289603107
0.0124262824391301 -0.125 0.366033817570966
0.0109814381942409 -0.125 0.374993771513209
0.0137727843989705 -0.125 0.382248461295236
0.0142085903945688 -0.125 0.392313971379961
0.0138241080437217 -0.125 0.399279778924889
0.00892754604337492 -0.125 0.41681203001209
0.0134127742123339 -0.125 0.422924271325561
0.00961120269928306 -0.125 0.432520522518297
0.00584798631340938 -0.125 0.443424415478233
0.00515504783508536 -0.125 0.442450154339932
0.0127391552905942 -0.125 0.464871840658004
0.00944013737788796 -0.125 0.470604424321749
0.0131340908772733 -0.125 0.483554202153297
0.0117803575916389 -0.125 0.49064788992611
0.00584931370058933 -0.125 0.493586170131356
0.011819088165927 -0.125 0.507359057629871
0.0104030424498724 -0.125 0.518275165513313
0.0125630226841806 -0.125 0.52773438592121
0.00889099059016213 -0.125 0.539251981138249
0.007603812603524 -0.125 0.54665238815649
0.0112372504564343 -0.125 0.560734972600994
0.0127156155567586 -0.125 0.561554590116652
0.00625560485767279 -0.125 0.580703665010403
0.00949833517065107 -0.125 0.584234257565743
0.00971909133726057 -0.125 0.587399408119098
0.00888739017672996 -0.125 0.609759753081022
0.00798734849921706 -0.125 0.614507098460188
0.00886159315502216 -0.125 0.630801497875759
0.0118538143375716 -0.125 0.639435309352337
0.0142242265778639 -0.125 0.642995802135639
0.0142239172229157 -0.125 0.651976231391274
0.0122158984295884 -0.125 0.655510210420928
0.0064874694599773 -0.125 0.678584694500978
0.010110359684551 -0.125 0.679110094403826
0.0104372286381859 -0.125 0.684298202557378
0.00654981105517 -0.125 0.702786884641519
0.0136351812366478 -0.125 0.70481032712078
0.00898573765315736 -0.125 0.718534234007162
0.0101915146072782 -0.125 0.733585820073915
0.00903548308775398 -0.125 0.738074294279874
0.00908283387139125 -0.125 0.745418847954329
0.0109741181640502 -0.125 0.765837321309575
0.0109770643517082 -0.125 0.768374071535438
0.00588163146110443 -0.125 0.779872769750356
0.0105480686617405 -0.125 0.786758865603232
0.0134062972531461 -0.125 0.78931812427588
0.0122133270384623 -0.125 0.806210707960733
0.00576516080353778 -0.125 0.819659834230926
0.010395203409831 -0.125 0.824429722595281
0.0109504287813427 -0.125 0.836761010013259
0.00985219105892676 -0.125 0.839122856020291
0.0134137319764416 -0.125 0.847724488689487
0.00786194292941655 -0.125 0.858894163329611
0.0110227738896785 -0.125 0.868754085826295
0.00651549671212326 -0.125 0.886149343646209
0.00653786897367881 -0.125 0.887060124481456
0.00847083741554233 -0.125 0.894865104311467
0.0102000882630912 -0.125 0.909615906045191
0.00906448238757424 -0.125 0.914577027009025
0.0139300164255611 -0.125 0.935117298277569
0.0138580256426123 -0.125 0.938226959850249
0.0106938164829115 -0.125 0.953864113829082
0.0127105764808497 -0.125 0.957447902499938
0.013253220544846 -0.125 0.96474070003371
0.00881793517246204 -0.125 0.975276672665628
0.0117243521861908 -0.125 0.9868759762888
0.00749365259216567 -0.125 0.994390248894765
0.00756297266896944 -0.118004383167627 1.0
0.00713313532623566 -0.101442780899324 1.0
0.00494597958313114 -0.0800169610697106 1.0
0.00521309775893331 -0.0654594440108642 1.0
0.00556094968835935 -0.0548452451167898 1.0
0.00746088774534148 -0.0382113037613885 1.0
0.0104912326295916 -0.0285366214682035 1.0
0.0117998338528011 -0.0169665231554097 1.0
0.0124143409101762 0.000721083801848987 1.0
0.00544646108906988 0.0169407362615446 1.0
0.00972315419239311 0.0292403631048175 1.0
0.0147523584709065 0.0368932994636535 1.0
0.00757647150369428 0.0736682340263237 1.0
0.0117538867767197 0.0706318029919282 1.0
0.0100726627848599 0.0890157920759926 1.0
0.0110663224993577 0.110875856325353 1.0
0.0151067474844236 -0.125 0.115423354178127
0.0151854491070979 -0.125 0.117124999874882
0.0166494999963225 -0.125 0.131481472464017
0.0173305887482663 -0.125 0.151466359074693
0.0165227419018347 -0.125 0.154892183991556
0.0230205658546419 -0.125 0.163584203051543
0.0172596931849316 -0.125 0.177700074332586
0.0151193233776705 -0.125 0.176367466696368
0.0207397494093216 -0.125 0.196418254267435
0.0185110838022055 -0.125 0.201237651742134
0.0215380332811548 -0.125 0.204074379741959
0.019377048981396 -0.125 0.216458005119835
0.0178052223657822 -0.125 0.233578457239607
0.0143607907616966 -0.125 0.244734741358212
0.0209065230792945 -0.125 0.248188671581031
0.0203875651619517 -0.125 0.259774587771437
0.0202512700144384 -0.125 0.275481417248745
0.0200531483283947 -0.125 0.278362627566175
0.0178409678323361 -0.125 0.287850636734432
0.017155757956222 -0.125 0.291240037793945
0.0185263851586339 -0.125 0.307869863681683
0.0224957732224923 -0.125 0.31969115057788
0.0148643536420806 -0.125 0.327075465822599
0.0187422934158523 -0.125 0.338889090421278
0.018274257278263 -0.125 0.345070738241922
0.0213282409250909 -0.125 0.358074116480574
0.0174066329951039 -0.125 0.359767456871278
0.0174597168560054 -0.125 0.37283943611116
0.0173210708266964 -0.125 0.38376138887844
0.0239055092647296 -0.125 0.389445135755711
0.0159615813076077 -0.125 0.401975207702896
0.0184518264732255 -0.125 0.412290840171974
0.0205080547461802 -0.125 0.419023271301372
0.0161637371166755 -0.125 0.432694592950182
0.0179311563076099 -0.125 0.442947579225873
0.0234939905088643 -0.125 0.451562302193342
0.0168443735352603 -0.125 0.45652028332591
0.0195274571197254 -0.125 0.467074891060946
0.0223008643578611 -0.125 0.483131037679851
0.0213559904859927 -0.125 0.489616400072333
0.0182261805857959 -0.125 0.493496743515216
0.0153626313288426 -0.125 0.499916105632989
0.0195607307831775 -0.125 0.518956637800333
0.0165556327603092 -0.125 0.523633892879999
0.0213375547072403 -0.125 0.53149683469023
0.0206765629537661 -0.125 0.544683359025522
0.0219382846600943 -0.125 0.563099358511459
0.0194030049181242 -0.125 0.569973119002696
0.0155298917486272 -0.125 0.583613239604346
0.0237328952247808 -0.125 0.578682387771047
0.0198538761470418 -0.125 0.591438403402285
0.0178635879097552 -0.125 0.609434073702514
0.0184173908125631 -0.125 0.620513075201255
0.0208213698940358 -0.125 0.623322141997223
0.0173328079467845 -0.125 0.635795067002822
0.0155054785293005 -0.125 0.634898483557858
0.023356718917308 -0.125 0.653267734455971
0.0178167002964219 -0.125 0.662692585871583
0.0179514025567564 -0.125 0.669992849697989
0.0148826518240605 -0.125 0.679861118236181
0.0153308530635955 -0.125 0.687622651166771
0.0143990842142687 -0.125 0.697006337445627
0.020408220343186 -0.125 0.708895122624081
0.0192987033375414 -0.125 0.723539000805427
0.0153886437719966 -0.125 0.727758156598733
0.0165142440533724 -0.125 0.74147183114605
0.0158715880805469 -0.125 0.74900777290214
0.0163923096078396 -0.125 0.764077065665968
0.0181867706776478 -0.125 0.765808205146834
0.0154670742831093 -0.125 0.777979720056322
0.0234958062746245 -0.125 0.790232855282295
0.0163158845963683 -0.125 0.792189402518269
0.0232147540296372 -0.125 0.806928152349712
0.0187596250288306 -0.125 0.819042829132565
0.0206548993783207 -0.125 0.817252654629573
0.0182390137062449 -0.125 0.836365233820788
0.0181024851910338 -0.125 0.846944420781504
0.0233479857134523 -0.125 0.851122619961461
0.0210313395067385 -0.125 0.865526477943084
0.0155361708147416 -0.125 0.867449139418026
0.0215017490800047 -0.125 0.878489581190336
0.0158511323671491 -0.125 0.88961391962652
0.0177924571901764 -0.125 0.904400430043085
0.0223899153671769 -0.125 0.917524234266958
0.0209741018695873 -0.125 0.920150876526799
0.016772942673803 -0.125 0.93149843650938
0.0239854483167821 -0.125 0.939371445507117
0.0149340504959428 -0.125 0.94326853771892
0.0222205022026794 -0.125 0.958314285178465
0.0146186927577279 -0.125 0.966499054634343
0.0205006806872181 -0.125 0.973182389164718
0.0150971211173878 -0.125 0.985934092103405
0.0237745622546173 -0.125 0.999568065251352
0.0162049049977144 -0.119194139805135 1.0
0.0182390324269495 -0.101034822556076 1.0
0.0208887255679461 -0.0909174083650366 1.0
0.0216032022618362 -0.0782874592706988 1.0
0.0243265100626165 -0.062887352289231 1.0
0.0198598710762916 -0.0346665148372058 1.0
0.0200391340689344 -0.0349490031834092 1.0
0.0181170635651287 -0.0207043709144346 1.0
0.0199893456726485 -0.00605895041257565 1.0
0.0190596500670303 0.0260191241707379 1.0
0.0227830212560589 0.0306747829643435 1.0
0.025027469015011 0.0403677672151503 1.0
0.0185738564290014 0.0675761804523494 1.0
0.0190065399799825 0.0659065588813679 1.0
0.025804201391519 0.0881145534196737 1.0
0.023167881839801 0.118243505015143 1.0
0.0158289553785989 0.119921442201701 1.0
0.0326895146638814 -0.125 0.111268879847304
0.0314749077758042 -0.125 0.127259927659801
0.0262908535336507 -0.125 0.12739762436129
0.0256582299507946 -0.125 0.139998296087312
