ply
format ascii 1.0
element vertex 864
property float x
property float y
property float z
end_header
-0.0435566035453918 0.36601629250654 0.451087788834497
-0.0435403200747733 0.36601629250654 0.458891190970102
-0.041134901740363 0.36601629250654 0.473161049441404
-0.0467934264385881 0.36601629250654 0.479509596131142
-0.0460652265205647 0.36601629250654 0.492443943784022
-0.054553436428574 0.36601629250654 0.503933366725944
-0.0434190028610177 0.36601629250654 0.505506533107427
-0.0409336142244292 0.36601629250654 0.512021939279398
-0.0441291329558597 0.36601629250654 0.523587232272922
-0.0562349467913448 0.36601629250654 0.542377581185474
-0.046589019067664 0.36601629250654 0.54208351068118
-0.0479092406552071 0.36601629250654 0.552130580645262
-0.0486830256495398 0.36601629250654 0.571282453868602
-0.0468112802298811 0.36601629250654 0.573076375501742
-0.0447692732204608 0.36601629250654 0.575479132777137
-0.0474800492977856 0.36601629250654 0.591167747355293
-0.0466860091715898 0.36601629250654 0.604184034352677
-0.0458673295668129 0.36601629250654 0.610517014942659
-0.0521665819500928 0.36601629250654 0.619445756712291
-0.0464745574893832 0.36601629250654 0.623494558729309
-0.0522975252732662 0.36601629250654 0.641347182719269
-0.0543128120328504 0.36601629250654 0.644907592150039
-0.0469804080215882 0.36601629250654 0.656253106754602
-0.0416518074720638 0.36601629250654 0.660692246301391
-0.0442050078823957 0.36601629250654 0.66405010082121
-0.0485172230434494 0.36601629250654 0.683068718793771
-0.0424442926308543 0.36601629250654 0.687648348727291
-0.0427013142014879 0.36601629250654 0.692233176756857
-0.0503791316275298 0.36601629250654 0.712759984486514
-0.0415304836079504 0.36601629250654 0.710307074273444
-0.0545459882862182 0.36601629250654 0.726520053755261
-0.0445859884320607 0.36601629250654 0.732552205401629
-0.0529006913521831 0.36601629250654 0.748177159695995
-0.0461092087803281 0.36601629250654 0.751360785226504
-0.0511706052549188 0.36601629250654 0.762269172150762
-0.0491763495563072 0.36601629250654 0.774944524323951
-0.04204400316384 0.36601629250654 0.771046602287658
-0.0409520845696686 0.36601629250654 0.786439798492217
-0.0483860214332299 0.36601629250654 0.798499746970393
-0.0532772509260645 0.36601629250654 0.815739342726571
-0.0469597195993471 0.36601629250654 0.813767982952642
-0.0513400094073396 0.36601629250654 0.82265615398864
-0.0549427348468681 0.36601629250654 0.833305697745355
-0.0448041744686656 0.36601629250654 0.836892862455125
-0.0484931792629927 0.36601629250654 0.848696693092308
-0.0510116745094322 0.36601629250654 0.857915647618529
-0.0484980133913448 0.36601629250654 0.872242169014132
-0.0472769326534937 0.36601629250654 0.87939890603773
-0.044966839248638 0.36601629250654 0.882972302733982
-0.0381688692313555 0.36601629250654 0.892080199668611
-0.0506287724649833 0.36601629250654 0.912646423918353
-0.0456491946870177 0.36601629250654 0.917350122168501
-0.0468682685991145 0.36601629250654 0.9265282938571
-0.0468089823154765 0.36601629250654 0.926007362117645
-0.0495012746083374 0.36601629250654 0.94249503110736
-0.0493404467874403 0.36601629250654 0.948739000850873
-0.0403009822229375 0.36601629250654 0.958386664047616
-0.0428303580830157 0.36601629250654 0.96219700589216
-0.0460811207532057 0.36601629250654 0.974132540102309
-0.0497998673555773 0.36601629250654 0.990333360914741
-0.0460586153633361 0.365875710160224 0.994830568766535
-0.0339134649767997 0.353376099844003 0.994918854846638
-0.0235005634610219 0.345538508319141 0.994974212591055
-0.0151562550462308 0.343906720730755 0.994985738080738
-0.00863296374718611 0.332022061766322 0.995069680693891
0.00862438610408484 0.318030820482537 0.995168502322525
0.00650953854552438 0.322299904913538 0.99513834932411
0.02409009459837 0.302200203433148 0.995280315658265
0.0363169646668368 0.301843018994769 0.995282838490029
0.0399349423294333 0.293650237943743 0.995340704975931
0.0527272671874781 0.274389837572582 0.995476743236883
0.05961478226712 0.273704482404171 0.995481583973495
0.0745849397985671 0.260593039525518 0.995574191492208
0.0780632408795402 0.25759901509611 0.995595338605912
0.0897265485286636 0.243500303019042 0.995694919312215
0.104687683924571 0.24050979149754 0.995716041613875
0.115557902425417 0.232352204793997 0.995773659518349
-0.0353552402607278 0.36601629250654 0.276734122165604
-0.0422967666039797 0.36601629250654 0.292022767488996
-0.0360031881353719 0.36601629250654 0.293848515388678
-0.0334264346829893 0.36601629250654 0.296738415286284
-0.0338093046064745 0.36601629250654 0.311113921063172
-0.0323437564634621 0.36601629250654 0.316457075545644
-0.0370244691020224 0.36601629250654 0.326321968706059
-0.0347122305381073 0.36601629250654 0.33232315563298
-0.0324502465678814 0.36601629250654 0.345319410678383
-0.028377744232213 0.36601629250654 0.356831919166308
-0.0353162949191839 0.36601629250654 0.368742956922126
-0.0342318858278167 0.36601629250654 0.373333333365167
-0.0253938953277718 0.36601629250654 0.380420043831298
-0.0249847411949258 0.36601629250654 0.381703090236708
-0.0275865258092695 0.36601629250654 0.399403885321748
-0.0339142669885545 0.36601629250654 0.411429387166576
-0.0389779436734022 0.36601629250654 0.419236328698558
-0.0404743482623108 0.36601629250654 0.436445701966286
-0.0348725172200135 0.36601629250654 0.432497232314043
-0.0319423563357661 0.36601629250654 0.444912046559102
-0.0388750882026339 0.36601629250654 0.456735569749
-0.0338999363890675 0.36601629250654 0.466055075187669
-0.030535712808712 0.36601629250654 0.477810246315812
-0.0406280173211673 0.36601629250654 0.486789191758325
-0.029931768935843 0.36601629250654 0.491748490538443
-0.0339934233756877 0.36601629250654 0.49646595390959
-0.026808457470459 0.36601629250654 0.501104330189357
-0.0307802249559169 0.36601629250654 0.510581970072451
-0.0376001311534229 0.36601629250654 0.531738554831454
-0.0323589131204074 0.36601629250654 0.531189524988697
-0.0282808708542449 0.36601629250654 0.54503662372676
-0.0357477970347747 0.36601629250654 0.553303797889475
-0.0401118054641909 0.36601629250654 0.571711406596795
-0.0302349218996286 0.36601629250654 0.570660965123304
-0.0317591012863802 0.36601629250654 0.58185792634484
-0.0326597181681158 0.36601629250654 0.589115844255303
-0.0395688308782213 0.36601629250654 0.603330947944365
-0.0338724216590028 0.36601629250654 0.614511567782377
-0.0266321204685858 0.36601629250654 0.611125383089038
-0.0344432813508119 0.36601629250654 0.626960959810127
-0.0298317027170778 0.36601629250654 0.629637673253344
-0.0397249004398072 0.36601629250654 0.650308480394029
-0.041756755499242 0.36601629250654 0.66335158216764
-0.0335610501786798 0.36601629250654 0.661938490129211
-0.0296947148937302 0.36601629250654 0.664759311794581
-0.0250210435159843 0.36601629250654 0.673322166669828
-0.0324075956540836 0.36601629250654 0.684934327497004
-0.0343229527147867 0.36601629250654 0.69769460484814
-0.0330924318995995 0.36601629250654 0.699327902419985
-0.0245677899267592 0.36601629250654 0.711574416478226
-0.0238749316032331 0.36601629250654 0.723218977636468
-0.0275293163599808 0.36601629250654 0.729459327688552
-0.0284111071442983 0.36601629250654 0.737337448989133
-0.0355780287940186 0.36601629250654 0.758813212065132
-0.0337548206464589 0.36601629250654 0.764869312990561
-0.032033518123182 0.36601629250654 0.767794727006429
-0.0420812089052271 0.36601629250654 0.786041136881658
-0.0321708172223614 0.36601629250654 0.792218139618814
-0.0313296383817261 0.36601629250654 0.802805241211538
-0.0338960940238477 0.36601629250654 0.801177334628474
-0.0387678531830692 0.36601629250654 0.817060238119196
-0.0292099686244921 0.36601629250654 0.82330140758573
-0.0313219455668826 0.36601629250654 0.835693035123934
-0.0331297722555698 0.36601629250654 0.839966004661163
-0.0372635586715741 0.36601629250654 0.851592997088931
-0.0315249188936069 0.36601629250654 0.86564874627493
-0.026883164421195 0.36601629250654 0.868422466920109
-0.031032388716056 0.36601629250654 0.882956510606143
-0.0358541183207774 0.36601629250654 0.893749450281802
-0.0321174953367657 0.36601629250654 0.904800045480322
-0.0284210088949483 0.36601629250654 0.901676968867659
-0.0391121111597074 0.36601629250654 0.923481037311186
-0.0244861950774349 0.36601629250654 0.917691179049391
-0.0306084473463742 0.36601629250654 0.93257869133148
-0.0302377617731751 0.36601629250654 0.944782937376842
-0.0289601066780003 0.36601629250654 0.953143375683704
-0.0357552480784357 0.36601629250654 0.96231474664744
-0.036224888869839 0.36601629250654 0.977316974331543
-0.0325134235674413 0.36601629250654 0.981294192679957
-0.036131049297628 0.36601629250654 0.988376413560418
-0.0286505730974817 0.36031184515641 0.994869866938157
-0.0149809833670165 0.348433375639978 0.994953765834579
-0.0136451982367264 0.343879215545718 0.994985932352792
0.00169909957833736 0.332249630196599 0.99506807335381
0.0127811800460635 0.333292421486686 0.995060708007768
0.0144739819117503 0.325051970454935 0.995118911191825
0.0246894000483811 0.316262135907573 0.995180994730217
0.038907537105541 0.307007636275723 0.995246360247633
0.0566044694717479 0.290625193952562 0.995362071184106
0.053841245451372 0.288162574573593 0.995379464927291
0.0683766261765981 0.28778417559268 0.99538213759963
0.0763156058637716 0.27219613454508 0.995492237595212
0.0877153629662421 0.266923849711418 0.99552947630501
0.101923705975586 0.251269208077229 0.995640046707635
0.104045682559335 0.245123970410886 0.995683451176345
0.115592062188322 0.236741222716899 0.995742659416897
-0.0139173314249995 0.36601629250654 0.26356295132014
-0.0241936985033431 0.36601629250654 0.278923595296617
-0.0263019541753902 0.36601629250654 0.290959061513354
-0.0161291223746777 0.36601629250654 0.287224669087472
-0.0133044914386989 0.36601629250654 0.296997901647168
-0.020011548319437 0.36601629250654 0.312385918602779
-0.0119762548644086 0.36601629250654 0.316890057976107
-0.0249772825011857 0.36601629250654 0.331135571688012
-0.0210289630781033 0.36601629250654 0.339006603043129
-0.0179989678494977 0.36601629250654 0.342533985674922
-0.0238863714574912 0.36601629250654 0.355991336463839
-0.0252152316499173 0.36601629250654 0.365958828619102
-0.0251398903896341 0.36601629250654 0.378474830478075
-0.0218054125265719 0.36601629250654 0.390155348469827
-0.0215881098842355 0.36601629250654 0.393248528086776
-0.0156627058641954 0.36601629250654 0.395709100867044
-0.0183925127329443 0.36601629250654 0.4031834123414
-0.0262556191698248 0.36601629250654 0.425679563895614
-0.0178040818545003 0.36601629250654 0.423142098729105
-0.0184527443684913 0.36601629250654 0.437186644642748
-0.0161394974085561 0.36601629250654 0.448705623771621
-0.0149739375848044 0.36601629250654 0.446102948539309
-0.0241999846672238 0.36601629250654 0.462607715993693
-0.0160645627506477 0.36601629250654 0.468658496675963
-0.0137609740345172 0.36601629250654 0.478251743202993
-0.021449868457083 0.36601629250654 0.490368044084712
-0.0126912532820083 0.36601629250654 0.491310919714197
-0.0181308824448697 0.36601629250654 0.506200811727857
-0.0215270501042887 0.36601629250654 0.523500705376083
-0.0165089200611998 0.36601629250654 0.520592181029307
-0.01851377995369 0.36601629250654 0.536940261282588
-0.0189353446113493 0.36601629250654 0.543962844537501
-0.0230324157442246 0.36601629250654 0.553395239631061
-0.0205539486679278 0.36601629250654 0.565299342155799
-0.0213292717453971 0.36601629250654 0.572041872357064
-0.0177303680254891 0.36601629250654 0.575797125776568
-0.0185925753581368 0.36601629250654 0.5906655108009
-0.0238841892355557 0.36601629250654 0.60288245609697
-0.0236803117992955 0.36601629250654 0.611845529654098
-0.0102177185238522 0.36601629250654 0.614844468728381
-0.0161480671152539 0.36601629250654 0.624142316242051
-0.0246810093011898 0.36601629250654 0.637809030603111
-0.021733967066056 0.36601629250654 0.645097454297066
-0.0152952850348424 0.36601629250654 0.649311826292227
-0.0212547205428447 0.36601629250654 0.666085617413686
-0.0214054096720773 0.36601629250654 0.675887587413251
-0.0145160785370989 0.36601629250654 0.6720961950119
-0.0204517551193975 0.36601629250654 0.688684651511049
-0.0129105481858709 0.36601629250654 0.69837062681695
-0.01651321099846 0.36601629250654 0.707695133341773
-0.0241407853146386 0.36601629250654 0.721558728447336
-0.015250499239833 0.36601629250654 0.726607347014458
-0.0189161043719629 0.36601629250654 0.732369217506638
-0.018036358339411 0.36601629250654 0.745622458754224
-0.0176483440655324 0.36601629250654 0.748749331530498
-0.0253859247358943 0.36601629250654 0.764141996812365
-0.013854657110097 0.36601629250654 0.762950034414548
-0.0184792167893921 0.36601629250654 0.779459138621405
-0.0180145465710718 0.36601629250654 0.792103386222495
-0.024175257090321 0.36601629250654 0.800305445486881
-0.0136278458817978 0.36601629250654 0.807680424910119
-0.0193324654402889 0.36601629250654 0.817692178414431
-0.022456044046161 0.36601629250654 0.825872067665761
-0.0222305962566768 0.36601629250654 0.838853028193447
-0.0242367504891369 0.36601629250654 0.852003385301138
-0.0146087403320131 0.36601629250654 0.846905205191339
-0.020979559718941 0.36601629250654 0.868779485956074
-0.011648778440961 0.36601629250654 0.868878161159691
-0.0187238002569662 0.36601629250654 0.880867272938595
-0.0245368661625918 0.36601629250654 0.889812277853751
-0.0105321476014117 0.36601629250654 0.892149504237811
-0.0199482253070141 0.36601629250654 0.908514625654784
-0.0161829462094232 0.36601629250654 0.915550799832966
-0.0185811137195066 0.36601629250654 0.920490055874334
-0.0230942628575675 0.36601629250654 0.942210593948551
-0.0201912982511088 0.36601629250654 0.948710076609815
-0.0160067175168916 0.36601629250654 0.959239585896171
-0.0196141983751569 0.36601629250654 0.970596028102099
-0.0209048725958401 0.36601629250654 0.979898197332934
-0.0176998447168058 0.36601629250654 0.974710360557064
-0.0151622487475101 0.36601629250654 0.983671817432424
-0.0144336078355401 0.363319228734537 0.994848625467362
-0.00428533353789093 0.356173696948663 0.994899095120069
0.0132902860932078 0.341451189397578 0.9950030817603
0.0216324647476125 0.335439252822712 0.995045544709192
0.0194756915930832 0.334450146786724 0.995052530870562
0.0428482289772986 0.318385367306647 0.995165998120512
0.0516088501193617 0.304469276110797 0.995264288956063
0.0616931727840659 0.298604196181977 0.995305714640809
0.0588781179010915 0.302406425951105 0.995278859086638
0.0767908740303089 0.278738619155644 0.995446027328988
0.0885571004965294 0.270609507839468 0.995503444108766
0.088224047613652 0.270635516922626 0.995503260403839
0.102849103859438 0.265903668447523 0.995536681954027
0.121807995083399 0.251453150013198 0.995638747506133
-0.0025896434085193 0.36601629250654 0.250705979660773
-0.00390726796757361 0.36601629250654 0.260716565850613
-0.00590865258279472 0.36601629250654 0.273656614858945
-0.00609492571648506 0.36601629250654 0.281296880864527
-0.00478075919976988 0.36601629250654 0.290619331854136
-0.00429186423221418 0.36601629250654 0.302492261184023
-0.00880208254759543 0.36601629250654 0.313071556380269
-0.00928230072572151 0.36601629250654 0.320208432377584
-0.00901851501701676 0.36601629250654 0.327619261643558
-0.00158854631419748 0.36601629250654 0.335499319739646
-0.00846831161033127 0.36601629250654 0.340894724421129
-0.00855735642260562 0.36601629250654 0.360498435569617
-0.0117345928209891 0.36601629250654 0.367761525549854
-0.0055830602522428 0.36601629250654 0.365259692334897
-0.006120245845916 0.36601629250654 0.389242105099331
-0.00351651087022756 0.36601629250654 0.387030201234479
-0.00424479449467238 0.36601629250654 0.401992334896613
-0.00631937331368669 0.36601629250654 0.405355011046252
-0.0037109022231876 0.36601629250654 0.415532877681638
-0.00374096070677571 0.36601629250654 0.430342157212726
-0.00456302667803025 0.36601629250654 0.439625949321626
-0.00569264476484708 0.36601629250654 0.441756917148316
-0.00305104938616443 0.36601629250654 0.455757149353302
-0.0103259583680932 0.36601629250654 0.470657621901891
-0.00109086063288612 0.36601629250654 0.466275630603034
-0.00841850004624708 0.36601629250654 0.483418368328675
-0.00579021832539385 0.36601629250654 0.487144297244736
-0.000958424799796569 0.36601629250654 0.499427345868696
-0.00596222711903717 0.36601629250654 0.510865750342925
-0.00211531559684079 0.36601629250654 0.518301284328341
-0.0100759265137546 0.36601629250654 0.526329768718651
-0.0072176591185772 0.36601629250654 0.538565634845143
-0.00663845283366571 0.36601629250654 0.542243326880393
-0.00604407356266858 0.36601629250654 0.557455599964477
-0.0116443005288709 0.36601629250654 0.562932348033388
-0.0106633428169374 0.36601629250654 0.580695951866164
-0.0124771589296187 0.36601629250654 0.585474715108737
-0.00495188089103412 0.36601629250654 0.588265426130483
-0.00615048762390294 0.36601629250654 0.605959071946242
-0.00650474018431606 0.36601629250654 0.606107714049742
-0.000616348040627369 0.36601629250654 0.613972895483405
0.000797240878210681 0.36601629250654 0.620861148409179
-0.00911671422658741 0.36601629250654 0.634373209987005
-8.61944940948266e-005 0.36601629250654 0.644768088191577
-0.00293738391082988 0.36601629250654 0.650322632502795
-0.00750151669914364 0.36601629250654 0.663497950061145
-0.00815632961467693 0.36601629250654 0.673510170145016
-0.0064902783287381 0.36601629250654 0.688579829531067
-0.00537578972388163 0.36601629250654 0.685754372879253
-0.00200330861156244 0.36601629250654 0.697349849601553
-0.00474371517565586 0.36601629250654 0.709273249837401
-0.00721172066483249 0.36601629250654 0.724042690539082
-0.00473990542658436 0.36601629250654 0.73128341365564
-0.0107368913608939 0.36601629250654 0.740378933273931
-0.0029914243042606 0.36601629250654 0.739555993697825
-0.011445347776852 0.36601629250654 0.754744163614426
-0.00554661126564446 0.36601629250654 0.759147050949519
0.00216683522903486 0.36601629250654 0.774178019426624
-0.00732729769027019 0.36601629250654 0.790554514779178
-0.00124450617413781 0.36601629250654 0.781639327408855
-0.00130572373389053 0.36601629250654 0.790652627888918
-0.0126503033219498 0.36601629250654 0.811389818102212
-0.00357774037063227 0.36601629250654 0.822621970473527
-0.00456052640745658 0.36601629250654 0.829827390381399
-0.00497693178349886 0.36601629250654 0.839107043785258
-0.0039357765544092 0.36601629250654 0.843713800997427
-0.00443193387194313 0.36601629250654 0.853802361233642
-0.00170070457100975 0.36601629250654 0.85706159985132
0.000596312368420523 0.36601629250654 0.873095305178829
-0.00103123218735522 0.36601629250654 0.884434987535951
-0.00669300200660741 0.36601629250654 0.896167990079887
0.00322078992022324 0.36601629250654 0.896997458358511
-0.0113890770945513 0.36601629250654 0.917469141719339
-0.0092726325481387 0.36601629250654 0.921849527786018
0.00288907260266629 0.36601629250654 0.926530606045279
-0.000499208820835659 0.36601629250654 0.933485098133559
-0.00215645318350434 0.36601629250654 0.944805258909465
-0.00612174527774595 0.36601629250654 0.958794479548044
-0.00168688081237897 0.36601629250654 0.964312047309746
-0.00539144999390782 0.36601629250654 0.971722638022298
-0.0113331171829843 0.36601629250654 0.983661431440214
0.00287864192287004 0.36601629250654 0.98444567406858
0.00859161904333534 0.353218372283271 0.994919968893213
0.0139933931976017 0.350261820741073 0.99494085133192
0.0278080021809126 0.341102624587101 0.995005543710713
0.031621530995313 0.338475199822158 0.995024101491907
0.035675711869433 0.328309301531543 0.995095904315204
0.0513953479731844 0.321513138721173 0.995143906337595
0.0690152388712128 0.303901201269318 0.995268301329225
0.0695517895133367 0.300258984245466 0.995294026696319
0.084111125884715 0.297460599080756 0.995313791989041
0.0935083639580705 0.284725819084745 0.995403739097662
0.101274809832776 0.27680626519262 0.995459675751015
0.111504519138118 0.264611453794756 0.995545809003867
0.00879418931793966 0.36601629250654 0.249796229803051
0.00789781924303411 0.36601629250654 0.258262764306475
0.00639995932477628 0.36601629250654 0.257783999191627
0.0133811328873685 0.36601629250654 0.264411036810012
0.0135319002429436 0.36601629250654 0.278558079656915
0.0150717674663972 0.36601629250654 0.286716288456295
0.00498268027830217 0.36601629250654 0.302261004582482
0.00434574585406038 0.36601629250654 0.310019075328972
0.0116950442108672 0.36601629250654 0.316490073549125
0.0177283576268129 0.36601629250654 0.317819800105175
0.0106235617937449 0.36601629250654 0.335095929852582
0.0147081807753588 0.36601629250654 0.342284424637544
0.00549785679944241 0.36601629250654 0.36234563298343
0.00256007634206157 0.36601629250654 0.36326229428073
0.000645563522498934 0.36601629250654 0.373753687946464
0.00253719562970714 0.36601629250654 0.379601796776801
0.013821765879634 0.36601629250654 0.386487696750111
0.00860726170702023 0.36601629250654 0.400737433466292
0.011131462105208 0.36601629250654 0.405401680072927
0.00935297043951748 0.36601629250654 0.418099747303148
0.0162092669491738 0.36601629250654 0.41893727156583
0.0126923652504474 0.36601629250654 0.430967448319516
0.00762529701688969 0.36601629250654 0.44254139989381
0.00323091310265266 0.36601629250654 0.454743610565729
0.0141668795325357 0.36601629250654 0.461650683850708
0.0134996125517934 0.36601629250654 0.471001064003058
0.00944191267458798 0.36601629250654 0.486845094985653
0.0107007669018644 0.36601629250654 0.495583447836041
0.00554734591323858 0.36601629250654 0.50417730102358
0.0137896635773628 0.36601629250654 0.513342209973027
0.00467336014528329 0.36601629250654 0.522431429629227
0.00662586417257939 0.36601629250654 0.529704131039274
0.00877205826525295 0.36601629250654 0.535269199483235
0.0178046167242603 0.36601629250654 0.536131743890385
0.00957527643437273 0.36601629250654 0.552682679238698
0.00967333483745208 0.36601629250654 0.556784794731097
0.00812830061877838 0.36601629250654 0.573237177850388
0.0153341819460811 0.36601629250654 0.575446714118614
0.00741987799933433 0.36601629250654 0.600619030904496
0.0099432012652763 0.36601629250654 0.602287894454168
0.00868533034883114 0.36601629250654 0.61419539338663
0.0145126045368422 0.36601629250654 0.619476581998487
0.00247678541098309 0.36601629250654 0.632428476791862
0.0115362363829872 0.36601629250654 0.628246104052804
0.0104547487270072 0.36601629250654 0.647521145444788
0.00899795477309297 0.36601629250654 0.658385375078683
0.0133843219144284 0.36601629250654 0.663322904225535
0.00450818780882951 0.36601629250654 0.678711249364166
0.0161157208025214 0.36601629250654 0.674299476673239
0.0185876954668873 0.36601629250654 0.689986652578891
0.0120370158942378 0.36601629250654 0.701101163748869
0.007783923336774 0.36601629250654 0.711438446071503
0.00664566975677613 0.36601629250654 0.720848772338862
0.0107448081386773 0.36601629250654 0.726883645173265
0.0162452278127697 0.36601629250654 0.735354680801321
0.0127701441921312 0.36601629250654 0.739372225233219
0.00641694259980042 0.36601629250654 0.762603524160998
0.000181708211497974 0.36601629250654 0.769436679240793
0.00926815441885666 0.36601629250654 0.772337315334161
0.00201858477656332 0.36601629250654 0.78784576590505
0.00450876660096053 0.36601629250654 0.798707490095386
0.00452413725703851 0.36601629250654 0.803239144779668
0.00906665396707807 0.36601629250654 0.813270277535413
0.0124858508364927 0.36601629250654 0.821423996657492
0.013342325579053 0.36601629250654 0.828158387841753
0.01788510520696 0.36601629250654 0.833141331388337
0.000243403743542427 0.36601629250654 0.850714346448464
0.000722879800278758 0.36601629250654 0.860897667527622
0.00988283642864963 0.36601629250654 0.868147221492435
0.0111451610250385 0.36601629250654 0.871360332558819
0.00565995978570845 0.36601629250654 0.891223735152816
0.0101354297099078 0.36601629250654 0.893377282347705
0.00787558159079121 0.36601629250654 0.905259201861515
0.00365832470493387 0.36601629250654 0.918896138481353
0.0157022088353257 0.36601629250654 0.911961363059743
0.00770268725525669 0.36601629250654 0.932501974989995
0.013509614957505 0.36601629250654 0.93303397596078
0.00279906539612023 0.36601629250654 0.953406211475395
0.0119551899950459 0.36601629250654 0.958040643826698
0.00279386705858125 0.36601629250654 0.965443249085803
0.00596919082969067 0.36601629250654 0.978684014750701
0.0047878133573282 0.36601629250654 0.990066383686799
0.011924115320774 0.364896498262511 0.994837485044551
0.015052590376445 0.358840708040198 0.994880257736429
0.0264737174751012 0.350922829918575 0.994936182553637
0.0402494812468837 0.33896167082438 0.995020665495362
0.0487264171980313 0.330027087245755 0.995083771411591
0.0590524245256515 0.321524329923298 0.995143827292941
0.0636158458077806 0.321120969129179 0.995146676273228
0.0829026320755506 0.301576328701885 0.995284722151996
0.0973372937603931 0.293682575740965 0.995340476570622
0.0954485535185077 0.293080199622095 0.995344731217362
0.118125724772945 0.278743204907152 0.995445994939337
0.120354579567738 0.280096291243149 0.995436437946309
0.0255745057065843 0.36601629250654 0.231948412081541
0.0228844811707826 0.36601629250654 0.239379841523408
0.0171277400772148 0.36601629250654 0.256404235659925
0.0321462725867687 0.36601629250654 0.250256797035124
0.0191784517212718 0.36601629250654 0.273641053654308
0.0217929090591541 0.36601629250654 0.278987334498102
0.0196663165776833 0.36601629250654 0.291273056511778
0.019386669092505 0.36601629250654 0.303497427117179
0.0219332509363328 0.36601629250654 0.307478284074836
0.0304631464933225 0.36601629250654 0.310603890907246
0.0278562059105154 0.36601629250654 0.318754477326754
0.0288592428883936 0.36601629250654 0.329980503554634
0.024558030823115 0.36601629250654 0.345522242610473
0.0187849742071431 0.36601629250654 0.358043987441116
0.0312713462005694 0.36601629250654 0.352568856478518
0.0174949459297449 0.36601629250654 0.377630149623896
0.0258488770291993 0.36601629250654 0.372866579886712
0.0203600775765809 0.36601629250654 0.386758357607908
0.0301353657579691 0.36601629250654 0.390311551886835
0.0212445822401059 0.36601629250654 0.404793549554819
0.0258017343411451 0.36601629250654 0.412913289384334
0.0240097069733372 0.36601629250654 0.418509080304484
0.0197105656315097 0.36601629250654 0.432742211867059
0.0234742397527126 0.36601629250654 0.443323752827536
0.0286881880365552 0.36601629250654 0.449819961134307
0.0192784189877192 0.36601629250654 0.462714908873821
0.016795179992883 0.36601629250654 0.479394292863154
0.021642754578732 0.36601629250654 0.483001902221028
0.0205788815985794 0.36601629250654 0.495261882666582
0.031067428762772 0.36601629250654 0.499885463247948
0.022532397692354 0.36601629250654 0.507801542650182
0.0314052933316475 0.36601629250654 0.516661643259165
0.0303419396582761 0.36601629250654 0.522414089573627
0.0197804224888341 0.36601629250654 0.537714037459088
0.0274601717039404 0.36601629250654 0.536344335797191
0.0180489055448564 0.36601629250654 0.55607741411192
0.0260170392989739 0.36601629250654 0.564300213919476
0.0282259185055849 0.36601629250654 0.567217686139557
0.0239046297791606 0.36601629250654 0.583456188849813
0.0214193013009582 0.36601629250654 0.596077406188858
0.0244905183004517 0.36601629250654 0.605525380415906
0.0241812970466863 0.36601629250654 0.603384264577464
0.0299385766461961 0.36601629250654 0.617410509528897
0.0274197676596423 0.36601629250654 0.630049493014687
0.0223188576233985 0.36601629250654 0.644931663169103
0.0190198134847593 0.36601629250654 0.652119142214288
0.0297077014834551 0.36601629250654 0.648193690761257
0.0177414964314877 0.36601629250654 0.671233956274055
0.0194191659802466 0.36601629250654 0.672380046224042
0.027097090020933 0.36601629250654 0.6834893596537
0.0165069010336399 0.36601629250654 0.695788809051275
0.0206304852541362 0.36601629250654 0.705053509323563
0.0249367291643384 0.36601629250654 0.707812447437033
0.0190120842331636 0.36601629250654 0.722319936902732
0.0232971969455885 0.36601629250654 0.729180540797478
0.014974203314096 0.36601629250654 0.745592349290489
0.0272530347216548 0.36601629250654 0.745818137365519
0.0238976039704395 0.36601629250654 0.754899529500224
0.0239638071746456 0.36601629250654 0.764266696351351
0.0236054684222499 0.36601629250654 0.775255919966548
0.0221658359488955 0.36601629250654 0.785609807138964
0.0305094443902549 0.36601629250654 0.786532001073111
0.0332178000906732 0.36601629250654 0.796963999738649
0.0237609951568479 0.36601629250654 0.811882498086355
0.0257907217047223 0.36601629250654 0.819245878705959
0.0165504212382961 0.36601629250654 0.831227993522974
0.0193299862220685 0.36601629250654 0.844376214110483
0.0202710355110034 0.36601629250654 0.852388732610532
0.0231985530420161 0.36601629250654 0.861503233671601
0.0282941603936097 0.36601629250654 0.861692631621479
0.0318209157541283 0.36601629250654 0.872148042073311
0.0314141708891854 0.36601629250654 0.879879823236541
0.0184326259133754 0.36601629250654 0.892523628953567
0.0278868612115555 0.36601629250654 0.900411584010022
0.0154793197173302 0.36601629250654 0.915915218488493
0.0286358606253332 0.36601629250654 0.920554592979467
0.0261112031190105 0.36601629250654 0.929369412182551
0.023024845137547 0.36601629250654 0.944876132216773
0.0224881634314003 0.36601629250654 0.946107822037613
0.0205356179185104 0.36601629250654 0.964343830730054
0.031411261302808 0.36601629250654 0.96054857437353
0.0229989813069595 0.36601629250654 0.978770532637787
0.0167738499360096 0.36601629250654 0.993845592228461
0.0226414080693534 0.36367396335148 0.994846119938948
0.0344812713876826 0.356848878965619 0.99489432623751
0.0449539772961224 0.351579265343837 0.994931546080253
0.0577638136429035 0.342990266343097 0.99499221109577
0.0692748430982548 0.331653975591508 0.995072280525781
0.0732237901019053 0.325411203266301 0.995116373892185
0.086959425259915 0.319772989330025 0.995156197198242
0.0910389284705952 0.313436659159261 0.995200951373682
0.106978941269504 0.297829145872764 0.995311188903763
0.114033900585313 0.289558409135323 0.995369605998988
0.0405877947315402 0.36601629250654 0.223054667439213
0.0422390311044731 0.36601629250654 0.231641962864328
0.0351447460928213 0.36601629250654 0.240040396725996
0.0399789983523301 0.36601629250654 0.250269722454017
0.0369803193797894 0.36601629250654 0.264305853598777
0.0424269703860608 0.36601629250654 0.260994982284806
0.0438483262552638 0.36601629250654 0.275115985355541
0.0419459795134662 0.36601629250654 0.280325404376159
0.0313749244204619 0.36601629250654 0.302566739746465
0.0425819623436678 0.36601629250654 0.303651166023844
0.0415163467358173 0.36601629250654 0.312305867408694
0.0366262006484208 0.36601629250654 0.325717722694191
0.0333981584299056 0.36601629250654 0.336579095814815
0.035509975477002 0.36601629250654 0.350786862904933
0.0384179368010756 0.36601629250654 0.353823474213761
0.0325412292512309 0.36601629250654 0.360908520002806
0.0355637317844964 0.36601629250654 0.372400529696603
0.0323931516379492 0.36601629250654 0.381974392895238
0.0321541867359668 0.36601629250654 0.389191150248704
0.0402662798408477 0.36601629250654 0.399774226956417
0.0375324466837501 0.36601629250654 0.411597697999132
0.0292681691169507 0.36601629250654 0.422368538906226
0.038810263063776 0.36601629250654 0.423181156925995
0.0368797937072819 0.36601629250654 0.434505586699798
0.0344361719402338 0.36601629250654 0.450869768254627
0.0447117678731541 0.36601629250654 0.451703546109018
0.0331988147745521 0.36601629250654 0.464685323166257
0.0358438676591062 0.36601629250654 0.475279522746897
0.0436501067611624 0.36601629250654 0.484075572289515
0.0378080187892045 0.36601629250654 0.48290940342729
0.037700679549625 0.36601629250654 0.499644904442216
0.0398367874666787 0.36601629250654 0.503779635364072
0.0411777632229951 0.36601629250654 0.521395888669298
0.0430282944350046 0.36601629250654 0.529326982156651
0.0370876000508826 0.36601629250654 0.539151033828316
0.0333853250331441 0.36601629250654 0.542880333457545
0.0364667929707166 0.36601629250654 0.556393566843458
0.0426783336167878 0.36601629250654 0.561724803278335
0.0334661754957661 0.36601629250654 0.578316415694575
0.036805201944784 0.36601629250654 0.576583848774367
0.0464685387496826 0.36601629250654 0.583611946808386
0.0348821386408824 0.36601629250654 0.602316256350938
0.0359445846948559 0.36601629250654 0.60903424127379
0.0311061066658036 0.36601629250654 0.618912717237688
0.0345238458500378 0.36601629250654 0.630272242429025
0.042660807856882 0.36601629250654 0.631582809837464
0.0399932056188636 0.36601629250654 0.639961689370336
0.0471383058837307 0.36601629250654 0.65246538656373
0.0372156027991766 0.36601629250654 0.66976354603823
0.0437811444901809 0.36601629250654 0.668033024816699
0.0369178581140232 0.36601629250654 0.681154656981074
0.0406614583167476 0.36601629250654 0.692460387269756
0.0357741643425631 0.36601629250654 0.706518057501467
0.0398116517429209 0.36601629250654 0.70997859365794
0.0351862553693821 0.36601629250654 0.718732519609312
0.03783587910709 0.36601629250654 0.727573152033936
0.0357059576150952 0.36601629250654 0.743352610599556
0.0422079236477926 0.36601629250654 0.752462855116482
0.0468777605922167 0.36601629250654 0.750149064652436
0.0351216119820818 0.36601629250654 0.771169533717039
0.0444435129524106 0.36601629250654 0.770776123223795
0.0413666462811357 0.36601629250654 0.784034131117206
0.0403135088634033 0.36601629250654 0.798987594786853
0.0375740309975944 0.36601629250654 0.804203012030103
0.0379836267926366 0.36601629250654 0.814321705931977
0.0465375819480533 0.36601629250654 0.820186245227476
0.0416656998523735 0.36601629250654 0.832156829423682
0.033874276701703 0.36601629250654 0.842606250687352
0.0343390493763116 0.36601629250654 0.849582894371847
0.0370334586716271 0.36601629250654 0.860726718411927
0.0343394243607839 0.36601629250654 0.87129293934754
0.0429211418671283 0.36601629250654 0.870804364552772
0.0412623088449135 0.36601629250654 0.892698581116344
0.039770703049356 0.36601629250654 0.891359798476194
0.0406206282372986 0.36601629250654 0.904081259719525
0.0390049386575652 0.36601629250654 0.916532960873304
0.0367844664889402 0.36601629250654 0.928642750504779
0.0458202497346936 0.36601629250654 0.928654687882573
0.0369069635579935 0.36601629250654 0.939717029513279
0.0348057681557319 0.36601629250654 0.951584326989378
0.0385227748637588 0.36601629250654 0.958904793607423
0.0463669447146139 0.36601629250654 0.962053297746496
0.0393047042792269 0.36601629250654 0.978754894981538
0.0335986550192208 0.3651826551958 0.994835463887627
0.0380311665590682 0.364796843895162 0.99483818891397
0.0479480609348789 0.35802845462798 0.994885994768865
0.0661134772310475 0.343223092865524 0.994990566617223
0.0744036504270443 0.337119048007626 0.995033680136737
0.0847148343952005 0.328965102674446 0.995091272321824
0.0933350160279008 0.319193549490649 0.995160289843595
0.101602254920157 0.317455292421682 0.995172567338569
0.113440836872787 0.307897102034613 0.995240077856162
0.120998257594326 0.298292865882161 0.995307913599904
0.057172152776552 0.36601629250654 0.209004664088504
0.0501771787940784 0.36601629250654 0.229421671755215
0.0460415170220355 0.36601629250654 0.241901968516088
0.0615677689550729 0.36601629250654 0.236820426355982
0.0504872342222464 0.36601629250654 0.2566183099991
0.0470694038309062 0.36601629250654 0.265567110669914
0.048865837066983 0.36601629250654 0.27128856240288
0.052782655311767 0.36601629250654 0.274728971396756
0.0505811445301326 0.36601629250654 0.289747720458106
0.0528821604002452 0.36601629250654 0.304109041417957
0.057251465972303 0.36601629250654 0.297839678915086
0.0568360966555342 0.36601629250654 0.309238293754342
0.0523922352770478 0.36601629250654 0.325863938859259
0.0522506845483728 0.36601629250654 0.339951156803797
0.0512404066342249 0.36601629250654 0.342624471166979
0.0564004742465361 0.36601629250654 0.35104578399041
0.0524373310224943 0.36601629250654 0.367508754678883
0.0599063188275508 0.36601629250654 0.35931498174897
0.054579166028813 0.36601629250654 0.376676566231643
0.0555969405821914 0.36601629250654 0.382637579320687
0.0519838657976973 0.36601629250654 0.396395498288041
0.0543042658036129 0.36601629250654 0.401730767493303
0.0485447072772295 0.36601629250654 0.414990214233195
0.0480509614252212 0.36601629250654 0.429287465872067
0.0509685944240591 0.36601629250654 0.435092757644435
0.0539629823987959 0.36601629250654 0.43663168801229
0.0544139617565282 0.36601629250654 0.451451846298997
0.0613329447056469 0.36601629250654 0.460022368389718
0.059506387923228 0.36601629250654 0.467180888755127
0.0514203352875953 0.36601629250654 0.480204688589351
0.0440891044532016 0.36601629250654 0.4952331077591
0.0587273903332286 0.36601629250654 0.495578908484069
0.0500903446355913 0.36601629250654 0.509606297199246
0.0554002356515762 0.36601629250654 0.512259758765345
0.0528787963787097 0.36601629250654 0.521702912532099
0.0576099538278859 0.36601629250654 0.536597925346304
0.0507836961784557 0.36601629250654 0.542250565633502
0.0531922672861775 0.36601629250654 0.55496282889706
0.055752803343028 0.36601629250654 0.556920085831637
0.0518298621444663 0.36601629250654 0.572055339166495
0.0525312762512611 0.36601629250654 0.589365638916103
0.0507841216492167 0.36601629250654 0.593241794534403
0.0496837179641919 0.36601629250654 0.608544225106021
0.0508043097706972 0.36601629250654 0.607458407691065
0.0574369897756423 0.36601629250654 0.614679780565899
0.0501390181437328 0.36601629250654 0.629822810847257
0.0532578214187091 0.36601629250654 0.636278001680091
0.0534574567517956 0.36601629250654 0.65106509514015
0.0488071362152569 0.36601629250654 0.664032700821208
0.0500098881353493 0.36601629250654 0.66909412778789
0.0535810657671574 0.36601629250654 0.673442748766453
0.0511197259260612 0.36601629250654 0.684415094845596
0.0556018551521116 0.36601629250654 0.689076428589616
0.0568219580959212 0.36601629250654 0.694745226416158
0.0453836417005309 0.36601629250654 0.719645032933425
0.0585290370869212 0.36601629250654 0.719957161905206
0.0477879646062891 0.36601629250654 0.735835078094519
0.0557692497407457 0.36601629250654 0.741271930238755
0.0519909483687893 0.36601629250654 0.752115490864818
0.051689945407066 0.36601629250654 0.754499034850081
0.0617773358352732 0.36601629250654 0.765418772186395
0.0527653859124621 0.36601629250654 0.778440699936821
0.0588799975554756 0.36601629250654 0.786304898834667
0.052088509213684 0.36601629250654 0.792270373633321
0.0601760913552571 0.36601629250654 0.800811706028454
0.0533015324060578 0.36601629250654 0.817093609876999
0.0596889963338045 0.36601629250654 0.823104301550011
0.0460543540562167 0.36601629250654 0.834487360818206
0.0543706530883645 0.36601629250654 0.837847583816524
0.0473752189966526 0.36601629250654 0.849661584430224
0.0585038612846188 0.36601629250654 0.859442214947308
0.0523429744478471 0.36601629250654 0.867578914154396
0.0514133007747428 0.36601629250654 0.885937321837016
0.0457151426891334 0.36601629250654 0.889587721849566
0.049394872494198 0.36601629250654 0.900675792155014
0.0532427812353907 0.36601629250654 0.913137920548272
0.0572276322615414 0.36601629250654 0.91443189798696
0.049496856517726 0.36601629250654 0.923258523322388
0.0441827158997788 0.36601629250654 0.941944590085993
0.0575852969439112 0.36601629250654 0.946154798994206
0.0477724680824124 0.36601629250654 0.954171952629854
0.0485425818094132 0.36601629250654 0.969206184609196
0.055108388647022 0.36601629250654 0.970111822847919
0.0494808283641621 0.36601629250654 0.980961946565884
0.0560346908027788 0.36601629250654 0.986400114942867
0.0509749587323751 0.362856415814372 0.994851894364352
0.0759258540926367 0.353424434532906 0.994918513453579
0.0781592333719619 0.344598653597547 0.99498085088514
0.0839149639471573 0.341363381027536 0.995003701960178
0.0906399094208448 0.334759800649199 0.995050343752322
0.110249295889707 0.321015108487923 0.995147423978221
0.0630524049297647 0.36601629250654 0.2060380271172
0.0690626005696801 0.36601629250654 0.217856199746732
0.0734663157886305 0.36601629250654 0.211006867237672
0.0716364502021994 0.36601629250654 0.227628672273154
0.062377948409115 0.36601629250654 0.248262660987181
0.066366722359474 0.36601629250654 0.244716957940536
0.0639860865663184 0.36601629250654 0.263153280778817
0.0650222141322695 0.36601629250654 0.271610926309504
0.0667951635486046 0.36601629250654 0.281785144120662
0.0651409025499003 0.36601629250654 0.281709323708591
0.0652821360334141 0.36601629250654 0.290987796538072
0.0685827796217331 0.36601629250654 0.300459543613705
0.0686464927284478 0.36601629250654 0.307597338548398
0.0653765889099366 0.36601629250654 0.327674458655943
0.0642149201827092 0.36601629250654 0.340243573977651
0.0722895585091931 0.36601629250654 0.338632478064227
0.0671218750010702 0.36601629250654 0.355894784789086
0.0686703977203025 0.36601629250654 0.360779359551368
0.0750764589808091 0.36601629250654 0.364378911926921
0.0724092408961745 0.36601629250654 0.378200553522656
0.0742145433877978 0.36601629250654 0.384484078513334
0.0706014244608734 0.36601629250654 0.395393480695928
0.0691588499148153 0.36601629250654 0.410111985425076
0.0635750600342271 0.36601629250654 0.416170115153853
0.0768291440413663 0.36601629250654 0.41820092020398
0.0613252717084877 0.36601629250654 0.44087629844811
0.0583083563586507 0.36601629250654 0.452682918508718
0.0766647378642394 0.36601629250654 0.444863229273791
0.0690614486063542 0.36601629250654 0.455329121576747
0.0698484326666042 0.36601629250654 0.469529209314299
0.0715228168791894 0.36601629250654 0.478254290320966
0.0605182770132556 0.36601629250654 0.498058219383163
0.07364893879607 0.36601629250654 0.496879806586222
0.0783204234738366 0.36601629250654 0.502837536505418
0.0617296070134219 0.36601629250654 0.524175281115558
0.0707057507419536 0.36601629250654 0.530119000979313
0.062609479750421 0.36601629250654 0.540691450074476
0.0716738496008029 0.36601629250654 0.541570701809895
0.0641968642310744 0.36601629250654 0.55975063058936
0.0683959770623253 0.36601629250654 0.557657600380906
0.0712996454821476 0.36601629250654 0.570380638121109
0.0723851795524901 0.36601629250654 0.584407017268626
0.0666376552005349 0.36601629250654 0.595665017407948
0.0662681118129238 0.36601629250654 0.59973925242681
0.0610256148679242 0.36601629250654 0.618624954795395
0.0691839652657145 0.36601629250654 0.614584943311588
0.0636581352944788 0.36601629250654 0.634820259890115
0.0674325728989505 0.36601629250654 0.641066589224897
0.0654878454713342 0.36601629250654 0.654643528731009
0.0732538080731236 0.36601629250654 0.651421641976812
0.0628206936921422 0.36601629250654 0.672743230797892
0.0663525383982877 0.36601629250654 0.675029920621518
0.0673909845042763 0.36601629250654 0.682824011566949
0.0654819859021239 0.36601629250654 0.69440251381386
0.0700138084824859 0.36601629250654 0.707227397318998
0.0661408460602443 0.36601629250654 0.717865305383237
0.0663676658808222 0.36601629250654 0.718429867051073
0.0663211033875985 0.36601629250654 0.732338156348688
0.0626589192674979 0.36601629250654 0.741801973984748
0.0684361013178507 0.36601629250654 0.748532895005187
0.0705631612051611 0.36601629250654 0.759498701984253
0.0721310674794278 0.36601629250654 0.759488520534368
0.0725655746501336 0.36601629250654 0.777393314532792
0.0664395530541476 0.36601629250654 0.78376430865242
0.0648548989703704 0.36601629250654 0.80207000229824
0.0699601352338025 0.36601629250654 0.801224150058986
0.0618176201901652 0.36601629250654 0.812785203878348
0.0777796238528521 0.36601629250654 0.815032051668598
0.0753828142811475 0.36601629250654 0.826239074310493
0.0654875984225363 0.36601629250654 0.839859496597865
0.0717099309634159 0.36601629250654 0.855149772162144
0.0690970023765204 0.36601629250654 0.863178688095741
0.0656967026760471 0.36601629250654 0.86911735400544
0.0627099636536284 0.36601629250654 0.882796595608426
0.0667103396292101 0.36601629250654 0.887994547542733
0.0665445115309981 0.36601629250654 0.894082427597695
0.0664918440658509 0.36601629250654 0.910602681432445
0.0664582621827288 0.36601629250654 0.917985178073132
0.0732485055366391 0.36601629250654 0.920827117681963
0.0665796037277716 0.36601629250654 0.938071246474994
0.071762477491325 0.36601629250654 0.938603712413972
0.058972876167352 0.36601629250654 0.962720345178559
0.0611436596135171 0.36601629250654 0.971150914550539
0.0662026322444657 0.36601629250654 0.968416895992938
0.0652569228840355 0.36601629250654 0.985510869683052
0.0639479829091453 0.36601629250654 0.993667735270029
0.0785498380260131 0.358384529540648 0.9948834797738
0.0889867848621908 0.349171662045774 0.994948551238995
0.0947794496132729 0.346971344329371 0.994964092317576
0.0975933612217267 0.336107617162917 0.995040823980611
0.112634851612512 0.329719183641513 0.99508594616757
0.0847885836819942 0.36601629250654 0.19390732378942
0.0825155602721363 0.36601629250654 0.202747648488157
0.085104366275634 0.36601629250654 0.204407548608573
0.0848115540742926 0.36601629250654 0.21648501898322
0.0887056085254158 0.36601629250654 0.228909019048995
0.0815715585264649 0.36601629250654 0.245505829437678
0.0788649340909474 0.36601629250654 0.254425516473958
0.0867419856026644 0.36601629250654 0.251161752059042
0.083798546988913 0.36601629250654 0.264693299119868
0.0867860504557007 0.36601629250654 0.275334185215285
0.0817964922316626 0.36601629250654 0.280209573343267
0.082528743605112 0.36601629250654 0.287932727972343
0.0807470748810523 0.36601629250654 0.310909547032823
0.0847048798464397 0.36601629250654 0.311997707445205
0.0762838075271577 0.36601629250654 0.333505776446265
0.0890822832860308 0.36601629250654 0.32815232449334
0.0732983443085378 0.36601629250654 0.345942195752029
0.0776772675970439 0.36601629250654 0.348406509231335
0.0866335609215418 0.36601629250654 0.356659183880858
0.0787900057790798 0.36601629250654 0.369042811102972
0.0861281232024064 0.36601629250654 0.382292335397269
0.085250918976452 0.36601629250654 0.386278871765191
0.0852436725710607 0.36601629250654 0.395767891435386
0.0828607578924342 0.36601629250654 0.401957615507637
0.092903110644287 0.36601629250654 0.412187124257236
0.0822759855775057 0.36601629250654 0.423206211850217
0.084962284025502 0.36601629250654 0.434197213742977
0.0914905921160065 0.36601629250654 0.436595755872295
0.0833166541568685 0.36601629250654 0.450564894398562
0.0830956352234679 0.36601629250654 0.468462738632776
0.0797273284531371 0.36601629250654 0.469641459040576
0.0748707074091792 0.36601629250654 0.484548318272258
0.0813583898645168 0.36601629250654 0.485078107720983
0.0826002925846805 0.36601629250654 0.495961214338975
0.075816460204154 0.36601629250654 0.511051560995754
0.074211168938201 0.36601629250654 0.522626895025114
0.0825269777771228 0.36601629250654 0.522692086938398
0.0779442427623617 0.36601629250654 0.545746519878354
0.0816250380737344 0.36601629250654 0.544970058858497
0.0918035178704895 0.36601629250654 0.547623448842755
