ply
format ascii 1.0
element vertex 853
property float x
property float y
property float z
end_header
-0.0539985754881687 -0.311428458003809 0.999614440305923
-0.0432339536143555 -0.302054492484051 0.999548230988206
-0.0282148049804623 -0.291321159339152 0.999472420312046
-0.0178302171236152 -0.276198089959075 0.999365604460917
-0.00780543789937091 -0.271563489794996 0.999332869785916
0.0118066173725959 -0.253456477388254 0.999204978027107
0.0177986364142409 -0.249818976039224 0.999179285967326
0.0249913176693489 -0.246044167431664 0.999152624091741
0.0335512945455394 -0.234930841727795 0.999074129487631
0.0411853779472128 -0.228476316203646 0.99902854048581
0.0483621319498915 -0.220302102081147 0.998970805140104
0.0688541329019782 -0.207033920183828 0.998877090556994
0.0761379927493175 -0.197353724808775 0.998808718305165
0.0893674363885872 -0.182030993025282 0.998700492217198
0.0918159808787305 -0.180028555154641 0.99868634878506
0.107032959157856 -0.162546822287623 0.998562873442292
0.116845071850305 -0.16484094921311 0.998579077105318
-0.12264252394928 -0.356560346248366 0.323839833421497
-0.12264252394928 -0.361383763951397 0.344368630361098
-0.12264252394928 -0.36522414490482 0.351172857471406
-0.12264252394928 -0.360152864849603 0.353582558164571
-0.122130089627163 -0.36601629250654 0.369927426152949
-0.12264252394928 -0.356729568743432 0.375143978634889
-0.12080122135943 -0.36601629250654 0.390643607277676
-0.12264252394928 -0.363623799834057 0.39340702163438
-0.12264252394928 -0.358801849470494 0.405314575967525
-0.12264252394928 -0.360108605043618 0.419539717233189
-0.12264252394928 -0.362357508106672 0.427365250525489
-0.12264252394928 -0.361319280956358 0.428498113605646
-0.12264252394928 -0.362143434322583 0.44673630260365
-0.12264252394928 -0.361646324419236 0.448162557810912
-0.12264252394928 -0.360359935080246 0.458154686175706
-0.12264252394928 -0.359261756669932 0.464756042253307
-0.12264252394928 -0.360810719892789 0.47718011830502
-0.12264252394928 -0.358646563218778 0.487598820677274
-0.12264252394928 -0.360418071685048 0.500749723073676
-0.12264252394928 -0.353446183621313 0.494412194311007
-0.12264252394928 -0.360266372485111 0.507109719337832
-0.12264252394928 -0.362956591096508 0.515989760243395
-0.12264252394928 -0.365052908019183 0.531317563880301
-0.12264252394928 -0.364477143511448 0.537827557865577
-0.121794231462413 -0.36601629250654 0.548086637762315
-0.12264252394928 -0.365662191016728 0.5550870398722
-0.12264252394928 -0.356892945990752 0.567857407163633
-0.12264252394928 -0.36194208012671 0.568327716530695
-0.12264252394928 -0.36083379207165 0.588888792515519
-0.12264252394928 -0.361898349118284 0.58748989774858
-0.12264252394928 -0.365700990500584 0.598704181467995
-0.12264252394928 -0.361109417265628 0.601485648475869
-0.12264252394928 -0.359852350341653 0.613416695240842
-0.12264252394928 -0.356079963755063 0.619133699352094
-0.12264252394928 -0.355505718434428 0.628151370731451
-0.12264252394928 -0.35919235753067 0.638956912669837
-0.12264252394928 -0.358074747391291 0.645959001754677
-0.12264252394928 -0.362031049131397 0.657853298369814
-0.12264252394928 -0.361446657523889 0.673091858743211
-0.12264252394928 -0.359809781182093 0.677019273846561
-0.12264252394928 -0.363605992566282 0.685866804137325
-0.12264252394928 -0.359582704965736 0.697012902329908
-0.12264252394928 -0.361701129092834 0.704276229043026
-0.122642523949281 -0.362049078281435 0.711015279470947
-0.119753454647041 -0.36601629250654 0.725278416654035
-0.12264252394928 -0.364627085890401 0.736259322390836
-0.12264252394928 -0.360299066074196 0.748032638336621
-0.12264252394928 -0.359075018420139 0.750651023613859
-0.12264252394928 -0.365046416865577 0.758800502545826
-0.12264252394928 -0.359246165453556 0.766090872895628
-0.12264252394928 -0.365442253908367 0.783315364119909
-0.12264252394928 -0.363811899549737 0.785975622871697
-0.12264252394928 -0.36566029786813 0.793238076356232
-0.12264252394928 -0.356364763871008 0.803177850546413
-0.12264252394928 -0.358773296429942 0.814245328721881
-0.12264252394928 -0.358595718889997 0.815920080465642
-0.12264252394928 -0.357126325460151 0.830260939126521
-0.12264252394928 -0.361954510758031 0.845353194365805
-0.12264252394928 -0.364548907524271 0.847554202119326
-0.12264252394928 -0.363581572877606 0.852723544837739
-0.12264252394928 -0.357354197603907 0.867213757039201
-0.12264252394928 -0.357487670584358 0.869322236987116
-0.122642523949281 -0.364126904927896 0.882648102007233
-0.122567369862945 -0.36601629250654 0.896438768599968
-0.12264252394928 -0.35812719260301 0.90348439908513
-0.12264252394928 -0.356143776288892 0.906364395948496
-0.12264252394928 -0.359983835462788 0.921092181713135
-0.12264252394928 -0.361163790726133 0.930915794099182
-0.12264252394928 -0.361247381492064 0.934669146137504
-0.121207910697274 -0.36601629250654 0.944999487849232
-0.12264252394928 -0.360468740876713 0.952996128259893
-0.12264252394928 -0.363832064753237 0.96805262427666
-0.12264252394928 -0.358615813805033 0.968481570955889
-0.12264252394928 -0.359792251729202 0.986421838596203
-0.12264252394928 -0.361450968661532 0.989617638525481
-0.12264252394928 -0.359984764710201 0.996876555937528
-0.12264252394928 -0.35524280800353 0.999562996551143
-0.106999981074928 -0.348660508607419 0.999877414248219
-0.105267976379641 -0.340253552357244 0.999818035020055
-0.0880500465547743 -0.329134413805205 0.999739499359178
-0.0792648848469736 -0.326999526391808 0.999724420421801
-0.0658961918503341 -0.312715652631235 0.99962353189879
-0.06001185777903 -0.309758694575581 0.999602646588836
-0.0587874906305806 -0.304189326722 0.999563309549999
-0.0446394538825683 -0.286895267275068 0.999441159764603
-0.0328498812588324 -0.278651514460673 0.999382933259703
-0.0237475908823732 -0.272692490885049 0.999340844040965
-0.0135212886500156 -0.263465396595738 0.999275672090405
0.00208921375292913 -0.257538348748045 0.999233808719642
0.0048985500113642 -0.24473240644788 0.999143358984081
0.0222131855187058 -0.234603604659941 0.999071818177337
0.0253846284991597 -0.234318617909089 0.999069805285537
0.0375279957823856 -0.222971528570505 0.998989659583955
0.0496602961275303 -0.209158463992704 0.998892096436389
0.0539439982412338 -0.199707191496609 0.998825341091258
0.0782282634943435 -0.182872930132223 0.998706438908733
0.0776933747232593 -0.185628328381674 0.99872590058029
0.090192914331937 -0.172577733837102 0.998633722839847
0.0986369945584564 -0.165818986537165 0.998585985087195
0.109409522568662 -0.150216350453211 0.998475782005316
0.121402743967331 -0.141425122246033 0.998413688623356
-0.12264252394928 -0.347244141234538 0.322887708717007
-0.12264252394928 -0.34674451801212 0.332871756326118
-0.12264252394928 -0.354292831148768 0.347433984356672
-0.12264252394928 -0.347088759044873 0.347781893982631
-0.12264252394928 -0.350535843397546 0.355300587025477
-0.12264252394928 -0.344856837523551 0.366219825013429
-0.12264252394928 -0.353211753298651 0.383174535737202
-0.12264252394928 -0.346936354347455 0.384844006815258
-0.12264252394928 -0.34987032206519 0.392584004470784
-0.12264252394928 -0.349116450726668 0.405463075774099
-0.12264252394928 -0.344766974547666 0.413749839464085
-0.12264252394928 -0.351319022197861 0.421257414739156
-0.12264252394928 -0.349740441050461 0.433407090638859
-0.12264252394928 -0.343557106438949 0.438904317277101
-0.12264252394928 -0.351968216533104 0.450259479250319
-0.12264252394928 -0.350102034099935 0.460042014013233
-0.122642523949281 -0.354374873854214 0.467791803477572
-0.12264252394928 -0.345328332068526 0.470253704140421
-0.12264252394928 -0.346692907031584 0.477256454513775
-0.12264252394928 -0.348080681331049 0.490908785784375
-0.12264252394928 -0.347176433972001 0.501320092911092
-0.12264252394928 -0.350540628844903 0.514127728364352
-0.12264252394928 -0.349272663812811 0.520281472358433
-0.12264252394928 -0.350358271780055 0.52614819205224
-0.12264252394928 -0.344956025625879 0.533630047292331
-0.12264252394928 -0.351765217459741 0.547021177040357
-0.12264252394928 -0.35423012947081 0.560250514025235
-0.12264252394928 -0.353696357666973 0.573080928408739
-0.12264252394928 -0.344775676781458 0.567882849781092
-0.12264252394928 -0.344946533522413 0.585122378002024
-0.12264252394928 -0.350110050646763 0.594223103252126
-0.12264252394928 -0.349935034603298 0.599924434984161
-0.12264252394928 -0.344550925079067 0.602782301083342
-0.12264252394928 -0.346818552696766 0.609387588202119
-0.12264252394928 -0.349242779184625 0.623429946595556
-0.12264252394928 -0.348866051954645 0.635339682365857
-0.12264252394928 -0.351143061909285 0.644259369254889
-0.12264252394928 -0.353068605611875 0.654662610210266
-0.12264252394928 -0.35369824503674 0.660337066644176
-0.12264252394928 -0.349348743284051 0.667175810171383
-0.12264252394928 -0.347595563707244 0.68581599050268
-0.12264252394928 -0.353045423397842 0.687511155933515
-0.12264252394928 -0.346108984204145 0.691078632719913
-0.12264252394928 -0.347783128176245 0.705411823964003
-0.12264252394928 -0.350359448791453 0.71367531252401
-0.12264252394928 -0.350277314274576 0.724760331030252
-0.12264252394928 -0.347251899274683 0.72933772036316
-0.12264252394928 -0.343044607130864 0.737907970568612
-0.12264252394928 -0.350872516610381 0.754709945217638
-0.12264252394928 -0.351830792734199 0.767887171654359
-0.12264252394928 -0.345806539999172 0.762171382545069
-0.12264252394928 -0.352456585136095 0.781622938228015
-0.12264252394928 -0.34861687958351 0.783162687421327
-0.12264252394928 -0.341749678849235 0.788034295099534
-0.12264252394928 -0.346441246501771 0.802324095455462
-0.12264252394928 -0.344888984193384 0.807396382971513
-0.12264252394928 -0.344154130125406 0.826195364867864
-0.12264252394928 -0.347988444535564 0.832141488722058
-0.12264252394928 -0.343971512415145 0.831320581692963
-0.12264252394928 -0.35219446120664 0.844700487397603
-0.12264252394928 -0.346728428205293 0.855846757188748
-0.12264252394928 -0.349879110406811 0.866529033646738
-0.12264252394928 -0.351879687980817 0.875448682693229
-0.12264252394928 -0.348894207519492 0.890302319786038
-0.12264252394928 -0.350511438792802 0.892633703868979
-0.12264252394928 -0.347929171803449 0.900830001559109
-0.12264252394928 -0.352369215203688 0.910108594695452
-0.12264252394928 -0.343076927117991 0.914324902249883
-0.12264252394928 -0.350954877497216 0.93072858922699
-0.12264252394928 -0.349522771208629 0.940925370146062
-0.12264252394928 -0.353851933118755 0.947976518023588
-0.12264252394928 -0.350153112754454 0.95594928882613
-0.12264252394928 -0.351082087161617 0.965822878051476
-0.12264252394928 -0.352692106077282 0.981121754808998
-0.12264252394928 -0.350288539238585 0.984028990595661
-0.12264252394928 -0.353680312179656 0.994493864065954
-0.122549454313592 -0.351606119770578 0.999898219413863
-0.112387222297334 -0.342755371319994 0.999835705634079
-0.105389811721534 -0.339337911830287 0.999811567753407
-0.0995142220148356 -0.328542967624926 0.999735321911759
-0.0900077909648498 -0.319694798547634 0.999672826350365
-0.0794738229660665 -0.310620758737381 0.999608735439905
-0.0642690775218756 -0.297453367862916 0.999515732754534
-0.0611770859681079 -0.289114880966415 0.999456837132713
-0.0451003066838139 -0.286434382484173 0.999437904486196
-0.0407784966978845 -0.277842333910139 0.999377217931217
-0.0279862309387528 -0.266243275867759 0.999295292547821
-0.0199623269692683 -0.25679287225849 0.99922854333973
-0.00486265229352127 -0.243313458860364 0.999133336806013
-0.00413857155441582 -0.240491881058363 0.999113407701221
0.011171855699621 -0.230815069514245 0.999045059349751
0.0204135171287728 -0.2209289594896 0.998975232700802
0.029333866431052 -0.213831693527073 0.99892510395475
0.035586155890993 -0.206005397474011 0.998869825991455
0.0500942126868483 -0.196324130287393 0.998801446169307
0.0645809917186399 -0.183862308878498 0.998713426996284
0.0723154515192622 -0.1710369623858 0.998622840206843
0.0871959642248691 -0.162748103675749 0.998564295114193
0.0949806027697439 -0.160081202021685 0.998545458503523
0.101624214381453 -0.153371448531552 0.998498066799372
0.121039745921939 -0.133887054316193 0.99836044644602
-0.12264252394928 -0.333188313754846 0.313897808504162
-0.12264252394928 -0.333649988289091 0.318496463421787
-0.12264252394928 -0.34069924811076 0.338655093633013
-0.12264252394928 -0.335558269203079 0.341316018033343
-0.12264252394928 -0.332740476840868 0.355803264813854
-0.12264252394928 -0.337570944756693 0.366796160098328
-0.12264252394928 -0.334273321986872 0.368165143521523
-0.12264252394928 -0.335692891589147 0.377074625294017
-0.12264252394928 -0.331744846768302 0.385602012909569
-0.12264252394928 -0.337842604260241 0.396481079790983
-0.12264252394928 -0.339397205900461 0.404099188083534
-0.12264252394928 -0.333346307922549 0.40746068574386
-0.12264252394928 -0.334891696806764 0.424845036928837
-0.12264252394928 -0.33404946502123 0.424882478622237
-0.12264252394928 -0.336355405728466 0.438404298031566
-0.12264252394928 -0.333751325942992 0.447263572093286
-0.12264252394928 -0.334121044789064 0.461932272366973
-0.12264252394928 -0.341378677479998 0.474174137922018
-0.12264252394928 -0.339640250199924 0.472609001196473
-0.12264252394928 -0.335725545563634 0.480415628757583
-0.12264252394928 -0.333304291267867 0.489305356295232
-0.12264252394928 -0.329445785389044 0.499637033750814
-0.12264252394928 -0.333397695652433 0.512237954920834
-0.12264252394928 -0.332027266111836 0.514670044892579
-0.12264252394928 -0.338321965553224 0.526452401608003
-0.12264252394928 -0.343067056664162 0.545003059075305
-0.12264252394928 -0.338011688815153 0.545502245898715
-0.12264252394928 -0.335007155440607 0.550914032345403
-0.12264252394928 -0.34009774639958 0.56616994856866
-0.12264252394928 -0.333038163287629 0.570215755623447
-0.122642523949281 -0.343321700011474 0.590200138317266
-0.12264252394928 -0.338143778324467 0.595704367373008
-0.12264252394928 -0.332909294493159 0.597125109967441
-0.12264252394928 -0.338344019149048 0.607964651871855
-0.12264252394928 -0.33738828238289 0.62802621445765
-0.12264252394928 -0.340126729753321 0.629429375220393
-0.12264252394928 -0.33304334069126 0.634283496912713
-0.12264252394928 -0.336190163736065 0.650090939764575
-0.12264252394928 -0.340561949276316 0.651968231181761
-0.12264252394928 -0.338371934519418 0.660972744844146
-0.12264252394928 -0.330091244194333 0.670903478453551
-0.122642523949281 -0.345201571485298 0.68652941780767
-0.12264252394928 -0.336444044159029 0.689694019641104
-0.12264252394928 -0.33726529678665 0.700927564364395
-0.122642523949281 -0.338758699747278 0.716947983739023
-0.12264252394928 -0.342662912697411 0.720890489160183
-0.12264252394928 -0.338686573869171 0.727722369395392
-0.12264252394928 -0.340559340109993 0.734255407350231
-0.12264252394928 -0.340820695612197 0.748580120877118
-0.122642523949281 -0.333232458239922 0.750491646687066
-0.12264252394928 -0.335770616982341 0.761207704938412
-0.12264252394928 -0.330496960933815 0.767436010141274
-0.12264252394928 -0.3403096540944 0.783937574645676
-0.122642523949281 -0.338999311234976 0.79057106583631
-0.12264252394928 -0.337120519469523 0.797749024706588
-0.12264252394928 -0.337301297468944 0.803678833345621
-0.12264252394928 -0.33183676591181 0.81439803936383
-0.12264252394928 -0.336895772185768 0.823831917652389
-0.12264252394928 -0.338552804892684 0.836293601765953
-0.12264252394928 -0.339936416974428 0.842286008136386
-0.12264252394928 -0.342696050971728 0.856581141658943
-0.12264252394928 -0.344027085967252 0.859794368514463
-0.12264252394928 -0.336344042603573 0.869202149095741
-0.122642523949281 -0.335778105266748 0.883116458156644
-0.12264252394928 -0.329416016644953 0.887213644783324
-0.12264252394928 -0.338546874101952 0.893920154127578
-0.12264252394928 -0.3373480555879 0.91303980608142
-0.122642523949281 -0.344131863570913 0.921262452410808
-0.12264252394928 -0.333860453009172 0.918383555508553
-0.12264252394928 -0.332089155156564 0.929575257015148
-0.12264252394928 -0.334103421422907 0.936344463932644
-0.12264252394928 -0.339338278143927 0.949759343628082
-0.12264252394928 -0.342788475017798 0.958437500658965
-0.12264252394928 -0.336025657454065 0.965263393121076
-0.122642523949281 -0.334438331101622 0.977670776972834
-0.12264252394928 -0.338198977923118 0.988718889396812
-0.12264252394928 -0.330083485793948 0.993007463479945
-0.122572588336525 -0.337715609683216 0.999800109260407
-0.108299118004539 -0.331024290506921 0.99975284775978
-0.0955926143992702 -0.319811364890675 0.999673649670871
-0.0890723351512515 -0.307889045586361 0.999589441058723
-0.0837181242488715 -0.302265357951348 0.99954972035348
-0.0735458344570277 -0.294418065461627 0.999494294090115
-0.062612311390216 -0.280109748896339 0.999393232924968
-0.056237554488134 -0.278953601410904 0.999385066932035
-0.0380330165324667 -0.26571252201907 0.99929154377681
-0.0358682350204609 -0.259013770585819 0.99924422978136
-0.0320116786183013 -0.24819541460928 0.999167818579876
-0.013120480047179 -0.241331821466248 0.999119340289858
-0.00645614793883113 -0.231540708679034 0.999050184616524
0.00834447499444088 -0.215020865509445 0.998933503203226
0.0152167276176509 -0.207382076820237 0.99887954962443
0.02302285211483 -0.206880429733565 0.998876006437582
0.0358215759909954 -0.200344956235127 0.99882984569159
0.0482641013389486 -0.183756177922868 0.998712677382031
0.0608876060795199 -0.178408063615607 0.998674903080577
0.0729712014483913 -0.167036861394876 0.998594587067139
0.0815741009562831 -0.156490624892837 0.998520097874512
0.0890516900721353 -0.148922447444109 0.998466643030434
0.104826835996726 -0.134924307003217 0.998367772672319
0.111321537896572 -0.127902749246976 0.998318178661399
0.120495199222153 -0.115717691067543 0.998232114296567
-0.12264252394928 -0.323930357065272 0.308201179494217
-0.12264252394928 -0.321804505645146 0.321351704990433
-0.12264252394928 -0.319950661773903 0.324692436526069
-0.12264252394928 -0.323369261059129 0.329242825497398
-0.12264252394928 -0.323708639443633 0.34818005091735
-0.12264252394928 -0.321226876974966 0.346708843986205
-0.12264252394928 -0.328200407238329 0.362862343703424
-0.12264252394928 -0.326941635255676 0.369840228970796
-0.12264252394928 -0.328167197234279 0.38043952350396
-0.12264252394928 -0.330392119522296 0.391621238661711
-0.12264252394928 -0.325626220822055 0.398693292922841
-0.12264252394928 -0.328409245456543 0.400557003717554
-0.12264252394928 -0.325852096857743 0.416779958531317
-0.12264252394928 -0.332660196850087 0.430312641693595
-0.12264252394928 -0.327824907395505 0.4396315773892
-0.12264252394928 -0.323163747306636 0.440190921992618
-0.12264252394928 -0.318690399454708 0.452011876181451
-0.12264252394928 -0.332089677408822 0.46082600628415
-0.122642523949281 -0.319376099972084 0.46518395285438
-0.12264252394928 -0.321225836336029 0.477446976696775
-0.12264252394928 -0.323847556453384 0.482540867420727
-0.12264252394928 -0.323538750289075 0.492390618565211
-0.12264252394928 -0.317995713598896 0.495144209381622
-0.12264252394928 -0.323473472535996 0.510724155101618
-0.12264252394928 -0.321255526178137 0.515274804171787
-0.12264252394928 -0.327530407741083 0.535345023414807
-0.12264252394928 -0.322117163602188 0.540963340100953
-0.12264252394928 -0.327069217645893 0.543086230142607
-0.12264252394928 -0.321220160195906 0.555089488393419
-0.12264252394928 -0.329352260011588 0.568688542237833
-0.12264252394928 -0.32241835183937 0.575119634174655
-0.12264252394928 -0.321440127588174 0.578602505683239
-0.12264252394928 -0.323939314488078 0.588233354331847
-0.12264252394928 -0.327184734040236 0.603749931094325
-0.12264252394928 -0.324275107943535 0.613243077258324
-0.12264252394928 -0.32517750428003 0.623273493720529
-0.12264252394928 -0.32658452991333 0.633018669951835
-0.12264252394928 -0.319481413869587 0.638592228457221
-0.12264252394928 -0.328207721075365 0.644272291482489
-0.12264252394928 -0.317694919741432 0.652257154609152
-0.12264252394928 -0.328230499394946 0.668395632452096
-0.12264252394928 -0.329562249970715 0.676573145868092
-0.12264252394928 -0.326463404314828 0.677952632836222
-0.12264252394928 -0.319294320217417 0.692312837567554
-0.12264252394928 -0.330495021627817 0.703446966612197
-0.12264252394928 -0.32691577946873 0.714233459768652
-0.122642523949281 -0.320445126977903 0.721783927340309
-0.122642523949281 -0.324730458055448 0.728768929849902
-0.12264252394928 -0.325865837413818 0.729131501833466
-0.12264252394928 -0.331249791423604 0.75225494953235
-0.12264252394928 -0.322647876577356 0.748966214468888
-0.122642523949281 -0.327026966193416 0.770159358525726
-0.12264252394928 -0.323086794621733 0.766284151250294
-0.122642523949281 -0.326313739041505 0.782742701072826
-0.12264252394928 -0.328769655339698 0.786509377256277
-0.12264252394928 -0.323111427335213 0.796911916005662
-0.12264252394928 -0.322157342293111 0.807439716990126
-0.12264252394928 -0.329996579366921 0.820782968883421
-0.12264252394928 -0.328681475196585 0.830489160130707
-0.12264252394928 -0.330209742715691 0.835068475834255
-0.12264252394928 -0.327647227182 0.83905256709344
-0.12264252394928 -0.322560698493649 0.853368116140671
-0.12264252394928 -0.322913096036892 0.859573861339307
-0.12264252394928 -0.321093569761845 0.866205094877988
-0.12264252394928 -0.321153387762529 0.882786480310981
-0.12264252394928 -0.3211388573398 0.893356765066087
-0.12264252394928 -0.325380242403189 0.898517535702155
-0.12264252394928 -0.327234398818725 0.911553699405884
-0.122642523949281 -0.325851180276313 0.915638729788568
-0.12264252394928 -0.323030573397273 0.923728754792988
-0.12264252394928 -0.326899171402408 0.929316889429943
-0.12264252394928 -0.324770262974916 0.941550960326381
-0.12264252394928 -0.327357980644004 0.954280255511387
-0.12264252394928 -0.326202993033238 0.957559166837538
-0.12264252394928 -0.322475605161551 0.96548629649386
-0.12264252394928 -0.321807408658033 0.982170040409266
-0.12264252394928 -0.324139566996647 0.991787970663302
-0.12264252394928 -0.326716816165239 0.995251112083358
-0.115149040002403 -0.32034556217655 0.999677422763246
-0.113002556811709 -0.318261915191757 0.999662705742478
-0.100024538172484 -0.300992538626619 0.999540730294908
-0.0891554946630625 -0.302655772809006 0.999552477895237
-0.0851513530085606 -0.294061698893771 0.999491777035057
-0.0783987914854105 -0.284997116069362 0.999427752920298
-0.0601093929962617 -0.270974851810507 0.999328712173084
-0.0544159993042535 -0.25869559805999 0.999241982494893
-0.0463225074242636 -0.252270447963428 0.99919660097485
-0.0270793500950605 -0.237357780625038 0.99909127121577
-0.0204810842912008 -0.22896258537236 0.999031975056785
-0.00677640138355369 -0.227977865233678 0.999025019873475
-0.0114930822497726 -0.220791667509419 0.99897426299291
0.00972348969696777 -0.20832560566297 0.998886213869225
0.0231463335884568 -0.193384486295538 0.998780683150431
0.031378574829846 -0.189770253961846 0.998755155442186
0.042231893493135 -0.176792444192539 0.99866349178837
0.0507191121145713 -0.170314235832406 0.998617735512155
0.058187570345969 -0.16515702557508 0.998581309586356
0.0621020869737198 -0.154395949534749 0.998505302959168
0.0754222224681967 -0.145374992098627 0.998441586975176
0.0934014724624801 -0.133958051123065 0.998360947904036
0.108208420887146 -0.119884561273571 0.998261545345015
0.108799978714352 -0.120319045751277 0.998264614155196
-0.12264252394928 -0.313746330013329 0.300989230673465
-0.12264252394928 -0.317675352644796 0.31096056449924
-0.12264252394928 -0.310601933645004 0.314645797346727
-0.12264252394928 -0.312310118730219 0.327667242167938
-0.12264252394928 -0.31460642305202 0.333415680954996
-0.12264252394928 -0.31623642879018 0.343432855051374
-0.12264252394928 -0.313048437930236 0.358970551168758
-0.12264252394928 -0.314562445112056 0.362799180053736
-0.12264252394928 -0.317609001710667 0.368707837269572
-0.12264252394928 -0.313850982775323 0.373250716531293
-0.12264252394928 -0.319203372959407 0.395829629526352
-0.12264252394928 -0.313423474483313 0.393161215952913
-0.12264252394928 -0.315854209014713 0.412539779945615
-0.12264252394928 -0.306073450154859 0.410254033484317
-0.12264252394928 -0.312189031133201 0.422892507169388
-0.12264252394928 -0.313323793423974 0.432076486084048
-0.12264252394928 -0.313371207349853 0.439204647519369
-0.12264252394928 -0.311055822470712 0.445069304452711
-0.122642523949281 -0.314952899308779 0.457865739590256
-0.12264252394928 -0.311812709278456 0.460766404206798
-0.12264252394928 -0.312856652281168 0.471576228870464
-0.12264252394928 -0.313110654959477 0.483792801865724
-0.12264252394928 -0.313631919644414 0.489857609901588
-0.12264252394928 -0.311176551034971 0.51084752028579
-0.12264252394928 -0.30614590239204 0.513208134928041
-0.12264252394928 -0.314199100517491 0.525630821156966
-0.12264252394928 -0.313552244252248 0.52957336438498
-0.12264252394928 -0.313962964786993 0.544837308457338
-0.12264252394928 -0.307481452433547 0.553077414319779
-0.12264252394928 -0.311016503622384 0.562072736569435
-0.12264252394928 -0.313336419670991 0.561346511086322
-0.12264252394928 -0.318894461020284 0.577325908225174
-0.12264252394928 -0.3165003411928 0.588289594361084
-0.12264252394928 -0.311478238798459 0.595495182399863
-0.12264252394928 -0.317076202340449 0.609817427501197
-0.12264252394928 -0.313469616877044 0.615645203603545
-0.12264252394928 -0.305840817362104 0.616385376236586
-0.12264252394928 -0.309837829069364 0.63400544437639
-0.12264252394928 -0.315019770623647 0.647471323124843
-0.122642523949281 -0.318062614492423 0.652641552772009
-0.12264252394928 -0.315843796129295 0.665654300853213
-0.12264252394928 -0.312224741593839 0.67388723306319
-0.12264252394928 -0.310715432690088 0.678430132712913
-0.12264252394928 -0.319818955630909 0.686436598192443
-0.12264252394928 -0.31105003867868 0.692363792639759
-0.122642523949281 -0.311449326015738 0.69873926770977
-0.12264252394928 -0.313679715514193 0.710910328516437
-0.12264252394928 -0.306819295824076 0.720737346238665
-0.12264252394928 -0.31229600331997 0.727034450800183
-0.12264252394928 -0.31084582621487 0.737942424588622
-0.12264252394928 -0.309847256915485 0.74134833321786
-0.12264252394928 -0.314392776464747 0.75443011670316
-0.12264252394928 -0.313298231646348 0.765348301045894
-0.12264252394928 -0.306986188766784 0.774408518888042
-0.12264252394928 -0.313767207427487 0.783029778198259
-0.12264252394928 -0.311137787240158 0.79447900010897
-0.12264252394928 -0.307698220445851 0.79636693454298
-0.12264252394928 -0.314124353789885 0.811572184952127
-0.12264252394928 -0.314475395553506 0.818587486789747
-0.12264252394928 -0.315632126353109 0.827696211197623
-0.12264252394928 -0.309442341703085 0.830639072985836
-0.12264252394928 -0.311192980907987 0.845556841759127
-0.12264252394928 -0.306248969062536 0.851060105844639
-0.12264252394928 -0.310656788398581 0.863347950126923
-0.12264252394928 -0.306817772918677 0.873395188166947
-0.12264252394928 -0.310336728188121 0.887212253707474
-0.12264252394928 -0.310839132713408 0.889435931842513
-0.12264252394928 -0.311035819333153 0.898988696614356
-0.122642523949281 -0.316403453060845 0.905536784746632
-0.12264252394928 -0.316104685499149 0.919827355909269
-0.12264252394928 -0.31667114295553 0.926926667656641
-0.12264252394928 -0.311454509501261 0.94096762253184
-0.12264252394928 -0.307801789953249 0.940761693905223
-0.12264252394928 -0.317976531584662 0.958278419236764
-0.12264252394928 -0.307687954703353 0.959850912535825
-0.12264252394928 -0.305288419948853 0.969408291739443
-0.12264252394928 -0.314142388767442 0.976340388631344
-0.12264252394928 -0.318955989179461 0.994008523814413
-0.12264252394928 -0.310938937315962 0.992750814595932
-0.119989052207849 -0.307357930820361 0.999585689738514
-0.1100749633945 -0.299572224912896 0.999530698467745
-0.0950436301975242 -0.291423869633485 0.999473145765804
-0.0776500560065038 -0.277332958333521 0.999373620157222
-0.0765949334819662 -0.264893114694519 0.99928575621553
-0.0610216740563155 -0.255553565993361 0.999219789987471
-0.0592624317864393 -0.253712454047013 0.999206786017534
-0.0457615492352534 -0.250179063339022 0.999181829302309
-0.0369640545724917 -0.233284441918243 0.999062500790271
-0.0230131196565167 -0.227957463069029 0.999024875770812
-0.0234387901003339 -0.227582714677951 0.999022228882978
-0.0124249807334498 -0.209029355844274 0.998891184531774
0.00327942319092493 -0.199440211857775 0.998823455385609
0.0155082852478602 -0.192416320621752 0.998773844893072
0.0301129524642242 -0.176398740682574 0.998660711018511
0.0389217376891535 -0.167206947325863 0.9985957884022
0.0434926957854801 -0.164020895666217 0.9985732849797
0.0499393247893856 -0.151718879750518 0.99848639452991
0.0638135039350362 -0.143391167262687 0.998427575008886
0.0794649653328932 -0.13703786654436 0.99838270096866
0.0836035243185425 -0.12324418086501 0.99828527469632
0.0927025056026512 -0.111538895226853 0.998202599016091
0.100461376084987 -0.111980729551607 0.998205719739026
0.122043908050033 -0.0990999545769572 0.998114741452308
-0.12264252394928 -0.302760964844716 0.295301470230685
-0.12264252394928 -0.302356727284359 0.30578560330875
-0.12264252394928 -0.297908162553543 0.308907855733706
-0.12264252394928 -0.301828502507293 0.311678012421276
-0.12264252394928 -0.2979196085327 0.323287046969956
-0.12264252394928 -0.303727951203084 0.339380205353875
-0.12264252394928 -0.298111564993576 0.341980512861723
-0.12264252394928 -0.298720953545864 0.358236935163981
-0.12264252394928 -0.301088809973227 0.355732543637643
-0.12264252394928 -0.30602931630895 0.374627490106763
-0.12264252394928 -0.301005213028595 0.388050043358969
-0.12264252394928 -0.30590547331601 0.39968890211643
-0.12264252394928 -0.294242373677911 0.391628625421285
-0.12264252394928 -0.303326631146181 0.408418567970695
-0.12264252394928 -0.297695358919894 0.414252155723543
-0.12264252394928 -0.302415158507445 0.422562591771325
-0.12264252394928 -0.296672310698018 0.432470999160214
-0.12264252394928 -0.294532314601668 0.435931965646697
-0.12264252394928 -0.305719751726035 0.451242262737751
-0.12264252394928 -0.29816047278464 0.455550304724315
-0.12264252394928 -0.301083591038735 0.476904484865242
-0.12264252394928 -0.302347954175678 0.475679067636177
-0.12264252394928 -0.305156267889756 0.491162600406519
-0.12264252394928 -0.296777653297752 0.495763774183557
-0.12264252394928 -0.301453693851556 0.499313006043214
-0.12264252394928 -0.301185999084286 0.514325616910352
-0.12264252394928 -0.305352675795097 0.522331755028796
-0.12264252394928 -0.295232674707239 0.529558927797677
-0.12264252394928 -0.300091685567837 0.544295749363459
-0.12264252394928 -0.296561425099752 0.546009757866675
-0.12264252394928 -0.299716074634461 0.556852178552306
-0.12264252394928 -0.302817350282763 0.562158127622928
-0.12264252394928 -0.306253681915595 0.583961289200004
-0.12264252394928 -0.295147803775974 0.580477604060044
-0.12264252394928 -0.306183820586951 0.604681144045709
-0.122642523949281 -0.305488026874315 0.609018215676389
-0.12264252394928 -0.30097487899444 0.614908405982008
-0.12264252394928 -0.300476225634443 0.622414236826327
-0.12264252394928 -0.307750361697719 0.636992823182723
-0.12264252394928 -0.30185836331466 0.64124717297846
-0.12264252394928 -0.29495581261657 0.652347596988387
-0.12264252394928 -0.304115045427365 0.660611034886321
-0.12264252394928 -0.301340413236556 0.663858334493626
-0.12264252394928 -0.295721878896039 0.671582112841287
-0.12264252394928 -0.298084417432011 0.684349195171705
-0.12264252394928 -0.306817398112349 0.704075486741168
-0.122642523949281 -0.300931374547582 0.710445549705983
-0.12264252394928 -0.293388410355997 0.711542780243312
-0.12264252394928 -0.294925381974562 0.718801323643367
-0.12264252394928 -0.306713160496075 0.731283347768772
-0.12264252394928 -0.300841775113249 0.741478306439024
-0.12264252394928 -0.305264874281031 0.75616607196346
-0.12264252394928 -0.304490541130549 0.761636962153659
-0.12264252394928 -0.300778072658871 0.769013761799403
-0.12264252394928 -0.298295008092686 0.777347649640055
-0.12264252394928 -0.295576488224735 0.786745030314943
-0.12264252394928 -0.299286931348036 0.7935352384542
-0.12264252394928 -0.301997871571253 0.798594286791111
-0.12264252394928 -0.302584348411913 0.811726678634414
-0.12264252394928 -0.299402556498886 0.818898403285662
-0.12264252394928 -0.296716203505459 0.826068524779112
-0.12264252394928 -0.301529976088001 0.841282087955412
-0.12264252394928 -0.296486644303443 0.844714336469028
-0.12264252394928 -0.292688350145918 0.856453850555779
-0.12264252394928 -0.302513431781823 0.873005321711234
-0.12264252394928 -0.301615924802856 0.874731339262015
-0.12264252394928 -0.309234628763156 0.886515004653292
-0.12264252394928 -0.30496385307712 0.896735586420734
-0.12264252394928 -0.299451155587593 0.904658270137941
-0.12264252394928 -0.297840278400476 0.912132173872668
-0.12264252394928 -0.299747468319046 0.919615403088322
-0.12264252394928 -0.298428849763274 0.932301652951953
-0.12264252394928 -0.298953185668356 0.938423530516118
-0.12264252394928 -0.301414909734762 0.952497209674659
-0.12264252394928 -0.301919528244577 0.951838198442737
-0.12264252394928 -0.306308756755846 0.970301301797164
-0.12264252394928 -0.300822246522798 0.97639458496643
-0.12264252394928 -0.303867621821318 0.983257798127441
-0.12264252394928 -0.301522959496785 0.994676347948061
-0.121131192856746 -0.299417683199503 0.99952960692315
-0.11653289500275 -0.2886468487197 0.999453531371063
-0.106420624773861 -0.285530738660569 0.999431521953542
-0.0924133453592511 -0.279750113520545 0.999390692781972
-0.0835416223735704 -0.260117499406838 0.999252025535679
-0.0773117406457799 -0.256961951502298 0.999229737564452
-0.0601317894815225 -0.243933872586303 0.999137718854295
-0.0547547825693657 -0.23579977946109 0.999080266887468
-0.0476161818082684 -0.226559745666944 0.999015003543806
-0.0342413193011229 -0.218153292266951 0.998955627867326
-0.0203439704390026 -0.208275863753782 0.998885862536818
-0.00907335758600432 -0.203352410982758 0.998851087665063
-0.00464393275933954 -0.197650180935758 0.998810812206392
0.00799111372870646 -0.181238930395962 0.998694897794413
0.00902354964909584 -0.183214497985994 0.998708851438895
0.0273038004238249 -0.159830356976757 0.998543686758231
0.0408309816251437 -0.153809391837973 0.998501160039629
0.0491016137239474 -0.148105979575688 0.998460876230845
0.0526396520717341 -0.139833361408547 0.998402445846882
0.0647106164944301 -0.132171462319585 0.998348329036869
0.0823104749737189 -0.111244166986162 0.998200517319109
0.090365994882474 -0.107298936679617 0.998172651736898
0.0969470736895497 -0.0935054794958008 0.998075227078446
0.104438620449319 -0.094108377684445 0.998079485412621
0.115487754744029 -0.0835980733117718 0.998005250012454
-0.12264252394928 -0.290172744651012 0.286016886252678
-0.12264252394928 -0.296062523769772 0.29693347400432
-0.12264252394928 -0.293762562227587 0.302009004241123
-0.12264252394928 -0.282800552702912 0.305971029561942
-0.12264252394928 -0.285934333475214 0.321061718273933
-0.12264252394928 -0.289583282250839 0.333074291360465
-0.12264252394928 -0.289816220692724 0.345780519159804
-0.12264252394928 -0.290952114454205 0.34277926701601
-0.12264252394928 -0.289680204260274 0.349609201362246
-0.12264252394928 -0.286267544359424 0.368480502894842
-0.12264252394928 -0.286896072394326 0.375344100477196
-0.12264252394928 -0.28987956381924 0.385546965620107
-0.12264252394928 -0.290330675616943 0.385750435167623
-0.12264252394928 -0.291868155601945 0.400878219499744
-0.12264252394928 -0.288894707920855 0.412655650360174
-0.12264252394928 -0.280022106068889 0.413162618439726
-0.12264252394928 -0.284574742739395 0.424956683748842
-0.12264252394928 -0.283413378130653 0.431477364749671
-0.12264252394928 -0.28605702633187 0.446219787524651
-0.12264252394928 -0.285280012218167 0.452538284322396
-0.12264252394928 -0.29328352074367 0.470803492449314
-0.12264252394928 -0.290995269402608 0.475597021991451
-0.12264252394928 -0.28759075056956 0.477042630116721
-0.12264252394928 -0.288179799533821 0.490265731743509
-0.12264252394928 -0.291538063434005 0.49920634693269
-0.12264252394928 -0.295927653623877 0.511905272027123
-0.12264252394928 -0.281489406183171 0.516587496876936
-0.12264252394928 -0.288293247620989 0.520700381201476
-0.12264252394928 -0.289129108163017 0.533983066571787
-0.12264252394928 -0.29364385099145 0.543169542648379
-0.12264252394928 -0.289113764911359 0.554405301227659
-0.12264252394928 -0.282239651642779 0.551885642372021
-0.12264252394928 -0.280747468909446 0.569120491853949
-0.12264252394928 -0.288477024965899 0.581728626034523
-0.12264252394928 -0.284714937355366 0.586781749973644
-0.12264252394928 -0.284979769692884 0.593730189468132
-0.12264252394928 -0.286055404385909 0.609599594549676
-0.12264252394928 -0.282800782215238 0.611864640090769
-0.12264252394928 -0.289660274825276 0.629906856354666
-0.12264252394928 -0.284175171099431 0.629305916418261
-0.12264252394928 -0.287950090739943 0.649949422060074
-0.12264252394928 -0.290432113774239 0.652236555037277
-0.12264252394928 -0.28238368109614 0.65161067815973
-0.12264252394928 -0.289924259442651 0.66749234420458
-0.12264252394928 -0.286116831844225 0.680070527196932
-0.12264252394928 -0.285480379592892 0.684084194159493
-0.122642523949281 -0.289971041322283 0.694334873850981
-0.12264252394928 -0.286689104275472 0.706538600844983
-0.12264252394928 -0.293342050059098 0.715505031891548
-0.122642523949281 -0.287438282454322 0.728050109725338
-0.12264252394928 -0.287432350341168 0.729886534791989
-0.12264252394928 -0.29089468489412 0.746152637009175
-0.12264252394928 -0.289834692773891 0.757545522727212
-0.12264252394928 -0.291397752634282 0.763419001760431
-0.122642523949281 -0.293087536898172 0.77449796430757
-0.12264252394928 -0.288730073837919 0.778252757703514
-0.12264252394928 -0.291258836604986 0.786786803652503
-0.12264252394928 -0.291231928538057 0.799688672854522
-0.12264252394928 -0.287641284423563 0.806419584107211
-0.12264252394928 -0.287099573920828 0.809438782361995
-0.12264252394928 -0.294639514975269 0.829371296685961
-0.12264252394928 -0.288267732054481 0.826026169211086
-0.12264252394928 -0.281750374120298 0.83859270973615
-0.12264252394928 -0.291990819170502 0.856052461900484
-0.12264252394928 -0.291254751079813 0.855456998116348
-0.12264252394928 -0.284047033322206 0.866727447880012
-0.12264252394928 -0.287284232697754 0.877202657489038
-0.12264252394928 -0.286060204551516 0.88359372300053
-0.12264252394928 -0.289047740781724 0.896138423478645
-0.12264252394928 -0.288944879522254 0.90541301833988
-0.122642523949281 -0.292406754732038 0.91924961210277
-0.12264252394928 -0.289669107398867 0.92171916937978
-0.12264252394928 -0.291136748036439 0.928355005970277
-0.12264252394928 -0.294917782894357 0.947730879184583
-0.12264252394928 -0.285391236303372 0.952720017797762
-0.122642523949281 -0.287080794573521 0.957823531322979
-0.12264252394928 -0.290032426845797 0.970096523239613
-0.12264252394928 -0.292684018402036 0.982675609566337
-0.12264252394928 -0.287030786290348 0.982778455766579
-0.12264252394928 -0.286333114614888 0.990191314301946
-0.120564523038942 -0.280277368117555 0.999394416837395
-0.106213614708845 -0.277409978661228 0.999374164160006
-0.103832189568717 -0.273948408583343 0.999349714721547
-0.0924225522826845 -0.26264722583476 0.999269893263105
-0.081705493546207 -0.258282082061841 0.999239061787318
-0.0754114668628468 -0.239224026282189 0.999104452707785
-0.0605171687613996 -0.229623454432971 0.999036642845407
-0.0495676521110081 -0.221705213869348 0.998980715468233
-0.0407423070319264 -0.21778820085311 0.998953049187752
-0.0290705977527521 -0.200237842861477 0.998829089138414
-0.0169383538857117 -0.199678789793884 0.998825140487004
-0.0112028518460609 -0.183056212566986 0.998707733452107
0.00458140029528622 -0.172007774101157 0.998629697153476
0.00781597343605873 -0.164547844722413 0.998577006877056
0.0217748483596166 -0.156054443310506 0.998517017077499
0.0335245597388177 -0.144045778771711 0.998432198599755
0.0446188152995053 -0.139695880777135 0.998401474806527
0.0525717838371375 -0.127556803530486 0.998315735209926
0.0563253291611764 -0.119496574207634 0.99825880495101
0.06611726775915 -0.117867388038807 0.99824729783543
0.0838615883436848 -0.104610147125901 0.998153660529659
0.0953101191070728 -0.0854382724263569 0.998018247534963
0.101683182454556 -0.0814826746570893 0.997990308726257
0.121699138405177 -0.06157417118797 0.997849692844037
-0.12264252394928 -0.274754682896714 0.273481919003384
-0.12264252394928 -0.277640785669067 0.280159558814305
-0.12264252394928 -0.278268239452084 0.292269705746024
-0.12264252394928 -0.281623056366 0.302930117516104
-0.12264252394928 -0.276180211873187 0.315043105054036
-0.12264252394928 -0.279251904873619 0.317046847399397
-0.12264252394928 -0.282409610543405 0.332626682612821
-0.12264252394928 -0.278757596574613 0.338784910714205
-0.12264252394928 -0.279114971488641 0.347102223640899
-0.12264252394928 -0.273277536838844 0.348633049928485
-0.12264252394928 -0.27291487324152 0.366793448363498
-0.12264252394928 -0.274856426207036 0.370403679978877
-0.12264252394928 -0.276339069940718 0.383149362921198
-0.12264252394928 -0.28333671896547 0.397287651887643
-0.12264252394928 -0.277941569051133 0.400984630550209
-0.12264252394928 -0.271585586024674 0.406427000125797
-0.12264252394928 -0.279389957793925 0.422404290232521
-0.12264252394928 -0.274565513323044 0.425451071167504
-0.12264252394928 -0.275685418324786 0.438826940067743
-0.12264252394928 -0.276823653735733 0.454442509692446
-0.12264252394928 -0.279188019113373 0.459068377030786
-0.12264252394928 -0.27367869157928 0.464646111908751
-0.12264252394928 -0.271524672615416 0.465657288642916
-0.12264252394928 -0.271628155805768 0.47746443804675
-0.12264252394928 -0.271514907732531 0.489712564128498
-0.12264252394928 -0.278664139498646 0.497359841895747
-0.12264252394928 -0.278079332785384 0.503494863647159
-0.12264252394928 -0.276826259753746 0.522781169971826
-0.12264252394928 -0.272270556013041 0.528042565341744
-0.12264252394928 -0.269310246778476 0.533610786584724
-0.12264252394928 -0.282775760520969 0.549422398119312
-0.12264252394928 -0.275354815360333 0.553756501824293
-0.12264252394928 -0.276980811103212 0.564370267185109
-0.12264252394928 -0.274550764093736 0.564671744267078
-0.12264252394928 -0.27366748322125 0.573868183520295
-0.12264252394928 -0.282152656773025 0.592329326148404
-0.12264252394928 -0.276274805522765 0.594188994193478
-0.12264252394928 -0.275789910005057 0.612371377678328
-0.12264252394928 -0.276516440606921 0.615510226543883
-0.12264252394928 -0.272495560086494 0.620483724242711
-0.12264252394928 -0.276424654059955 0.636377007302946
-0.12264252394928 -0.278377026808404 0.648843787401341
-0.12264252394928 -0.276830990311967 0.651549232675488
-0.12264252394928 -0.281962618847202 0.661071788807667
-0.12264252394928 -0.279978535502863 0.67930429417028
-0.12264252394928 -0.27257114962046 0.675654831714301
-0.12264252394928 -0.27425407658339 0.687496590052187
-0.12264252394928 -0.274738924942367 0.704211065472203
-0.12264252394928 -0.270455999531769 0.706153058567166
-0.12264252394928 -0.281136855245141 0.724067956846545
-0.12264252394928 -0.274432632945319 0.720985285645222
-0.12264252394928 -0.280691001084289 0.730752794310085
-0.12264252394928 -0.277603205173764 0.74123810926612
-0.12264252394928 -0.278910571810647 0.755958489057321
-0.12264252394928 -0.283409310436612 0.763502899292746
-0.12264252394928 -0.278158849715447 0.772457524334387
-0.12264252394928 -0.273578162850058 0.776524625085761
-0.12264252394928 -0.279364080526456 0.791951023954748
-0.12264252394928 -0.271175725822968 0.798207366083328
-0.12264252394928 -0.27614593106456 0.812681717480037
-0.12264252394928 -0.277255278330264 0.820631854373637
-0.12264252394928 -0.275110302720592 0.826873068646095
-0.12264252394928 -0.273627849611946 0.836553343527167
-0.12264252394928 -0.27936162192464 0.851070751648242
-0.12264252394928 -0.28086240802992 0.85315097489634
-0.12264252394928 -0.276575497705196 0.870332788994039
-0.12264252394928 -0.274016801577561 0.876344717475113
-0.12264252394928 -0.280033123427712 0.885574374591758
-0.12264252394928 -0.282187139048402 0.896671784659412
-0.122642523949281 -0.27857137092043 0.895827301748221
-0.12264252394928 -0.276281331110979 0.90707431255128
-0.12264252394928 -0.275246297006588 0.915284747251737
-0.12264252394928 -0.282223266633125 0.929633786801695
-0.12264252394928 -0.279872549023601 0.940175146783946
-0.12264252394928 -0.268642659286227 0.939056784144484
-0.12264252394928 -0.283628035149055 0.958277712660427
-0.12264252394928 -0.278999116358455 0.969652238696939
-0.122642523949281 -0.274509038837344 0.971898730262588
-0.12264252394928 -0.284854044280109 0.983985998335573
-0.12264252394928 -0.278392841554355 0.989694598237147
-0.122642523949281 -0.27596910468158 0.998554867278103
-0.111877771580668 -0.26959443926673 0.999318962172137
-0.106462383788037 -0.26572925164376 0.999291661939933
-0.0913979725902216 -0.244485416970523 0.999141614471074
-0.0846674680219284 -0.241724671002159 0.999122115028008
-0.0818300032354369 -0.235329949967435 0.999076948431672
-0.0649943152116684 -0.225780229076335 0.999009497735031
-0.052638274685045 -0.210149098637593 0.998899093394486
-0.0471319906239742 -0.209016740731072 0.998891095429885
-0.0352125245457668 -0.195570067071322 0.99879612014043
-0.0331283353833545 -0.191804118367262 0.998769520843289
-0.0174932519812668 -0.181393934920969 0.998695992607897
-0.0137575698858745 -0.174441157926356 0.998646884402828
0.000831420282543181 -0.160635538139029 0.998549373838611
0.0054267360606471 -0.157471720090484 0.998527027454476
0.0207135416274568 -0.147874322622433 0.99845924001309
0.035235693610701 -0.131109481888966 0.998340828155882
0.045695850918508 -0.126749534971957 0.998310033386043
0.0614249509021883 -0.105942168810091 0.998163068740807
0.0662067913818273 -0.105384997829977 0.99815913338278
0.0789758577830515 -0.0897167785691038 0.998048467079931
0.0922775328360799 -0.0806047891464233 0.997984108127314
0.0968751059753688 -0.0742739022865704 0.997939392398559
0.101631957725259 -0.0658237772418639 0.997879708264598
0.122630448681142 -0.0428546763166123 0.997717475056289
-0.12264252394928 -0.262171070525531 0.26505723614734
-0.12264252394928 -0.262284555497103 0.278174683355865
-0.12264252394928 -0.268829791485488 0.282515138614635
-0.12264252394928 -0.264931281287282 0.290969233765598
-0.12264252394928 -0.26621287515744 0.305778703232219
-0.12264252394928 -0.264111018490296 0.304975051629782
-0.12264252394928 -0.270521690670363 0.317988435192604
-0.12264252394928 -0.26670762112519 0.337147195602671
-0.12264252394928 -0.264487024704379 0.334819705979583
-0.12264252394928 -0.261410214293603 0.351857150631096
-0.12264252394928 -0.262960490657042 0.346440605254476
-0.12264252394928 -0.257313155891463 0.362728012051641
-0.12264252394928 -0.264659493000596 0.376285289585162
-0.12264252394928 -0.260046165280625 0.377899328536144
