ply
format ascii 1.0
element vertex 1117
property float x
property float y
property float z
end_header
0.269955106970397 0.125 0.79589471986253
0.268629465535888 0.125 0.809705863473703
0.26683447575407 0.125 0.81173729524085
0.269936899092848 0.125 0.824442107555639
0.272651846538519 0.125 0.832339942419532
0.271982494222374 0.125 0.841314303617039
0.267397505960436 0.125 0.850562503977103
0.271572066171878 0.125 0.858162038176592
0.268388471476373 0.125 0.865558698046463
0.265205625402269 0.125 0.881095015724608
0.26388320268085 0.125 0.888944206264807
0.26442626796659 0.125 0.902263152676806
0.26713600547202 0.125 0.912032574024679
0.268382244589871 0.125 0.925002761875442
0.264198584615264 0.125 0.930488589030268
0.263260924985649 0.125 0.938776415555152
0.264051997980368 0.125 0.947303191645857
0.269461502392693 0.125 0.963861337853602
0.266863931327295 0.125 0.969755811253632
0.270597070120831 0.125 0.983223260028593
0.264314294651947 0.125 0.987938219418024
0.263674087647822 0.123125680031273 1.0
0.273284811794184 0.123395229441137 1.0
0.267067845652193 0.0976786425059285 1.0
0.26718191719603 0.0893773597592768 1.0
0.276709309443787 0.0704623192904669 1.0
0.273385570081653 0.0553514687242912 1.0
0.280387902881837 0.0502454000765113 1.0
0.280390514314126 0.0314220308383687 1.0
0.280720860995112 0.0122401428093987 1.0
0.279690766935741 0.0122725288710973 1.0
0.284956607480704 -0.0195409930300824 1.0
0.283735271043579 -0.0420895646916498 1.0
0.280821076107975 -0.04170229476351 1.0
0.290301060158295 -0.0627659709331657 1.0
0.28650843401037 -0.0768315048520379 1.0
0.290813676403477 -0.0888082286348163 1.0
0.28639590787777 -0.107619762620438 1.0
0.275178544926931 0.125 0.11416542014913
0.27733860338252 0.125 0.125676737066094
0.274111777092023 0.125 0.140950818283667
0.274804885152138 0.125 0.146179465195649
0.281240390237185 0.125 0.152142126233906
0.278007272786821 0.124999999999999 0.165683250251631
0.275569497344151 0.125 0.178258645392047
0.277738964134279 0.125 0.183220051543872
0.281594594712301 0.125 0.194881932338219
0.273094810272658 0.125 0.202275732201499
0.278840203383648 0.125 0.207862771504376
0.281084624531276 0.124999999999999 0.220275281414069
0.276565493757217 0.125 0.226128265811488
0.278929820098403 0.125 0.234195038451805
0.275067807351549 0.125 0.249512658597085
0.2742598501289 0.125 0.263095135990437
0.276914613406122 0.125 0.271719157954368
0.274586670638787 0.125 0.279429246338001
0.281977608444996 0.125 0.290427700354167
0.278039782280486 0.125 0.30446654837415
0.276911121041048 0.125 0.313045787073357
0.274330371857909 0.125 0.323103240326548
0.278495576485386 0.125 0.323952162683943
0.27589428767888 0.125 0.339797970905888
0.279663057268334 0.125 0.34561680079995
0.278466471534642 0.125 0.352613025313893
0.277505116282274 0.125 0.370094838658377
0.279542922197567 0.125 0.370288234115014
0.274504224641344 0.125 0.379222586425985
0.277310556442889 0.125 0.389482251506966
0.281391298103039 0.125 0.394399587881526
0.280779646625042 0.125 0.40536403029054
0.281621514604315 0.125 0.423083358788722
0.278713717442109 0.125 0.43458752013363
0.282555485137228 0.125 0.44189821055191
0.278775372486766 0.125 0.453582419677923
0.281736272782529 0.125 0.457577088885895
0.273424720586885 0.125 0.468057009622676
0.27478648026117 0.125 0.477578756165097
0.276933769571005 0.125 0.482372255870825
0.273768777712775 0.125 0.504525351354907
0.27541524813991 0.125 0.499444511442098
0.282818568081153 0.125 0.519288293014279
0.277687908013885 0.125 0.533040214165355
0.27568491596012 0.125 0.538736991185711
0.278786810238696 0.125 0.541713288167555
0.27932190815316 0.125 0.550971782771389
0.274677925916917 0.125 0.569886536444511
0.273582175041022 0.125 0.575443728472226
0.281169325481116 0.125 0.585859755947229
0.278714081941367 0.125 0.588058240487082
0.277605428523712 0.125 0.602890429898785
0.275455895908326 0.125 0.616457795985641
0.276046117105636 0.125 0.620029619295389
0.275491475972231 0.125 0.631575680093693
0.275397689901491 0.125 0.64017629539729
0.275514333687304 0.125 0.653565922905161
0.281901879502988 0.125 0.656190866004309
0.281830871214988 0.125 0.671171087102359
0.273274631129388 0.125 0.680063512150492
0.276918574439703 0.125 0.69223503923662
0.279924675651297 0.125 0.693660580546175
0.281327979044725 0.125 0.712305364352325
0.273807516301362 0.125 0.72442517092696
0.273138224568782 0.125 0.732562920708621
0.282537680204993 0.125 0.743053649322882
0.277255745985577 0.125 0.745829854637171
0.277647558002676 0.125 0.753518902462838
0.281246462824493 0.125 0.769716576110302
0.277111943626744 0.125 0.778491153653572
0.27914322629074 0.125 0.785134761355379
0.279736625625724 0.125 0.795049095982467
0.276332186099433 0.125 0.811558670216663
0.281417558397824 0.125 0.818697381829877
0.277061705436787 0.125 0.82252523815751
0.279404738893325 0.125 0.83259396618565
0.274982434368594 0.125 0.844708976902981
0.282422718619364 0.125 0.857348593984486
0.275661237325298 0.125 0.863467473884104
0.279366635940341 0.125 0.872591624953742
0.276895779484073 0.125 0.880149260020194
0.277205052638598 0.125 0.889990505936996
0.280051251063987 0.125 0.901366151832155
0.278774990958989 0.125 0.906852047659218
0.277160939762474 0.125 0.925495311116527
0.276003414481283 0.125 0.93089684243084
0.273614581219504 0.125 0.941148328934417
0.283145450950697 0.125 0.947992090861904
0.279642737727133 0.125 0.959561887186459
0.274112909359168 0.125 0.96523137903392
0.278158251075515 0.125 0.971212049201483
0.281997778996127 0.125 0.981520205930303
0.278525335110214 0.125 0.99671490955205
0.276303636211736 0.121657923364209 1.0
0.284750399548309 0.0943584868095803 1.0
0.282083248506105 0.0794575190114863 1.0
0.286633237854298 0.0744459431935164 1.0
0.282845028594637 0.0663935591005139 1.0
0.289677352321434 0.0460753038607401 1.0
0.283357574304417 0.0246949084198048 1.0
0.293250916576659 0.0190314373896062 1.0
0.289990044055487 0.000395802075145474 1.0
0.292797717895675 -0.0217901750815433 1.0
0.288037114588809 -0.0238188765071562 1.0
0.29468438939162 -0.0546955369297436 1.0
0.296719975046804 -0.0673276027188484 1.0
0.295359146952843 -0.0852862743375105 1.0
0.295741623727818 -0.0943724181268784 1.0
0.303035563005063 -0.107418586634213 1.0
0.303431083000513 -0.119756795355352 1.0
0.291728398629837 0.124999999999999 0.11647445684066
0.288431519262319 0.125 0.127190205315063
0.291950252603665 0.125 0.135605188809671
0.291297894369925 0.125 0.140578394205777
0.288400170307934 0.125 0.154801430027055
0.289140858010958 0.125 0.163115800362665
0.290755808951744 0.125 0.166144446913829
0.290343294056986 0.125 0.184613022567009
0.285340951398562 0.125 0.194219181631885
0.284998958404999 0.124999999999999 0.199396500437118
0.287313328312293 0.125 0.208194689859015
0.285570923805378 0.125 0.226788730313081
0.284171802696973 0.125 0.23180572550598
0.285359166229497 0.125 0.247187840631205
0.291902415007633 0.125 0.245823111725316
0.284501402154898 0.125 0.264342871170214
0.290924959493966 0.125 0.270242425490912
0.289568558476567 0.125 0.272470959431776
0.286874842947927 0.125 0.280122232977289
0.291743166930953 0.125 0.290863747765159
0.292401972405183 0.125 0.306351223861809
0.287962445104376 0.125 0.319287675606748
0.287203110884692 0.125 0.333863790892204
0.288464595319635 0.125 0.332205598206754
0.283677705960125 0.125 0.348858417303599
0.288544196199935 0.125 0.358569535565132
0.292498033166253 0.125 0.365326220992217
0.285191414847856 0.125 0.372979647768374
0.286203677116299 0.125 0.385283487398282
0.289184836387088 0.125 0.389875029774061
0.289274908107582 0.125 0.394455146718795
0.285544079859513 0.125 0.411817584535604
0.286539606842842 0.125 0.425477786779966
0.288595175006763 0.125 0.432260753946647
0.285401351653813 0.125 0.43695248317599
0.291803241677611 0.125 0.45334319300499
0.287277204499642 0.125 0.459263575744214
0.284156378702711 0.125 0.470428837390279
0.29162218967043 0.125 0.476212847387117
0.292237268388675 0.125 0.485681506536069
0.286952206692389 0.125 0.504468528100841
0.288070278803517 0.125 0.502653146029671
0.283351929861329 0.125 0.51763558491075
0.282967234559526 0.125 0.525802429750704
0.291787117288857 0.125 0.534344163590948
0.283521508258049 0.125 0.54405713342071
0.285437840171394 0.125 0.560152800293099
0.286390165387688 0.125 0.566481645225729
0.286920343475614 0.125 0.577367826896045
0.291163583055976 0.125 0.582009884758868
0.289122480081108 0.125 0.602126070300678
0.286504759686211 0.125 0.609641282355181
0.29021945689599 0.125 0.611348454188557
0.284000197427144 0.125 0.625766858760815
0.284330929114809 0.125 0.634360786774375
0.283269328660214 0.125 0.642921559826612
0.289342185806617 0.125 0.651393312497566
0.283765108297375 0.125 0.660902195676268
0.290890186265312 0.125 0.671717936675797
0.28328489553731 0.125 0.684705579337026
0.291132549251361 0.125 0.691636511486249
0.28697664708184 0.125 0.695950737027243
0.290760653163157 0.125 0.706713672869308
0.284483126223377 0.125 0.726527288915556
0.283274494053102 0.125 0.729939830189468
0.289402263647232 0.125 0.734870327481939
0.285548898009364 0.125 0.748569876369477
0.289446862579889 0.125 0.753876906549916
0.290260233904474 0.125 0.772266847582469
0.286817622251403 0.125 0.774823034539513
0.28448737944895 0.125 0.792712969217752
0.290308617244915 0.125 0.800109779114436
0.288174771058515 0.125 0.808368675819745
0.283950684579897 0.125 0.815706040954372
0.282900653466156 0.125 0.827213650059466
0.283712353096699 0.125 0.833409176287633
0.291863398336769 0.125 0.842476972911468
0.292401453985735 0.125 0.847689244251172
0.29030352600024 0.125 0.864956602211447
0.291217878759516 0.125 0.879728352941231
0.29040061377867 0.125 0.884205493453757
0.286556564539274 0.125 0.895006633891807
0.284993609310421 0.125 0.907444001615781
0.287182133193085 0.125 0.912086141467781
0.286545373444401 0.125 0.920303410291659
0.287056891953358 0.125 0.931387178414059
0.285453596646418 0.125 0.938531157814058
0.288957570083763 0.125 0.948582238058686
0.287786533166942 0.125 0.956110180364705
0.288907138051752 0.125 0.97165572746795
0.284084471526145 0.125 0.975566997092707
0.288952164962941 0.125 0.984053788383229
0.289831631805574 0.125 0.995517995375779
0.28434503433282 0.122125711571336 1.0
0.288106879003422 0.101426856972133 1.0
0.296709609848322 0.0843112770532025 1.0
0.291012072850287 0.0775097198491864 1.0
0.294876471830283 0.0565807956516212 1.0
0.300573022955434 0.047422246790548 1.0
0.296000588121546 0.0383162007476855 1.0
0.30167222082266 0.0184528241101169 1.0
0.29945004693205 -0.0119125945105881 1.0
0.30002148856246 -0.0108817104205588 1.0
0.30668840863946 -0.0280849660130681 1.0
0.301163501009025 -0.0378034680824367 1.0
0.301778747412435 -0.0652965477928414 1.0
0.30341623629607 -0.0661837978222445 1.0
0.307068747321445 -0.0905622943659275 1.0
0.312661538013905 -0.111592487918539 1.0
0.30031123768208 0.125 0.113781249101548
0.296534664154817 0.125 0.127330573302928
0.298032170250885 0.125 0.133079702824159
0.295053798203114 0.125 0.150214636813193
0.292092332795355 0.125 0.16252399551378
0.299496533712833 0.125 0.168588826917444
0.292110891668566 0.125 0.170954616025205
0.300533502368964 0.125 0.176533324102697
0.292129389210192 0.125 0.192252425253
0.29644922794223 0.125 0.197790223052105
0.300990504213199 0.125 0.212807974056783
0.297168370802099 0.125 0.215596740243822
0.292903904022328 0.125 0.232352296306735
0.292846025361859 0.125 0.242075752074315
0.296201819231534 0.125 0.250940691158916
0.293398480638639 0.125 0.262181507223884
0.302024364157522 0.125 0.264941775714993
0.29407554151545 0.125 0.281420219050298
0.300640629956843 0.125 0.281149701403411
0.295914931976719 0.125 0.300868259854348
0.297312062812578 0.125 0.309686568410677
0.300044049127911 0.125 0.314543265577433
0.293510543847624 0.125 0.330281583107467
0.299742955984722 0.125 0.338899414044147
0.298500612710712 0.125 0.342085559097081
0.301335942808507 0.125 0.352000311466905
0.295900547871381 0.125 0.364448202532521
0.301754939182514 0.125 0.376122467337177
0.298512248247047 0.125 0.384929022673177
0.296579129576791 0.125 0.397965157276105
0.29415728248778 0.125 0.401223594362604
0.292893418849249 0.125 0.406917784074183
0.295096135568555 0.125 0.420970414930196
0.298977856449252 0.125 0.427276513630514
0.293737551358632 0.125 0.446836429758442
0.294634519610043 0.125 0.449794361625019
0.293120669850761 0.125 0.459205059001008
0.301794626286731 0.125 0.472774476267186
0.301799224346775 0.125 0.473250216004602
0.298819238756626 0.125 0.489979574005366
0.295349820179519 0.125 0.499354912944529
0.299715815730793 0.125 0.510852553141186
0.300746443324125 0.125 0.515635379161923
0.300471210630829 0.125 0.529011442540793
0.297315551832796 0.125 0.543793741192136
0.294846639155136 0.125 0.540987589145101
0.298258079112792 0.125 0.557338207919219
0.293920147852325 0.125 0.561777622113807
0.300378331310437 0.125 0.58195555820751
0.302029756627039 0.125 0.584561738474103
0.301497295033625 0.125 0.594644352849886
0.297216832082285 0.125 0.607167371267451
0.294428108635356 0.125 0.61621657295235
0.296864044223627 0.125 0.620288207896208
0.296230064077573 0.125 0.633321198478131
0.301542510922402 0.125 0.643424421922928
0.292788942000214 0.125 0.656930750126726
0.300102993262501 0.125 0.660582633358498
0.292857939991977 0.125 0.669386379591193
0.294715307291876 0.125 0.677819208956388
0.300536356542896 0.125 0.693926123310837
0.297124538483015 0.125 0.698807900106466
0.300134469085658 0.125 0.706245631990907
0.299844062906959 0.125 0.719045373992041
0.300628321734269 0.125 0.729889359593146
0.292602735660966 0.125 0.736083377049997
0.294785593512662 0.125 0.743375731640529
0.295447067366983 0.125 0.758372499104523
0.294419069422626 0.125 0.76136730101991
0.301176721058114 0.125 0.780584731768553
0.299097106741564 0.125 0.787494176901849
0.29345935382638 0.125 0.795371182044325
0.292130730963629 0.125 0.810201330369527
0.297334438795229 0.125 0.816580159866767
0.301127402426885 0.125 0.827751814663385
0.293951891891264 0.125 0.834371153847461
0.295105898846673 0.125 0.842953882838477
0.294415373993968 0.125 0.848621153686157
0.297498900888279 0.125 0.864718566521154
0.293012872133162 0.125 0.871797824950683
0.294748286385887 0.125 0.882398939760364
0.295612847847059 0.125 0.887445059860872
0.300340384259224 0.125 0.901595295159123
0.297988402816442 0.125 0.911835511718016
0.301696571437441 0.125 0.916703575592765
0.300867326915576 0.125 0.932609543230327
0.297158642529038 0.125 0.936022775559854
0.293478063070169 0.125 0.947280304489791
0.301215804425571 0.125 0.961930454605146
0.295019325763781 0.125 0.966608894775784
0.2939418169915 0.125 0.976321125984548
0.296421041982294 0.125 0.984808000542668
0.295609344601304 0.125 0.994275448403455
0.292893675939534 0.12447309778689 1.0
0.303815164750419 0.0980969093444347 1.0
0.296940579455276 0.0920123253734206 1.0
0.300140116517895 0.0722507736475703 1.0
0.302632479542247 0.0575061961273215 1.0
0.30647175162808 0.0537982989108897 1.0
0.304364577867956 0.0333747765013474 1.0
0.306968919553958 0.00712413025240934 1.0
0.311185608355428 -0.00621497893394371 1.0
0.307788791370878 -0.0206603736247112 1.0
0.31093283520167 -0.0262636684718288 1.0
0.317268942090505 -0.038474542916915 1.0
0.31476478091391 -0.0647484405460258 1.0
0.321859894463745 -0.0765044388518073 1.0
0.318765851622349 -0.0985328830946478 1.0
0.325905128204357 -0.113319365071294 1.0
0.323621697874553 -0.12410494811934 1.0
0.309585319141808 0.125 0.118788553385845
0.307230059513899 0.125 0.12549698522659
0.309969125275365 0.125 0.13253840928034
0.308016921682214 0.125 0.151214440547115
0.306438381120775 0.125 0.151763174943826
0.303368352079165 0.125 0.164714615599452
0.311025595255988 0.125 0.180489962407563
0.30926648715356 0.125 0.180002063843355
0.3090465787358 0.125 0.187737085732864
0.303752763720935 0.124999999999999 0.199229789863553
0.304328226657513 0.125 0.211807437691201
0.311164143703664 0.125 0.224151650563297
0.303671215327853 0.125 0.23254706906191
0.308308815143692 0.125 0.242564149735811
0.303238634831705 0.125 0.253076820270004
0.311116399052135 0.125 0.256842123810457
0.306765493375804 0.125 0.268380765030083
0.30668440259669 0.125 0.284478794193797
0.311429047300763 0.125 0.291092472927201
0.305970778006799 0.125 0.297752545259358
0.304019958137216 0.125 0.3034109989554
0.302453229404882 0.125 0.310670666815448
0.306792994869286 0.125 0.321987805464375
0.304373642941415 0.125 0.335773571271991
0.302292256588504 0.125 0.347579085719416
0.301919165471951 0.125 0.34973678194382
0.311245644734244 0.125 0.364371385747064
0.305169409538928 0.125 0.379421748147119
0.306937798339533 0.125 0.387137855610414
0.307235721841758 0.125 0.391712795595944
0.303047026144936 0.125 0.407924974021311
0.301585275801491 0.125 0.415203325678817
0.30503279270202 0.125 0.42266973661419
0.303028806964064 0.125 0.430642864705279
0.311176548550713 0.125 0.443083428381005
0.304095311500653 0.125 0.449995225534949
0.30304792142291 0.125 0.461986121079159
0.306342253347834 0.125 0.463206743760645
0.304682528859924 0.125 0.474539111980935
0.303058170762567 0.125 0.487547239205322
0.308339145218255 0.125 0.499246198878364
0.307721802844546 0.125 0.500876214451208
0.307617368242997 0.125 0.516966344297464
0.307010650478877 0.125 0.524176239843065
0.31189973825272 0.125 0.538044787726437
0.311352063439376 0.125 0.54410998538492
0.305814567286756 0.125 0.557631336782148
0.309299006407413 0.125 0.5659302340989
0.308698217772296 0.125 0.572399650750759
0.30435132380445 0.125 0.578050226986642
0.309463347799552 0.125 0.595652948399716
0.303012940288334 0.125 0.608093493436321
0.303388937943266 0.125 0.612307849599
0.301727186582222 0.125 0.627328784814307
0.305804662659699 0.125 0.635518835902918
0.302442400529905 0.125 0.644215961345755
0.303497303891159 0.125 0.648002942047026
0.30849255768437 0.125 0.663951653826756
0.306535762161405 0.125 0.669100762672386
0.305116970199127 0.125 0.673708469382151
0.305504204706894 0.125 0.684518741595823
0.30578629818778 0.125 0.700822062064969
0.306901631194399 0.125 0.713890254522438
0.309635733810841 0.125 0.713203376296766
0.306056109064546 0.125 0.728526171758181
0.309488794831064 0.125 0.743545563753191
0.30764534708739 0.125 0.750293928655136
0.308020073418895 0.125 0.756152457430836
0.3099366888616 0.125 0.77115658844811
0.308706670013517 0.125 0.774685140712805
0.302945451813092 0.125 0.793735530804883
0.307196135090708 0.125 0.794860057255881
0.307084413733809 0.125 0.806984574153057
0.309786067659685 0.125 0.8200000711916
0.304687805795004 0.125 0.823347258181514
0.310273745490195 0.125 0.832146073293188
0.310726119104464 0.125 0.837760696667623
0.311558059842383 0.125 0.854985913685013
0.305293098289147 0.125 0.867067536789389
0.303229469156898 0.125 0.876346013998409
0.306291124955945 0.125 0.883719930574212
0.310972838923943 0.125 0.895964971065785
0.302950530898232 0.125 0.896791096931413
0.307237172139734 0.125 0.91298709732617
0.303013608493622 0.125 0.920972794304919
0.309871061343457 0.125 0.92619062875342
0.303382739581279 0.125 0.933449035349101
0.304846487740835 0.125 0.94252198061369
0.301715653961584 0.125 0.964169997077916
0.310869960433266 0.125 0.965552543843728
0.307025967319598 0.125 0.97136470555268
0.309448809794431 0.125 0.989299268089928
0.304602049557078 0.125 0.994521495498922
0.307103322754254 0.111738507399007 1.0
0.30485563014716 0.100336328808992 1.0
0.308394468550183 0.084086732260856 1.0
0.317268838092213 0.0749486095473405 1.0
0.317018532793453 0.0544443756473213 1.0
0.315167460524319 0.0467374565438331 1.0
0.315583418023244 0.0280621118152457 1.0
0.314874971328816 0.0235814772179593 1.0
0.325125517442049 -0.00564053472693268 1.0
0.32046770203002 -0.00782499503837827 1.0
0.322681165054052 -0.0301221315199719 1.0
0.32474203333501 -0.0393635495586203 1.0
0.324094573697373 -0.0525456736052297 1.0
0.325150087319138 -0.0734010595876327 1.0
0.327651782004895 -0.0876385096297053 1.0
0.333416810500368 -0.105911890547494 1.0
0.332745646727206 -0.12442144636142 1.0
0.312546941648622 0.125 0.110269759044209
0.315209204065723 0.125 0.11988874406601
0.31244080304239 0.125 0.137655583466701
0.319106665963405 0.124999999999999 0.149055793581107
0.316766947106635 0.125 0.150355638726096
0.320616695324313 0.125 0.16640852011855
0.315910640376559 0.125 0.165639500403195
0.313898907027536 0.125 0.179433758979906
0.320535359314817 0.125 0.189613007440102
0.318932584165173 0.125 0.196818065370532
0.311639406282929 0.124999999999999 0.216663502675111
0.311226160781351 0.125 0.223687280840873
0.317252049618596 0.125 0.225011798397367
0.314578075924901 0.125 0.239696547178915
0.314512005561046 0.125 0.25062019139927
0.318625405526963 0.125 0.253643778140155
0.313559979663243 0.125 0.269687948709502
0.31890266004958 0.125 0.277216708899668
0.312034363947529 0.125 0.294399704061821
0.316256340859347 0.125 0.30124219624554
0.312027261960499 0.125 0.304822835233051
0.316582407530875 0.125 0.318555071552777
0.314279060401799 0.125 0.323980440266012
0.312952203975027 0.125 0.340836234259284
0.311384795490258 0.125 0.342523204541912
0.317879982512849 0.125 0.348920017615872
0.316751689162892 0.125 0.362638639379322
0.319704623731196 0.125 0.379271441406993
0.315617636007208 0.125 0.384491560365325
0.313625360465446 0.125 0.394106573440778
0.318504815498704 0.125 0.407242296030345
0.317068802657382 0.125 0.410603875674261
0.318143302375053 0.125 0.419945558591378
0.314866250579426 0.125 0.433789104801432
0.313476197428918 0.125 0.440257682556319
0.31228346732275 0.125 0.449673631962909
0.317288882001928 0.125 0.463140990322115
0.314258440413847 0.125 0.463181684628359
0.312731211280521 0.125 0.476315592333113
0.319581769956786 0.125 0.494672147175856
0.320484092885789 0.125 0.498138703083017
0.315725084639009 0.125 0.516781516483479
0.321312211557412 0.125 0.516781728220249
0.317005688208394 0.125 0.52115006767943
0.320191319880777 0.125 0.541294127700184
0.315655804171759 0.125 0.55123600702042
0.311741475999521 0.125 0.550722148213902
0.313256152476396 0.125 0.571366477786877
0.319108232637162 0.125 0.573131588859077
0.320803175939337 0.125 0.583225573699526
0.316644638198252 0.125 0.59252834440567
0.32016744975025 0.125 0.599064735146236
0.313298282010945 0.125 0.61222391897232
0.313667972675645 0.125 0.623378310466344
0.314653812395547 0.125 0.633616274067946
0.316731759398109 0.125 0.647650352114523
0.320586258395104 0.125 0.6506630301252
0.313589082014584 0.125 0.666307094315987
0.314074362357217 0.125 0.674933765588981
0.318461221149535 0.125 0.679001860861202
0.31253652126569 0.125 0.694562775889825
0.314217153773398 0.125 0.702766453317597
0.32000028265356 0.125 0.715331958632742
0.318733137893459 0.125 0.720255755744533
0.315788208358499 0.125 0.721881044346009
0.312631373003812 0.125 0.741571482561006
0.31494309065769 0.125 0.752244648697605
0.318933119525246 0.125 0.754450006318579
0.321386329036887 0.125 0.763438899343033
0.31307594647989 0.125 0.774067988561439
0.318636152497498 0.125 0.788762593887952
0.320858777733565 0.125 0.795532282807426
0.313094962147593 0.125 0.803537830105346
0.317410307641199 0.125 0.809046523711602
0.3126757526953 0.125 0.821564738037442
0.314698783054008 0.125 0.829607293917418
0.31680629084594 0.125 0.841763386268096
0.314741374619578 0.125 0.85265279701931
0.320993807614053 0.125 0.861591568553161
0.3121546289646 0.125 0.872250668589386
0.312748975482745 0.125 0.879888291585317
0.317820448077662 0.125 0.891481688388267
0.31664952404351 0.125 0.90200446617201
0.311234963824993 0.125 0.91286183513847
0.316577416434776 0.125 0.918392446427033
0.319257645003405 0.125 0.927663749249544
0.314415548765759 0.125 0.935623316500158
0.314487857268825 0.125 0.941632210929227
0.316355247604149 0.125 0.959786394924036
0.312827883099579 0.125 0.976111699509262
0.319921378547916 0.125 0.979517525347597
0.318696980382619 0.125 0.983578504570696
0.318546669011767 0.125071331310283 1.0
0.313241221877476 0.121872044262894 1.0
0.314097782866133 0.104917770756669 1.0
0.32134533539009 0.0852194600167614 1.0
0.320099950047032 0.0639686041829183 1.0
0.329052168673586 0.0483892988298659 1.0
0.329392003880344 0.0421581260413951 1.0
0.325246935890532 0.0256375215991217 1.0
0.33262805965262 0.0167298880815324 1.0
0.334457722684189 -0.00707479806407563 1.0
0.334360116396222 -0.00416754494110994 1.0
0.330901433512991 -0.0380388356328548 1.0
0.332233787491922 -0.0395027552173187 1.0
0.334583584539313 -0.0551179266659473 1.0
0.338351508914188 -0.0714482777555957 1.0
0.340721603624397 -0.0928253417899511 1.0
0.338491673223291 -0.1144195400305 1.0
0.322421887604835 0.125 0.113855167925884
0.328088785904943 0.125 0.126082152396281
0.327307288323533 0.124999999999999 0.142055264351176
0.325905500006015 0.125 0.148430877151967
0.324927436195577 0.125 0.152101417991827
0.32391525289529 0.124999999999999 0.157396894216285
0.328061099746968 0.124999999999999 0.172514059255079
0.325263647768463 0.125 0.178294726909613
0.325526723990299 0.124999999999999 0.191679000052136
0.328036633878608 0.125 0.198476860480903
0.32827953124741 0.125 0.21001586491862
0.323422784994244 0.125 0.221997659499104
0.32790637902842 0.125 0.223521807762586
0.328025340066143 0.125 0.238057812383304
0.328198776494153 0.125 0.244669774163348
0.328811574630704 0.125 0.259381993181006
0.327406007700169 0.125 0.267099822847018
0.322731659471759 0.125 0.279844058885816
0.323127334310118 0.125 0.282918183808078
0.32898063607104 0.125 0.298691644562543
0.323015896399172 0.125 0.309625100618111
0.329295250193481 0.125 0.319777381906953
0.330770179816781 0.125 0.320013559928252
0.323470512373167 0.125 0.333978709638783
0.330277272566002 0.125 0.341728295829925
0.329065807431927 0.125 0.360915854594031
0.326140626618583 0.125 0.362074704111889
0.321998714471443 0.125 0.375380031369553
0.326052549095641 0.125 0.380088229949944
0.324636261442951 0.125 0.392692315745389
0.32678191339089 0.125 0.40090159208542
0.325529480880624 0.125 0.413337529548921
0.326692261789716 0.125 0.417915944159376
0.327430363237635 0.125 0.429765585715963
0.322037637605743 0.125 0.440175235702903
0.323151582926445 0.125 0.443778803546917
0.329216678445019 0.125 0.463163774143041
0.32238508663694 0.125 0.469662525552373
0.329954940629553 0.125 0.485406371048748
0.321996414080667 0.125 0.488455314785082
0.322783602001584 0.125 0.504274339308687
0.322627093863741 0.125 0.510020639708769
0.325511199725499 0.125 0.513476954329108
0.329274632459941 0.125 0.526948284281555
0.328261780876578 0.125 0.536104126274246
0.327663831961027 0.125 0.54142800696875
0.329774523065503 0.125 0.560815409876589
0.321579115607568 0.125 0.559338764136397
0.330053563720619 0.125 0.581775029082984
0.327311125340836 0.125 0.584092105644393
0.326788347951849 0.125 0.595028638180907
0.32742415536709 0.125 0.606351497641645
0.327038996019455 0.125 0.608623671698983
0.327499813609033 0.125 0.622814614643606
0.325416241524009 0.125 0.635634849292259
0.322335485493574 0.125 0.638816087103452
0.329787030736894 0.125 0.648203140482021
0.321877312997897 0.125 0.658805168290598
0.323709319504969 0.125 0.66684139912547
0.328950131742234 0.125 0.684237330492608
0.323212985501017 0.125 0.694345143124974
0.329721993342258 0.125 0.701810796785089
0.32574664936505 0.125 0.710860947450315
0.325421742925428 0.125 0.723747990806645
0.325055929701586 0.125 0.725783537754541
0.325380052034345 0.125 0.739186875566339
0.328528984850546 0.125 0.747576556192369
0.324558925994034 0.125 0.756163778899742
0.330062040591213 0.125 0.768389688651231
0.325753281260286 0.125 0.779695148780754
0.328543708233354 0.125 0.790283961287253
0.327081288374127 0.125 0.794034207990412
0.323893617392109 0.125 0.798388301408802
0.329949356914756 0.125 0.812424780144238
0.328570254618892 0.125 0.82165310717164
0.328136439566658 0.125 0.837186983022068
0.326647665469824 0.125 0.845465631183283
0.329891546893042 0.125 0.855149469931824
0.324823380124136 0.125 0.8618803752759
0.327549285675127 0.125 0.877297695753951
0.32298482168315 0.125 0.881961903486636
0.326541526086494 0.125 0.893610814271471
0.32445319024372 0.125 0.896913730536201
0.32190814306555 0.125 0.912613796904111
0.325619176380998 0.125 0.921397636445852
0.322655602556904 0.125 0.929388477479503
0.320855247252828 0.125 0.938439577972744
0.321726808998529 0.125 0.943837470594814
0.321642274487989 0.125 0.952756446087095
0.322057158859526 0.125 0.961017131791736
0.324538246513508 0.125 0.974639484886642
0.328344177464642 0.125 0.987928577535109
0.322722329980237 0.125 0.996823295770576
0.330726293118724 0.108716993019252 1.0
0.326047248073497 0.103381110396155 1.0
0.332506733733875 0.0951538940641127 1.0
0.335420591905607 0.0745400818583403 1.0
0.33359479654729 0.0559821862411444 1.0
0.339007629371123 0.0548615755703795 1.0
0.334699114017633 0.0299321296509815 1.0
0.341561730575975 0.00801406105414183 1.0
0.336207288549447 0.00618233655285384 1.0
0.34101808722502 -0.007442688154503 1.0
0.342312901430624 -0.0282016216664301 1.0
0.341246472257028 -0.0482429220752102 1.0
0.343365329125038 -0.0640591157552156 1.0
0.3444574093349 -0.0707932783179422 1.0
0.350340792782106 -0.0900002722724867 1.0
0.348298647112027 -0.104798049993869 1.0
0.350464000969922 -0.119364009592561 1.0
0.336143509606873 0.125 0.112464938666184
0.338802043401739 0.124999999999999 0.121710982960867
0.333802955913276 0.125 0.137982388414623
0.331864939172664 0.125 0.151461176947953
0.332042519730167 0.124999999999999 0.152062141925791
0.338978330837949 0.125 0.161959931893713
0.334765531444306 0.125 0.166701450469201
0.336007955557053 0.125 0.186674251890679
0.332364843681824 0.125 0.201092633871867
0.333379233810464 0.125 0.19685346510503
0.332358185602371 0.125 0.210684311785085
0.340075612272811 0.125 0.215495340268363
0.331780491591434 0.125 0.234937949741012
0.334087701558391 0.124999999999999 0.235092725181727
0.334491331584818 0.125 0.246340774003167
0.335472350497919 0.125 0.2583801106081
0.333052427343523 0.125 0.264640651568253
0.33978586021407 0.125 0.282103397362332
0.340588062718656 0.125 0.286234422997559
0.338203410615786 0.125 0.296463440706886
0.335645919041495 0.125 0.308783891510974
0.335671797693046 0.125 0.315284282640862
0.332527448042337 0.125 0.333226004951516
0.334686786074141 0.125 0.339165464485478
0.339947784430196 0.125 0.342920029597841
0.340400466480091 0.125 0.352772267119348
0.337948055608889 0.125 0.369590909589767
0.330958530625435 0.125 0.380876718412242
0.330150597076657 0.125 0.389985148129828
0.334963601276427 0.125 0.398056089942771
0.336225259307749 0.125 0.401499846361303
0.338044426268282 0.125 0.4171422667359
0.332525413204855 0.125 0.424655037708942
0.331711273981065 0.125 0.430204986967448
0.332801191902221 0.125 0.448240666382816
0.338555881401026 0.125 0.44553392113108
0.33734361068895 0.125 0.46214604527746
0.336149175852106 0.125 0.471430547350423
0.336867769320816 0.125 0.486876544992453
0.330855546457458 0.125 0.485296986522521
0.33139403295334 0.125 0.500683627898209
0.338285927069895 0.125 0.507244181004609
0.334627683740169 0.125 0.514608132067504
0.33406860368075 0.125 0.528096225441726
0.33462822932453 0.125 0.539116360638246
0.335690492333218 0.125 0.546079000276134
0.333099201070013 0.125 0.551526883701132
0.335546047767066 0.125 0.55991727896368
0.338720964358757 0.125 0.575047908230659
0.336486865101908 0.125 0.586873423264433
0.336792819101021 0.125 0.589958985273482
0.331888268344492 0.125 0.597291838817307
0.338688886127878 0.125 0.617686637407312
0.333725529037751 0.125 0.631004270995987
0.334239937123334 0.125 0.631236074617104
0.333298724866311 0.125 0.640967065490614
0.331330736640793 0.125 0.650792568932262
0.330542650674689 0.125 0.660794461533286
0.33574407683648 0.125 0.672034557714781
0.332369299199211 0.125 0.689107041250032
0.331049772877375 0.125 0.692152617690113
0.338190234414884 0.125 0.702602471931191
0.337085705229373 0.125 0.715404846521742
0.335068716427171 0.125 0.719743353403702
0.334824516774155 0.125 0.728638776858578
0.335628639455502 0.125 0.733295885282805
0.331484186387957 0.125 0.743512027742717
0.336857486091765 0.125 0.755907748902928
0.333995571212502 0.125 0.764681582747416
0.338641822815906 0.125 0.780580712627442
0.338100840405062 0.125 0.778512754479361
0.333746956745006 0.125 0.792327285174067
0.332730368108167 0.125 0.810499077411102
0.339338841911823 0.125 0.814055571884294
0.338003391285659 0.125 0.821408665251683
0.333023003481592 0.125 0.836266472177509
0.330433863958237 0.125 0.84039179962206
0.340023187264857 0.125 0.852645638553697
0.339298296331662 0.125 0.864694276061998
0.331973049163485 0.125 0.874645369032031
0.336354387960537 0.125 0.888216583998154
0.339527282763117 0.125 0.88530195072498
0.335653195907042 0.125 0.901048471242965
0.336678634974453 0.125 0.910337572111823
0.332263179117723 0.125 0.923850529148679
0.334858271256088 0.125 0.929161107006977
0.338474180430256 0.125 0.944405302116158
0.336369453782107 0.125 0.9513342962754
0.331455468755531 0.125 0.955353082814685
0.331437861871855 0.125 0.968212785844467
0.333091758365525 0.125 0.973284634969345
0.335072438825272 0.125 0.981338203068642
0.331721870826346 0.125 0.999434380135338
0.339756680388324 0.114926953770839 1.0
0.334995551305167 0.101955431138708 1.0
0.338247584662452 0.0930174701567305 1.0
0.34165451031452 0.0803016699981755 1.0
0.343132030694594 0.0599411676945961 1.0
0.349147720110933 0.0423935298541326 1.0
0.348066540051186 0.0260383779231458 1.0
0.352789955873579 0.00816580785781829 1.0
0.347146191013306 -0.0036864053031499 1.0
0.348254640778093 -0.0182851720461971 1.0
0.348755831223069 -0.0240175021825718 1.0
0.350863283101847 -0.0363857042090842 1.0
0.359991950924785 -0.0688206240008699 1.0
0.356295583625886 -0.0700344312307021 1.0
0.357725524613407 -0.0803662314807069 1.0
0.358582949571813 -0.112141491448181 1.0
0.36684168845343 -0.118531801970455 1.0
0.33994193476781 0.125 0.1198563851685
0.342049186591078 0.125 0.123274469236989
0.342166667365602 0.125 0.139653963547814
0.348419230422946 0.125 0.1478048335033
0.340681691205263 0.125 0.152300500267842
0.348936894723953 0.125 0.17061604067405
0.342247363520773 0.125 0.17766880904863
0.340909476476803 0.125 0.182280694316
0.341978419408332 0.124999999999999 0.193464626391965
0.341201871781235 0.125 0.197176670642575
0.342621454454631 0.124999999999999 0.211298915803587
0.349364783621891 0.125 0.215896610977804
0.34546961179522 0.125 0.224159265887272
0.340358826207436 0.125 0.240566794283796
0.349100314261636 0.125 0.254367046269942
0.348031755615828 0.125 0.263714397338176
0.340443222797013 0.125 0.271786888719929
0.341054573796268 0.125 0.28006280504258
0.344410029100014 0.125 0.286674182290935
0.345428484101002 0.125 0.297426806154125
0.348651353909572 0.125 0.310844264083958
0.345197732076697 0.125 0.323024099660338
0.347518573566436 0.125 0.325475044547901
0.34315570467486 0.125 0.335917961733346
0.342001921319141 0.125 0.340006060586837
0.347161787050172 0.125 0.349850741451857
0.348030619692668 0.125 0.365583741110668
0.349865988448282 0.125 0.371959826065319
0.342710240829832 0.125 0.380930150271976
0.342967172637016 0.125 0.388295679553941
0.343000422259823 0.125 0.405784949069606
0.349441582785146 0.125 0.406778952933009
0.342727039804744 0.125 0.427235362814806
0.343822782153981 0.125 0.434298678044319
0.341724392562225 0.125 0.445250880503336
0.342102706146288 0.125 0.451866197192273
0.349300050309179 0.125 0.459061900694646
0.344351026998652 0.125 0.467763674117
0.342868227739211 0.125 0.478178357393501
0.34232290903501 0.125 0.483387246601661
0.343697462578833 0.125 0.50015782920997
0.345137470724598 0.125 0.510636126944942
0.344608345441176 0.125 0.519178013643558
0.345531403132612 0.125 0.52772243289209
0.347576463453177 0.125 0.537798003660404
0.345043352563456 0.125 0.553698400617379
0.349808024985524 0.125 0.555485812855471
0.347793676659765 0.125 0.565315885696194
0.345869344295588 0.125 0.571137525323017
0.34530769140605 0.125 0.585224996663932
0.340520661974433 0.125 0.594747390694882
0.345069500773562 0.125 0.605992229399098
0.344105483097775 0.125 0.613546137165234
0.346918668463589 0.125 0.62713167372537
0.342298207912901 0.125 0.637650526185823
0.345591094645585 0.125 0.645426140243665
0.346731872255472 0.125 0.653033420704822
0.348311691523626 0.125 0.6551149444827
0.342164775232815 0.125 0.67261595864891
0.342400376718957 0.125 0.683904348895839
0.342303478616231 0.125 0.689257760963736
0.341904140080714 0.125 0.695093497447152
0.340540812845489 0.125 0.712357299073563
0.342907819812842 0.125 0.718751311655453
0.342483636608244 0.125 0.726566896628085
0.341444544040344 0.125 0.736536144142941
0.34664922066194 0.125 0.750334317457524
0.340622212425458 0.125 0.757480476966037
0.345125316834766 0.125 0.768620350023389
0.343122452102464 0.125 0.777217391174544
0.34024371680815 0.125 0.785517160634231
0.343770871033874 0.125 0.794826926330169
0.349834599911636 0.125 0.799713468812678
0.345576396735065 0.125 0.80933304799039
0.340548377922567 0.125 0.830045233244967
0.347480124516576 0.125 0.834468813090213
0.340834635904783 0.125 0.8410653307142
0.349267185734949 0.125 0.856538052283963
0.349961095305698 0.125 0.86210067558356
0.341018092860772 0.125 0.86773066597213
0.344082640123897 0.125 0.887989379135565
0.344448133209285 0.125 0.895621971641067
0.341362352011449 0.125 0.905861730840625
0.34879692756301 0.125 0.911884039892062
0.347415228771177 0.125 0.923680072497541
0.347285345037758 0.125 0.936271273502407
0.347925138114018 0.125 0.939782204128633
0.344418305670113 0.125 0.950114073799517
0.348774814698156 0.125 0.957227636317843
0.343751992851017 0.125 0.964416329282883
0.342514451804484 0.125 0.983376334776883
0.347353873441152 0.125 0.989724342442906
0.343600791961974 0.125 0.998585929224793
0.349095495720641 0.105276240433648 1.0
0.345627241257574 0.104712377652516 1.0
0.349457608492379 0.0853909276116295 1.0
0.350093355820729 0.0768983986299235 1.0
0.351992446774489 0.0565108651232297 1.0
0.352559197598628 0.04283152022324 1.0
0.353152289444045 0.0218252965756295 1.0
0.358354272098261 0.010745732003599 1.0
0.355869068652774 -0.00109356425221663 1.0
0.358717066877344 -0.0204638872959643 1.0
0.368414254392539 -0.0335149503979594 1.0
0.362487348037452 -0.0492101180691483 1.0
0.364111844769718 -0.0626741199341302 1.0
0.370247997424905 -0.0800848884082718 1.0
0.373390103297512 -0.0941624337866639 1.0
0.354188964553817 0.125 0.106859374545583
0.354945114645943 0.124999999999999 0.116776013178236
0.355128308712558 0.125 0.129492404887251
0.359600421697643 0.125 0.13846255145824
0.354560431401863 0.124999999999999 0.161452730485252
0.35166641401547 0.125 0.171086946033864
0.355025311913151 0.124999999999999 0.172248404037035
0.350604299361649 0.125 0.1834838629176
0.355714789487069 0.125 0.198733414672421
0.356502006025936 0.125 0.202465443073614
0.352194476733593 0.125 0.205421243925355
0.359228998686054 0.125 0.224252161657282
0.34978686811594 0.125 0.232690354921838
0.357203462115776 0.125 0.238372143608762
0.353561880013629 0.125 0.2489540797909
0.35431275375238 0.125 0.263090153308743
0.350410131475485 0.125 0.264196785717118
0.354646825359849 0.125 0.280236022007034
0.354583512009222 0.125 0.289186093932041
0.349409928271415 0.125 0.303912346941396
0.353389437342061 0.125 0.309572179064819
0.354539972767212 0.125 0.31827949035611
0.352628358197936 0.125 0.321864333286237
0.351138555956141 0.125 0.332909803027954
0.352576016212717 0.125 0.343505858235548
0.357542445823669 0.125 0.349092672108998
0.351926813109405 0.125 0.364745198251168
0.34993567024955 0.125 0.378093356437109
0.35138746962556 0.125 0.39123176963808
0.353015548531683 0.125 0.396943461232238
0.357285219521554 0.125 0.399323047555241
0.3566751332908 0.125 0.416522889269433
0.354016018532358 0.125 0.425400166151205
0.3596968224131 0.125 0.431131309724552
0.357578559019408 0.125 0.437402718021218
0.350077777878125 0.125 0.451702664038905
0.352192908961081 0.125 0.454138674219005
0.355429707162723 0.125 0.470772569480951
0.354982879098538 0.125 0.47822325776275
0.359324518847783 0.125 0.481950180647851
0.358415914401084 0.125 0.498785471110469
0.355153838572013 0.125 0.509437118619505
0.35304932919299 0.125 0.524819709601041
0.356810683965247 0.125 0.526996884515229
0.352961199626021 0.125 0.533658272591846
0.357420326434572 0.125 0.547760730575434
0.35384892962152 0.125 0.562744689008216
0.355376572509288 0.125 0.567830892290957
0.351845070945922 0.125 0.573640066624397
0.357263980306365 0.125 0.584160420568812
0.358367309520481 0.125 0.595876541258188
0.359300407759371 0.125 0.602662339595929
0.355954616854795 0.125 0.612067136786381
0.353200397468946 0.125 0.62266187520458
0.351584362309029 0.125 0.628649732569748
0.351710580323577 0.125 0.641995977748258
0.359684473380487 0.125 0.646280480944206
0.350436675928638 0.125 0.657367278977603
0.353802791833205 0.125 0.673193563413329
0.354796349642952 0.125 0.68461751915981
0.358010053585031 0.125 0.692176453149016
0.35007696286306 0.125 0.694765497133965
0.355999444736174 0.125 0.713304853670305
0.352919167910911 0.125 0.721449089934354
0.351331405216894 0.125 0.720601211561188
0.350373775531961 0.125 0.739974071800052
0.358175827483203 0.125 0.751886099404262
0.355220160952122 0.125 0.754486513231673
0.355817763062274 0.125 0.767890608934454
0.353342491943251 0.125 0.78262512083563
0.355113844333573 0.125 0.779279106708278
0.350752899834759 0.125 0.795794219288941
0.354813855188171 0.125 0.800551576040175
0.35788331611167 0.125 0.820288768307346
0.358250212467494 0.125 0.826256957505984
0.354350186651139 0.125 0.841668111499606
0.353099121671627 0.125 0.847074853895691
0.355498105515052 0.125 0.856451513630325
0.350433815349441 0.125 0.861054515992079
0.354201941256585 0.125 0.877045505957098
0.352044967229141 0.125 0.885139996600526
0.359357092262606 0.125 0.892948580080991
0.350549564242908 0.125 0.898747744979477
0.358277152351395 0.125 0.913193105753112
0.351713124630648 0.125 0.920240287845997
0.352550249739651 0.125 0.924582076230072
0.350469467396368 0.125 0.939498537343697
0.35949003712817 0.125 0.94588927798145
0.356845303966045 0.125 0.957777076650298
0.356494175771312 0.125 0.963006051907431
0.358197031612522 0.125 0.980079108015131
0.353381127906908 0.125 0.989456036776678
0.358776707465477 0.125 1.0
0.355372977300486 0.112948649996801 1.0
0.353507317609861 0.111285618003388 1.0
0.362615073235674 0.0811146503981596 1.0
0.359871141712667 0.0780777066245498 1.0
0.365301475197792 0.061243993309667 1.0
0.36037969198783 0.0399701537547051 1.0
0.369602839298049 0.0367429649554082 1.0
0.363940296864275 0.013994824929639 1.0
0.36810348840885 0.00159834228533728 1.0
0.369296767377355 -0.0125282025015415 1.0
0.374777721908495 -0.0304867143028714 1.0
0.374183801966394 -0.0499471349458035 1.0
0.361091215887597 0.125 0.11014348772722
0.362415893594477 0.125 0.127414991433495
0.359750003077076 0.125 0.129451727609161
0.360745580821731 0.125 0.150726625607352
0.363752257927057 0.125 0.149195498681867
0.361593640347477 0.125 0.164149551415319
0.363137726115222 0.125 0.172424119112093
0.364236695959405 0.125 0.181558495064163
0.36854915212824 0.124999999999999 0.190119025307448
0.363493825929109 0.125 0.202651296113948
0.359751651813219 0.125 0.206599899349698
0.363955252394339 0.125 0.227443805292666
0.366967830186429 0.124999999999999 0.233954521433383
0.362231203259147 0.125 0.241517078589065
0.36443692112077 0.125 0.246658116818151
0.364684855826723 0.125 0.258061100878427
0.3678630591194 0.125 0.267084471026307
0.359748099660497 0.125 0.281282732874062
0.367565058412142 0.125 0.280132742062621
0.365192064821167 0.125 0.298358743281444
0.364608543536807 0.125 0.302600688204662
0.362593913112705 0.125 0.314324394824704
0.363457765557235 0.125 0.328571604728249
0.364183962762178 0.125 0.334344601647836
0.368675460231336 0.125 0.349741856308056
0.360870768726731 0.125 0.360943062169019
0.359328816817037 0.125 0.3667116037215
0.368333808492078 0.125 0.371133018284797
0.36899191629694 0.125 0.384678074561792
0.365840900075725 0.125 0.39731585572509
0.368433905333915 0.125 0.399021464515357
0.363722898667523 0.125 0.41455092777982
0.368461383852358 0.125 0.426033478433539
0.368482663810258 0.125 0.434469788210872
0.361492714705258 0.125 0.448969542509972
0.368379050948049 0.125 0.450967788484688
0.362092741610681 0.125 0.457460425957708
0.365217597033372 0.125 0.469069875546448
0.366555451864345 0.125 0.48119356315769
0.360486070850656 0.125 0.485789209397385
0.36622815509692 0.125 0.505153824313513
0.367178255910085 0.125 0.512383204512744
0.360768288019346 0.125 0.510082023211357
0.36707014096994 0.125 0.522171517410635
0.364893272193777 0.125 0.539780107633754
0.36431175200746 0.125 0.550143145874034
0.367719130683277 0.125 0.558860155526812
0.364666126518524 0.125 0.566365778034326
0.362075335277064 0.125 0.578761132009304
0.360800823008055 0.125 0.588150717599114
0.367488504904422 0.125 0.594455395831337
0.363736606899673 0.125 0.606853568104198
0.367339567502984 0.125 0.611997414659077
0.368298488820408 0.125 0.62264321107975
0.367006641550588 0.125 0.62585209991719
0.36381968810167 0.125 0.642632004479859
0.366973368723947 0.125 0.653580633905587
0.363439846844596 0.125 0.661629203132544
0.366231063002844 0.125 0.672931787744993
0.367889904931897 0.125 0.688076094091505
0.364698099008107 0.125 0.68373480529542
0.368200766638604 0.125 0.697665532776804
0.362897087112859 0.125 0.717334818842728
0.360956186581947 0.125 0.716669681437974
0.359420869003122 0.125 0.730829755331751
0.359003219848685 0.125 0.739208549201682
0.363204560726229 0.125 0.747026239354338
0.363731359122613 0.125 0.759525773047876
0.359556905201513 0.125 0.765761034496386
0.360092862214047 0.125 0.768812586221044
0.367965905997955 0.125 0.784984992021615
0.366389512889362 0.125 0.798473467297308
0.35983252275502 0.125 0.80142009394042
0.368952921287686 0.125 0.815635979669711
0.365099598254686 0.125 0.826768850676345
0.363869347668345 0.125 0.833214687831174
0.360430654652272 0.125 0.850427122269465
0.361211897073805 0.125 0.854455571930982
0.367523525571354 0.125 0.864032967667466
0.367907970044846 0.125 0.873207037572709
0.368280132301639 0.125 0.875172767352521
0.364239297881877 0.125 0.895585962523336
0.366320560391686 0.125 0.908436056379614
0.368521968173226 0.125 0.908596831368502
0.364928399761481 0.125 0.914772199290488
0.3685140632596 0.125 0.935174753876419
0.365954712514753 0.125 0.942273756974895
0.365460509569877 0.125 0.948822297018143
0.365658969869777 0.125 0.958186554244848
0.36004173142551 0.125 0.969292665053066
0.365306737263373 0.125 0.982246571337616
0.363557468620971 0.125 0.988752425077292
0.365820201045391 0.125 0.999385113752922
0.366979743996015 0.107882433975247 1.0
0.366441050879038 0.0944603592139738 1.0
0.370243227357255 0.0863410961784291 1.0
0.369617462088696 0.0712233728219126 1.0
0.374907035093701 0.0599397371783023 1.0
