ply
format ascii 1.0
element vertex 914
property float x
property float y
property float z
end_header
0.19359750884425 0.111842105263157 0.650988093008132
0.195568906255901 0.111842105263157 0.661910000376465
0.196319447021278 0.111842105263157 0.667134878212077
0.192527482904327 0.111842105263157 0.680848333654153
0.1932286882316 0.111842105263157 0.683031182554397
0.18958850273446 0.111842105263157 0.689282580387483
0.191299302419062 0.111842105263157 0.709818560088269
0.194577827087151 0.111842105263157 0.719068017601578
0.186871365830949 0.111842105263157 0.725213212931539
0.186570773950682 0.111842105263157 0.72979169191394
0.191756146231199 0.111842105263157 0.740432226011429
0.19097734522293 0.111842105263157 0.750230361545455
0.184376518288747 0.111842105263157 0.756855670434859
0.189026985123914 0.111842105263157 0.777668860501762
0.190554595621544 0.111842105263158 0.785326403460634
0.19414657189539 0.111842105263157 0.792056832291964
0.183612571029035 0.111842105263157 0.794737654867314
0.189832977425725 0.111842105263157 0.817089693892112
0.186562942583353 0.111842105263157 0.81046600549741
0.188373484057055 0.111842105263157 0.831229135304729
0.19477004271831 0.111842105263157 0.8323977700449
0.190441398070405 0.111842105263157 0.848487012323713
0.188975719509955 0.111842105263157 0.855904311460707
0.189456726416127 0.111842105263157 0.863352319444171
0.183878038037595 0.111842105263158 0.871697454799335
0.190281912847256 0.111842105263157 0.879208825526912
0.186824168069266 0.111842105263157 0.892288037968254
0.193203358608382 0.111842105263157 0.904063567432833
0.187315776391511 0.111842105263157 0.910936675063349
0.187012336439421 0.111842105263157 0.924980192789511
0.188231101349979 0.111842105263157 0.925967844958431
0.195332481945995 0.111842105263157 0.94173808314694
0.193742935360734 0.111842105263157 0.94925212923057
0.192699447300096 0.111842105263157 0.952542740981322
0.183161427937887 0.111842105263157 0.961848411265028
0.19286643692408 0.111842105263157 0.976077399964618
0.184999011056475 0.111842105263157 0.979990634519831
0.186793830410009 0.111842105263157 0.990772731778675
0.187844813373276 0.109564396242875 0.999999999999999
0.173822415665834 0.0906887994663065 0.999999999999999
0.162947871138574 0.0834565939556937 1.0
0.160808805028676 0.0848575844743122 1.0
0.144624233106129 0.0617400714075374 1.0
0.141431543710939 0.059110334358417 1.0
0.131006325847116 0.0430649713036826 1.0
0.122494910441909 0.03850712978248 1.0
0.110726031727953 0.0316045055677518 1.0
0.105127130833679 0.0181446259845098 0.999999999999999
0.0877428645246918 0.00717088164648471 1.0
0.0769345982815779 -0.009475563346298 1.0
0.0686130189043767 -0.0166895705611664 1.0
0.0608764290681579 -0.0233837826098887 1.0
0.0562932492739674 -0.031138520885999 1.0
0.0393637265090503 -0.0475256713767333 1.0
0.0333006190087667 -0.055867457179984 0.999999999999999
0.0149263627658507 -0.072100556822488 1.0
0.0203451346294196 -0.0719624872052436 1.0
-0.00102262596520687 -0.0901941782523644 1.0
-0.0082876714357607 -0.0928467091953309 1.0
-0.0191290762366371 -0.108481557952018 1.0
0.202711235933087 0.111842105263157 0.211283729181149
0.196968060039855 0.111842105263157 0.217583078046646
0.208497929986217 0.111842105263157 0.230100269381807
0.209428961489029 0.111842105263157 0.248040702541056
0.202166398525711 0.111842105263157 0.250521073736171
0.204276467211652 0.111842105263157 0.264737828326555
0.206394377335475 0.111842105263157 0.269759828416252
0.206491180889543 0.111842105263157 0.285214337177565
0.203932409706869 0.111842105263157 0.284470524647164
0.202769944674238 0.111842105263157 0.292327181762469
0.20286572197505 0.111842105263157 0.305520664816306
0.207982447531921 0.111842105263157 0.316290564820037
0.198393187541247 0.111842105263157 0.320911752180309
0.20701277188107 0.111842105263157 0.336710981076242
0.207352427095931 0.111842105263157 0.344562158700533
0.200150629705193 0.111842105263157 0.355214527975219
0.208664630412223 0.111842105263157 0.370348312746797
0.205532896406931 0.111842105263157 0.367924729140468
0.20646402743587 0.111842105263157 0.390103443962426
0.202637610544307 0.111842105263157 0.396623050171534
0.206496642168948 0.111842105263157 0.403103866707207
0.20230519645081 0.111842105263157 0.41053404181999
0.204529615433475 0.111842105263157 0.417088603381849
0.200913707197252 0.111842105263157 0.424856723783763
0.205585415165519 0.111842105263157 0.443284234082911
0.203124073433575 0.111842105263157 0.44413389822444
0.197888941367687 0.111842105263157 0.453475114669018
0.199036829625716 0.111842105263157 0.46064348416521
0.200817110243432 0.111842105263157 0.470329612836669
0.205086024626145 0.111842105263157 0.48446452194566
0.195755805694696 0.111842105263157 0.491744681835602
0.198967698249544 0.111842105263157 0.497901353518195
0.207562281493285 0.111842105263157 0.514686468429173
0.20701056979945 0.111842105263157 0.516817149593501
0.210686697719751 0.111842105263157 0.531632337139513
0.211364887892059 0.111842105263157 0.538031924550114
0.200713991182256 0.111842105263157 0.55131808539698
0.202962444912981 0.111842105263157 0.552386697635033
0.199824876915537 0.111842105263157 0.566275317242478
0.198127218133129 0.111842105263157 0.569182839762734
0.204121044316834 0.111842105263157 0.583711327207473
0.204673739957361 0.111842105263157 0.596901962532662
0.208802533104949 0.111842105263157 0.607512385872141
0.203963946001657 0.111842105263157 0.612540140378454
0.206238989510041 0.111842105263157 0.614646630048897
0.205178090268119 0.111842105263157 0.630858198403848
0.200185540724958 0.111842105263157 0.638928612351215
0.204938063208626 0.111842105263157 0.652059497384009
0.209172151228329 0.111842105263157 0.657861561244834
0.201530767045343 0.111842105263157 0.661908015345203
0.20196011435822 0.111842105263157 0.678546650465763
0.206824831276749 0.111842105263157 0.684350129618714
0.20506379437009 0.111842105263157 0.697245014637987
0.199667341839554 0.111842105263157 0.702505074954699
0.202252453070142 0.111842105263157 0.711422544388716
0.200620798685609 0.111842105263157 0.726638962610707
0.203909758115976 0.111842105263157 0.726440986754468
0.207691133107988 0.111842105263157 0.744828170154408
0.209336107660417 0.111842105263157 0.754342354469573
0.204376998336171 0.111842105263157 0.760597719213079
0.200814064210967 0.111842105263157 0.771211290447063
0.209491531616869 0.111842105263157 0.783866874962109
0.206434866085196 0.111842105263158 0.78925218050705
0.202181529097332 0.111842105263157 0.799977804518905
0.203157386592572 0.111842105263157 0.804472729772082
0.207313794611822 0.111842105263157 0.822734627058068
0.199136599776027 0.111842105263157 0.82353223129028
0.203644302110587 0.111842105263157 0.833897381039762
0.205936706191342 0.111842105263157 0.842311094783853
0.204515798465574 0.111842105263157 0.85483396268718
0.205312265509635 0.111842105263157 0.8592108838813
0.194936949901755 0.111842105263157 0.862566525211333
0.204283051596308 0.111842105263157 0.881743464371747
0.206276623665764 0.111842105263157 0.885937627094166
0.19980046287643 0.111842105263157 0.901562726943947
0.205040922940506 0.111842105263157 0.907705007742543
0.204282854079596 0.111842105263157 0.916816482784373
0.20115170246007 0.111842105263157 0.927204377760136
0.203886821052252 0.111842105263157 0.935362646709224
0.207765986791631 0.111842105263157 0.947718508407613
0.206806576565162 0.111842105263157 0.960631679834834
0.195193212441452 0.111842105263157 0.95588561173138
0.20301213859705 0.111842105263157 0.967956621310186
0.204552103211873 0.111842105263158 0.979433179972728
0.208507497661698 0.111842105263157 0.994419112720294
0.202127012713396 0.106408548377198 1.0
0.195242803390719 0.10111281069059 1.0
0.187465436838859 0.0946007039563341 1.0
0.171377904684899 0.0794609736142259 0.999999999999999
0.171863745837114 0.0769115771825313 1.0
0.156242489808066 0.0638056865204195 1.0
0.148891664144108 0.047727556386515 1.0
0.144858520204613 0.0471884711388297 1.0
0.125335843419813 0.0329193829848685 1.0
0.116064350634475 0.0220787558101447 1.0
0.111093088508047 0.0183576190339015 1.0
0.104802053314453 0.00299637492076505 1.0
0.0968986341510468 -0.00553287908068031 1.0
0.0802669230151159 -0.0191015313999352 1.0
0.0710637378953521 -0.0280793256244038 1.0
0.0591379384724929 -0.0348660444730659 1.0
0.0495292763348085 -0.0497776121646904 1.0
0.0414246771796727 -0.0552487053287577 1.0
0.0329473728011939 -0.0725930317501068 1.0
0.0203003916434383 -0.0821994336533513 1.0
0.00206717719081096 -0.10321318276685 1.0
-0.00299555699498162 -0.111584189411937 1.0
0.217336384884498 0.111842105263157 0.221817706803994
0.217583195219978 0.111842105263157 0.232615071346327
0.216487262351061 0.111842105263157 0.241300864597442
0.216318421669195 0.111842105263157 0.244126676647136
0.214156483512115 0.111842105263157 0.251250958530009
0.215976659705503 0.111842105263157 0.262522687466416
0.2132771003295 0.111842105263157 0.268408213091848
0.213818590313065 0.111842105263157 0.289415596520805
0.21710805468392 0.111842105263157 0.292498881167627
0.221840464930592 0.111842105263157 0.304431847367724
0.218119824589291 0.111842105263157 0.318731618452509
0.207819027878324 0.111842105263157 0.322273370336708
0.212296878392465 0.111842105263157 0.326157166715977
0.21862131828584 0.111842105263157 0.344169319186099
0.216095266032175 0.111842105263157 0.354746167517523
0.214332967844014 0.111842105263157 0.358662220786329
0.217129114019902 0.111842105263157 0.370845171241653
0.223058162275767 0.111842105263157 0.383513845779915
0.217684033482414 0.111842105263157 0.384964138930878
0.221401847101381 0.111842105263157 0.399127998202149
0.21652244499509 0.111842105263157 0.409445887531689
0.214644570887703 0.111842105263157 0.422574919434412
0.221905380290237 0.111842105263157 0.426629268084007
0.217116942187234 0.111842105263158 0.432354560724322
0.208385295323249 0.111842105263157 0.440834306862031
0.214313010309314 0.111842105263157 0.454044281330302
0.212128411308848 0.111842105263157 0.458570318583094
0.220742751065865 0.111842105263157 0.478105818396943
0.219176377646439 0.111842105263157 0.480053676434129
0.21066779956212 0.111842105263157 0.485204876007557
0.217843415672263 0.111842105263157 0.503062125490242
0.21546891374402 0.111842105263157 0.516069172748854
0.216104076695384 0.111842105263157 0.518263528070367
0.21411908550841 0.111842105263157 0.521998623705605
0.210068588818198 0.111842105263157 0.53302240573181
0.221117669334427 0.111842105263157 0.546677913483449
0.21588265848111 0.111842105263157 0.559730279499795
0.214342080831728 0.111842105263157 0.563706851859324
0.218797662715556 0.111842105263157 0.578664862018359
0.220948820150563 0.111842105263157 0.583084564468953
0.220578014259308 0.111842105263157 0.589764043642783
0.208464509146963 0.111842105263157 0.597639700618697
0.207843276022481 0.111842105263157 0.604954738900901
0.218260854107756 0.111842105263157 0.625840463150897
0.216904499226103 0.111842105263157 0.629209428199091
0.222637519406237 0.111842105263157 0.637362580504349
0.22197661574125 0.111842105263158 0.651256403150938
0.215866224469632 0.111842105263157 0.65791029281118
0.217883485915945 0.111842105263158 0.664025051935665
0.215759738591465 0.111842105263157 0.679099368107185
0.216741913863571 0.111842105263157 0.679218319750098
0.21605679004534 0.111842105263157 0.692771891992026
0.219231629769996 0.111842105263157 0.70705781955477
0.221025912675917 0.111842105263157 0.716428525118175
0.215704807110588 0.111842105263157 0.725775397441652
0.213698264420718 0.111842105263157 0.723741027064738
0.217251219513587 0.111842105263157 0.737868864887819
0.218154728450613 0.111842105263157 0.754186404122183
0.210464910060444 0.111842105263157 0.750975705212022
0.217984700669484 0.111842105263157 0.766469809105233
0.223491358063703 0.111842105263157 0.778215891584658
0.214512735883065 0.111842105263157 0.78617366222863
0.218791352023052 0.111842105263157 0.793801518552831
0.213167021135277 0.111842105263157 0.796289438635686
0.211217962057289 0.111842105263158 0.806374675300234
0.208187606996678 0.111842105263157 0.820155070563678
0.218586621669725 0.111842105263157 0.8264363437156
0.219764256801275 0.111842105263157 0.840464514112955
0.21327605684696 0.111842105263157 0.846290334800165
0.2154283965478 0.111842105263157 0.856418155344521
0.220240057812552 0.111842105263157 0.87067986459333
0.213573893153685 0.111842105263157 0.879969375297126
0.220447694095621 0.111842105263157 0.890592715001338
0.213906958335215 0.111842105263157 0.893883538407995
0.219373443827398 0.111842105263157 0.906812039669008
0.216952868685189 0.111842105263157 0.911926645380741
0.212321090956708 0.111842105263157 0.920227189458225
0.218469699704815 0.111842105263157 0.939635776928749
0.212559029675858 0.111842105263157 0.942408403843447
0.213770939227851 0.111842105263158 0.954548683539956
0.213012746133149 0.111842105263157 0.963027031933798
0.218395760643266 0.111842105263157 0.969097860672694
0.210461698861696 0.111842105263157 0.975558829744868
0.219434832728348 0.111842105263157 0.990923817367378
0.217289612413462 0.111842105263157 0.993474586985811
0.209424414641797 0.109460864760499 1.0
0.195682738099414 0.0942343063858699 1.0
0.193882612455903 0.0833431705503705 1.0
0.185674222831693 0.0756843715497638 1.0
0.170285220254937 0.0643817587383128 1.0
0.166911347631141 0.05765249971143 1.0
0.153438192737208 0.0391446745724135 0.999999999999999
0.150438750910941 0.0360965081006816 1.0
0.144137104668199 0.0339517377384874 1.0
0.127098347283807 0.017197356507541 1.0
0.111709969548018 -0.00117247597901987 1.0
0.110454150991532 -0.0029523682504782 1.0
0.103065573191364 -0.0100485733388776 1.0
0.0843829584196844 -0.0305934399397878 1.0
0.0750332070466669 -0.0365086171449451 1.0
0.0680831290920959 -0.043562724740633 1.0
0.0648005502820169 -0.0517937599237522 1.0
0.0494286769017238 -0.0672582857028685 1.0
0.0350414597510669 -0.0882850693237393 1.0
0.0339166184998881 -0.0871361560747442 1.0
0.0135372512345122 -0.0979624259381647 0.999999999999999
0.225288164250859 0.111842105263157 0.226966012702509
0.23285886107608 0.111842105263157 0.244924904943001
0.22720307537191 0.111842105263157 0.241029505538067
0.230622525826653 0.111842105263157 0.255960975367882
0.228300621604806 0.111842105263157 0.269502429504001
0.224356271270167 0.111842105263157 0.278557846643159
0.220879065546576 0.111842105263157 0.282115249422382
0.234036788075322 0.111842105263157 0.3016487389804
0.226132190091884 0.111842105263157 0.30645431381339
0.230432148906606 0.111842105263157 0.32102908619666
0.223924475460609 0.111842105263157 0.323226298373267
0.232837606425898 0.111842105263157 0.340867042820745
0.236963073020941 0.111842105263157 0.345467506395278
0.221497653906837 0.111842105263157 0.344689405661982
0.227630688057703 0.111842105263157 0.364073767386368
0.227922553063012 0.111842105263157 0.366991794989724
0.221212740091538 0.111842105263157 0.372001037000927
0.223948583851101 0.111842105263157 0.381904143976063
0.227398365375499 0.111842105263157 0.387895521540115
0.233799904033639 0.111842105263157 0.411677852588603
0.229244670545372 0.111842105263158 0.419607884428637
0.229546277573468 0.111842105263157 0.427277080586949
0.226506884932675 0.111842105263157 0.439456638594615
0.223668429885016 0.111842105263157 0.437849941737878
0.223214423360113 0.111842105263157 0.451814165570966
0.232379895581402 0.111842105263157 0.465479151049562
0.226148782184679 0.111842105263158 0.468077904541319
0.227729875970106 0.111842105263157 0.477457013971063
0.234846733469678 0.111842105263157 0.49726406621685
0.232825080047275 0.111842105263157 0.503588569152696
0.232190953639372 0.111842105263157 0.511423916614685
0.228377774010395 0.111842105263157 0.519852407033508
0.224996954853902 0.111842105263157 0.523443093596384
0.220791568672438 0.111842105263157 0.529363370168295
0.23575663255905 0.111842105263157 0.545739537459495
0.230161415480928 0.111842105263157 0.553893702615053
0.231091373229978 0.111842105263157 0.569956769711305
0.232466710952219 0.111842105263157 0.573311886815381
0.230895928835372 0.111842105263157 0.59078906332583
0.22325140064404 0.111842105263157 0.589143706504002
0.229510420917287 0.111842105263157 0.60396398920198
0.226478787271833 0.111842105263157 0.611057040577059
0.224755031456511 0.111842105263157 0.609900213252136
0.227214433685551 0.111842105263157 0.627724339058729
0.226925425765114 0.111842105263158 0.640453064934799
0.230509845513141 0.111842105263157 0.640866018819266
0.228866162199268 0.111842105263157 0.648546799172124
0.230798441548375 0.111842105263157 0.662789410594522
0.224612531807338 0.111842105263158 0.672028018112499
0.227404332867277 0.111842105263157 0.678537835235716
0.229547936372341 0.111842105263157 0.694454502781761
0.231549143268278 0.111842105263157 0.702969608656673
0.231738637904622 0.111842105263157 0.711065983568732
0.22504321932996 0.111842105263157 0.713836903718609
0.232355405105967 0.111842105263157 0.729398468591215
0.231181946596908 0.111842105263157 0.738304741356669
0.235396728360153 0.111842105263157 0.746125579360103
0.232063121246897 0.111842105263157 0.76077855677199
0.229344535438922 0.111842105263157 0.769534806352773
0.22688945145255 0.111842105263157 0.769153206034536
0.225251978458921 0.111842105263157 0.778614565232162
0.229168996269674 0.111842105263158 0.796182325028093
0.230251801980405 0.111842105263157 0.797146285182428
0.230492128513881 0.111842105263157 0.812927402209689
0.226706860394157 0.111842105263157 0.817008480647608
0.231135451205108 0.111842105263157 0.83045696600819
0.22545651824641 0.111842105263157 0.832865232568013
0.220838968254035 0.111842105263157 0.84417672483755
0.232215897872092 0.111842105263157 0.861519333305337
0.235117060202738 0.111842105263157 0.872978786926461
0.226791849452302 0.111842105263157 0.86769696851656
0.233377297224478 0.111842105263157 0.886573409551924
0.225604801946328 0.111842105263157 0.885849703482613
0.226526937521772 0.111842105263157 0.90480800784689
0.229650096281363 0.111842105263158 0.915993965023322
0.223971353331929 0.111842105263157 0.91651327090536
0.227173574173482 0.111842105263157 0.928515129923068
0.235405421127845 0.111842105263157 0.941385913558337
0.227437632612896 0.111842105263157 0.947413622157958
0.23461163800757 0.111842105263157 0.967428767031234
0.227107332021406 0.111842105263157 0.959721906980627
0.229338228043764 0.111842105263158 0.979885160985787
0.226177777607335 0.111842105263157 0.982080481222008
0.227814396313142 0.111842105263158 0.994483563089955
0.226101370578653 0.111842105263157 0.995465096479585
0.219938619490648 0.0979534944417682 1.0
0.206501382608241 0.0823958491118926 1.0
0.202414017873962 0.0867404013689175 1.0
0.194631506774806 0.0697072719164352 1.0
0.184374944859085 0.0639345056511155 1.0
0.171845565006853 0.0536911204650012 1.0
0.160533174366976 0.0348520996090968 1.0
0.154456551423039 0.0327052590773668 1.0
0.143523857168254 0.0198332295016839 1.0
0.134925229471314 0.00571854687708133 1.0
0.122024609514069 -0.000338361213220582 1.0
0.118427024344087 -0.00391862526754419 1.0
0.105934248027028 -0.0224107736833867 1.0
0.0924258870795392 -0.0312768545250703 1.0
0.0801082360616703 -0.0424044421055681 1.0
0.0728010472458146 -0.0601152409129291 1.0
0.0682764061255224 -0.0642447699552167 1.0
0.0594592457996541 -0.0695405802465215 1.0
0.0378646815544116 -0.0927734734774113 1.0
0.0353747036293183 -0.0946869924952288 1.0
0.0174666076804044 -0.107947052870886 1.0
0.239431903277125 0.111842105263157 0.238290598493962
0.236326936262592 0.111842105263157 0.250209390759179
0.244940513917075 0.111842105263157 0.267157548745907
0.243238197647106 0.111842105263157 0.26736128287664
0.238445829258266 0.111842105263157 0.277045780433288
0.237292891616373 0.111842105263157 0.281154884308206
0.247073952371206 0.111842105263157 0.298220302846528
0.244305233190952 0.111842105263157 0.303278404978122
0.235794850835846 0.111842105263157 0.304833575014032
0.246223546590118 0.111842105263157 0.326512603307711
0.241946546041887 0.111842105263157 0.332338343546401
0.246631937433272 0.111842105263157 0.346483391165681
0.242666940094801 0.111842105263157 0.35403418294644
0.236119530688518 0.111842105263157 0.356895395076415
0.238252282794408 0.111842105263157 0.369091689830564
0.246067798670288 0.111842105263157 0.381579819098276
0.244502315993737 0.111842105263157 0.383966533985541
0.2379772244724 0.111842105263157 0.395015824078304
0.241615673731743 0.111842105263157 0.408232510107192
0.239328544682491 0.111842105263157 0.416708918789788
0.24218796221839 0.111842105263157 0.423164350703337
0.240608534702909 0.111842105263157 0.432554603923389
0.244233286421757 0.111842105263157 0.447060948357741
0.245569068204114 0.111842105263157 0.455696002897808
0.247460498953018 0.111842105263157 0.467020203926613
0.238289227685167 0.111842105263157 0.474650732626221
0.241289354272954 0.111842105263157 0.485665471038125
0.237766005625599 0.111842105263157 0.485528920829285
0.234004669108248 0.111842105263157 0.493248738650299
0.241951900585846 0.111842105263157 0.507442747123591
0.24558251360879 0.111842105263157 0.517593552583831
0.239407062496444 0.111842105263157 0.524287400602864
0.237238173759401 0.111842105263157 0.525031528824784
0.243090549171618 0.111842105263157 0.537422388088141
0.239297606471807 0.111842105263157 0.55163728260488
0.245320456293677 0.111842105263157 0.558909090061513
0.242877985917149 0.111842105263157 0.569815127890853
0.243535882921719 0.111842105263157 0.579907704713192
0.245794517724112 0.111842105263157 0.587110985303392
0.241381807859828 0.111842105263157 0.597436971156724
0.240575097051391 0.111842105263157 0.61250342649172
0.244407804375492 0.111842105263157 0.624383180118564
0.239285398963681 0.111842105263157 0.622723011508807
0.238867006240456 0.111842105263157 0.6357238944974
0.244249856074743 0.111842105263157 0.650155058509796
0.244610637191911 0.111842105263157 0.657186587996001
0.240262267582389 0.111842105263157 0.658930187693627
0.247133102760954 0.111842105263157 0.675972640745911
0.239887037792873 0.111842105263157 0.675706911309803
0.239762349778842 0.111842105263157 0.6919315216654
0.239913570289503 0.111842105263157 0.699591814822108
0.240551900142002 0.111842105263157 0.708033661996022
0.235957602347678 0.111842105263157 0.714768228991123
0.244617292901732 0.111842105263157 0.727073011062727
0.23592544496995 0.111842105263157 0.733725618141229
0.242659528938169 0.111842105263157 0.748830035210984
0.238177081541259 0.111842105263157 0.752622221553396
0.242968116091386 0.111842105263157 0.761300864566124
0.242374633825505 0.111842105263157 0.773782159139016
0.239587734710946 0.111842105263157 0.780291366351073
0.239494259705834 0.111842105263157 0.788065473247362
0.244399549749325 0.111842105263157 0.799999715295442
0.242531143966854 0.111842105263158 0.814804029601743
0.241557907730586 0.111842105263158 0.815079035802413
0.244706330457937 0.111842105263157 0.829688325875331
0.236372663688707 0.111842105263157 0.831942846974995
0.242187368776851 0.111842105263157 0.853152769889802
0.241578594699681 0.111842105263157 0.861657192187461
0.237799531619607 0.111842105263157 0.863643022437129
0.241023419614518 0.111842105263157 0.872525406978676
0.245256126928519 0.111842105263157 0.887256423641468
0.244890487255756 0.111842105263157 0.888533575447653
0.246436604861125 0.111842105263157 0.89767608753747
0.242769110000972 0.111842105263157 0.904734858547285
0.236093342737105 0.111842105263157 0.912980046403662
0.23988767283974 0.111842105263157 0.925099534262948
0.242532004468517 0.111842105263157 0.944809480474334
0.24561106550841 0.111842105263157 0.949181412633
0.245739309438658 0.111842105263157 0.957206862613608
0.238102993102714 0.111842105263157 0.96275722808397
0.240482709912841 0.111842105263157 0.980345992857785
0.242040201973173 0.111842105263157 0.981752964777397
0.243576215990069 0.111842105263157 0.989455940229947
0.236303363425377 0.104120035276213 1.0
0.231083495546524 0.107647417556398 1.0
0.219143545188333 0.0914702882553355 1.0
0.211920951822853 0.0824642166021393 1.0
0.203972815273762 0.0757353351055256 1.0
0.193646642979609 0.0591581583150608 1.0
0.180949207027268 0.0463973754075203 1.0
0.176224593921685 0.0476674958076406 1.0
0.17441357048803 0.0407158125991024 1.0
0.15167291837059 0.0213224462581558 1.0
0.150558502396672 0.0165420761777755 1.0
0.138224596746922 0.00905658034481559 1.0
0.133605474517961 -0.00531858263072474 1.0
0.125716289368697 -0.0163041324039166 1.0
0.107990254946395 -0.0293926383283496 1.0
0.105655114531848 -0.0372685191421397 1.0
0.0950802939023428 -0.0467994711717953 1.0
0.0772645839733803 -0.0569739819941048 1.0
0.0753767435816872 -0.0713869072589728 1.0
0.0682805065236983 -0.0807245042072678 1.0
0.054132032033685 -0.0938919294254071 1.0
0.0409935316994536 -0.107484466299638 1.0
0.251015478628921 0.111842105263157 0.243642026534107
0.25035578928297 0.111842105263157 0.260274767025316
0.256541021735674 0.111842105263157 0.271058149433076
0.252547580473797 0.111842105263157 0.28263866606068
0.251260802436969 0.111842105263157 0.285697008948759
0.261144231820026 0.111842105263157 0.301610847091323
0.257203331575746 0.111842105263158 0.304856034441017
0.248284415715807 0.111842105263157 0.304668467661449
0.252490595854115 0.111842105263157 0.326705768819234
0.255809778283184 0.111842105263157 0.333942867045086
0.25541513192153 0.111842105263157 0.348230549130286
0.250002647123486 0.111842105263157 0.34960443572264
0.249006752675151 0.111842105263157 0.355073102366939
0.247798552425048 0.111842105263157 0.367749640848605
0.253610944459217 0.111842105263157 0.379415424255448
0.259067214137449 0.111842105263157 0.385672440403773
0.256468700565875 0.111842105263157 0.390911432326893
0.249796358379677 0.111842105263157 0.406893397471008
0.251063647699997 0.111842105263157 0.412179042907455
0.246444896683792 0.111842105263157 0.421271492907176
0.257322168913864 0.111842105263157 0.43712637548571
0.252254085306858 0.111842105263157 0.439784149887651
0.255583801500027 0.111842105263157 0.45704297618236
0.251697594887198 0.111842105263157 0.456183371354424
0.253071651088054 0.111842105263157 0.459962184843458
0.252573814771719 0.111842105263157 0.473264973709416
0.248649895808392 0.111842105263157 0.477964509467447
0.25415347648619 0.111842105263157 0.48864289036639
0.25402970909491 0.111842105263157 0.499298778149421
0.253316583910989 0.111842105263157 0.519111307493118
0.250957466673847 0.111842105263157 0.517370347550979
0.247737101201172 0.111842105263157 0.52863300036646
0.252556439157377 0.111842105263157 0.537967546898863
0.251188409551173 0.111842105263157 0.5523447568966
0.255704488882103 0.111842105263157 0.560578457487975
0.250614234157837 0.111842105263157 0.566249582084278
0.247641845201834 0.111842105263157 0.570287395444105
0.246992812910411 0.111842105263157 0.584485976721328
0.254956078871463 0.111842105263157 0.589236554775962
0.248342117332351 0.111842105263157 0.601443657597448
0.257153620428938 0.111842105263157 0.612678935618142
0.254602738383137 0.111842105263157 0.629660161110659
0.254100077495462 0.111842105263157 0.634188905499691
0.246850982357474 0.111842105263157 0.638761062905904
0.25381248726466 0.111842105263157 0.651122167184678
0.252014397659092 0.111842105263157 0.665849028784853
0.248861282999823 0.111842105263157 0.67019810276372
0.255336891499845 0.111842105263157 0.681214456703427
0.254543423723789 0.111842105263157 0.686115999669653
0.256605167102788 0.111842105263157 0.701514402263684
0.254826187598603 0.111842105263157 0.705548909834167
0.25354084713048 0.111842105263157 0.71261111411047
0.250591949346146 0.111842105263157 0.723730279669486
0.246977881572697 0.111842105263157 0.734331928679186
0.256148212290241 0.111842105263157 0.749781387172598
0.24860208883325 0.111842105263157 0.751070953666881
0.2582541934535 0.111842105263157 0.765797446545065
0.251688292905319 0.111842105263157 0.774401603316508
0.258597999583725 0.111842105263157 0.783592413244798
0.250111731261502 0.111842105263157 0.785133988535521
0.247889037139929 0.111842105263157 0.796157953010266
0.253887824191348 0.111842105263157 0.804399246790029
0.252684091956311 0.111842105263158 0.821811880882469
0.258886717908096 0.111842105263157 0.824284167500561
0.258940590577165 0.111842105263157 0.834114880348715
0.257230750972579 0.111842105263157 0.840595984051822
0.246467529266847 0.111842105263157 0.850606342900813
0.252547923800062 0.111842105263157 0.8633796660257
0.260721808266759 0.111842105263157 0.876057287733222
0.253865757289694 0.111842105263158 0.881189682493292
0.254069133884911 0.111842105263157 0.893097167781903
0.260654811893975 0.111842105263157 0.901170141896815
0.25659246842384 0.111842105263157 0.908062015225449
0.249363592986295 0.111842105263157 0.916644855874908
0.255869248230533 0.111842105263157 0.933430482661295
0.258328250419135 0.111842105263158 0.931926012519773
0.261586237876654 0.111842105263157 0.946087321836504
0.247908469829526 0.111842105263157 0.948942576823526
0.25227758698023 0.111842105263157 0.965135744322998
0.249572088896189 0.111842105263157 0.965518184728466
0.251278664131062 0.111842105263157 0.974519581425023
0.258113112576447 0.111842105263157 0.994384325560607
0.259093643876673 0.111089205184109 1.0
0.241032571163497 0.0993730430556723 1.0
0.237260353623342 0.0972930681785516 0.999999999999999
0.236541777031194 0.0912082952890095 1.0
0.220902559618919 0.0818101979412408 1.0
0.211251437330485 0.061362925672044 1.0
0.202392026048901 0.0495497498172196 1.0
0.198216427543333 0.0518777642996202 1.0
0.184633401204426 0.0359787523593901 1.0
0.174519370234552 0.0246852717710351 1.0
0.169050948507797 0.0174973820330115 1.0
0.164700912654239 0.01423949822763 1.0
0.149912129936611 -0.0017331520101932 1.0
0.144863841933895 -0.00728145483659664 1.0
0.12772988852548 -0.0263480975849055 1.0
0.118992287343378 -0.0372349573281558 1.0
0.104058447615987 -0.0500227317650096 1.0
0.0974098950528619 -0.0594628721445423 1.0
0.0917361610728234 -0.059101485723733 1.0
0.0819116712194812 -0.0800973981102951 1.0
0.0601134427217748 -0.0920219782260532 1.0
0.0518380864521544 -0.0990660219476696 0.999999999999999
0.269124839501381 0.111842105263157 0.260285270665029
0.266694247150364 0.111842105263157 0.258788935335059
0.270536256610346 0.111842105263157 0.280404926861186
0.267211405995018 0.111842105263157 0.292244959776195
0.268496143817802 0.111842105263157 0.301237600634006
0.270984553141824 0.111842105263157 0.307884268205934
0.270991913316439 0.111842105263157 0.310253652743616
0.268826393973225 0.111842105263157 0.322621506663589
0.263161350673322 0.111842105263157 0.324440200972573
0.271099864308713 0.111842105263157 0.340113017409209
0.265779964215806 0.111842105263157 0.353822429675466
0.266915415797551 0.111842105263157 0.356054523115618
0.267278281387583 0.111842105263157 0.367136397565283
0.261836311952253 0.111842105263157 0.373045511967996
0.267362184782428 0.111842105263157 0.394396489899515
0.269946049790361 0.111842105263157 0.395483503758612
0.264479812207009 0.111842105263157 0.406082625937177
0.26593428997688 0.111842105263157 0.404208308331642
0.267696624908266 0.111842105263157 0.424683984876219
0.269063058276717 0.111842105263157 0.431722195913655
0.261496318728851 0.111842105263157 0.432846689220157
0.266392032137694 0.111842105263157 0.446254436352863
0.270202732571486 0.111842105263157 0.460906168589853
0.272777314557098 0.111842105263157 0.477180965528684
0.266710365520554 0.111842105263157 0.474571477466492
0.269265176690093 0.111842105263157 0.486217450847001
0.261705920200498 0.111842105263157 0.493897964059642
0.270500621200826 0.111842105263157 0.508291262292981
0.267915671164233 0.111842105263157 0.509402757265951
0.259386062897529 0.111842105263157 0.516467710934612
0.272286703699035 0.111842105263157 0.536742860495127
0.267306003201345 0.111842105263157 0.535283490049246
0.266252855832539 0.111842105263157 0.547814493846491
0.265145738505766 0.111842105263157 0.561708784770627
0.266792091833629 0.111842105263157 0.569765455620169
0.265914299410823 0.111842105263157 0.573202389410234
0.27408745059379 0.111842105263157 0.595159887757714
0.269045937496291 0.111842105263157 0.601977940365644
0.258613464721679 0.111842105263157 0.596389949601799
0.2675752298868 0.111842105263157 0.613163432539558
0.261657414903023 0.111842105263157 0.616080456989755
0.264852316899787 0.111842105263157 0.634053676003959
0.268042907037837 0.111842105263157 0.644035833571241
0.263569108339175 0.111842105263157 0.652097480031117
0.264952879924029 0.111842105263157 0.659174152324016
0.263967292880119 0.111842105263157 0.671952183093386
0.269748715092664 0.111842105263157 0.679524503401967
0.26984645877481 0.111842105263157 0.693195961340739
0.268375379432191 0.111842105263157 0.702307093642671
0.264043146428247 0.111842105263158 0.704697521894454
0.262184309996466 0.111842105263157 0.715403461849738
0.266810288254319 0.111842105263157 0.718807754141497
0.26018310678564 0.111842105263157 0.725195570011915
0.264935742526682 0.111842105263157 0.743688676595915
0.263208893132994 0.111842105263157 0.752561594617504
0.266637308163884 0.111842105263157 0.762641550156189
0.26420276863907 0.111842105263157 0.774995594501478
0.270324136012901 0.111842105263157 0.783489560449548
0.271654827138993 0.111842105263157 0.785702753086271
0.270996384952999 0.111842105263157 0.797249683920743
0.268757062324432 0.111842105263157 0.809423443513579
0.263898203396145 0.111842105263157 0.813953808292202
0.266483030840212 0.111842105263157 0.822080905068412
0.262331231086075 0.111842105263157 0.830393500504499
0.26110118758672 0.111842105263158 0.837518648058319
0.26104473592305 0.111842105263157 0.848044148343933
0.266317681193438 0.111842105263157 0.861821753889384
0.267152414418392 0.111842105263157 0.867075763720034
0.26348357841942 0.111842105263157 0.879184224415124
0.262564604860966 0.111842105263157 0.885619392511221
0.266343284491064 0.111842105263157 0.888696145241143
0.264789862446304 0.111842105263157 0.905668373030064
0.269508834846813 0.111842105263157 0.918046789920811
0.262481870904243 0.111842105263158 0.921331787768851
0.267232237470856 0.111842105263157 0.931527657468995
0.267550862675258 0.111842105263157 0.940709033116179
0.268685268086693 0.111842105263157 0.94833924505003
0.261567388315467 0.111842105263157 0.958533830747433
0.273345829155431 0.111842105263157 0.975918367806959
0.268882279764143 0.111842105263157 0.980336247209476
0.263090146661979 0.111842105263157 0.980938921816469
0.258940086770129 0.111842105263157 0.993126182314668
0.263510459284564 0.10865898745761 0.999999999999999
0.258009860498097 0.0952826515469434 1.0
0.239159850851257 0.0859900798798465 1.0
0.236394917791276 0.0786004916784614 1.0
0.221794365105773 0.0698570114114139 1.0
0.220853877896232 0.0656728920061481 0.999999999999999
0.205836071220363 0.0472231066957888 1.0
0.197395107774377 0.0369692992501926 1.0
0.196799324141918 0.0323718661326525 1.0
0.182853238156338 0.0135058383395721 0.999999999999999
0.177353516351088 0.0153822671647229 1.0
0.168966176455925 0.00136676023074463 1.0
0.154665249887827 -0.00998275562920904 1.0
0.140949753170899 -0.0220647996439189 1.0
0.12684329282101 -0.0337398696038528 1.0
0.128576275020905 -0.0372634267118008 1.0
0.113091345050781 -0.0457878721869809 1.0
0.106838702221583 -0.0705112888513541 1.0
0.0881866811252398 -0.0745373022088506 1.0
0.0853430136449857 -0.0917244425895565 1.0
0.0722688955198653 -0.102090341047527 1.0
0.0574788955082449 -0.104622094784741 1.0
0.28365405330089 0.111842105263157 0.270565876959928
0.282811619936424 0.111842105263157 0.279282167407857
0.278142736421471 0.111842105263157 0.289854087359477
0.277529164389214 0.111842105263157 0.29667071569995
0.271993977218818 0.111842105263157 0.303071389787528
0.278092468502729 0.111842105263157 0.309264712517615
0.278959241953437 0.111842105263157 0.315911553043033
0.286391554299704 0.111842105263157 0.334021707154596
0.277897156026147 0.111842105263158 0.341771418924472
0.279851783109439 0.111842105263157 0.349040232195993
0.280877599017363 0.111842105263157 0.356240455270956
0.279240026157773 0.111842105263157 0.374663128591935
0.278889404232628 0.111842105263157 0.379514646920241
0.283546241579395 0.111842105263157 0.386386980464369
0.283208310879262 0.111842105263157 0.396098429849854
0.277997988642203 0.111842105263157 0.394332294113717
0.281276165808091 0.111842105263157 0.411159759805394
0.280511620558907 0.111842105263157 0.415534553365227
0.280742112388385 0.111842105263157 0.43135788412874
0.276563458496868 0.111842105263157 0.430960636650741
0.274148495330085 0.111842105263157 0.445998606708238
0.282732953342357 0.111842105263157 0.464303415074055
0.283550750294621 0.111842105263157 0.469568082864703
0.283219592689933 0.111842105263157 0.47665483766812
0.284337053950118 0.111842105263157 0.492398597583775
0.283415966492227 0.111842105263157 0.494686466926249
0.28325256017224 0.111842105263157 0.504650511548857
0.280930600884337 0.111842105263157 0.514970286028906
0.273416290281102 0.111842105263157 0.513798918930106
0.281146574987406 0.111842105263157 0.530680315312232
0.27584520870605 0.111842105263158 0.544706592409623
0.27703599908784 0.111842105263157 0.555589392458936
0.278882556446051 0.111842105263157 0.56290477985669
0.28467926211526 0.111842105263157 0.567773823878507
0.272476643556037 0.111842105263157 0.572733206410096
0.27719808536011 0.111842105263157 0.586642878728727
0.273308204645683 0.111842105263157 0.594322163373543
0.280262538631638 0.111842105263157 0.607205764614796
0.282896845639591 0.111842105263157 0.613423499170157
0.279391840675465 0.111842105263157 0.621890111773782
0.271361831206259 0.111842105263157 0.623321860611782
0.281743647632364 0.111842105263157 0.642379491909038
0.277068156538865 0.111842105263157 0.653710814708912
0.280254678876931 0.111842105263157 0.655722679466486
0.274762905451766 0.111842105263157 0.662129357976137
0.275682348457821 0.111842105263157 0.676200131537738
0.274853682135438 0.111842105263157 0.683560645071866
0.278882059722235 0.111842105263157 0.697895499381592
0.277095883655742 0.111842105263157 0.700199226015436
0.27789132350452 0.111842105263157 0.708971149069236
0.283082450177092 0.111842105263157 0.724195323529722
0.280977531757423 0.111842105263157 0.734690393770655
0.28397950291554 0.111842105263157 0.743034554312889
0.275042490901711 0.111842105263157 0.745358593550136
0.278207416249807 0.111842105263157 0.752495074541253
0.274621402805922 0.111842105263158 0.768519137877868
0.279143712611175 0.111842105263157 0.779124701355469
0.277285449535915 0.111842105263157 0.791783341191995
0.275617131234318 0.111842105263157 0.791552639883433
0.280682990300821 0.111842105263157 0.808923529681187
0.27807469717828 0.111842105263157 0.810314769412264
0.279504579207469 0.111842105263157 0.82466684187766
0.277700598010869 0.111842105263157 0.82418911579207
0.281575058433711 0.111842105263158 0.839917724241336
0.283125643642247 0.111842105263157 0.85033675597436
0.273007955927227 0.111842105263158 0.856658647881237
0.273482104713127 0.111842105263157 0.867646709941657
0.279916260499402 0.111842105263157 0.879640185912134
0.284696869073945 0.111842105263157 0.889842586288883
0.275481471514359 0.111842105263157 0.892806956650053
0.285160992637801 0.111842105263157 0.906863488752415
0.28333149873225 0.111842105263157 0.916436017688283
0.282646419023293 0.111842105263157 0.925768638505556
0.274476570872722 0.111842105263157 0.928532781351357
0.285990073877502 0.111842105263157 0.946815982895014
0.277666139232802 0.111842105263157 0.947161144571865
0.275222446007131 0.111842105263157 0.951186944131138
0.279445922453509 0.111842105263157 0.968061296611464
0.281751847784927 0.111842105263157 0.976001310588331
0.273693833717927 0.111842105263157 0.98403617880452
0.272010950774995 0.111842105263157 0.991346621761022
0.281299925481041 0.111548719110616 1.0
0.272534274872579 0.100389091026047 1.0
0.257668224275985 0.0889323127959205 1.0
0.249484180021663 0.0832200589109607 1.0
0.234826164963328 0.064157377404396 1.0
0.233186668557165 0.05687463298947 1.0
0.227793764547205 0.0542523006464508 1.0
0.212943464505077 0.0435069329268039 1.0
0.211275360104074 0.041151121091638 1.0
0.200674301965057 0.0214843674376824 1.0
0.185841179368864 0.00984403438221416 1.0
0.172535682519835 0.00225559991887985 1.0
0.170770109191713 0.000498511057296462 1.0
0.164392193204785 -0.00908474156447655 1.0
0.153455989985595 -0.0300000496860534 1.0
0.140848207461862 -0.035632140127965 1.0
0.126459344239527 -0.0512441246793331 1.0
0.126944756058506 -0.0536692288239672 1.0
0.114644217823944 -0.077294643148706 1.0
0.096573046513433 -0.0774311811327023 1.0
0.0891388505686587 -0.0914791741224072 1.0
0.084652507579825 -0.0988404480177968 1.0
0.293758276971784 0.111842105263157 0.274000082860756
0.28895116790723 0.111842105263157 0.284134429288705
0.29009587884756 0.111842105263157 0.300521880828849
0.2943633178611 0.111842105263157 0.305892524317335
0.287656003108654 0.111842105263157 0.308552445039714
0.283679490011413 0.111842105263157 0.320859935827203
0.291679875442464 0.111842105263157 0.336220538681804
0.289338000343835 0.111842105263157 0.334583998107827
0.290918294133251 0.111842105263157 0.353290055298852
0.290047319599976 0.111842105263157 0.351412795042404
0.288655848684751 0.111842105263157 0.364724832857105
0.290610800765686 0.111842105263157 0.378333681172169
0.290434012373595 0.111842105263157 0.384115749496535
0.287186491875967 0.111842105263157 0.393399048712603
0.296103335651551 0.111842105263157 0.401892128144398
0.296612371553012 0.111842105263157 0.416497974687085
0.289045958891368 0.111842105263157 0.421990546082394
0.292073490531461 0.111842105263157 0.430474565161898
0.283064386866112 0.111842105263157 0.434390581753037
0.293573030787075 0.111842105263157 0.450207806056698
0.288542625499535 0.111842105263157 0.463248906625244
0.297510175076281 0.111842105263157 0.469264871799876
0.293245295562555 0.111842105263157 0.475013840984045
0.285511276241336 0.111842105263157 0.483293430961834
0.299499261545367 0.111842105263158 0.496585418494932
0.292931336151993 0.111842105263157 0.497535589084993
0.28923664771033 0.111842105263157 0.511316700765044
0.287854126165085 0.111842105263157 0.52118659869858
0.287986616362424 0.111842105263157 0.533440240594561
0.291034792832778 0.111842105263157 0.53562222721382
0.29183458031872 0.111842105263157 0.541210524582864
0.291987708212175 0.111842105263157 0.55516139726765
0.29071752874198 0.111842105263157 0.567320958166036
0.29050209943806 0.111842105263157 0.568778628429624
0.292345985223702 0.111842105263157 0.579120273957611
0.291724475345341 0.111842105263157 0.593734887626422
0.290455653297856 0.111842105263157 0.605105953895559
0.293689909247065 0.111842105263157 0.606492280891231
0.287732326617083 0.111842105263157 0.618028071220205
0.289890810884582 0.111842105263157 0.630468715992219
0.285663270864959 0.111842105263157 0.633676275925416
0.28816549841169 0.111842105263157 0.641724286203897
0.288578390685339 0.111842105263157 0.654101345700164
0.288613015601086 0.111842105263157 0.665697502198756
0.293181742020168 0.111842105263157 0.670455319024669
0.29165599063878 0.111842105263157 0.681381950500427
0.291452603924344 0.111842105263157 0.692564373725833
0.285731827117008 0.111842105263157 0.700392955766079
0.295322552462533 0.111842105263157 0.716169509237493
0.290599947799939 0.111842105263157 0.718513746180034
0.291720420646383 0.111842105263157 0.73047557056497
0.292606097038103 0.111842105263157 0.733789960528182
0.291337930126556 0.111842105263157 0.746333824753809
0.293845719213716 0.111842105263157 0.761689938584907
0.289116703335362 0.111842105263157 0.765183688552538
0.289529331583299 0.111842105263157 0.780627719907131
0.290857902419926 0.111842105263157 0.787372007675638
0.288095886418986 0.111842105263157 0.783558443242466
0.292597426607573 0.111842105263157 0.79743293046646
0.298052009478292 0.111842105263157 0.808822792010235
0.290989301271497 0.111842105263157 0.814900189924345
0.29206131972104 0.111842105263157 0.833877622810948
0.294935826910969 0.111842105263157 0.839273557829562
0.288941508819772 0.111842105263157 0.848918842228854
0.28472320975758 0.111842105263157 0.856032405521197
0.292067000208507 0.111842105263157 0.862657134210398
0.289577243534161 0.111842105263157 0.878549875953293
0.293434241673715 0.111842105263158 0.889910922954301
0.285158136034947 0.111842105263157 0.892762973040051
0.284498284194356 0.111842105263157 0.89457162903804
0.290234070823946 0.111842105263157 0.909123825088215
0.290322767833865 0.111842105263157 0.920738883131928
0.290621741228409 0.111842105263157 0.921345416613411
0.293254871230325 0.111842105263157 0.935909402852416
0.298560373493183 0.111842105263157 0.953411008336056
0.290111226988138 0.111842105263157 0.953455561916645
0.293618166437825 0.111842105263157 0.96423171015686
0.290605726693954 0.111842105263157 0.981642656312589
0.294650167511359 0.111842105263157 0.984803769065955
0.294275947781255 0.111842105263157 0.988733082380168
0.286516450138187 0.103838409110586 1.0
0.284721358359539 0.107281723229557 1.0
0.279503525257198 0.0985803202953498 1.0
0.26547039071312 0.0879635169433914 1.0
0.256560805216666 0.0729704677044647 1.0
0.249939457518147 0.0666655815117661 1.0
0.24000790245076 0.056413844939771 1.0
0.235492826159463 0.0451084176734143 1.0
0.223671213446881 0.0324625291737789 1.0
0.217916260402104 0.0240045679801916 1.0
0.200341358803446 0.0162117857837039 1.0
0.201783535571027 0.0101399950057602 1.0
0.187577107695987 -0.00388125191072562 1.0
0.181954523685439 -0.0123862051812804 1.0
0.17082805209297 -0.0263022520052785 1.0
0.152116902958442 -0.0330211061153031 1.0
0.150460355633433 -0.041326388712167 0.999999999999999
0.138526202150062 -0.0493548355974381 1.0
0.134139715694137 -0.0623225264180025 1.0
0.120023959941492 -0.0849264009064259 1.0
0.118606319299454 -0.0817962307541461 1.0
0.10807177171279 -0.0938682620036264 1.0
0.0909297987967695 -0.109075114090393 1.0
0.304668792149968 0.111842105263157 0.28427097861853
0.298553371666861 0.111842105263157 0.290910330737892
0.299623000641338 0.111842105263157 0.301102788799715
0.307335154379459 0.111842105263157 0.320692736225354
0.306820413344836 0.111842105263157 0.323428333888779
0.303115268473375 0.111842105263157 0.328501651867587
0.305767952123125 0.111842105263157 0.343398159714472
0.310836526312939 0.111842105263157 0.351564066662789
0.300277930571972 0.111842105263157 0.357206705937741
0.310205172212546 0.111842105263157 0.373163592490006
0.301178861988126 0.111842105263157 0.379084077326338
0.302779886676437 0.111842105263157 0.389997710821125
0.297807518125826 0.111842105263157 0.385471146377928
0.307258633221028 0.111842105263157 0.406679451217282
0.297521582942644 0.111842105263157 0.40832788724512
0.306078589969506 0.111842105263157 0.422353234320444
