ply
format ascii 1.0
element vertex 867
property float x
property float y
property float z
end_header
-0.167773693030636 -0.111842105263158 0.955132831683005
-0.167976061109326 -0.111842105263157 0.969000170593852
-0.166748096887131 -0.111842105263157 0.972894132990474
-0.16733123082601 -0.111842105263157 0.985459273517474
-0.163990556394943 -0.111842105263157 0.992679254152005
-0.163829854258152 -0.102389064083297 1.0
-0.165706348342686 -0.0777693810165923 1.0
-0.167569994969674 -0.0725778229565231 1.0
-0.164612371249322 -0.0541529458938656 1.0
-0.164693876754839 -0.0401036049365353 1.0
-0.171894227582671 -0.0192003694898704 1.0
-0.166053992250408 -0.0162174196582155 1.0
-0.174633641451006 0.00988246440227263 1.0
-0.171569769887489 0.0136597560057854 1.0
-0.175047974623206 0.0340328047493944 1.0
-0.170169739608706 0.0455943430627542 1.0
-0.168748997071759 0.0525647574371569 1.0
-0.179091316725585 0.0806794903847725 1.0
-0.176962467402443 0.0865524994267104 1.0
-0.179016425457531 0.104008965094665 1.0
-0.151292831626686 -0.111842105263157 0.100672474781291
-0.150142489457559 -0.111842105263157 0.109599716953353
-0.15425815895034 -0.111842105263157 0.114793760081143
-0.153058709137001 -0.111842105263158 0.132038423205358
-0.150691991570916 -0.111842105263157 0.148124872575815
-0.15603814901437 -0.111842105263157 0.149023356910781
-0.151897978341944 -0.111842105263157 0.15948643235462
-0.155284141188437 -0.111842105263157 0.172346468422217
-0.150451160305812 -0.111842105263157 0.175921907500558
-0.156473949029437 -0.111842105263157 0.188513599766228
-0.152337170215426 -0.111842105263157 0.194503579771969
-0.156608732462696 -0.111842105263157 0.216470273972147
-0.151677418378719 -0.111842105263158 0.220232797490181
-0.155522989586285 -0.111842105263158 0.227188300640927
-0.155703926282553 -0.111842105263157 0.227904852734348
-0.159035540432612 -0.111842105263157 0.240730372131428
-0.154783580256354 -0.111842105263157 0.258236438904345
-0.151952569043406 -0.111842105263157 0.260349957111262
-0.158070647689171 -0.111842105263158 0.274553761334912
-0.153631121185019 -0.111842105263158 0.28568267352231
-0.150366273087325 -0.111842105263158 0.293616078509334
-0.155957167285581 -0.111842105263157 0.296725733747962
-0.149735483695936 -0.111842105263158 0.315331221850915
-0.152215840472395 -0.111842105263158 0.327263339311864
-0.152905451667575 -0.111842105263157 0.328632247916651
-0.14993234182613 -0.111842105263157 0.335631824236621
-0.156115076460749 -0.111842105263157 0.345375932491599
-0.150722557310807 -0.111842105263157 0.370324480410785
-0.155487106134864 -0.111842105263157 0.368058018460739
-0.149614862665371 -0.111842105263157 0.377134650382694
-0.158575049318011 -0.111842105263157 0.396166005942283
-0.153508350582835 -0.111842105263157 0.394203223182762
-0.157485415316269 -0.111842105263157 0.405801615957736
-0.157964744114031 -0.111842105263158 0.420775975361652
-0.154538524760284 -0.111842105263158 0.432994806998126
-0.158816896172885 -0.111842105263157 0.432760520128596
-0.153874069099595 -0.111842105263157 0.444322843424543
-0.155030864606204 -0.111842105263157 0.463536782645396
-0.150985954157331 -0.111842105263157 0.472454360994107
-0.157584411094676 -0.111842105263157 0.485141828812686
-0.151415782543483 -0.111842105263158 0.486496435141743
-0.153202488350004 -0.111842105263157 0.499573554640988
-0.150889138661477 -0.111842105263157 0.503628123154424
-0.153786195044428 -0.111842105263157 0.515795450904618
-0.157671108715928 -0.111842105263157 0.52727687553004
-0.155248525660602 -0.111842105263157 0.539956353775815
-0.149596352499676 -0.111842105263157 0.541233568097134
-0.151964812620493 -0.111842105263157 0.554113888402528
-0.1542457028997 -0.111842105263157 0.567152593568503
-0.156028240007675 -0.111842105263157 0.571347939671099
-0.158925976671536 -0.111842105263157 0.581650386072228
-0.158310613449417 -0.111842105263158 0.591404446738305
-0.158370598745652 -0.111842105263157 0.603373717941935
-0.154415730207404 -0.111842105263158 0.608855361315482
-0.150496905950094 -0.111842105263157 0.625282027795603
-0.149864549133298 -0.111842105263158 0.627534005672833
-0.153203114574417 -0.111842105263157 0.639982240944358
-0.158060561578972 -0.111842105263157 0.649363124065515
-0.149700953110113 -0.111842105263158 0.662837766490092
-0.157315947843311 -0.111842105263157 0.668847246420799
-0.156201572825371 -0.111842105263157 0.678058866727391
-0.158605899471605 -0.111842105263158 0.696921295301014
-0.151296278496137 -0.111842105263157 0.693493852701765
-0.150236359731604 -0.111842105263157 0.70904410358608
-0.150086620490553 -0.111842105263157 0.71575467647143
-0.149818678995497 -0.111842105263157 0.731932043151837
-0.152041354461782 -0.111842105263157 0.731937486297015
-0.152407080223801 -0.111842105263157 0.747875023962597
-0.156741810342689 -0.111842105263158 0.756903282291738
-0.156501321022468 -0.111842105263157 0.767640389260752
-0.156142214547554 -0.111842105263157 0.776869900780255
-0.156541156811748 -0.111842105263158 0.784260625044244
-0.150774729437774 -0.111842105263157 0.78995927203576
-0.158833282604842 -0.111842105263157 0.803977824459926
-0.158270504996204 -0.111842105263157 0.815801229962451
-0.150112190960737 -0.111842105263157 0.827405226791661
-0.151593108817333 -0.111842105263157 0.833783481372071
-0.152196569289905 -0.111842105263158 0.841184608106583
-0.158079035504466 -0.111842105263157 0.850190023952654
-0.149914169407973 -0.111842105263157 0.863802275768747
-0.15145942601439 -0.111842105263157 0.876292945210081
-0.153059367529311 -0.111842105263157 0.879204637430999
-0.152527552964525 -0.111842105263157 0.8891677379374
-0.153682932020419 -0.111842105263157 0.904457312089689
-0.150506797291552 -0.111842105263157 0.90939896151586
-0.157009198143276 -0.111842105263157 0.923687053941166
-0.15307026677231 -0.111842105263157 0.930062086598727
-0.15796038658405 -0.111842105263157 0.940315559027901
-0.155826198899351 -0.111842105263157 0.954578160574907
-0.150027709134674 -0.111842105263157 0.959878339424491
-0.153809470698172 -0.111842105263157 0.967238112371182
-0.149424101126733 -0.111842105263157 0.979756068075974
-0.152106224982834 -0.111842105263157 0.993262341241436
-0.155199795427957 -0.109567710638027 1.0
-0.150133752142491 -0.104934675970977 1.0
-0.15539212702434 -0.088702575862429 1.0
-0.160415880733614 -0.0727754351555197 1.0
-0.161969014013617 -0.0518828369680391 1.0
-0.159379542317592 -0.0381762378628602 1.0
-0.155210696178814 -0.0347965059096908 1.0
-0.160212445762521 -0.0216924133818337 1.0
-0.158317400262322 -0.00225739597396238 1.0
-0.155825400900381 0.0154140181389898 1.0
-0.156555464036044 0.0231996433951773 1.0
-0.165425323691834 0.0443856418220358 1.0
-0.166218031528458 0.0587207401838478 1.0
-0.162590514511276 0.0857011985018841 1.0
-0.16333729173832 0.0934722772325249 1.0
-0.165718187717493 0.107052079961896 1.0
-0.147884993489043 -0.111842105263157 0.0937022558585591
-0.140799256173604 -0.111842105263158 0.120753710488967
-0.14383225935437 -0.111842105263157 0.12007856786228
-0.14864067180971 -0.111842105263157 0.127185465063941
-0.142265947143553 -0.111842105263157 0.143864425971174
-0.147734216774347 -0.111842105263157 0.155774350060952
-0.147280502215628 -0.111842105263157 0.159582507686547
-0.14797065385312 -0.111842105263157 0.171447186111392
-0.145634532275899 -0.111842105263158 0.17678265275492
-0.140387065917408 -0.111842105263158 0.192362482886271
-0.145115563331607 -0.111842105263157 0.201433913392944
-0.143829534627649 -0.111842105263158 0.204678165008534
-0.148948167812878 -0.111842105263157 0.217165175638695
-0.139625664618854 -0.111842105263157 0.229498593854821
-0.143848430201569 -0.111842105263158 0.238237274864564
-0.146923841892851 -0.111842105263157 0.253487433445441
-0.145687389469127 -0.111842105263157 0.258318485523875
-0.142345613728103 -0.111842105263158 0.266315433205229
-0.148203797814404 -0.111842105263158 0.282823411499992
-0.149209056217051 -0.111842105263157 0.283244122524066
-0.140884911053748 -0.111842105263157 0.299436754831875
-0.144635232860894 -0.111842105263158 0.295980494470646
-0.142341432261304 -0.111842105263157 0.315408258475467
-0.141932636716185 -0.111842105263157 0.32467778424715
-0.140863990967713 -0.111842105263157 0.333240547340252
-0.144649990783761 -0.111842105263157 0.343459829446403
-0.141996123437842 -0.111842105263157 0.350637871024278
-0.144810859498014 -0.111842105263157 0.358266316075959
-0.140045378570451 -0.111842105263158 0.36866059940744
-0.144918270344923 -0.111842105263157 0.378271050732506
-0.14463084207526 -0.111842105263157 0.392025198282816
-0.14135639505149 -0.111842105263157 0.393627051345609
-0.141829667244912 -0.111842105263158 0.410451563643753
-0.148217728673494 -0.111842105263157 0.415554273396329
-0.149136729223746 -0.111842105263157 0.433800872530712
-0.142739646541312 -0.111842105263157 0.437717535070728
-0.142644353689612 -0.111842105263157 0.453587392132926
-0.142878858027704 -0.111842105263157 0.462963069580999
-0.141967854008673 -0.111842105263157 0.463131968595471
-0.148611423166323 -0.111842105263157 0.482543229635005
-0.147516417610252 -0.111842105263158 0.488202906459781
-0.144593135315868 -0.111842105263158 0.499875407454312
-0.14123887109459 -0.111842105263157 0.501970525203347
-0.144158089159469 -0.111842105263158 0.522127931902872
-0.148862506211564 -0.111842105263157 0.53427392993968
-0.148889670582764 -0.111842105263157 0.542083079738427
-0.145826642582715 -0.111842105263157 0.547243238568255
-0.141525818971203 -0.111842105263157 0.550262537693271
-0.143479547555877 -0.111842105263157 0.567816933524914
-0.147981798881004 -0.111842105263158 0.578265967904411
-0.143582362891047 -0.111842105263157 0.586261087478425
-0.143233115997673 -0.111842105263157 0.5880710321046
-0.148946961721507 -0.111842105263158 0.609247079486958
-0.148780664618208 -0.111842105263157 0.615294423665392
-0.143158702969096 -0.111842105263158 0.62125137396486
-0.148920310435439 -0.111842105263158 0.630540207768754
-0.147926902288298 -0.111842105263157 0.643226358797702
-0.142647230079821 -0.111842105263157 0.644887666327571
-0.147680244735384 -0.111842105263157 0.662429113547233
-0.145562863562441 -0.111842105263157 0.667802860503345
-0.142998702913163 -0.111842105263157 0.680874322644191
-0.14474642066306 -0.111842105263157 0.689255274074047
-0.148115586280358 -0.111842105263158 0.698303969228617
-0.1432318584762 -0.111842105263157 0.705514632099316
-0.143461986448147 -0.111842105263157 0.714512318204077
-0.14414159131969 -0.111842105263157 0.733552666064641
-0.146346635432317 -0.111842105263157 0.73734245558277
-0.145048826814117 -0.111842105263157 0.743012323348236
-0.147958400251783 -0.111842105263157 0.754640739553465
-0.144660679635068 -0.111842105263157 0.767516355811797
-0.142544704357778 -0.111842105263157 0.77196020142327
-0.145071099322356 -0.111842105263157 0.789677536114696
-0.14134167963513 -0.111842105263157 0.797835384686972
-0.147413586356934 -0.111842105263157 0.801115149089537
-0.146143747301879 -0.111842105263157 0.819418707437786
-0.142728986503805 -0.111842105263157 0.822675157513344
-0.148079831309832 -0.111842105263157 0.832705142733722
-0.149257727367573 -0.111842105263157 0.844548018748925
-0.146597470802965 -0.111842105263157 0.85064010568465
-0.144597340083935 -0.111842105263157 0.855378394109367
-0.139753120396589 -0.111842105263157 0.874305674906824
-0.141880250386825 -0.111842105263157 0.880443660780688
-0.148254801187872 -0.111842105263157 0.884327032813637
-0.145766390180262 -0.111842105263157 0.896734013171187
-0.139896845287373 -0.111842105263157 0.909583451431828
-0.147731386468424 -0.111842105263157 0.921252741568457
-0.144445034474135 -0.111842105263157 0.933771049498607
-0.145842862020388 -0.111842105263157 0.93950834071627
-0.141549815981742 -0.111842105263157 0.956426873687398
-0.14565923161594 -0.111842105263157 0.95575949533369
-0.146925326591569 -0.111842105263157 0.974764844611624
-0.147358131373507 -0.111842105263157 0.975524512886061
-0.14748894873263 -0.111842105263157 0.991246685632638
-0.146972914874147 -0.110293401433873 1.0
-0.144841284138639 -0.0959071550087464 1.0
-0.145510388732052 -0.0876920399603665 1.0
-0.142482171646156 -0.076814340632408 1.0
-0.148952118540838 -0.0492993125198016 1.0
-0.146759396814765 -0.0518552177547883 1.0
-0.146141549042418 -0.0280998261609038 1.0
-0.14863652158336 -0.00592226509167135 1.0
-0.154666442060904 0.000219339227278307 1.0
-0.153776620839329 0.0145905477662482 1.0
-0.152305435378712 0.0398209777802146 1.0
-0.153675882050128 0.0533710358764122 1.0
-0.156426188169643 0.064031922435033 1.0
-0.15733146617529 0.0827676096541065 1.0
-0.149576725238908 0.0896388070267967 1.0
-0.153110813976817 0.103820938855377 1.0
-0.138896630656778 -0.111842105263157 0.104164095843451
-0.130530134914577 -0.111842105263157 0.108969778834608
-0.135360188138733 -0.111842105263158 0.120994252468348
-0.130399538052699 -0.111842105263157 0.135168037163803
-0.136368703710456 -0.111842105263157 0.132222934258619
-0.134330741355617 -0.111842105263157 0.151295189229192
-0.135402740680702 -0.111842105263157 0.161537862173927
-0.136456210754254 -0.111842105263158 0.171912345243036
-0.139338352024578 -0.111842105263157 0.178013825689784
-0.137557554167278 -0.111842105263158 0.189265174472594
-0.136280726287789 -0.111842105263157 0.200753565311457
-0.135352226272682 -0.111842105263157 0.212469209485556
-0.132914934122362 -0.111842105263157 0.224224117319768
-0.131756292288579 -0.111842105263158 0.233582316667113
-0.131818516020787 -0.111842105263158 0.239984530389458
-0.135304757024818 -0.111842105263157 0.246025300030893
-0.139708353570775 -0.111842105263157 0.25023376057603
-0.133767873535734 -0.111842105263157 0.266173760393168
-0.130310847562133 -0.111842105263157 0.270519336533168
-0.130022078194171 -0.111842105263157 0.283115586261348
-0.134966966235128 -0.111842105263158 0.294397844204998
-0.130526600708582 -0.111842105263157 0.307051444370864
-0.133401822262461 -0.111842105263157 0.312304968708125
-0.137715009414892 -0.111842105263158 0.323437604693963
-0.131031802853624 -0.111842105263157 0.334419970660211
-0.133400221462945 -0.111842105263157 0.33759859062052
-0.135743876621958 -0.111842105263158 0.351774699785039
-0.133012929677361 -0.111842105263157 0.360874292251783
-0.136594751679336 -0.111842105263157 0.374696456512423
-0.130611403005586 -0.111842105263157 0.378593559466069
-0.136471401795569 -0.111842105263157 0.389930084664496
-0.131035809617258 -0.111842105263157 0.404202173001337
-0.133501841477697 -0.111842105263157 0.404610965630725
-0.138427501896591 -0.111842105263158 0.42520300981558
-0.135362054934963 -0.111842105263158 0.429130253337348
-0.138322900786559 -0.111842105263157 0.444611257748573
-0.137902795871571 -0.111842105263157 0.454970967671382
-0.13724596292518 -0.111842105263158 0.461664594212383
-0.138895488307905 -0.111842105263158 0.466424839723259
-0.134335383516249 -0.111842105263157 0.477948238820715
-0.132972558241535 -0.111842105263157 0.485010849229077
-0.131302115660575 -0.111842105263157 0.503668398073123
-0.129950812732071 -0.111842105263157 0.507962441364544
-0.13359945344615 -0.111842105263157 0.511379597241724
-0.135845306082534 -0.111842105263157 0.531404436326158
-0.13029721498852 -0.111842105263158 0.537475669698367
-0.137135111606088 -0.111842105263157 0.547438773819138
-0.13756060766047 -0.111842105263157 0.553067364769335
-0.133150779217246 -0.111842105263157 0.567617638619571
-0.133526648198865 -0.111842105263157 0.574231175010044
-0.13178024842836 -0.111842105263157 0.586191222018823
-0.132289125309326 -0.111842105263157 0.593637925545659
-0.130681965819821 -0.111842105263158 0.610587193383052
-0.136978995631491 -0.111842105263158 0.615527232241527
-0.138689342524165 -0.111842105263157 0.61799832474912
-0.13157952621051 -0.111842105263157 0.63390075971686
-0.135951224313958 -0.111842105263157 0.644237072253265
-0.136356200906848 -0.111842105263157 0.649961952332151
-0.138444690577915 -0.111842105263157 0.663815429727423
-0.133637425924044 -0.111842105263157 0.675654295549901
-0.133345460021629 -0.111842105263157 0.686111025893753
-0.137958439488602 -0.111842105263157 0.696226221396597
-0.131068107267281 -0.111842105263157 0.700258576970115
-0.138214413000178 -0.111842105263157 0.709322570695795
-0.131237835505941 -0.111842105263157 0.720092419539791
-0.134855884084765 -0.111842105263158 0.731868611620353
-0.133076316822962 -0.111842105263157 0.740857329653759
-0.130546279986276 -0.111842105263157 0.750509827350753
-0.132020776463567 -0.111842105263157 0.759075104593896
-0.131389876399822 -0.111842105263157 0.772133642094723
-0.135558611576157 -0.111842105263157 0.77767526462219
-0.139033912671787 -0.111842105263157 0.78379063028339
-0.135019844498546 -0.111842105263157 0.794565010865684
-0.13234661874862 -0.111842105263157 0.80354734470346
-0.133924489604262 -0.111842105263157 0.81982003476114
-0.131287864691293 -0.111842105263157 0.823612558524858
-0.131682792999055 -0.111842105263157 0.833592342521117
-0.137762327276617 -0.111842105263157 0.842969326664732
-0.138234666045105 -0.111842105263157 0.854245785847922
-0.131500721204817 -0.111842105263157 0.864066954319802
-0.13491706792428 -0.111842105263157 0.876162278534341
-0.133292506012876 -0.111842105263157 0.887344532322231
-0.135079274089936 -0.111842105263157 0.890359151348987
-0.13462511941762 -0.111842105263157 0.897301397292448
-0.137518640157177 -0.111842105263157 0.907332393787396
-0.134503829911471 -0.111842105263158 0.918542466238435
-0.130611838288462 -0.111842105263157 0.933300078140543
-0.131889525872953 -0.111842105263157 0.938526967753854
-0.135835557892852 -0.111842105263157 0.945758619909537
-0.135927426737198 -0.111842105263157 0.961512624438497
-0.130488542716146 -0.111842105263158 0.967086691430323
-0.132954341558276 -0.111842105263157 0.975062419811142
-0.137022812907849 -0.111842105263158 0.991709415223589
-0.131211972356774 -0.111842105263157 0.999461666779647
-0.13751575928096 -0.10676177591237 1.0
-0.135697691593838 -0.0902398259232685 1.0
-0.135344020075536 -0.0745310633753678 1.0
-0.140948425258852 -0.0553204281588274 1.0
-0.137105035138626 -0.0446327173726688 1.0
-0.140012677220171 -0.0315774523551376 1.0
-0.137924872245779 -0.0154227100750657 1.0
-0.142548604189861 0.00206514388633918 1.0
-0.138192266053976 0.017184908565277 1.0
-0.138297474978004 0.0284110696287303 1.0
-0.145066352073986 0.0417831421476398 1.0
-0.144517992585388 0.0573042905093684 1.0
-0.13912689155294 0.0783724560058515 1.0
-0.144856321749234 0.0959487918737054 1.0
-0.128227582493728 -0.111842105263157 0.102517429935976
-0.124062778468588 -0.111842105263157 0.114723654649374
-0.1287567326631 -0.111842105263157 0.120510739067771
-0.12488293117815 -0.111842105263157 0.135113016321988
-0.125799262547992 -0.111842105263157 0.147076240098268
-0.122973432403067 -0.111842105263158 0.152864684967466
-0.129783199561159 -0.111842105263157 0.158702409705475
-0.126966764349775 -0.111842105263157 0.162349877090495
-0.123762993568025 -0.111842105263157 0.177562965956185
-0.129798666927378 -0.111842105263157 0.188061776755634
-0.120220330895416 -0.111842105263158 0.205581274670786
-0.121048739940937 -0.111842105263157 0.202694405155536
-0.122183354286646 -0.111842105263157 0.21843698230659
-0.124202680628455 -0.111842105263157 0.223354144779667
-0.125898638862252 -0.111842105263157 0.241465141064681
-0.126323985879995 -0.111842105263157 0.243797662278969
-0.121310133291813 -0.111842105263157 0.256568583202441
-0.123805360685632 -0.111842105263157 0.259873105633007
-0.123683843569737 -0.111842105263157 0.279860290078611
-0.121980595640457 -0.111842105263157 0.290676093038157
-0.12472082266858 -0.111842105263157 0.293388106641058
-0.125320821119967 -0.111842105263157 0.309614207043772
-0.120874443836396 -0.111842105263157 0.317584143937331
-0.122170176564575 -0.111842105263157 0.32440113436388
-0.124285004145908 -0.111842105263157 0.334123183874624
-0.121947112595465 -0.111842105263158 0.344774270445136
-0.123040178485388 -0.111842105263158 0.346855504595991
-0.120886159690785 -0.111842105263158 0.360138967752573
-0.128737451153371 -0.111842105263157 0.376286634126663
-0.123593934800114 -0.111842105263157 0.382008140075482
-0.124757947716475 -0.111842105263157 0.393338192341424
-0.122410899028379 -0.111842105263157 0.402346135559333
-0.127640305823228 -0.111842105263157 0.409241700269993
-0.125734334544332 -0.111842105263157 0.416595064755512
-0.129628764859183 -0.111842105263157 0.437111781316344
-0.126275159923021 -0.111842105263157 0.438355718044308
-0.125546309634358 -0.111842105263157 0.454080706518483
-0.127316110549799 -0.111842105263157 0.458656170398912
-0.123862678672722 -0.111842105263157 0.475155513336318
-0.122056515726553 -0.111842105263157 0.475167995998119
-0.125615981258473 -0.111842105263157 0.493122539736211
-0.12773853662555 -0.111842105263157 0.502884565920512
-0.121299402301189 -0.111842105263157 0.502728533074808
-0.124243369477247 -0.111842105263157 0.515003481345118
-0.124155913436788 -0.111842105263157 0.526007749180495
-0.123692375868428 -0.111842105263157 0.530201988275889
-0.12448596540722 -0.111842105263158 0.545139096625119
-0.121354903518199 -0.111842105263157 0.552343628779086
-0.124098441730176 -0.111842105263158 0.569762528114651
-0.122601349210148 -0.111842105263158 0.573633058001128
-0.122931118232277 -0.111842105263157 0.584843368242292
-0.123360270317266 -0.111842105263158 0.593622219010881
-0.128920264706287 -0.111842105263157 0.607087642467211
-0.126434118006705 -0.111842105263158 0.609613560503862
-0.129665170571235 -0.111842105263157 0.623343028371202
-0.129148895967678 -0.111842105263157 0.633330629025986
-0.126146269467968 -0.111842105263157 0.635549298222119
-0.124875291734564 -0.111842105263157 0.651243295518959
-0.129569002235663 -0.111842105263157 0.654924666990521
-0.121945253656641 -0.111842105263157 0.663327419892118
-0.125864093901332 -0.111842105263157 0.675508123244017
-0.12335147162986 -0.111842105263157 0.689348876409523
-0.127097961651713 -0.111842105263157 0.698681480154339
-0.122681948368785 -0.111842105263157 0.705436372642642
-0.12558124536476 -0.111842105263157 0.718816253155764
-0.122926701262549 -0.111842105263157 0.728229277615133
-0.124620995546406 -0.111842105263157 0.737449710101763
-0.124377340135479 -0.111842105263157 0.747951621769102
-0.123164792618508 -0.111842105263157 0.75452217726831
-0.126794738207514 -0.111842105263157 0.765584647977619
-0.127986727195345 -0.111842105263157 0.772033952456385
-0.125792726429164 -0.111842105263157 0.78484370454775
-0.129037229483607 -0.111842105263157 0.79241003648115
-0.124621231039191 -0.111842105263157 0.809870490761615
-0.125453592098971 -0.111842105263157 0.814830186881075
-0.122953114413565 -0.111842105263157 0.822256536936151
-0.128839908043811 -0.111842105263157 0.832920256691199
-0.127397372922331 -0.111842105263157 0.843296945185412
-0.129833070683269 -0.111842105263157 0.85611737528473
-0.129970878185084 -0.111842105263157 0.865014311195233
-0.127930003910871 -0.111842105263157 0.865153193925082
-0.123555397619688 -0.111842105263158 0.886970031712635
-0.12478358648738 -0.111842105263157 0.88977292075422
-0.127247346606746 -0.111842105263157 0.908014341938891
-0.123692581923907 -0.111842105263157 0.908604751259896
-0.125649587575738 -0.111842105263157 0.915028557823027
-0.128099948116742 -0.111842105263157 0.932784766699686
-0.122806345562056 -0.111842105263158 0.939019291220423
-0.129692621772922 -0.111842105263157 0.941858796225668
-0.129997659266422 -0.111842105263158 0.958877494352849
-0.123961372988052 -0.111842105263157 0.965208273906556
-0.122332374439363 -0.111842105263158 0.982419888379348
-0.121595966813921 -0.111842105263157 0.986757244369199
-0.120546740782908 -0.111842105263157 0.998103266031146
-0.128896615442825 -0.0969398495256043 1.0
-0.123489599518526 -0.0861190131995655 1.0
-0.126239553868555 -0.0756665650854553 1.0
-0.127082624465825 -0.0507539722041945 1.0
-0.128671641152868 -0.0410534628469354 1.0
-0.129268727389479 -0.0331068254809307 1.0
-0.134138426059307 -0.0122519621471345 1.0
-0.134337413580946 -0.000514290899739334 1.0
-0.128135286562052 0.0158726500139073 1.0
-0.128928886694122 0.0294950042591765 1.0
-0.131292630796948 0.0415226165317285 1.0
-0.137802477712268 0.0671568409142871 1.0
-0.134256855178793 0.080032301775992 1.0
-0.131834494964565 0.0948758291334341 1.0
-0.115579644946496 -0.111842105263157 0.107815519629894
-0.112276635405882 -0.111842105263157 0.108803485748619
-0.110858897685754 -0.111842105263158 0.124198845126496
-0.116110544988987 -0.111842105263157 0.12750072432534
-0.116074928126531 -0.111842105263157 0.142795122585571
-0.111461494099698 -0.111842105263157 0.144924274443087
-0.115670295545711 -0.111842105263157 0.156196987231999
-0.110811977097531 -0.111842105263157 0.169735085596315
-0.115479018454928 -0.111842105263157 0.182612831168712
-0.113757712005615 -0.111842105263157 0.189027267261327
-0.11823026878619 -0.111842105263157 0.200495265666789
-0.115748310737177 -0.111842105263157 0.210001592164933
-0.11755383397588 -0.111842105263157 0.222005475340417
-0.120152660433096 -0.111842105263157 0.221631662779861
-0.119383091547431 -0.111842105263158 0.241377943308505
-0.112872232046595 -0.111842105263157 0.241614771123944
-0.116437393062795 -0.111842105263157 0.260087556054664
-0.115977047811553 -0.111842105263157 0.263646647334778
-0.118083372708155 -0.111842105263157 0.273631811969417
-0.116317110814035 -0.111842105263157 0.286827778673534
-0.120346342162327 -0.111842105263157 0.297751751431338
-0.113949086492481 -0.111842105263157 0.30684650683095
-0.119044753434358 -0.111842105263157 0.311968491183206
-0.119909924531094 -0.111842105263157 0.318021582995344
-0.112907901276314 -0.111842105263158 0.334111846182802
-0.11463907807267 -0.111842105263157 0.348684323649691
-0.116728042540268 -0.111842105263157 0.354045010735339
-0.114797500187364 -0.111842105263157 0.362172750896597
-0.114972034814713 -0.111842105263158 0.370836753161793
-0.117534304983989 -0.111842105263157 0.379778159665555
-0.118469989521331 -0.111842105263157 0.390380864170762
-0.119823638878619 -0.111842105263157 0.400752482639987
-0.119805227933755 -0.111842105263157 0.407755228126917
-0.112037886580798 -0.111842105263157 0.420541159152841
-0.119047716101363 -0.111842105263157 0.427857697819161
-0.111119092308607 -0.111842105263158 0.433914591825929
-0.111017397652787 -0.111842105263157 0.444046771073816
-0.117867055308996 -0.111842105263157 0.458178920646037
-0.120547015923755 -0.111842105263157 0.463825230287239
-0.111649764076722 -0.111842105263157 0.470418385511998
-0.112984392174066 -0.111842105263157 0.492607771156764
-0.118146182869154 -0.111842105263157 0.491476959608831
-0.116267555433013 -0.111842105263157 0.509879762103096
-0.117292533068287 -0.111842105263158 0.510264757221275
-0.119934699932826 -0.111842105263157 0.529013760985293
-0.116142493146567 -0.111842105263158 0.542790073056109
-0.119595648806115 -0.111842105263158 0.539676753504929
-0.112053206185924 -0.111842105263157 0.552514978707911
-0.116162750382564 -0.111842105263157 0.564885933119049
-0.117783174166227 -0.111842105263157 0.575373785653816
-0.113218624209598 -0.111842105263157 0.582882375793818
-0.119515760758616 -0.111842105263158 0.596938733621445
-0.111414890120842 -0.111842105263157 0.605740523617432
-0.120539159766202 -0.111842105263157 0.609104642793618
-0.114807259492859 -0.111842105263158 0.627591765589169
-0.117304994369011 -0.111842105263158 0.634938531139274
-0.111365357811644 -0.111842105263157 0.64281446986976
-0.119727278556029 -0.111842105263157 0.647169391421302
-0.116918482497107 -0.111842105263157 0.66137002045497
-0.115158270511882 -0.111842105263157 0.668271888459012
-0.115930880747323 -0.111842105263157 0.679721640727912
-0.111394828561719 -0.111842105263157 0.693013332939789
-0.113156045856429 -0.111842105263157 0.692809472806185
-0.115840239724417 -0.111842105263157 0.700942347844011
-0.117905135012129 -0.111842105263157 0.713283967625061
-0.114386282014568 -0.111842105263157 0.728909471688524
-0.119240926961729 -0.111842105263157 0.742564497258608
-0.111358215680888 -0.111842105263157 0.752324983028064
-0.114597877238295 -0.111842105263158 0.758641649030501
-0.115980625759811 -0.111842105263157 0.76714952859396
-0.11733804565823 -0.111842105263157 0.770917540645191
-0.112392924759425 -0.111842105263157 0.786898605268293
-0.110988181732743 -0.111842105263157 0.798171778851382
-0.114168130528476 -0.111842105263157 0.803914171815697
-0.110815263907246 -0.111842105263157 0.816414086936546
-0.116211350167388 -0.111842105263157 0.821877185449946
-0.118160834949957 -0.111842105263157 0.829563927415953
-0.118617809264809 -0.111842105263157 0.844585394145651
-0.117069251121229 -0.111842105263157 0.856915360912337
-0.113782594004815 -0.111842105263157 0.860569506594128
-0.116227616634044 -0.111842105263157 0.877463136675085
-0.115309865158806 -0.111842105263157 0.886905283841837
-0.113701486854702 -0.111842105263157 0.895637613528576
-0.119259664795045 -0.111842105263157 0.895860100209967
-0.119457773404656 -0.111842105263157 0.907471650583574
-0.117847921054758 -0.111842105263157 0.917366215981612
-0.116566365351521 -0.111842105263157 0.936353810497844
-0.116789399046439 -0.111842105263157 0.939263199358144
-0.112713950051542 -0.111842105263157 0.945703766301011
-0.112817177917404 -0.111842105263157 0.961782634241716
-0.120409710419386 -0.111842105263157 0.970695869761233
-0.119917230796588 -0.111842105263157 0.977642250772017
-0.110838278888239 -0.111842105263157 0.989197305409115
-0.115477276802309 -0.111842105263157 0.999721112529389
-0.116044571806129 -0.0932941780940136 1.0
-0.115052979772681 -0.0817613592556829 1.0
-0.118552528781154 -0.0701278467960667 1.0
-0.120917669319757 -0.057347029185044 1.0
-0.118440160999038 -0.0514162783932454 1.0
-0.115244726150588 -0.0358236048317801 0.999999999999999
-0.11766235786044 -0.020740098931952 1.0
-0.120721750149866 -0.00185143544190231 0.999999999999999
-0.117355441417987 0.0255112626389545 1.0
-0.116630216697268 0.0397348011811065 1.0
-0.121591023395081 0.0367472488884373 1.0
-0.125070186375439 0.0536230408213296 1.0
-0.121860177721523 0.0812028244815795 1.0
-0.124111996236389 0.0929699576128359 1.0
-0.124345359673176 0.105720137453804 1.0
-0.102259747195733 -0.111842105263157 0.101234900782489
-0.109134720825395 -0.111842105263157 0.106583165523795
-0.10704631551994 -0.111842105263157 0.116565719043138
-0.110330662890741 -0.111842105263157 0.124135091124272
-0.107237440607195 -0.111842105263157 0.143003183640202
-0.106443636262365 -0.111842105263157 0.153007985615433
-0.107433414682078 -0.111842105263157 0.160108682445526
-0.10652103362498 -0.111842105263158 0.172411723497027
-0.110660883266968 -0.111842105263157 0.184242071439366
-0.10513126686862 -0.111842105263157 0.194563708787317
-0.107445288720193 -0.111842105263157 0.201468465857599
-0.10933829439974 -0.111842105263157 0.210490543664319
-0.108309208620681 -0.111842105263157 0.216769335099172
-0.105172989107722 -0.111842105263157 0.222262769936723
-0.109696526505423 -0.111842105263157 0.237574880555067
-0.109401894113737 -0.111842105263157 0.24588584020682
-0.106107459520425 -0.111842105263157 0.254207443909831
-0.106110966129124 -0.111842105263157 0.265356018148352
-0.104317583762302 -0.111842105263157 0.274014062249086
-0.104121848806984 -0.111842105263157 0.288629427796245
-0.106661881513914 -0.111842105263158 0.295461267209719
-0.107634384740794 -0.111842105263157 0.307353053355675
-0.110347105029069 -0.111842105263157 0.314087451297506
-0.102779450169361 -0.111842105263157 0.325869136318075
-0.106166398386525 -0.111842105263157 0.333078506419739
-0.107968108097806 -0.111842105263157 0.344627400570884
-0.109473806904223 -0.111842105263157 0.352266217120635
-0.106507893141461 -0.111842105263157 0.365414634332089
-0.102975018255712 -0.111842105263157 0.362576523127533
-0.10491035803038 -0.111842105263157 0.37887465175012
-0.106376474962817 -0.111842105263157 0.393123882998652
-0.109113898238083 -0.111842105263157 0.401452777243046
-0.108973775136527 -0.111842105263158 0.406526417861238
-0.110706553312378 -0.111842105263157 0.422304116923391
-0.105839890830998 -0.111842105263158 0.429762191773743
-0.106472221559422 -0.111842105263157 0.433305150755282
-0.106980176805109 -0.111842105263157 0.447248356883567
-0.106868488792366 -0.111842105263157 0.455071787264739
-0.108920892890901 -0.111842105263157 0.461919029263667
-0.104127667646682 -0.111842105263157 0.478747264585248
-0.105269416481312 -0.111842105263157 0.487802904212005
-0.102057459158737 -0.111842105263157 0.49963819529629
-0.105781158183045 -0.111842105263157 0.511696190431186
-0.109321763854866 -0.111842105263157 0.521876746663974
-0.10189544950028 -0.111842105263157 0.528411893043017
-0.10316112868107 -0.111842105263158 0.52863426989794
-0.104644446293493 -0.111842105263158 0.545087697020723
-0.104038949850762 -0.111842105263157 0.555822751741787
-0.103474600663243 -0.111842105263157 0.557962061333125
-0.102883802004003 -0.111842105263157 0.577394975133129
-0.110706640524032 -0.111842105263157 0.585583268174276
-0.105257525031158 -0.111842105263157 0.592702896822936
-0.101265093380217 -0.111842105263157 0.604684675740051
-0.104762847193937 -0.111842105263158 0.610644195077971
-0.105439857115307 -0.111842105263157 0.614701929550338
-0.102911816007267 -0.111842105263157 0.62475538341766
-0.105890274850721 -0.111842105263157 0.638971013379514
-0.10419833534869 -0.111842105263157 0.653447871792918
-0.105013349328668 -0.111842105263157 0.665702413508663
-0.102872499256901 -0.111842105263157 0.673415294096912
-0.10477637655417 -0.111842105263157 0.677773993224923
-0.109988943914511 -0.111842105263157 0.68663632710187
-0.104771409222358 -0.111842105263157 0.696934056812639
-0.110422784089249 -0.111842105263157 0.715496334652587
-0.108162164604482 -0.111842105263157 0.720212562163459
-0.104735709626542 -0.111842105263158 0.723455697946354
-0.102180858813655 -0.111842105263157 0.738032867515348
-0.106038113037815 -0.111842105263157 0.740290646539688
-0.105620425180231 -0.111842105263157 0.749424583066505
-0.110068085664126 -0.111842105263157 0.76958167541169
-0.110190575620112 -0.111842105263158 0.771448527493359
-0.10433988979883 -0.111842105263157 0.785901905828736
-0.103483726101936 -0.111842105263157 0.792312213536359
-0.103471226744747 -0.111842105263157 0.803859783222825
-0.106496555616992 -0.111842105263157 0.810085598479155
-0.110267810060252 -0.111842105263157 0.822973873747071
-0.105746155898913 -0.111842105263157 0.83622364820456
-0.103245371595351 -0.111842105263157 0.846470275724142
-0.110715167804215 -0.111842105263157 0.846300636913752
-0.102774598864008 -0.111842105263157 0.864141952772857
-0.104126304170732 -0.111842105263157 0.877525899022287
-0.10697725840127 -0.111842105263157 0.884515519937427
-0.101227041628956 -0.111842105263157 0.893631149834142
-0.107956766360231 -0.111842105263157 0.904075763998077
-0.109915799029081 -0.111842105263157 0.906333737170144
-0.105334237297453 -0.111842105263157 0.920079849865253
-0.108153107904528 -0.111842105263157 0.928524285735366
-0.103897281430657 -0.111842105263157 0.936319080741315
-0.105536949924595 -0.111842105263157 0.947336876501157
-0.110518908032277 -0.111842105263157 0.958754305805809
-0.107166347084777 -0.111842105263157 0.971391905800651
-0.101996508742644 -0.111842105263157 0.980254871980285
-0.104109703266695 -0.111842105263157 0.990629714600901
-0.110168319162472 -0.111842105263157 0.992129045564091
-0.101517544732011 -0.106191672453232 1.0
-0.111480171049355 -0.0839057188863158 1.0
-0.11214873990623 -0.0673267959132003 1.0
-0.108220882530874 -0.0677999696640852 1.0
-0.112335771201381 -0.0443829478681305 1.0
-0.1068825515801 -0.0287664597121878 1.0
-0.10537691254853 -0.0147717101314843 1.0
-0.106487863912279 -0.000702511539218612 1.0
-0.113151954687057 0.0155082225052609 1.0
-0.107270354903988 0.0279746925318461 1.0
-0.112172061893602 0.051775347945597 1.0
-0.111876268433671 0.0617364634850564 1.0
-0.109641636251469 0.0710523990447945 1.0
-0.116613511847427 0.100876263056223 1.0
-0.115415135701367 0.104927040213561 1.0
-0.100532055608361 -0.111842105263157 0.103198794205508
-0.0925610911903063 -0.111842105263157 0.111429467542769
-0.0960958339036756 -0.111842105263157 0.124181696228635
-0.0950879376061865 -0.111842105263157 0.132439109716711
-0.0976251136502931 -0.111842105263157 0.147148199087125
-0.0936274798083664 -0.111842105263157 0.147354057791638
-0.0966068807946186 -0.111842105263157 0.160489244132001
-0.0950060128415601 -0.111842105263157 0.174023833579209
-0.0933938540147892 -0.111842105263157 0.17745098852199
-0.0970930485238179 -0.111842105263157 0.187036770822277
-0.0938084602823369 -0.111842105263157 0.198524919839802
-0.101246400122621 -0.111842105263157 0.207484171845962
-0.0925230843929983 -0.111842105263157 0.214384380760205
-0.0942639613604142 -0.111842105263157 0.233473194857047
-0.0928062947745682 -0.111842105263157 0.23482829644688
-0.0973098539526664 -0.111842105263157 0.248780356502824
-0.100228593473317 -0.111842105263157 0.262438531726648
-0.0955087018103104 -0.111842105263157 0.263622520117066
-0.100609583745571 -0.111842105263157 0.280579591441724
-0.101135507611525 -0.111842105263157 0.280839320515208
-0.100302354200811 -0.111842105263157 0.294791157169453
-0.0923949771861484 -0.111842105263157 0.303736038877501
-0.0989777136778337 -0.111842105263157 0.317818594207814
-0.0917652417390343 -0.111842105263157 0.316562059407036
-0.0939460390639154 -0.111842105263157 0.332212142818921
-0.0933261183122087 -0.111842105263157 0.336328565484763
-0.0969777349248521 -0.111842105263158 0.353215328957756
-0.100890892227235 -0.111842105263157 0.362190478288594
-0.0934729044182296 -0.111842105263157 0.372056146538521
-0.0957291865186705 -0.111842105263157 0.375722208119073
-0.0980134848091133 -0.111842105263158 0.388452457733616
-0.0971089671504448 -0.111842105263157 0.406328787597928
-0.0981401831194706 -0.111842105263157 0.412561919603674
-0.0919217541615992 -0.111842105263157 0.421653406020772
-0.0957060962702771 -0.111842105263157 0.433607419052226
-0.096427862603477 -0.111842105263157 0.438068540058214
-0.09925248683878 -0.111842105263157 0.447971734784032
-0.0959195577955704 -0.111842105263157 0.455945191446194
-0.0917872615837695 -0.111842105263157 0.47417430399346
-0.092731417761317 -0.111842105263157 0.47115381374404
-0.0935515066965326 -0.111842105263157 0.488216592003213
-0.0918886020522418 -0.111842105263157 0.501099125522705
-0.0922766803204319 -0.111842105263157 0.503879035431971
-0.0946909347284374 -0.111842105263157 0.515231550536202
-0.0984238258012329 -0.111842105263157 0.522011029401138
-0.0968116158369514 -0.111842105263157 0.528069872761812
-0.0974025941568177 -0.111842105263157 0.543041961626408
-0.0978085556134917 -0.111842105263157 0.550122103358016
-0.100442529451024 -0.111842105263157 0.563756356840109
-0.0928830183306908 -0.111842105263157 0.567852616071471
-0.0952194407922592 -0.111842105263157 0.580191207669154
-0.09666821385046 -0.111842105263157 0.593406346928112
-0.0940621741585621 -0.111842105263157 0.601068132330462
-0.0924183115541794 -0.111842105263157 0.607300901727462
-0.0948221328881938 -0.111842105263157 0.627488937726825
-0.0961718683574955 -0.111842105263157 0.62468625051673
-0.0928192323960638 -0.111842105263157 0.638256754189867
-0.0951474035084594 -0.111842105263157 0.651498446093191
-0.0966473147774704 -0.111842105263157 0.66390107245503
-0.0985786261836279 -0.111842105263157 0.664895982528465
-0.0924852475907202 -0.111842105263157 0.67568799419901
-0.092093156989893 -0.111842105263157 0.690110076340756
-0.0939909125955059 -0.111842105263157 0.696368269283218
-0.0966634386526348 -0.111842105263157 0.708253251342817
-0.10032688037794 -0.111842105263157 0.71671345595298
-0.0937688067084347 -0.111842105263157 0.724465992970024
-0.101109078515084 -0.111842105263157 0.736947324312312
-0.100839291460723 -0.111842105263157 0.749974325272993
-0.0985214098686611 -0.111842105263157 0.757898964230034
-0.0915864382512533 -0.111842105263157 0.76165677233153
-0.0956405599890591 -0.111842105263157 0.783757019163244
-0.0935727392985952 -0.111842105263157 0.784576821113556
-0.0963100580196775 -0.111842105263157 0.799792940242069
-0.0919555190750622 -0.111842105263157 0.803794444523288
-0.09443847812454 -0.111842105263157 0.811432015815208
-0.0929229753283494 -0.111842105263158 0.827635873944028
-0.0999243190633054 -0.111842105263157 0.839208583557134
-0.100903731820696 -0.111842105263157 0.842805498019375
-0.093826349235359 -0.111842105263157 0.854189098164753
-0.0921445022476046 -0.111842105263157 0.863354567139377
-0.0939029698268142 -0.111842105263157 0.870498128357853
-0.0954413016788796 -0.111842105263157 0.879380020926804
-0.0958413380368913 -0.111842105263157 0.890176705385734
-0.0971525636138807 -0.111842105263157 0.899825700734571
-0.0993081326552665 -0.111842105263157 0.912414762647527
-0.0999615183331417 -0.111842105263157 0.919164247158066
-0.0938275649800729 -0.111842105263157 0.931822502167699
-0.0928978025268267 -0.111842105263157 0.943226718996639
-0.0998457211658841 -0.111842105263157 0.951790071213135
-0.100610705150896 -0.111842105263157 0.95310254581371
-0.0983288170920463 -0.111842105263157 0.970707514133904
-0.0940179186172653 -0.111842105263157 0.983586354396274
-0.0960043955688805 -0.111842105263157 0.989443763936411
-0.093453211888658 -0.111842105263157 0.992211084455806
-0.0954882404725736 -0.0978171011139887 1.0
-0.0967908490420066 -0.086043100085661 1.0
-0.100799704902665 -0.0742110610830591 1.0
-0.102093844055509 -0.0571198281919428 1.0
-0.103186509455461 -0.0457047023196799 1.0
-0.094920433443844 -0.025743727417889 1.0
-0.0986933769785184 -0.0137282091778873 0.999999999999999
-0.100190354174667 0.00749824617529825 1.0
-0.102780561010278 0.0231412341182251 0.999999999999999
-0.106234723695607 0.0394848479706807 1.0
-0.0989265214573787 0.0437464587669747 1.0
-0.105728315179845 0.062401237265203 1.0
-0.103107419084397 0.0841989694740982 1.0
-0.105768274217733 0.0914503032351975 1.0
-0.0847198743389393 -0.111842105263157 0.105572979668283
-0.088498048203322 -0.111842105263157 0.117805585787073
-0.0910761260612576 -0.111842105263157 0.125044394165971
-0.0855818601728525 -0.111842105263157 0.136414275967353
-0.0821067032188418 -0.111842105263158 0.13923808917801
-0.0827771422182691 -0.111842105263157 0.155928444112017
-0.0837379960976104 -0.111842105263157 0.157695612529316
-0.0883344453818973 -0.111842105263157 0.166711482943526
-0.0858023961732482 -0.111842105263157 0.185710652346504
-0.0904554485488816 -0.111842105263158 0.186251408146278
-0.0880586410799049 -0.111842105263157 0.203747080539602
-0.0906664232449642 -0.111842105263157 0.203026517644542
-0.0884876086455582 -0.111842105263157 0.220586059389002
-0.0865725120027573 -0.111842105263157 0.218713156174136
-0.0865935516760841 -0.111842105263157 0.233445056307697
-0.0837879194104386 -0.111842105263157 0.246660916424072
-0.0854176726006659 -0.111842105263157 0.260629330091219
-0.0846459321694874 -0.111842105263157 0.269809037096991
-0.0888154829907953 -0.111842105263157 0.275974777271817
-0.0886042665127161 -0.111842105263157 0.288999826185542
-0.0902399674551606 -0.111842105263158 0.292589801359908
-0.0819698126175284 -0.111842105263158 0.311359556589768
-0.0893295679587663 -0.111842105263157 0.310279333619982
-0.0902949699316863 -0.111842105263157 0.325278963341867
-0.0912652720434116 -0.111842105263158 0.335168138777972
-0.0821922552827063 -0.111842105263157 0.345597531364003
-0.0907284309696394 -0.111842105263157 0.352726666258911
-0.0907088438234656 -0.111842105263157 0.359846091950655
-0.0889031155092112 -0.111842105263157 0.372403499024463
-0.0898237903533512 -0.111842105263158 0.382369300481869
-0.0911306757302665 -0.111842105263157 0.391624483824656
-0.0851049209409063 -0.111842105263158 0.402206793019052
-0.0819177323860929 -0.111842105263157 0.409209017127377
-0.0861354656771675 -0.111842105263157 0.414103537814534
-0.0910314383985876 -0.111842105263157 0.431592645794197
-0.0831541901711959 -0.111842105263157 0.433054909511241
-0.0900691524344962 -0.111842105263157 0.451057488846129
-0.0852100196407451 -0.111842105263157 0.450428926995701
-0.0854138419626679 -0.111842105263157 0.471686341069248
-0.085748964681854 -0.111842105263157 0.475597418184069
-0.0847103995967688 -0.111842105263157 0.482352694607401
-0.0901794414401479 -0.111842105263157 0.50157082208474
-0.0914584036104705 -0.111842105263157 0.506629948775589
-0.0855484958906682 -0.111842105263157 0.523411112657363
-0.0819746315078059 -0.111842105263157 0.531416719282962
-0.0848115298527926 -0.111842105263158 0.536971874716655
-0.0881684332915586 -0.111842105263157 0.546659330682402
-0.0909601522124361 -0.111842105263157 0.561697364385704
-0.090625292002667 -0.111842105263157 0.564902114681679
-0.0880743160363374 -0.111842105263158 0.569455993890572
-0.0851782592444442 -0.111842105263157 0.591063488273089
-0.0854816998721257 -0.111842105263157 0.599913449750377
-0.0906964014036024 -0.111842105263158 0.605194749443536
-0.0891259356936225 -0.111842105263157 0.612746629094827
-0.0823541131157704 -0.111842105263157 0.622494779950865
-0.0830873536034464 -0.111842105263157 0.631517823281243
-0.0870859697199141 -0.111842105263157 0.643284944434502
-0.0902382716464635 -0.111842105263157 0.645597584634886
-0.0898678515151094 -0.111842105263157 0.664251649912084
-0.0870997801971892 -0.111842105263157 0.67202452232501
-0.0895693740680101 -0.111842105263157 0.681279524648197
-0.0909390313145173 -0.111842105263157 0.685166828973777
-0.0867012758368778 -0.111842105263157 0.69880605648683
-0.091119407389875 -0.111842105263157 0.709733495877172
-0.0849279700334128 -0.111842105263157 0.719999969721289
-0.0856238331521787 -0.111842105263157 0.730924702472121
-0.0846421524827723 -0.111842105263157 0.742529687152629
-0.0874233344723191 -0.111842105263157 0.748040897142505
-0.082337721115887 -0.111842105263157 0.756972804283513
-0.0906989747875819 -0.111842105263157 0.764404295709827
-0.0849855093379087 -0.111842105263157 0.773058260610308
-0.0838251365573638 -0.111842105263157 0.784926014337053
-0.0871104575658012 -0.111842105263157 0.798149986765618
-0.0863894667343651 -0.111842105263157 0.803704231520582
-0.0822206501001412 -0.111842105263157 0.818269680252941
-0.0889080492773832 -0.111842105263157 0.818235316030986
-0.0831030121586507 -0.111842105263157 0.834401804761365
-0.0896938006264178 -0.111842105263158 0.84566378416246
-0.0891883588294242 -0.111842105263157 0.853816488062093
-0.0821846839753732 -0.111842105263157 0.860790823556945
-0.0874473289889399 -0.111842105263157 0.869969302081059
-0.0914887294554881 -0.111842105263157 0.884108841223262
-0.0880195275145376 -0.111842105263157 0.893145611918617
-0.0843018829067952 -0.111842105263157 0.897694713203121
-0.0845490778099354 -0.111842105263157 0.915523151704205
-0.0853689424439574 -0.111842105263157 0.921600504210248
-0.0825599024147633 -0.111842105263157 0.9353819152834
