ply
format ascii 1.0
element vertex 858
property float x
property float y
property float z
end_header
0.0204056966095218 0.104626865671636 0.356104608308242
0.0262245226909342 0.104626865671636 0.367034691881141
0.0253998426116664 0.104626865671636 0.379760641380399
0.0217276247464404 0.104626865671636 0.39387373094438
0.015915558845803 0.104626865671636 0.40614103832198
0.0204551781883524 0.104626865671636 0.414773276976804
0.0268140354010974 0.104626865671636 0.423066537663092
0.0291198514688429 0.104626865671636 0.427785625407195
0.0168804301378044 0.104626865671636 0.444917030517873
0.017632457112938 0.104626865671636 0.449916513803191
0.018452315614995 0.104626865671636 0.459207902831545
0.0176068989955422 0.104626865671636 0.466448065116281
0.0138887657577003 0.104626865671636 0.485101815918312
0.0266981973983056 0.104626865671636 0.489231299673566
0.0161344557395594 0.104626865671636 0.499088051870017
0.0216615947396463 0.104626865671636 0.504737192869932
0.0152583961457615 0.104626865671636 0.518760094047324
0.0215465808403425 0.104626865671636 0.528652262494203
0.0216620432924113 0.104626865671636 0.539255351616808
0.0208150753700792 0.104626865671636 0.54757037760749
0.015780509002192 0.104626865671636 0.557189280854615
0.0219763281207247 0.104626865671636 0.571052358241564
0.0144857270427404 0.104626865671636 0.589010872926214
0.0226583222549148 0.104626865671636 0.581334890049631
0.0158917075944127 0.104626865671636 0.596975612099033
0.0197338353375648 0.104626865671636 0.608382314731888
0.018392329337035 0.104626865671636 0.613385447461884
0.0219027108236374 0.104626865671636 0.623233972788116
0.0194647345872024 0.104626865671636 0.638052852452621
0.0186270272467876 0.104626865671636 0.648274166806803
0.0132966991522135 0.104626865671636 0.663056560149653
0.0166359542364837 0.104626865671636 0.667646151549385
0.0216308485084476 0.104626865671636 0.683202031685387
0.013759432847027 0.104626865671636 0.685947480142897
0.0210050169124943 0.104626865671636 0.704293727255074
0.0138271900859943 0.104626865671636 0.705620277528453
0.0212901731873122 0.104626865671636 0.713555064105113
0.0278527782222973 0.104626865671636 0.720428746354074
0.0231398072092297 0.104626865671636 0.728347656591154
0.0160116737107289 0.104626865671636 0.752277321247606
0.0131390461292834 0.104626865671636 0.763763431979772
0.0197307923761088 0.104626865671636 0.768652559193762
0.0218356917121307 0.104626865671636 0.773457671278473
0.0259654703292501 0.104626865671636 0.778135629889824
0.0217018138951042 0.104626865671636 0.791334197543422
0.0155349785963936 0.104626865671636 0.806201352890107
0.0238816456535728 0.104626865671636 0.809207419055608
0.0116935609384166 0.104626865671636 0.825726201039297
0.0146554186550965 0.104626865671636 0.837571565897239
0.0155334168326865 0.104626865671636 0.841550609696503
0.0193886228112157 0.104626865671636 0.851950113703927
0.0224597062572701 0.104626865671636 0.866432782118981
0.0245975304811596 0.104626865671636 0.872777308990215
0.0159613580793222 0.104626865671636 0.886542220834359
0.0231357210569571 0.104626865671636 0.895698307211284
0.0187058551392279 0.104626865671636 0.904469792587024
0.0204630057049387 0.104626865671636 0.906963460780195
0.0180615273448395 0.104626865671636 0.92271039341443
0.0146719590268273 0.104626865671636 0.933818287679585
0.0141403478066734 0.104626865671636 0.947838392437327
0.0268077049039451 0.104626865671636 0.943898799185769
0.0240859835251336 0.104626865671636 0.966101604851118
0.0230470331461074 0.104626865671636 0.966762685046658
0.0193933519627744 0.104626865671636 0.982737555130121
0.0143773945315859 0.104626865671636 0.997224006099467
0.0204736556696377 0.102890177817864 0.999999999999947
0.0250086687974228 0.10098722589335 0.999999999999947
0.0388884001313998 0.0894234918539337 0.99999999999995
0.0580743643362252 0.0748693189967572 0.999999999999954
0.0590645596218591 0.0618355931186799 0.999999999999957
0.072071868638169 0.0571223514306113 0.999999999999958
0.0891582210191133 0.0446216408430784 0.999999999999962
0.0970635708666982 0.0369743695463408 0.999999999999964
0.109078804058058 0.0202976024725728 0.999999999999968
0.123248625489313 0.00707509890182853 0.999999999999971
0.129182828434183 0.00631951493814161 0.999999999999971
0.143858304722003 -0.0172671754729176 0.999999999999977
0.153934656276783 -0.0194807792994874 0.999999999999978
0.165175907220042 -0.0395126946900959 0.999999999999983
0.1754484537543 -0.0487139907733328 0.999999999999986
0.186781890130757 -0.0544621812180884 0.999999999999987
0.197402886021139 -0.0663436554095845 0.99999999999999
0.207725509691607 -0.0803989095142355 0.999999999999994
0.223611405899771 -0.0898555451684675 0.999999999999996
0.240318151562306 -0.0943220935717581 0.999999999999997
0.0364456238026315 0.104626865671636 0.0413409295647906
0.0307386811347894 0.104626865671636 0.0564183557700422
0.0341537236997024 0.104626865671636 0.0524929986748189
0.0367768338098543 0.104626865671636 0.0649336452252507
0.0382732076327295 0.104626865671636 0.0808562177637175
0.0348532978681345 0.104626865671636 0.0921445661832002
0.0410033226288384 0.104626865671636 0.0958434409249093
0.0352390938319665 0.104626865671636 0.112799884527514
0.0414219549638894 0.104626865671636 0.120178800187225
0.0276412048420206 0.104626865671636 0.136056948694762
0.0323551251353913 0.104626865671636 0.137154146703441
0.035374869974973 0.104626865671636 0.142729738944281
0.0365459481259342 0.104626865671636 0.153746310506921
0.0350195334515704 0.104626865671636 0.168487545950873
0.0341035888059012 0.104626865671636 0.170554093414327
0.0372968870815484 0.104626865671636 0.1901560349459
0.0281791634140508 0.104626865671636 0.199630003145862
0.0314216166602548 0.104626865671636 0.212072703497023
0.0273751973391 0.104626865671636 0.218352769590292
0.0266740328504247 0.104626865671636 0.232322276130306
0.0289628427794225 0.104626865671636 0.236342908141696
0.0321038632703573 0.104626865671636 0.245356497601459
0.0384284854500164 0.104626865671636 0.249977727627247
0.0370277093537976 0.104626865671636 0.26498075249437
0.0340446534625894 0.104626865671636 0.273501841554623
0.0402742665454372 0.104626865671636 0.277738099393672
0.0367805693357568 0.104626865671636 0.29449702479888
0.0357500698648869 0.104626865671636 0.30997805669905
0.0310061041848122 0.104626865671636 0.320732833245724
0.0375318128592601 0.104626865671636 0.323102885400687
0.0365032319520811 0.104626865671636 0.332706531802672
0.0345073470040831 0.104626865671636 0.343958023883978
0.0358911880694574 0.104626865671636 0.351932747439852
0.0324699670057898 0.104626865671636 0.365052617767624
0.0298612790097965 0.104626865671636 0.375113613857161
0.0280351934710699 0.104626865671636 0.392225101279038
0.0378225597231152 0.104626865671636 0.387667248341763
0.0379748537960461 0.104626865671636 0.406718806652403
0.0353781596072888 0.104626865671636 0.408740775003464
0.0375311470431793 0.104626865671636 0.419355613485928
0.0383530982413796 0.104626865671636 0.427323684271662
0.0339486385368418 0.104626865671636 0.443031214082122
0.0337647795496889 0.104626865671637 0.453661191501248
0.0341174270685239 0.104626865671636 0.456392819901171
0.040717500516332 0.104626865671636 0.470528407916553
0.0342360514617223 0.104626865671636 0.486057031097538
0.0309793253537306 0.104626865671636 0.492758571514307
0.0399270229299945 0.104626865671636 0.497180177304985
0.0275725041864088 0.104626865671636 0.515439979805921
0.0288374335433325 0.104626865671636 0.528371111279637
0.0377001003299882 0.104626865671636 0.526218512387993
0.0363701578807984 0.104626865671636 0.540724282537984
0.0333790274392722 0.104626865671636 0.549998909024406
0.0330667314330585 0.104626865671636 0.561601982133151
0.0283296557413007 0.104626865671636 0.569657309055504
0.0387088072100778 0.104626865671636 0.573148643549672
0.0296113232201359 0.104626865671636 0.598008789956041
0.0279927673971116 0.104626865671636 0.601981554120404
0.0418780691578909 0.104626865671636 0.603890711163918
0.0402470437469561 0.104626865671636 0.620517622159033
0.0375470984479224 0.104626865671636 0.631265227042879
0.0318894189832911 0.104626865671636 0.639388543099971
0.0340202177618107 0.104626865671636 0.646238038839695
0.0352990704360666 0.104626865671636 0.656994789087759
0.0424895040205754 0.104626865671636 0.661772000273713
0.0334190814536348 0.104626865671636 0.683553948610489
0.0335837906759882 0.104626865671636 0.696319874311028
0.0388487043890046 0.104626865671636 0.696256851952091
0.0360753615530163 0.104626865671636 0.705605361025173
0.0279538910491924 0.104626865671636 0.716618087612769
0.0353102378663069 0.104626865671636 0.733692457004018
0.0401614231770417 0.104626865671636 0.72901321716132
0.0278176514208044 0.104626865671636 0.746793442093255
0.0429184667587584 0.104626865671636 0.752517824983165
0.0287349376553879 0.104626865671636 0.771849715973649
0.0364895680493668 0.104626865671636 0.781921001236792
0.0346802671732655 0.104626865671636 0.787692102448937
0.0339046461393593 0.104626865671636 0.79781208797255
0.0376823157830816 0.104626865671636 0.798957948172219
0.0351135370292288 0.104626865671636 0.817892767162055
0.0349456858140482 0.104626865671636 0.827534919281038
0.0292290993609077 0.104626865671636 0.834799599718317
0.0273432386621388 0.104626865671636 0.844734664863885
0.0322325003394122 0.104626865671636 0.855362404540354
0.0381808801514039 0.104626865671636 0.870117955709583
0.0299203491834323 0.104626865671636 0.875936506134668
0.0283280443109741 0.104626865671636 0.886869802856335
0.0382626985209999 0.104626865671636 0.894348723486536
0.036567310571426 0.104626865671636 0.904922631142794
0.0330670716346859 0.104626865671636 0.914028388253702
0.0337745481481259 0.104626865671636 0.927970282358946
0.0373204351509154 0.104626865671636 0.929391006255404
0.0348739456066524 0.104626865671636 0.940201784645287
0.0288023736336266 0.104626865671636 0.956118655193827
0.0336863642411111 0.104626865671636 0.967128632520445
0.0301129825265933 0.104626865671636 0.979282276357781
0.0300230386803431 0.104626865671636 0.984612426340728
0.029638329722306 0.102213439123572 0.999999999999947
0.0390397565979007 0.103981688923982 0.999999999999946
0.0512282431124762 0.0910997460026889 0.999999999999949
0.0601551945708936 0.0811581397103577 0.999999999999952
0.0650430911697432 0.0706654467653806 0.999999999999955
0.081123291318087 0.0572132530562925 0.999999999999958
0.0889052135738534 0.0586758462761505 0.999999999999958
0.0995560618793779 0.0402687444463664 0.999999999999963
0.114699655701576 0.0269023765202848 0.999999999999966
0.123256297826222 0.0261983348542671 0.999999999999966
0.145032222451389 -0.00109572338263453 0.999999999999973
0.145799377745881 0.00414774616425016 0.999999999999972
0.154785079827844 -0.00942003017446594 0.999999999999976
0.175238423122618 -0.017693774568273 0.999999999999978
0.191468698848893 -0.0367007103498901 0.999999999999982
0.205429885426974 -0.0476858158725844 0.999999999999985
0.218725131229031 -0.0600170102401968 0.999999999999988
0.225616118850351 -0.0730236944051946 0.999999999999992
0.24281992928251 -0.0881776925740502 0.999999999999996
0.241040635202881 -0.0904920179870185 0.999999999999996
0.259894631753723 -0.101529389889205 0.999999999999999
0.0427322994174045 0.104626865671636 0.0356540589132006
0.0506090978912843 0.104626865671636 0.0353851529306505
0.0478358875301554 0.104626865671636 0.0470188976253789
0.0518407362390324 0.104626865671636 0.0567511522935687
0.0473187628119051 0.104626865671636 0.067380445299833
0.0524495477164365 0.104626865671636 0.0731425780609937
0.0511377265222867 0.104626865671636 0.084525068489001
0.0585579776557923 0.104626865671636 0.0895402452371133
0.0472943945923139 0.104626865671636 0.107881240711893
0.0513796979215399 0.104626865671636 0.115402564112591
0.0555303316602571 0.104626865671636 0.118131762180736
0.0479917059438821 0.104626865671636 0.142142662665347
0.0465512662724761 0.104626865671636 0.150827272930523
0.0535539729114671 0.104626865671636 0.154421398541421
0.0399383128709554 0.104626865671636 0.172927402700218
0.0464014869834728 0.104626865671636 0.175296232363967
0.0462723673180045 0.104626865671636 0.18882501152953
0.0557509247963271 0.104626865671636 0.197807844392369
0.0545388006740149 0.104626865671636 0.206621758150044
0.0482575002987714 0.104626865671636 0.213635797663431
0.0518371665532377 0.104626865671636 0.2184847583433
0.0560280526643911 0.104626865671636 0.232240861190958
0.0429855116496752 0.104626865671636 0.248412614309551
0.0524124078788719 0.104626865671636 0.253384047947591
0.0560983483151749 0.104626865671636 0.263674871689354
0.052425803633633 0.104626865671636 0.272500501098201
0.0474569236629859 0.104626865671636 0.284944675510415
0.0444883560198703 0.104626865671636 0.29930223220006
0.0504189127322309 0.104626865671636 0.30756248830398
0.0486573594758571 0.104626865671636 0.310557409194182
0.0496868918366142 0.104626865671636 0.329435620199567
0.0465909470421222 0.104626865671636 0.335318629769481
0.0505531051380326 0.104626865671636 0.343637930752519
0.0548772499553677 0.104626865671636 0.353358555625829
0.0522886521362695 0.104626865671636 0.360290361988515
0.0559250244541384 0.104626865671636 0.373288074361189
0.048661476553432 0.104626865671636 0.385165731057793
0.0528100657762675 0.104626865671636 0.385242876345898
0.0548797836786024 0.104626865671636 0.398688587011206
0.0562342784137069 0.104626865671636 0.407173082884031
0.0559017043268297 0.104626865671636 0.424242457074642
0.0432036010976237 0.104626865671636 0.439293730823328
0.0482558081132822 0.104626865671636 0.443008972207149
0.0460557373892066 0.104626865671636 0.456408420744538
0.0464354420404695 0.104626865671636 0.46969855673871
0.0515770668676576 0.104626865671636 0.476345574884044
0.0413244845092703 0.104626865671636 0.487056278685466
0.056532232705007 0.104626865671636 0.489249078551144
0.0566859342771277 0.104626865671636 0.498202058656769
0.0497316501672614 0.104626865671636 0.517299100982376
0.0512454709701481 0.104626865671636 0.519842926165686
0.0508404865142366 0.104626865671636 0.531206502790778
0.0494668669383701 0.104626865671636 0.546516236283101
0.0458585237430346 0.104626865671636 0.552789100464679
0.0483861647267649 0.104626865671636 0.563436765788658
0.0555511785674005 0.104626865671636 0.568685078424244
0.0524129001540481 0.104626865671636 0.575434594578577
0.0418526133068104 0.104626865671636 0.600498344203919
0.0460149040598048 0.104626865671636 0.596944636856036
0.053419503333618 0.104626865671636 0.610211309215137
0.0545022159812185 0.104626865671636 0.615840698396632
0.0465187886066899 0.104626865671636 0.634668868812311
0.0496510315694883 0.104626865671636 0.637063156798421
0.0552094019461423 0.104626865671636 0.646021371034617
0.0536654376703619 0.104626865671636 0.653881886054543
0.0449058225974171 0.104626865671636 0.676527611170168
0.0472106947715259 0.104626865671636 0.677750639160472
0.0568804402639734 0.104626865671636 0.683462997165926
0.0396009231979342 0.104626865671636 0.710103890010872
0.0516492015751544 0.104626865671636 0.701425951061014
0.0494193250884842 0.104626865671636 0.717092031417237
0.044869039479446 0.104626865671636 0.733032037648941
0.0417994861854906 0.104626865671636 0.746461666271533
0.0511580344688317 0.104626865671636 0.748521649167411
0.0409749932505092 0.104626865671636 0.767911465505977
0.043083497902829 0.104626865671636 0.77456056305334
0.0477445936756148 0.104626865671636 0.77807204004229
0.0495957029066403 0.104626865671636 0.791388639937634
0.0461417972558877 0.104626865671636 0.804839059885911
0.0478711877904952 0.104626865671636 0.808982448342265
0.0518183749875094 0.104626865671636 0.809991210772527
0.0469568385869362 0.104626865671636 0.828728857287359
0.0566137648465794 0.104626865671636 0.83562430199007
0.0553763320483608 0.104626865671636 0.841206268247638
0.0463442580756708 0.104626865671636 0.854997400436358
0.0437761760258813 0.104626865671636 0.870693620174944
0.0481540658203699 0.104626865671636 0.876068517550922
0.0409833102221625 0.104626865671636 0.894658688648527
0.0474232401072713 0.104626865671636 0.899503758201776
0.0523983744724414 0.104626865671636 0.913343173587378
0.0480886689348071 0.104626865671636 0.919740579349791
0.0490287538195194 0.104626865671636 0.91879275051284
0.0490811250900952 0.104626865671636 0.935952470507262
0.048435221463432 0.104626865671636 0.947826477389217
0.0485216575247964 0.104626865671636 0.955403453916106
0.0475787346279991 0.104626865671636 0.970230983466909
0.0445665040975871 0.104626865671636 0.982760129766381
0.0536717421715353 0.104626865671636 0.983856134157604
0.0547175026822128 0.0986308558465104 0.999999999999948
0.0461923248825937 0.100117944769379 0.999999999999947
0.06223990790765 0.0914491788150259 0.999999999999949
0.0774101184790142 0.0841660447276865 0.999999999999951
0.0937127259383371 0.0693828975516531 0.999999999999955
0.0997402948873839 0.0572437290491246 0.999999999999958
0.10679063011259 0.0533197833750376 0.999999999999959
0.126990965772046 0.037901825320587 0.999999999999963
0.132162617663331 0.034624250955749 0.999999999999964
0.142410840812813 0.016138984043051 0.999999999999969
0.158411979780629 0.00575986862634437 0.999999999999971
0.172720623999881 -0.00532430623435946 0.999999999999975
0.184950201075156 -0.024340638738448 0.999999999999979
0.197036903273458 -0.0312323940575557 0.999999999999981
0.195183875525532 -0.0376018259318456 0.999999999999983
0.210762736641794 -0.052026054009459 0.999999999999986
0.229663314442912 -0.064181818668786 0.99999999999999
0.243328465617207 -0.0724940753828679 0.999999999999992
0.245264112712972 -0.082366127063709 0.999999999999994
0.26838740621915 -0.0948763283376027 0.999999999999997
0.0615599883488842 0.104626865671636 0.0181965961102264
0.0561310475860327 0.104626865671636 0.0351339236924341
0.0675317898328963 0.104626865671636 0.0380389199620524
0.0636521293343999 0.104626865671636 0.0449559177604974
0.0665663109565859 0.104626865671636 0.0547466315012975
0.0672596232483361 0.104626865671636 0.0652746888115589
0.0623444942094541 0.104626865671636 0.0825325485348026
0.0603914924882176 0.104626865671636 0.0878841548552591
0.0607399005308567 0.104626865671636 0.102468866014968
0.0657478007239457 0.104626865671636 0.106664748720373
0.0696166209709187 0.104626865671636 0.107625065689655
0.0658320513109327 0.104626865671636 0.121493766157266
0.0637564067999197 0.104626865671636 0.132983614527696
0.0641140212894659 0.104626865671636 0.145306018158298
0.0564027524592585 0.104626865671636 0.163918088750814
0.0612989496118565 0.104626865671636 0.163660288491897
0.0603389606574859 0.104626865671636 0.185807689333382
0.0650886111828248 0.104626865671636 0.190182676251096
0.0574646799493404 0.104626865671636 0.201781112555763
0.0618701329894157 0.104626865671636 0.208870869997548
0.0632310056326985 0.104626865671636 0.220983321703634
0.0657690210651455 0.104626865671636 0.223860920466732
0.0644359721699726 0.104626865671636 0.227499364028629
0.0585697556748081 0.104626865671636 0.254517602344953
0.0694483851372198 0.104626865671636 0.248812021180065
0.0712545076643604 0.104626865671636 0.258203988631788
0.0578155417567215 0.104626865671636 0.280055367769979
0.0616215196170006 0.104626865671636 0.286898138089145
0.0593825631929824 0.104626865671636 0.291956459562883
0.0589946943544959 0.104626865671636 0.310501128937471
0.0619422355248454 0.104626865671636 0.311842861317471
0.0646643464824202 0.104626865671636 0.333010353319071
0.0722448563609108 0.104626865671636 0.332482993855068
0.0607179019461835 0.104626865671636 0.3478057149755
0.0715102758684495 0.104626865671636 0.346791075183459
0.0666739150957146 0.104626865671636 0.369256244688012
0.0561676745141282 0.104626865671636 0.379063238585409
0.0557812440728495 0.104626865671636 0.390572994564701
0.0606206013097537 0.104626865671636 0.397128040194828
0.0723436209618943 0.104626865671636 0.395229548780876
0.0568385260992412 0.104626865671636 0.421448374565164
0.0543244912789091 0.104626865671636 0.433190065932756
0.0606788311692206 0.104626865671636 0.431867917589327
0.0650274776135416 0.104626865671637 0.44118943334006
0.0610070453525537 0.104626865671636 0.456552642618332
0.068317861773542 0.104626865671636 0.45655677239288
0.0583074047750849 0.104626865671636 0.48267365047806
0.0601575343755725 0.104626865671636 0.486984683813727
0.0668276427661315 0.104626865671636 0.497027587500151
0.0686666892910995 0.104626865671636 0.501986638274825
0.0627501400062978 0.104626865671636 0.517124853770013
0.0610810844151957 0.104626865671636 0.523246486012073
0.0672227417068137 0.104626865671636 0.525640176447191
0.0606454733517713 0.104626865671636 0.544812078057361
0.0683991206796558 0.104626865671636 0.545402060628892
0.066477760742526 0.104626865671636 0.560032733619137
0.0650878710950883 0.104626865671636 0.576212799597654
0.0686940691113915 0.104626865671636 0.583143587508044
0.0602186414925301 0.104626865671636 0.590297089575289
0.0631966684968863 0.104626865671636 0.611950984605885
0.0632346882705593 0.104626865671636 0.620128201939906
0.0723423813550667 0.104626865671636 0.621086976238112
0.0650982729220509 0.104626865671636 0.634817330471765
0.0679283079647388 0.104626865671636 0.638678905797507
0.0669450873242371 0.104626865671636 0.64342902547688
0.0662257046229465 0.104626865671636 0.662592302999653
0.0658598231275386 0.104626865671636 0.676717021244
0.0605268521165175 0.104626865671636 0.684180471670568
0.0656882584800205 0.104626865671636 0.688294572891773
0.0643736978976654 0.104626865671636 0.702799726632907
0.0603125627251681 0.104626865671636 0.714477814375802
0.0708438358772892 0.104626865671636 0.719456482111771
0.0702376807597349 0.104626865671636 0.727893066873459
0.0726057251444847 0.104626865671636 0.738365261399731
0.0627347600906176 0.104626865671636 0.755040640780916
0.0567715929016969 0.104626865671636 0.764485950853923
0.0659096188507676 0.104626865671636 0.765233530422543
0.0581701058000224 0.104626865671636 0.784774317154507
0.0617653733432171 0.104626865671636 0.793364150353316
0.0584755184836292 0.104626865671636 0.8075754359523
0.0672809326426091 0.104626865671636 0.806567205577791
0.0656913600090411 0.104626865671636 0.825404844234007
0.0579063834068559 0.104626865671636 0.836454801571983
0.0629128119943432 0.104626865671636 0.837553386327207
0.0638755622092961 0.104626865671636 0.85280682376727
0.0714702216789129 0.104626865671636 0.857102512799361
0.0692406927497855 0.104626865671636 0.868799162543893
0.0635781403228629 0.104626865671636 0.878254605383114
0.0539837359600776 0.104626865671636 0.894693627273528
0.0642475787265139 0.104626865671636 0.897662130974319
0.0575218590773824 0.104626865671636 0.909937834058634
0.0580108761376949 0.104626865671636 0.920971938377653
0.0624429244309915 0.104626865671636 0.929840005466639
0.0632935653923858 0.104626865671636 0.938686474921197
0.0646780435686781 0.104626865671636 0.948751041608726
0.0622920655092987 0.104626865671636 0.965979183457361
0.0685025833552124 0.104626865671636 0.971384515683435
0.0591726253793216 0.104626865671636 0.983184991963408
0.0686744730701755 0.104626865671636 0.987754968731332
0.0711885540632392 0.104626865671636 0.996996623488402
0.0761031764360015 0.0958065689716275 0.999999999999948
0.0924734083286835 0.0805835630067418 0.999999999999952
0.0972337526040193 0.0723658075779993 0.999999999999954
0.111783834757373 0.058545340985103 0.999999999999958
0.111808116775318 0.063633236197989 0.999999999999957
0.12332861974538 0.0457233967956688 0.999999999999961
0.133939675948517 0.0326044562814614 0.999999999999965
0.156366466293882 0.0164138518225193 0.999999999999969
0.162757176122601 0.0052794485208593 0.999999999999972
0.16757294425234 0.0103515746719639 0.99999999999997
0.18739560299341 -0.0127547132162417 0.999999999999976
0.206390868242653 -0.0214169266121327 0.999999999999978
0.215990780508235 -0.0373769146357823 0.999999999999982
0.230787032592401 -0.0470511436386035 0.999999999999985
0.24584677807063 -0.0580195410931264 0.999999999999988
0.252112326824989 -0.0728474898797731 0.999999999999992
0.264237630861922 -0.087163944403572 0.999999999999995
0.282899177571908 -0.0971458091784106 0.999999999999998
0.0793801891051921 0.104626865671636 0.00194607123040828
0.0811888964330808 0.104626865671636 0.0132349124073623
0.0723483196376697 0.104626865671636 0.0315259413670461
0.0823097272191923 0.104626865671636 0.0339079669405947
0.0782892718608372 0.104626865671636 0.0493267094228941
0.0788636780123355 0.104626865671636 0.0513728497730484
0.0834985758096264 0.104626865671636 0.0568182287289322
0.0731304262287263 0.104626865671636 0.0775522179565172
0.071124945614226 0.104626865671636 0.0945979564800519
0.0757290195526657 0.104626865671636 0.0951248299548224
0.078070270947594 0.104626865671636 0.104296935181993
0.082048993676403 0.104626865671636 0.112654913652754
0.082085543436327 0.104626865671636 0.126967563740162
0.0794517322558791 0.104626865671636 0.144611924451664
0.0773833578968693 0.104626865671636 0.150571231632975
0.0749817653672252 0.104626865671636 0.157394015641378
0.0769613397098741 0.104626865671636 0.165998969906706
0.0877332785673665 0.104626865671636 0.176467100342066
0.078397641912684 0.104626865671636 0.193765932393798
0.0806152503886904 0.104626865671636 0.198044212048795
0.0750707709397422 0.104626865671636 0.212490900016567
0.0740749325797314 0.104626865671636 0.217811518521513
0.0732685224339248 0.104626865671636 0.22688605443112
0.0820570032853301 0.104626865671636 0.23813863305705
0.0814205474500701 0.104626865671636 0.249665797887276
0.0726830159531082 0.104626865671636 0.263001670217908
0.0872192632711517 0.104626865671636 0.259423270178751
0.0761653425422581 0.104626865671636 0.274808193678005
0.0753436243996071 0.104626865671636 0.291639035345731
0.0770099611838388 0.104626865671636 0.301746745544122
0.0709574662549274 0.104626865671636 0.308355330791336
0.079553630946798 0.104626865671636 0.315461172868587
0.0727410276385802 0.104626865671636 0.33321646622524
0.0722560837699308 0.104626865671636 0.343418144586066
0.0782515335022377 0.104626865671636 0.341082748458252
0.0783100965680006 0.104626865671636 0.350066637013595
0.0788645809031106 0.104626865671636 0.369990347602936
0.0762595928216843 0.104626865671636 0.384271557496879
0.077449218196937 0.104626865671636 0.388333971826076
0.0737190742998424 0.104626865671636 0.39269111533045
0.071953111577485 0.104626865671636 0.410568633028444
0.0836363852442513 0.104626865671636 0.410981814868687
0.0846401955430508 0.104626865671636 0.424650284752332
0.0727336928653979 0.104626865671636 0.44445570677113
0.0826233692369278 0.104626865671636 0.440631367092772
0.0759526282182663 0.104626865671636 0.456461539766588
0.0835021424431517 0.104626865671636 0.461936188556498
0.0737297792576849 0.104626865671636 0.478483932415177
0.0824580587446321 0.104626865671636 0.487725067426469
0.0806840816686907 0.104626865671636 0.49649921810078
0.0763880110821202 0.104626865671636 0.505465952039369
0.0814668768483657 0.104626865671636 0.50881090446262
0.0834807466152304 0.104626865671636 0.517519687282975
0.0775529454738517 0.104626865671636 0.538063289309791
0.0804686390172446 0.104626865671636 0.551006841046692
0.0835089730697462 0.104626865671636 0.556367702646323
0.0774430222918583 0.104626865671636 0.565264649086552
0.0755567008860962 0.104626865671636 0.578213223580213
0.072049400445472 0.104626865671636 0.593052017443604
0.0802672976396213 0.104626865671636 0.597812814816688
0.0861062085441081 0.104626865671636 0.605755070220786
0.0796970627747542 0.104626865671636 0.613389978419875
0.0786975916127174 0.104626865671636 0.624214007049178
0.0730904865001465 0.104626865671636 0.638865457861903
0.070933585526365 0.104626865671636 0.643956541033415
0.0835425296704999 0.104626865671636 0.65292981774745
0.0762843300376646 0.104626865671636 0.662664142518066
0.0751198205969878 0.104626865671636 0.678414829413765
0.0749134983324358 0.104626865671636 0.691756232967395
0.0854054456650191 0.104626865671636 0.686505155362295
0.0784943690305702 0.104626865671636 0.701488869410115
0.0748746226503622 0.104626865671636 0.710634997551412
0.0733826671832741 0.104626865671636 0.723415763203714
0.080337748494156 0.104626865671636 0.735762959074199
0.0836322288675036 0.104626865671636 0.740012334756926
0.0801296754167963 0.104626865671636 0.756401931514357
0.0831261896934155 0.104626865671636 0.76704728241788
0.0799795777567042 0.104626865671636 0.776489401336954
0.0835882002069971 0.104626865671636 0.776856358724641
0.0762649480017897 0.104626865671636 0.796378132618704
0.068506327851593 0.104626865671636 0.804630191649239
0.0844651610326517 0.104626865671636 0.807133634040845
0.0779896012145214 0.104626865671636 0.823056872765869
0.0736900402592457 0.104626865671636 0.838233886611071
0.0842601901669936 0.104626865671636 0.837396582220153
0.0821520621587146 0.104626865671636 0.852493682099055
0.0826056560369524 0.104626865671636 0.863693406466399
0.078779721809405 0.104626865671636 0.868057840795906
0.0802355721008342 0.104626865671636 0.878746473852936
0.0735764519529391 0.104626865671636 0.894285935437452
0.0835538161008358 0.104626865671636 0.901629536530671
0.0746379880903164 0.104626865671636 0.915221029005971
0.0841973299821361 0.104626865671636 0.922889532593501
0.0814400324574037 0.104626865671636 0.929425131030708
0.0754372426815351 0.104626865671636 0.942962038118091
0.0706347298858193 0.104626865671636 0.959369469273797
0.0772073511811102 0.104626865671636 0.966687993664095
0.0780901074372824 0.104626865671636 0.968098181446631
0.0864382595408645 0.104626865671636 0.981901579034424
0.0779845428452469 0.104626865671636 0.989212558072236
0.0811734331728495 0.104626865671636 0.998529102696694
0.0832043841232176 0.0969472588043259 0.999999999999948
0.105067489483919 0.0741734604466828 0.999999999999954
0.112457221014675 0.0702466920595512 0.999999999999955
0.122120739102919 0.0642254514528069 0.999999999999956
0.143010739983976 0.048489508813205 0.99999999999996
0.152505548093787 0.0376885616620875 0.999999999999963
0.162408833625823 0.0292640763004194 0.999999999999965
0.167405939776403 0.0229443575250321 0.999999999999967
0.178858030832385 0.0100797309501547 0.99999999999997
0.191471325005926 0.00410003464162368 0.999999999999972
0.210593194157129 -0.0165345650368696 0.999999999999977
0.220148202246372 -0.0236928002038098 0.999999999999979
0.227772334022176 -0.0403483043655492 0.999999999999983
0.247189690226133 -0.0463109340562634 0.999999999999985
0.258647967724438 -0.0637385200955548 0.999999999999989
0.273854761969177 -0.0785454841718265 0.999999999999993
0.283061845894149 -0.0843195275628192 0.999999999999995
0.296304343667524 -0.102212367477538 0.999999999999999
0.0925558987616223 0.104626865671636 0.000885084820810263
0.0954422824231426 0.104626865671636 0.013025003019992
0.0854934828611908 0.104626865671636 0.0211088922728388
0.0924306195147469 0.104626865671636 0.0314152055125793
0.0895163676063259 0.104626865671636 0.0363384489140576
0.0941924442377788 0.104626865671636 0.0533196975983249
0.0914093042207471 0.104626865671636 0.0612130714652333
0.0950129041122833 0.104626865671636 0.0686721534171437
0.0930456817332835 0.104626865671636 0.073557646559062
0.0932875449520149 0.104626865671636 0.0780184461717872
0.0938971281543304 0.104626865671636 0.103470518324294
0.0894863450243189 0.104626865671636 0.114152843430696
0.0874212406053113 0.104626865671636 0.126529784562352
0.0988782184463317 0.104626865671636 0.126825264360183
0.09951153856756 0.104626865671636 0.13878413189783
0.0992806257508613 0.104626865671636 0.142319005330473
0.099931065499739 0.104626865671636 0.157449070821015
0.094734512077994 0.104626865671636 0.163582708636552
0.0948413584449685 0.104626865671636 0.171013847987813
0.0890097694951893 0.104626865671636 0.187617282273337
0.0959812551012048 0.104626865671636 0.198393176177227
0.0974627046589634 0.104626865671636 0.20561687196559
0.0961825338021508 0.104626865671636 0.213743597129203
0.0956208089356095 0.104626865671636 0.22299196522087
0.0905987903334858 0.104626865671636 0.237324739697279
0.0976624078799149 0.104626865671636 0.23808698890095
0.0930243438872716 0.104626865671636 0.256708895275103
0.091200160614565 0.104626865671636 0.264241286849896
0.0919671581154127 0.104626865671636 0.286188042814404
0.094724480536995 0.104626865671636 0.285254395612996
0.0929187858431602 0.104626865671636 0.296577014601792
0.0954443329025271 0.104626865671636 0.306373056754045
0.0927275520176472 0.104626865671636 0.309213933069355
0.0942649663547694 0.104626865671636 0.32796116928694
0.0934035332991075 0.104626865671636 0.331820440900107
0.0937075859907927 0.104626865671636 0.346862374088161
0.0968596504202211 0.104626865671636 0.352571806324839
0.0972407441758673 0.104626865671636 0.366452569692647
0.0861295633033427 0.104626865671636 0.380529145730108
0.0943628568923957 0.104626865671636 0.386257745681167
0.091666475972619 0.104626865671636 0.396069403214076
0.0958413091550585 0.104626865671636 0.403578758540425
0.0937227297871477 0.104626865671636 0.420227089591205
0.0885748684878849 0.104626865671636 0.431121745077071
0.0970402911799976 0.104626865671636 0.437840992778302
0.0942253190482882 0.104626865671636 0.451084380371212
0.0877591498987527 0.104626865671636 0.460565521908084
0.0986283158789537 0.104626865671636 0.462886579545458
0.0860572984802997 0.104626865671636 0.477645433768403
0.0941830062962253 0.104626865671636 0.485845221051018
0.0912479486848538 0.104626865671636 0.503858486753821
0.0856457671162324 0.104626865671636 0.512961787850847
0.0951654995675821 0.104626865671636 0.516390183091952
0.0946200854102924 0.104626865671636 0.519130804758991
0.0927943388902591 0.104626865671636 0.53159171528933
0.0939670133112298 0.104626865671636 0.552268947474963
0.0949944299384752 0.104626865671636 0.553405289132034
0.0849824374563822 0.104626865671636 0.570048916810034
0.0942677016821962 0.104626865671636 0.579735932507115
0.0946984935164256 0.104626865671636 0.590879287612306
0.0943708529109585 0.104626865671636 0.590694876249945
0.0888827018617823 0.104626865671636 0.611933046840993
0.0938441315516632 0.104626865671636 0.616885384533817
0.101801925118699 0.104626865671636 0.619663132201163
0.0849833872417747 0.104626865671636 0.637825266999726
0.0914251017805239 0.104626865671636 0.651341418755992
0.0909027714920189 0.104626865671636 0.661773989263204
0.0877499381060728 0.104626865671636 0.671343253662458
0.0955270843109244 0.104626865671636 0.671584505925953
0.0929903014012037 0.104626865671636 0.685644313640922
0.0852607457230007 0.104626865671636 0.696408267631876
0.0889316847223531 0.104626865671636 0.705951511382
0.0921173510815225 0.104626865671636 0.708099853986064
0.0984369515042526 0.104626865671636 0.719303792654483
0.0937010236042487 0.104626865671636 0.739058451678417
0.0916515348414419 0.104626865671636 0.745090207383601
0.0917497075164235 0.104626865671636 0.763721135469917
0.0893676201399899 0.104626865671636 0.774019325251064
0.0912413575011195 0.104626865671636 0.781965707210269
0.0924729013705978 0.104626865671636 0.782612694678295
0.0964103628505432 0.104626865671636 0.791026267057291
0.0971030764873389 0.104626865671636 0.805463459691201
0.0855957629303694 0.104626865671636 0.822523036085031
0.097078015889956 0.104626865671636 0.829045543727994
0.0919550672808364 0.104626865671636 0.840943034844297
0.0962671536807619 0.104626865671636 0.839924998499198
0.0997474975069952 0.104626865671636 0.852920443359548
0.0973068199104894 0.104626865671636 0.864096257871756
0.0990075606581469 0.104626865671636 0.87673917712089
0.0916096299095644 0.104626865671636 0.893230349579902
0.094776438036105 0.104626865671636 0.896013156119348
0.0964391756240389 0.104626865671636 0.899459304108898
0.0961665859605865 0.104626865671636 0.9127684342652
0.0927645001174121 0.104626865671636 0.924196319441617
0.0962521736774457 0.104626865671636 0.933740796003892
0.0954548983498187 0.104626865671636 0.94467797727274
0.0844624139546492 0.104626865671636 0.958234843481935
0.0920301892993895 0.104626865671636 0.966078581918419
0.0938738563024766 0.104626865671636 0.977943978287913
0.0893048276048412 0.104626865671636 0.988616233473244
0.0922356379564244 0.104626865671636 0.995669042824946
0.102918696759276 0.089831539313016 0.99999999999995
0.112042034311259 0.0868039122913368 0.999999999999951
0.12418092462988 0.0768252078762281 0.999999999999953
0.125459377164325 0.0689994105179129 0.999999999999955
0.146768674653029 0.0558818678374512 0.999999999999959
0.159323002959708 0.0428197757988235 0.999999999999962
0.15992317879696 0.0384692881831446 0.999999999999963
0.188192510552663 0.0246550315340323 0.999999999999967
0.182328706920547 0.0238905103485686 0.999999999999967
0.210198882218483 0.000996339189849554 0.999999999999973
0.221942066228256 -0.010594012857343 0.999999999999976
0.219390596143763 -0.0104764364781512 0.999999999999976
0.240170397489758 -0.0309871875300283 0.999999999999981
0.263503211598034 -0.0447852789950421 0.999999999999984
0.262066734388063 -0.0461538260246558 0.999999999999985
0.28278443104046 -0.0658654349919727 0.99999999999999
0.29956262526546 -0.0827974584116085 0.999999999999994
0.310426516488491 -0.0921435909832845 0.999999999999997
0.315448661606383 -0.101112183900151 0.999999999999999
0.111465141030655 0.104626865671636 0.00308579578533432
0.107219128486944 0.104626865671636 0.0148140316585065
0.108148616461861 0.104626865671636 0.0239608966725772
0.10235138946069 0.104626865671636 0.0365564220640332
0.106427224595154 0.104626865671636 0.042564214565868
0.10483183856771 0.104626865671636 0.0571631933616263
0.106547673984774 0.104626865671636 0.0688381971997346
0.113736943225271 0.104626865671636 0.0770699861902092
0.104483025535107 0.104626865671636 0.086377588822653
0.110463565717449 0.104626865671636 0.0900020822274982
0.11037128619564 0.104626865671636 0.0969820801782984
0.101541775363407 0.104626865671636 0.12454196050806
0.106501797179082 0.104626865671636 0.13024095834014
0.114577942276706 0.104626865671636 0.130615301760723
0.107530110376757 0.104626865671636 0.144098946576423
0.104328998366615 0.104626865671636 0.165405657824791
0.112739639817565 0.104626865671636 0.158542875917429
0.112483811021252 0.104626865671636 0.173108654125731
0.10622921776926 0.104626865671636 0.179386312455008
0.104929155149189 0.104626865671636 0.194307645453632
0.107194236133066 0.104626865671636 0.208541637169801
0.101311698707826 0.104626865671636 0.226077233467253
0.100821840785174 0.104626865671636 0.238922760017794
0.108110658119963 0.104626865671636 0.233641745731927
0.111493900256101 0.104626865671636 0.24362321805324
0.110882218536931 0.104626865671636 0.260126996856926
0.104061563021638 0.104626865671636 0.27511855036509
0.11201671455431 0.104626865671636 0.278505784728832
0.11184927316383 0.104626865671636 0.293111973833995
0.111818018494456 0.104626865671636 0.298595427181167
0.111323812191029 0.104626865671636 0.303470581267792
0.116772835389316 0.104626865671636 0.308331538935074
0.107820019048993 0.104626865671636 0.330336658537094
0.113989899315784 0.104626865671636 0.333565474991106
0.10330241516458 0.104626865671636 0.354875124593584
0.100738814007289 0.104626865671636 0.357552383669527
0.110746827760001 0.104626865671636 0.366748858121156
0.106851273056753 0.104626865671636 0.375875639531414
0.101449329666234 0.104626865671636 0.394504152440043
0.107612824270888 0.104626865671636 0.402445419347542
0.102818837991765 0.104626865671636 0.406183761955612
0.108324132008784 0.104626865671636 0.425837243858647
0.112503911331534 0.104626865671637 0.429967785580661
0.103697083869314 0.104626865671636 0.436520225143644
0.103016039525097 0.104626865671636 0.449531096961415
0.101090164304336 0.104626865671636 0.463265453033404
0.101031240511614 0.104626865671636 0.468831300582404
0.104505685631118 0.104626865671636 0.48673607287477
0.113272544621281 0.104626865671636 0.483054425170038
0.101891488263852 0.104626865671636 0.505271935569546
0.104774500267429 0.104626865671636 0.514746783790506
0.105615375140791 0.104626865671636 0.520469113312673
0.106376534142916 0.104626865671636 0.53435517451368
0.104086492822059 0.104626865671636 0.538952536048304
0.108172577559542 0.104626865671636 0.539553979472356
0.113432507293381 0.104626865671636 0.553254986454978
0.113467536771522 0.104626865671636 0.565277306757729
0.111984332227413 0.104626865671636 0.567680134088656
0.103058955208443 0.104626865671636 0.590608156428272
0.108869659689147 0.104626865671636 0.596891756980138
0.106430752309262 0.104626865671636 0.606706085216661
0.115124654724249 0.104626865671636 0.613122598379476
0.113290013739804 0.104626865671636 0.627902932997603
0.107536766211587 0.104626865671636 0.641745565293223
0.106212487406019 0.104626865671636 0.65261881846279
0.110735863613528 0.104626865671636 0.653097748192896
0.112563855555295 0.104626865671636 0.668418701285247
0.107333742532613 0.104626865671636 0.683916116041508
0.107495188826847 0.104626865671636 0.690692073589868
0.110013953213846 0.104626865671636 0.700668444226707
0.108344802570151 0.104626865671636 0.699139087813031
0.110340766981585 0.104626865671636 0.712154187289517
0.112946895355655 0.104626865671636 0.72481393138453
0.106378722214121 0.104626865671636 0.736718695373502
0.108381457476733 0.104626865671636 0.750974878661444
0.112389457311071 0.104626865671636 0.755649027138608
0.11034895465219 0.104626865671636 0.771652962478581
0.108001985152794 0.104626865671636 0.778829777410265
0.108071953587726 0.104626865671636 0.791009308154386
0.101528465267702 0.104626865671636 0.805318322829655
0.112279191736502 0.104626865671636 0.811336290166539
0.105143995887856 0.104626865671636 0.813623652715329
0.102559447920319 0.104626865671636 0.833907069102519
0.108352863089911 0.104626865671636 0.837689166615539
0.0989538023886027 0.104626865671636 0.852499490149847
0.106683986808822 0.104626865671636 0.860219480157747
0.107958521040387 0.104626865671636 0.871121252324664
0.104087823828061 0.104626865671636 0.882098090549736
0.104593477270914 0.104626865671636 0.891908023504889
0.111609646862007 0.104626865671636 0.894111145445615
0.109355429046484 0.104626865671636 0.907519214276841
0.11471908929248 0.104626865671636 0.911864865480387
0.105420685122805 0.104626865671636 0.926556476421698
0.101678049056432 0.104626865671636 0.944659323443467
0.103330584153713 0.104626865671636 0.953472138133225
0.10682977140177 0.104626865671636 0.954829817430059
0.109918911363488 0.104626865671636 0.963567398101566
0.100346865650813 0.104626865671636 0.982408882004312
0.108873211257872 0.104626865671636 0.99146556588033
0.10679281900909 0.104626865671636 0.998679716381991
0.114763058403007 0.0963171985845054 0.999999999999948
0.133387972555755 0.081517507307645 0.999999999999952
0.136892369313437 0.0759432980784693 0.999999999999953
0.152910850248764 0.0661509884267006 0.999999999999956
0.160479272884868 0.0535606401862053 0.999999999999959
0.166256102614315 0.0465462258946886 0.999999999999961
0.181488770120586 0.0341535382479791 0.999999999999964
0.199777980722284 0.0197975189633699 0.999999999999968
0.210838432770658 0.015400498180583 0.999999999999969
0.219756037540418 0.00540141379188339 0.999999999999972
0.233609981476005 -0.00700322078446707 0.999999999999975
0.23957595191685 -0.0130629376912379 0.999999999999976
0.264479219165114 -0.0326685304372187 0.999999999999982
0.267761140577265 -0.0435990889680315 0.999999999999984
0.282459036423286 -0.0508808180833916 0.999999999999986
0.297749254635733 -0.0605622597884141 0.999999999999989
0.31730923869616 -0.0849574989130878 0.999999999999995
0.32486638038333 -0.0858474131817955 0.999999999999995
0.119847549832239 0.104626865671636 0.00653750909130507
0.122910699087157 0.104626865671636 0.0148257904879269
0.126295789903951 0.104626865671636 0.0304017523572252
0.124918877167924 0.104626865671636 0.0361537482486982
0.127169892871354 0.104626865671636 0.0447600986771872
0.126943227328506 0.104626865671636 0.054961809184951
0.123176799698802 0.104626865671636 0.0743935333379493
0.112871804862562 0.104626865671636 0.0818801668943979
0.123430587989661 0.104626865671636 0.0868566512668853
0.115394216025355 0.104626865671636 0.102894102846464
0.119993221551355 0.104626865671636 0.103624270971915
0.126074071672762 0.104626865671636 0.111461732882097
0.129483977730342 0.104626865671636 0.124124641157322
0.128014414950988 0.104626865671636 0.130683374533526
0.118603236982185 0.104626865671636 0.149969365989859
0.124252335199002 0.104626865671636 0.151405681136421
0.128642423313952 0.104626865671636 0.166483493758444
0.115981258521488 0.104626865671636 0.182013315707889
0.126288844185138 0.104626865671636 0.179896033630313
0.122523768518187 0.104626865671636 0.192303665827766
0.127975002500763 0.104626865671636 0.207019864094154
0.127141425657126 0.104626865671636 0.218895453240767
0.12197742634457 0.104626865671636 0.239572427440124
0.125611867046515 0.104626865671636 0.237861062411356
0.121284475904469 0.104626865671636 0.250101700085194
0.129659179271371 0.104626865671636 0.24781169892038
0.122467666472787 0.104626865671636 0.274963620530783
0.126405708187802 0.104626865671636 0.272504119555693
0.125155776854899 0.104626865671636 0.292751390344419
0.121214806067008 0.104626865671636 0.292854665143591
0.122528333570921 0.104626865671636 0.310561377550124
0.123581614241573 0.104626865671636 0.315607356718414
0.118896706233094 0.104626865671636 0.331130003598225
0.122825823056591 0.104626865671636 0.346080769510214
0.120818012672726 0.104626865671636 0.351097375442702
0.127736172657096 0.104626865671636 0.353506755195259
0.129057439947742 0.104626865671636 0.36804294593862
0.123642386856423 0.104626865671636 0.379579126189943
0.120873798526544 0.104626865671636 0.389285448742616
0.129354638409736 0.104626865671636 0.389686572131133
0.123492917947886 0.104626865671636 0.403770459403987
0.131731728290116 0.104626865671636 0.418700197073954
0.124555049664553 0.104626865671636 0.429130838511597
0.118908814218076 0.104626865671636 0.448433215075477
0.127755566699808 0.104626865671636 0.445878233438482
0.12316009276209 0.104626865671636 0.454089226553058
0.116982975975649 0.104626865671636 0.479351125996344
0.115902385211046 0.104626865671636 0.489460426581758
0.12409780029615 0.104626865671636 0.484646253162645
0.112953494658609 0.104626865671636 0.504997782010475
0.117840565700521 0.104626865671636 0.513018802849936
0.11843117093151 0.104626865671636 0.518657485318621
0.127163015972432 0.104626865671636 0.526070935420076
0.125153103412252 0.104626865671636 0.544126709931612
0.12079552127117 0.104626865671636 0.550465249594868
0.118729847304687 0.104626865671636 0.559013534646754
0.123988550816429 0.104626865671636 0.576108140289723
0.128410885628593 0.104626865671636 0.577362525792768
0.116174010983398 0.104626865671636 0.591183099558998
0.123046204755098 0.104626865671636 0.601022888079121
0.123501689811802 0.104626865671636 0.606112092489373
0.11919650968602 0.104626865671636 0.623240496228852
