ply
format ascii 1.0
element vertex 857
property float x
property float y
property float z
end_header
-0.15607591116857 -0.035940027022042 0.366666666666667
-0.167324859924397 -0.0450546973132171 0.366666666666666
-0.170306098592767 -0.0538725055060884 0.366666666666666
-0.18047012595905 -0.0604265409238655 0.366666666666667
-0.185642827084789 -0.0720227529021744 0.366666666666667
-0.202002422475397 -0.0763330873631702 0.366666666666666
-0.211067278076593 -0.0933622831250968 0.366666666666666
-0.217654596409184 -0.0961670404857137 0.366666666666666
-0.230817232421181 -0.106339000494915 0.366666666666667
-0.24271646188992 -0.115053326095149 0.366666666666666
-0.253679571527597 -0.124674316547737 0.366666666666666
-0.267828266943312 -0.143472628994814 0.366666666666666
-0.268144982481805 -0.150316630453782 0.366666666666666
-0.279175267515354 -0.152958675749468 0.366666666666666
-0.281498977055712 -0.158042800342543 0.366666666666667
-0.296448148163988 -0.165619283726277 0.366666666666666
-0.311134551859119 -0.181861593715556 0.366666666666666
-0.314608638607804 -0.18688060723233 0.366666666666666
-0.327372409790576 -0.205311102639547 0.366666666666666
-0.345341783786342 -0.219457397629892 0.366666666666667
-0.352906909236597 -0.224801477032352 0.366666666666666
-0.362364857934738 -0.227809294416326 0.366666666666666
-0.369802680403226 -0.236745814314212 0.366666666666666
0.157241866347245 0.25 0.317866087166918
0.164978878257773 0.25 0.332720049962153
0.159578827835966 0.25 0.326751046778422
0.163945236416233 0.25 0.348047974746582
0.16163077106583 0.25 0.352158401468417
0.157943221374191 0.25 0.365138350268177
0.160239891001642 0.243756519523894 0.366666666666666
0.148579863538434 0.241953863980397 0.366666666666666
0.146855846422662 0.236151715535812 0.366666666666666
0.138910610746292 0.223866567367291 0.366666666666667
0.133192339283091 0.217871334200045 0.366666666666666
0.125322441425908 0.210806935068273 0.366666666666666
0.115830146815246 0.202799404167227 0.366666666666666
0.110601297861527 0.202514009466552 0.366666666666666
0.103610200261994 0.193005740843526 0.366666666666666
0.0911787971096904 0.182665392199 0.366666666666666
0.0886434250635031 0.179197413321463 0.366666666666666
0.081349834967533 0.175378452909888 0.366666666666666
0.0737898781666961 0.165183573416274 0.366666666666666
0.0577635832563192 0.152979735094675 0.366666666666666
0.0534908804588492 0.150283482412367 0.366666666666666
0.0442887347512579 0.143972513752812 0.366666666666667
0.0435676837927988 0.136568793858108 0.366666666666666
0.0337751205973759 0.128500552875898 0.366666666666666
0.024056919183089 0.118133973727007 0.366666666666666
0.0196240694780334 0.115600356591965 0.366666666666666
0.00939815810967981 0.108748588617425 0.366666666666666
0.00468556872158921 0.0948480879093415 0.366666666666666
-0.00559295050139357 0.0930221647753917 0.366666666666666
-0.00754840845523692 0.0866839630358091 0.366666666666666
-0.0230631043626807 0.0704029479686529 0.366666666666666
-0.0309631197819597 0.0662220711266596 0.366666666666666
-0.0387966712972563 0.0600721449751802 0.366666666666666
-0.0422463533700122 0.0601204024130759 0.366666666666666
-0.0455541045561584 0.0447061663631197 0.366666666666666
-0.0540540020136378 0.038605650558808 0.366666666666666
-0.0636485059210635 0.0287238775166676 0.366666666666667
-0.0806746335181825 0.0224199825851996 0.366666666666666
-0.0799917319926489 0.0120690835315774 0.366666666666666
-0.099419430481026 0.0051647554350064 0.366666666666666
-0.103753022889178 -0.00157720605760238 0.366666666666666
-0.115120864279902 -0.0102248256936563 0.366666666666666
-0.118116742289691 -0.0258388652201284 0.366666666666666
-0.13065737267308 -0.0290506899007727 0.366666666666666
-0.142628307917999 -0.0306390337221886 0.366666666666666
-0.152325369050693 -0.0497550182634836 0.366666666666666
-0.149149302406392 -0.0463589351111533 0.366666666666667
-0.173043925988403 -0.068790518754037 0.366666666666667
-0.181508340131703 -0.0704756928345304 0.366666666666666
-0.191206025453275 -0.0770015347157769 0.366666666666666
-0.187386875643777 -0.0879307580102341 0.366666666666666
-0.199141168894861 -0.0930521514110229 0.366666666666666
-0.205595230707657 -0.10153496347723 0.366666666666666
-0.222885144852891 -0.114778785075684 0.366666666666666
-0.231545196198988 -0.126829814477874 0.366666666666666
-0.240730210900076 -0.130592959923136 0.366666666666666
-0.245375217937379 -0.143006342597628 0.366666666666667
-0.259667900189793 -0.145818581749229 0.366666666666666
-0.263830595877263 -0.156056851486769 0.366666666666666
-0.273281532972339 -0.17127052207105 0.366666666666667
-0.285290060734915 -0.177035881810084 0.366666666666666
-0.300853057507757 -0.186635077182734 0.366666666666667
-0.301295316207933 -0.196077964537803 0.366666666666666
-0.329799405670524 -0.216403427292543 0.366666666666667
-0.329240401650286 -0.220404388705025 0.366666666666666
-0.340159823583187 -0.229014613938797 0.366666666666666
-0.349149596866415 -0.246174708684995 0.366666666666666
0.1687262361179 0.25 0.326976003184118
0.173924064230548 0.25 0.33162602530748
0.176359386200359 0.25 0.349212369766257
0.1763945576938 0.25 0.353491474632729
0.170954021009807 0.249999999999999 0.358619757749399
0.171404794507306 0.25 0.366167499632357
0.162029188096532 0.235414898809966 0.366666666666666
0.155572877626461 0.233659672058786 0.366666666666666
0.148190373026783 0.228191938263125 0.366666666666666
0.139119311268886 0.220721237467258 0.366666666666666
0.135630505792264 0.21569200709473 0.366666666666666
0.129222492548321 0.210822640483313 0.366666666666667
0.124289310084126 0.202368789780718 0.366666666666666
0.116588610071938 0.1975106997507 0.366666666666666
0.110153032550738 0.186006530357104 0.366666666666666
0.105140600967756 0.178591493855542 0.366666666666666
0.0932291059878448 0.168696476213758 0.366666666666666
0.0927269019719975 0.168968599331057 0.366666666666666
0.0802425191385828 0.16335341064819 0.366666666666666
0.0723852650075116 0.150248434233224 0.366666666666667
0.0680138904236564 0.145699312437188 0.366666666666666
0.0637333350282521 0.13728248212681 0.366666666666667
0.0469397349811741 0.123004167378005 0.366666666666666
0.0481693815114673 0.12289814253457 0.366666666666666
0.0360192605661028 0.116238523688041 0.366666666666666
0.0285747733972407 0.103075968237676 0.366666666666666
0.021534822090083 0.102881005412168 0.366666666666666
0.00904185489394837 0.0951503207105133 0.366666666666666
0.00559817501968612 0.0843179403042068 0.366666666666666
-0.00972936963935425 0.0752061299458617 0.366666666666666
-0.00632960692563196 0.0731401255754487 0.366666666666666
-0.0176622430245163 0.0666427643430572 0.366666666666666
-0.0287401922037744 0.0506118499970876 0.366666666666666
-0.0315930842649603 0.0487699384261821 0.366666666666666
-0.0428287911797673 0.0428598840370715 0.366666666666666
-0.0547438651197818 0.0311140396221959 0.366666666666666
-0.0705392044792846 0.0253414624088338 0.366666666666666
-0.0738921908047102 0.0167452146274826 0.366666666666666
-0.0702190869892361 0.00714967309710835 0.366666666666666
-0.0924917307335077 0.000129901351089069 0.366666666666666
-0.0993381576624436 -0.00652507491095365 0.366666666666666
-0.100159446960817 -0.0160185187823636 0.366666666666666
-0.112127353318361 -0.0272580328122474 0.366666666666666
-0.120107525907006 -0.036951905261566 0.366666666666666
-0.130647082440948 -0.0484742565228735 0.366666666666666
-0.136014058953014 -0.0472393937610881 0.366666666666666
-0.15579288287918 -0.0581723536451632 0.366666666666666
-0.157814418929472 -0.0641141515805283 0.366666666666666
-0.165693297834276 -0.082658830206669 0.366666666666666
-0.176223324211662 -0.0875694017074728 0.366666666666666
-0.190892994703208 -0.0966710178233543 0.366666666666666
-0.199429927299904 -0.111775718633604 0.366666666666666
-0.203623144871812 -0.120765718454491 0.366666666666666
-0.216851951828753 -0.13011963235475 0.366666666666666
-0.224623231370036 -0.136657650516668 0.366666666666667
-0.23230477945053 -0.14538125483001 0.366666666666666
-0.244958469930163 -0.150160355970185 0.366666666666666
-0.248630380661073 -0.156071589275781 0.366666666666666
-0.265694886329023 -0.173908954213661 0.366666666666666
-0.269282331429516 -0.179212279138242 0.366666666666666
-0.278617601096651 -0.190012611970419 0.366666666666667
-0.29362892888234 -0.200747209901106 0.366666666666666
-0.306583961994191 -0.208478049145395 0.366666666666666
-0.317986530376038 -0.217617748273759 0.366666666666666
-0.319529841530761 -0.231143346869394 0.366666666666666
-0.336546291963189 -0.245610511918125 0.366666666666666
-0.345453358294552 -0.244339089422419 0.366666666666666
0.187730762613607 0.249999999999999 0.318968184046648
0.193532106297072 0.25 0.318959051685647
0.183704164492232 0.25 0.327868430002555
0.181073441118571 0.249999999999999 0.331216301209734
0.184780282836377 0.249999999999999 0.34399087707772
0.192624061269231 0.25 0.355346999666474
0.190917894633366 0.25 0.365043180992213
0.183037594865188 0.249999999999999 0.366535140147718
0.169525563339752 0.237535793243764 0.366666666666667
0.167549607625173 0.230412924492547 0.366666666666666
0.157088689361306 0.226334360416193 0.366666666666666
0.160947272793954 0.219339926323038 0.366666666666666
0.151614439392485 0.209412098168736 0.366666666666666
0.145714383368668 0.21245186652262 0.366666666666666
0.141545626885666 0.201789016016178 0.366666666666666
0.130475492776562 0.190180363551662 0.366666666666666
0.118890739407513 0.184077172695371 0.366666666666667
0.11000232618612 0.176171867235766 0.366666666666666
0.101229046155508 0.167492454429795 0.366666666666667
0.101525234508802 0.169619360524387 0.366666666666667
0.0883327392609245 0.155912159281386 0.366666666666666
0.077851289500403 0.14822171985888 0.366666666666666
0.0800960991455623 0.151119801007031 0.366666666666666
0.0706395246333593 0.137192853687699 0.366666666666667
0.0678323559375535 0.131766074356987 0.366666666666666
0.0526017618987412 0.123252690607215 0.366666666666667
0.0434959824057904 0.114000120642622 0.366666666666666
0.0428038677336192 0.111799390537717 0.366666666666666
0.0338534532421337 0.0952504264078378 0.366666666666666
0.0231505353190411 0.0961078188654477 0.366666666666666
0.0150483968124453 0.0825784308257847 0.366666666666667
0.00641753432404596 0.0769025771609288 0.366666666666666
0.00201176277681823 0.0676155818371361 0.366666666666666
-0.00174232419058142 0.07044877156508 0.366666666666666
-0.009609675012007 0.0536337757263086 0.366666666666666
-0.022944169352359 0.0503819339091115 0.366666666666666
-0.0303729287851751 0.040637238416108 0.366666666666666
-0.0410164784434134 0.0379523391333941 0.366666666666666
-0.0456279724770758 0.0235339877488499 0.366666666666666
-0.0460482990244816 0.021469583726237 0.366666666666666
-0.0619695771660668 0.00885119639155301 0.366666666666666
-0.0783705977057575 0.000587974095059869 0.366666666666666
-0.0763545591273051 -0.00862108724584626 0.366666666666666
-0.0880738603080044 -0.022661595480937 0.366666666666666
-0.0960674256677792 -0.0210679225365691 0.366666666666666
-0.109962564555242 -0.0344233338889429 0.366666666666666
-0.112038233788733 -0.0448691216633375 0.366666666666666
-0.126433388528616 -0.0505429061195871 0.366666666666666
-0.136699762459521 -0.0593825845622594 0.366666666666666
-0.149063065815895 -0.0726328992819491 0.366666666666666
-0.155112790063696 -0.0816765329782058 0.366666666666666
-0.166333316362176 -0.084478383692902 0.366666666666667
-0.173795053802023 -0.0921705396387902 0.366666666666666
-0.181826217429207 -0.0969838739460211 0.366666666666666
-0.188260720016465 -0.118120990072573 0.366666666666666
-0.203285162910796 -0.123281156821373 0.366666666666666
-0.201809356896548 -0.126855020949543 0.366666666666666
-0.21878672284726 -0.144935211231181 0.366666666666666
-0.217143369305725 -0.147906249504174 0.366666666666666
-0.235444638755656 -0.154728613469894 0.366666666666666
-0.243906938140156 -0.165120718815138 0.366666666666666
-0.247857140470866 -0.176203404260697 0.366666666666666
-0.26967684528374 -0.188828395591144 0.366666666666666
-0.274710951673475 -0.193924719693801 0.366666666666666
-0.286746083679867 -0.205574611420232 0.366666666666666
-0.299577683012984 -0.216587116781043 0.366666666666666
-0.313113157659188 -0.22723493295645 0.366666666666666
-0.322525579716601 -0.24228191315193 0.366666666666666
-0.32688109582153 -0.245458656310847 0.366666666666666
0.199500793948869 0.25 0.324637061868205
0.203006296469087 0.25 0.322765987069743
0.195538832546853 0.25 0.326459732893348
0.200117106196487 0.25 0.348199612936021
0.198699870880937 0.249999999999999 0.352614988727984
0.20281939605549 0.25 0.364083265655205
0.199654952763419 0.25 0.364522854160362
0.189990714467713 0.23912572710443 0.366666666666666
0.181893211173156 0.232517076928471 0.366666666666666
0.174874635109057 0.230448344282549 0.366666666666666
0.164954956814558 0.215512851363155 0.366666666666666
0.163959855570179 0.213508600745999 0.366666666666666
0.158159253549032 0.204391206832433 0.366666666666666
0.151776824433588 0.202006786174297 0.366666666666666
0.138188797761823 0.188654897618843 0.366666666666666
0.132471169595621 0.180510191049965 0.366666666666666
0.124477460104758 0.17743992514213 0.366666666666666
0.122941998087152 0.177577718615084 0.366666666666666
0.114340455080726 0.165366880164555 0.366666666666666
0.100354109033064 0.157813050412748 0.366666666666666
0.101785660565691 0.154181184569279 0.366666666666666
0.0938451806075739 0.148656627101017 0.366666666666666
0.0792771453910551 0.138088985611341 0.366666666666667
0.0797038887260665 0.13298543809278 0.366666666666666
0.0744758411468327 0.131461339193897 0.366666666666666
0.0640945942496871 0.118876736844356 0.366666666666666
0.0557423342302717 0.106508873926951 0.366666666666666
0.0510026922076489 0.102082733316238 0.366666666666666
0.0389921136131914 0.0903063025451054 0.366666666666666
0.030754351168495 0.0907079317824032 0.366666666666666
0.0308211688756007 0.0786624233397212 0.366666666666666
0.00949110016933233 0.0670657200368617 0.366666666666666
0.0119024278500816 0.065169832431697 0.366666666666666
-0.00451878385431744 0.0592151931710472 0.366666666666666
-0.00952572550002279 0.0440733528368075 0.366666666666666
-0.0150069947914361 0.0451481714681606 0.366666666666666
-0.0276510146092635 0.0315040249426671 0.366666666666666
-0.0280140181376507 0.024327535133637 0.366666666666666
-0.0424016020822913 0.0161963379173908 0.366666666666666
-0.0440250379746087 0.0147658325061973 0.366666666666666
-0.0609566946511058 -0.00315328360704048 0.366666666666666
-0.0672130846072539 -0.00688430543417227 0.366666666666666
-0.0794621976523512 -0.0218338229247198 0.366666666666666
-0.0897827815046184 -0.0226076009380349 0.366666666666666
-0.0947490122748264 -0.032389458477228 0.366666666666666
-0.100259456482028 -0.0464561045525001 0.366666666666666
-0.104570795104514 -0.0475265443616727 0.366666666666666
-0.119522260335049 -0.065379356442816 0.366666666666666
-0.131823634835853 -0.0679398939635548 0.366666666666666
-0.133517962912579 -0.0749442772370099 0.366666666666666
-0.143451595939065 -0.0845940739931229 0.366666666666666
-0.150737133963942 -0.091402877128959 0.366666666666666
-0.165688730797385 -0.106155106987846 0.366666666666666
-0.165048169112757 -0.104618168096353 0.366666666666666
-0.186970263379901 -0.125006176682518 0.366666666666666
-0.196799436038607 -0.128718021334608 0.366666666666666
-0.191213225363347 -0.135662080035859 0.366666666666666
-0.204790223158588 -0.143070109728407 0.366666666666666
-0.21656426797385 -0.152537409160711 0.366666666666666
-0.231597022658167 -0.173358696554316 0.366666666666666
-0.237187529283716 -0.182957639023002 0.366666666666666
-0.241196531314349 -0.183142520509384 0.366666666666667
-0.255452736144576 -0.198120727152836 0.366666666666666
-0.260032253902086 -0.198444597702558 0.366666666666666
-0.278513397486836 -0.218686164302573 0.366666666666666
-0.28934995210253 -0.218938534406935 0.366666666666666
-0.302843979330167 -0.236286201758583 0.366666666666666
-0.301415996398433 -0.246533953308089 0.366666666666667
0.213665444476628 0.25 0.32433506837886
0.208376297136931 0.25 0.324885349336496
0.216071698704475 0.25 0.337745392193963
0.218934028300367 0.25 0.345087277335084
0.218532769308394 0.25 0.358083414951853
0.210487877164613 0.249999999999999 0.358448087244943
0.206068158224958 0.248105820062095 0.366666666666667
0.199671573636574 0.241486792234564 0.366666666666667
0.189393632642171 0.232081651111686 0.366666666666666
0.187481648680001 0.225232769527561 0.366666666666666
0.179829953129156 0.216990075560839 0.366666666666666
0.179414818029144 0.217995592155586 0.366666666666666
0.170082048542714 0.208096622037021 0.366666666666666
0.16221886403879 0.197479182755723 0.366666666666666
0.161307689443958 0.199661006512967 0.366666666666666
0.147208873748604 0.188719739068087 0.366666666666666
0.142049317185475 0.18590078407819 0.366666666666666
0.138871587095477 0.177862085456166 0.366666666666666
0.128727103797357 0.163947658348638 0.366666666666667
0.121950779260593 0.167332247946665 0.366666666666666
0.118642446845284 0.155052584298347 0.366666666666666
0.113497509512172 0.151511826497894 0.366666666666666
0.101492604325138 0.143063635920969 0.366666666666666
0.0882208347936087 0.127059777195915 0.366666666666666
0.0820517895374063 0.118852299606954 0.366666666666667
0.0781134719149652 0.122133373353042 0.366666666666666
0.0672635390729403 0.110026668004499 0.366666666666666
0.0582766586222814 0.102217430410794 0.366666666666666
0.0555139791384118 0.0938806944519205 0.366666666666667
0.0547777159031656 0.0937400277038684 0.366666666666666
0.0385420704947179 0.0857748811348786 0.366666666666666
0.0313693309831749 0.0733107335105405 0.366666666666666
0.0288844410673822 0.0685661549671776 0.366666666666666
0.0143927191099715 0.0597451791496353 0.366666666666666
0.00854632564999907 0.0522201472036042 0.366666666666666
0.000241796366694771 0.0384911763595559 0.366666666666666
-0.0115763191363373 0.0285623435905018 0.366666666666667
-0.0131374226346062 0.0310631290632528 0.366666666666666
-0.0240803119964318 0.0169505431696571 0.366666666666666
-0.0299112471073345 0.0144584683297169 0.366666666666666
-0.0342534479629084 1.97663945676823e-006 0.366666666666666
-0.0442682537398853 -0.00506213788388073 0.366666666666666
-0.0578231319261159 -0.00997402378764826 0.366666666666667
-0.0632048111570964 -0.0286683580315212 0.366666666666666
-0.0751022384508642 -0.0305733364226403 0.366666666666666
-0.0848056480730396 -0.034218526203588 0.366666666666666
-0.0958389613396474 -0.0519189208546976 0.366666666666666
-0.10645814711335 -0.0548562220159748 0.366666666666667
-0.106019730524185 -0.060807768658539 0.366666666666666
-0.123258524993233 -0.0739355986398459 0.366666666666666
-0.132237394453975 -0.0893883227381427 0.366666666666667
-0.141501534908433 -0.0956959626227328 0.366666666666666
-0.143594088410205 -0.104745692075844 0.366666666666666
-0.149125809939227 -0.111716138447176 0.366666666666667
-0.160908164862129 -0.111648182703589 0.366666666666666
-0.177407435635873 -0.125765778718231 0.366666666666666
-0.182820265725698 -0.136320151096213 0.366666666666666
-0.187103749153507 -0.145847711713996 0.366666666666666
-0.202473023161571 -0.156109090812038 0.366666666666666
-0.206557101512735 -0.160218696657721 0.366666666666666
-0.218800223984849 -0.17116337313014 0.366666666666666
-0.233046085500824 -0.183343249481407 0.366666666666666
-0.236249542800827 -0.18391757171585 0.366666666666666
-0.239873667973122 -0.195390629245021 0.366666666666666
-0.258742520310172 -0.20867582443613 0.366666666666666
-0.272780160529676 -0.229269785475213 0.366666666666666
-0.270157916439012 -0.227192849473603 0.366666666666667
-0.289572586425009 -0.239775479288789 0.366666666666666
0.230830302947909 0.25 0.332979583126485
0.22629189759093 0.25 0.334567245262095
0.230894525230775 0.25 0.345623449623535
0.219361922124666 0.25 0.354008207771854
0.229456824638875 0.247608612616953 0.366666666666666
0.222351639851875 0.24239057062703 0.366666666666666
0.213512588194159 0.238626727566825 0.366666666666666
0.211268255012932 0.231449814991355 0.366666666666666
0.200978125388915 0.225877297030057 0.366666666666666
0.189473533692477 0.222314300352947 0.366666666666666
0.189569381704015 0.213503476978523 0.366666666666666
0.18657253460734 0.210730226948695 0.366666666666666
0.173969933559008 0.199924641707207 0.366666666666666
0.175159016693588 0.196034368724395 0.366666666666666
0.165382186735835 0.192351323959467 0.366666666666666
0.156554716239159 0.181761895389692 0.366666666666666
0.146232629369236 0.16852252305259 0.366666666666666
0.13916105574336 0.165617937917205 0.366666666666666
0.13978294554579 0.159650438973038 0.366666666666666
0.130856769367587 0.157575979021941 0.366666666666666
0.125782108483972 0.147821398523121 0.366666666666666
0.117614471577572 0.1424889303846 0.366666666666666
0.105584552246183 0.137159072479253 0.366666666666666
0.0973157489016542 0.127173596216473 0.366666666666666
0.0948259386541139 0.1181345934507 0.366666666666666
0.09120053695943 0.114051298851307 0.366666666666667
0.0725150785997242 0.0995089688427649 0.366666666666667
0.0727291773486243 0.093203821572041 0.366666666666666
0.0591646910189331 0.0937290941848832 0.366666666666666
0.0466185944473216 0.0825089134178311 0.366666666666667
0.0540823726071092 0.07638211173148 0.366666666666666
0.042455402105825 0.0653135069204763 0.366666666666666
0.029932685868685 0.0585264676023764 0.366666666666666
0.0212373728715859 0.0486344791769064 0.366666666666666
0.0196149643210054 0.0438219217313117 0.366666666666667
0.00686981303080725 0.0404774301882697 0.366666666666666
-0.000235317610948556 0.0239953743536405 0.366666666666667
-0.0129610069260335 0.0201012171564773 0.366666666666666
-0.0190380988370262 0.0166236105572064 0.366666666666666
-0.0185388939233744 0.00197597733909898 0.366666666666666
-0.034890214710283 -0.00669112664250224 0.366666666666666
-0.0476651849373837 -0.0117302616734261 0.366666666666667
-0.0532970079013587 -0.0215048340647774 0.366666666666666
-0.0571055460160704 -0.0330347978956761 0.366666666666667
-0.0636445918069299 -0.0290461882373491 0.366666666666667
-0.0738423251667192 -0.0470986612580884 0.366666666666666
-0.0875395608949935 -0.0570998645296577 0.366666666666666
-0.0913234101839463 -0.0673394808097411 0.366666666666666
-0.0991199114273875 -0.0692476214373626 0.366666666666666
-0.10751232680166 -0.0807561575408219 0.366666666666667
-0.121489972713283 -0.08850810875916 0.366666666666666
-0.130964249981383 -0.0962655410803289 0.366666666666667
-0.143568765624008 -0.113872786709616 0.366666666666666
-0.142431595729927 -0.117978995794288 0.366666666666666
-0.14990259409487 -0.121722941199454 0.366666666666666
-0.171651113397204 -0.141088070425782 0.366666666666666
-0.17299575263113 -0.145477856618582 0.366666666666666
-0.178563727525075 -0.144438468019512 0.366666666666666
-0.19338272213427 -0.166884701286877 0.366666666666666
-0.197735158628545 -0.171305293688954 0.366666666666667
-0.213751540369406 -0.181780099785717 0.366666666666666
-0.220585333628681 -0.194938009976807 0.366666666666666
-0.224630661241932 -0.195037462869315 0.366666666666666
-0.245105563417429 -0.210301273349497 0.366666666666666
-0.254576982026588 -0.223727592921699 0.366666666666666
-0.267037073882268 -0.227495207615272 0.366666666666666
-0.271696800744078 -0.242975467986543 0.366666666666666
-0.277176322723252 -0.243589253896201 0.366666666666666
0.24180148132846 0.25 0.337752884522564
0.238647935233626 0.25 0.350604192262071
0.229945954201742 0.25 0.351401103416955
0.23630754276359 0.25 0.36187549287682
0.23396781336993 0.246724382672429 0.366666666666666
0.226023714620016 0.234371245758076 0.366666666666666
0.224475516080597 0.232181669609329 0.366666666666666
0.212589619052654 0.22842563483708 0.366666666666666
0.208232339576228 0.223802169362173 0.366666666666666
0.208584535307943 0.21267195339037 0.366666666666666
0.201409540754282 0.205736070571914 0.366666666666666
0.184218517721208 0.204197228709397 0.366666666666666
0.176286966692271 0.191351873037135 0.366666666666666
0.173553802803714 0.189047575485844 0.366666666666666
0.171723814228176 0.184477492862987 0.366666666666666
0.166392791576262 0.177261847024926 0.366666666666666
0.152942457220739 0.168289642577788 0.366666666666666
0.144768021802541 0.163347955828902 0.366666666666666
0.142073143631151 0.149862205241069 0.366666666666666
0.138974473401892 0.147661142284591 0.366666666666666
0.124413747208036 0.145789209230843 0.366666666666666
0.123491690652149 0.130012368793169 0.366666666666666
0.110644880395673 0.121743405747459 0.366666666666666
0.103544102776369 0.123767682166468 0.366666666666666
0.0950994361672444 0.111733232318225 0.366666666666666
0.089254994967357 0.103097901968304 0.366666666666666
0.0865459096579172 0.0980932399452904 0.366666666666667
0.0749743380064904 0.0902384005095103 0.366666666666666
0.0675268598553398 0.0773573253986332 0.366666666666666
0.0630659138285075 0.0788067929115912 0.366666666666666
0.0523099562390129 0.0670298812383661 0.366666666666666
0.0519897199542071 0.0598838915646582 0.366666666666666
0.0378833694757477 0.0472026753993439 0.366666666666666
0.0361903836273514 0.0512944739968993 0.366666666666666
0.0175002869739203 0.028654492043319 0.366666666666666
0.0217802941746314 0.0325437229732127 0.366666666666666
0.0115745461434887 0.0240509073629502 0.366666666666666
-0.0017568605940284 0.0113453147607177 0.366666666666667
-0.0151665753946834 -0.00205707534798474 0.366666666666666
-0.0197077808217552 -0.000829809699171827 0.366666666666666
-0.0305684749082815 -0.0148861027636864 0.366666666666666
-0.0357032053500026 -0.0170914317123622 0.366666666666666
-0.0391127472676767 -0.0338318433622821 0.366666666666667
-0.0469847926445182 -0.0389808387010805 0.366666666666666
-0.064333566019506 -0.0473806058192341 0.366666666666666
-0.0731879811674143 -0.0611211045958422 0.366666666666666
-0.0729083371381808 -0.0645272957225667 0.366666666666667
-0.0917406922312232 -0.0777475107233942 0.366666666666667
-0.0956395374610547 -0.0829103849935973 0.366666666666666
-0.101446663840484 -0.0967364271531398 0.366666666666667
-0.106448505071142 -0.098597268203285 0.366666666666666
-0.117481207775957 -0.104571952963098 0.366666666666666
-0.131718066020807 -0.113821029724889 0.366666666666666
-0.14048785643178 -0.118944822729301 0.366666666666666
-0.144598055593367 -0.129404536774489 0.366666666666666
-0.159415818947812 -0.13828831980311 0.366666666666666
-0.159976880504022 -0.147464282962249 0.366666666666666
-0.177224351491341 -0.155484648910094 0.366666666666666
-0.183437719089605 -0.171579001221473 0.366666666666666
-0.187583150713538 -0.17297165597065 0.366666666666666
-0.204189926574919 -0.187543864988875 0.366666666666667
-0.215039114402152 -0.197674604457769 0.366666666666666
-0.226499023059405 -0.207815752063542 0.366666666666666
-0.229537564162962 -0.216289351093498 0.366666666666666
-0.237000645240433 -0.220234347959453 0.366666666666666
-0.256682908289057 -0.242561440369567 0.366666666666666
-0.25776265855759 -0.243513673538146 0.366666666666666
0.251845757580387 0.249999999999999 0.342055813477079
0.244138145487965 0.25 0.349742230793019
0.254117561344729 0.249999999999999 0.3605729673587
0.241245987207435 0.246762151134581 0.366666666666666
0.235011011370959 0.240229912028695 0.366666666666666
0.232254024739837 0.234187863080956 0.366666666666666
0.233509767886554 0.234228112600803 0.366666666666666
0.223107725794921 0.221203693785329 0.366666666666666
0.215624665662454 0.210270343729318 0.366666666666667
0.207870941889778 0.211393319055481 0.366666666666666
0.199820773949049 0.1993002456952 0.366666666666666
0.194645599329662 0.194391727807231 0.366666666666666
0.184294356074359 0.183586578648921 0.366666666666666
0.175420999235808 0.177849316324073 0.366666666666667
0.170369080182763 0.172914886014009 0.366666666666666
0.172069624476446 0.165549990006164 0.366666666666667
0.159509104378892 0.166338226786657 0.366666666666666
0.156178971166463 0.15693014098628 0.366666666666667
0.142843872073167 0.144117622672761 0.366666666666666
0.147019602257467 0.138783851275562 0.366666666666667
0.138469014656919 0.132036115203851 0.366666666666667
0.12996520541552 0.126775074441542 0.366666666666666
0.113056280155821 0.118682555864268 0.366666666666666
0.113791300110806 0.107945696299941 0.366666666666666
0.104725453277784 0.102836419499038 0.366666666666666
0.0921733346893545 0.0895170427148463 0.366666666666667
0.0931087477485666 0.0911928704609965 0.366666666666666
0.0805675748825442 0.0857292401038754 0.366666666666666
0.0780675643308037 0.0748816491954809 0.366666666666667
0.0643594352391435 0.0688281609051045 0.366666666666666
0.0572290887588673 0.0553056958092725 0.366666666666666
0.0558829718167723 0.0532376804935093 0.366666666666666
0.041989236107698 0.0459354663007459 0.366666666666666
0.0382204543420199 0.0362485037403887 0.366666666666666
0.0247701758035611 0.0273447254996432 0.366666666666667
0.0219374662168843 0.0186317490406325 0.366666666666666
0.0129158442518474 0.0129229237663093 0.366666666666666
-0.00174052198605504 -0.00325724585201405 0.366666666666666
8.15657428019932e-005 0.00172036533788697 0.366666666666666
-0.0166084666395821 -0.0162814689076756 0.366666666666667
-0.0183298718866761 -0.0209965498134822 0.366666666666666
-0.0299175447465393 -0.025457160900808 0.366666666666666
-0.0393116623565096 -0.0327073155640647 0.366666666666666
-0.0407865997397497 -0.038101556891063 0.366666666666666
-0.0550659081296283 -0.0569395084441704 0.366666666666666
-0.0551976587966622 -0.0576541147437663 0.366666666666666
-0.0702228191161483 -0.0703867075311066 0.366666666666666
-0.0803518338453561 -0.078779814218817 0.366666666666666
-0.0913629176248796 -0.0935244216657502 0.366666666666667
-0.0988649319705268 -0.0959527183048989 0.366666666666666
-0.102533773687642 -0.106509075152725 0.366666666666666
-0.11399884301027 -0.119529643915434 0.366666666666666
-0.116856981736204 -0.124100196153694 0.366666666666666
-0.129170527681378 -0.128262750499501 0.366666666666666
-0.139180006622071 -0.135001730335029 0.366666666666666
-0.146765710441927 -0.151229587157779 0.366666666666666
-0.152343988537871 -0.161569262772828 0.366666666666666
-0.165974124438621 -0.167793019317096 0.366666666666666
-0.180181404651588 -0.176489846694715 0.366666666666666
-0.182604227593422 -0.181229364704072 0.366666666666666
-0.197656832680392 -0.194363926937458 0.366666666666666
-0.210358802030946 -0.211219228534744 0.366666666666666
-0.207732173319406 -0.211824088017953 0.366666666666666
-0.230699004287512 -0.228605320875901 0.366666666666666
-0.235861146982939 -0.238517249306207 0.366666666666666
-0.247247296446885 -0.240860917954135 0.366666666666666
0.261110158277979 0.25 0.34636191416339
0.262993085365219 0.25 0.366497683547029
0.262152549306655 0.244952844165206 0.366666666666666
0.251157783202713 0.244262419228701 0.366666666666666
0.252916855564949 0.234841430744244 0.366666666666666
0.243402430242389 0.232231292850591 0.366666666666666
0.234461717533203 0.220271649020547 0.366666666666666
0.221639704555453 0.216115604193805 0.366666666666666
0.225268262931864 0.209141725085352 0.366666666666666
0.215186816344108 0.199165242957429 0.366666666666666
0.204596934019779 0.194455158711506 0.366666666666666
0.198654747007205 0.1878439481055 0.366666666666666
0.198838805573826 0.186013720071127 0.366666666666666
0.186867852769642 0.176888408554145 0.366666666666666
0.186663014617636 0.172331443629651 0.366666666666666
0.17946717242777 0.159169070258927 0.366666666666666
0.163247142004562 0.154912255226424 0.366666666666667
0.15791130478808 0.143345638465373 0.366666666666666
0.155416987299217 0.142033643566702 0.366666666666666
0.148822072573407 0.138745005827143 0.366666666666666
0.13549883431937 0.126439198717307 0.366666666666666
0.127616897921296 0.113804819850179 0.366666666666666
0.123934087203942 0.116548353906941 0.366666666666667
0.115399896700641 0.100344248308433 0.366666666666666
0.11198275665851 0.104973589273742 0.366666666666667
0.102433888849208 0.0928757189922857 0.366666666666666
0.0949297715766413 0.0780965497964754 0.366666666666666
0.0894404154412486 0.0755173409699471 0.366666666666666
0.0870270051839094 0.0715770528990897 0.366666666666666
0.0737664006947278 0.0594376794636287 0.366666666666667
0.0668976198835664 0.052836571416493 0.366666666666666
0.0633531818543255 0.0523101539123701 0.366666666666666
0.0488704601193476 0.0357515609150259 0.366666666666666
0.038606027826477 0.0259702349839586 0.366666666666667
0.0351475729415702 0.0177822480852105 0.366666666666666
0.0283437402297218 0.0084194220057781 0.366666666666666
0.0225717037519061 0.00629704349224123 0.366666666666666
0.0122203048492321 -0.00548905102935577 0.366666666666666
-0.000544061167615354 -0.0121547546287002 0.366666666666666
-0.00413198915373412 -0.016895332402679 0.366666666666667
-0.0104499552212014 -0.0204737688149932 0.366666666666666
-0.0249979296992544 -0.0359210898769704 0.366666666666666
-0.0278962451034121 -0.0474413568968004 0.366666666666666
-0.0434955610536148 -0.0511994928252734 0.366666666666666
-0.0505750545273925 -0.0645465742985722 0.366666666666666
-0.0535957569619277 -0.0765424823007765 0.366666666666666
-0.054259352900726 -0.0715020698442667 0.366666666666666
-0.0767768946185472 -0.0887448187691416 0.366666666666666
-0.0795667404048582 -0.102441113303627 0.366666666666667
-0.0871476032828806 -0.0992835331395884 0.366666666666666
-0.0921313225545 -0.116663644614092 0.366666666666666
-0.111232357316362 -0.124808674947974 0.366666666666666
-0.115959575666713 -0.129942925248866 0.366666666666666
-0.127475766009264 -0.143722271798037 0.366666666666666
-0.127810826504158 -0.141691922819727 0.366666666666666
-0.14539382440074 -0.152987686232568 0.366666666666666
-0.143173171406533 -0.158917391256045 0.366666666666666
-0.162180615043037 -0.179300637676284 0.366666666666666
-0.169982895113764 -0.185764368191618 0.366666666666666
-0.173791338719723 -0.187015655140102 0.366666666666666
-0.18839770062946 -0.20345394772116 0.366666666666666
-0.203618778027467 -0.219477808937718 0.366666666666666
-0.212512594060098 -0.221236435011546 0.366666666666666
-0.217058010077921 -0.232647888473682 0.366666666666666
-0.222219062555177 -0.239066798513899 0.366666666666666
0.275445786527432 0.25 0.358844552727955
0.267888098637164 0.241423517356583 0.366666666666666
0.263499009455051 0.237772051766484 0.366666666666667
0.256027490603752 0.231492453579555 0.366666666666667
0.250022894881365 0.227460682285831 0.366666666666666
0.245328534910645 0.219138798895581 0.366666666666666
0.24390676751051 0.21847470119602 0.366666666666666
0.231843303738161 0.211269939975767 0.366666666666666
0.226771577470504 0.201115058580226 0.366666666666666
0.215716539259807 0.193260564318729 0.366666666666666
0.211046882881712 0.184340585153415 0.366666666666666
0.210863822295776 0.182762653721414 0.366666666666666
0.197205417636629 0.176678776307467 0.366666666666666
0.188884122273771 0.164470992837 0.366666666666666
0.189832966012842 0.157519092640498 0.366666666666666
0.174958404673447 0.146925376336662 0.366666666666667
0.173331783359733 0.141635829170535 0.366666666666666
0.165870291700164 0.144232698591404 0.366666666666666
0.168169706374725 0.133436482939237 0.366666666666666
0.151803623707082 0.124757649663473 0.366666666666666
0.150384382676091 0.126262446514633 0.366666666666666
0.139637647476703 0.117383384165269 0.366666666666666
0.131373309921855 0.104486169315041 0.366666666666666
0.128461037140446 0.0963150675303986 0.366666666666666
0.115325127001456 0.092214482944948 0.366666666666666
0.114515676716896 0.0843317269442384 0.366666666666666
0.106374806952234 0.0723216014178179 0.366666666666666
0.0919856232383998 0.0634638539577935 0.366666666666666
0.0892542983704664 0.0581244710465152 0.366666666666666
0.0774888120486353 0.0517238199372743 0.366666666666666
0.0709463720067088 0.0480994688212303 0.366666666666666
0.0648283308223874 0.0422052451003165 0.366666666666666
0.0547182118224291 0.0233968469194067 0.366666666666667
0.0507220263956148 0.0224579323198067 0.366666666666666
0.0345832631928339 0.00674996090981295 0.366666666666666
0.0364748187935004 0.010525942063681 0.366666666666666
0.0307679589120107 -0.00565728955331473 0.366666666666666
0.0168554023410393 -0.0148907020101466 0.366666666666666
0.0101265350510088 -0.0100285454845739 0.366666666666666
0.00563026639325189 -0.0223068131633523 0.366666666666666
0.00273311002110812 -0.0281417347309757 0.366666666666667
-0.0167568009976373 -0.0432950916887412 0.366666666666666
-0.0181124165371857 -0.0509038220376236 0.366666666666666
-0.0287230280505848 -0.0620034777695164 0.366666666666666
-0.0404896708310628 -0.0691911197856911 0.366666666666667
-0.0498577635407764 -0.0805621571229541 0.366666666666666
-0.0601613222475676 -0.0839980751824142 0.366666666666666
-0.0604343782635226 -0.0901407237745359 0.366666666666666
-0.067722108832998 -0.0986323289946966 0.366666666666667
-0.0847495179510014 -0.110546373756698 0.366666666666666
-0.0840840636655121 -0.120292422107161 0.366666666666666
-0.0923312103589236 -0.130437914306223 0.366666666666666
-0.109229951926746 -0.138231547507475 0.366666666666666
-0.10713814516474 -0.146928254477885 0.366666666666666
-0.121366178145458 -0.157008283955474 0.366666666666666
-0.130344792025293 -0.166198601476389 0.366666666666666
-0.136276054971794 -0.16783051024993 0.366666666666666
-0.155042868915835 -0.182209858262175 0.366666666666666
-0.161343948645092 -0.193703174469733 0.366666666666666
-0.173093356107209 -0.205577701680941 0.366666666666666
-0.17505457564773 -0.212880081088249 0.366666666666667
-0.184857027101778 -0.212391618866193 0.366666666666666
-0.205147913026646 -0.22883060141969 0.366666666666666
-0.206908137686737 -0.241126996001992 0.366666666666666
-0.222047640420493 -0.247108245378202 0.366666666666666
0.287890734545287 0.25 0.363343342527762
0.284206051352606 0.242731921581219 0.366666666666667
0.268680825654211 0.232043351712999 0.366666666666666
0.266247698413072 0.226597533806304 0.366666666666666
0.259691865359729 0.222523627641307 0.366666666666666
0.253850210119672 0.218209714886176 0.366666666666666
0.249090801199152 0.208641087244049 0.366666666666667
0.238397114009342 0.207743352394629 0.366666666666666
0.23193381391787 0.191111890243358 0.366666666666666
0.223691266557033 0.183611711593927 0.366666666666666
0.219100550975827 0.183823585869268 0.366666666666666
0.219634353030018 0.180614687618459 0.366666666666666
0.203475408481292 0.163406823742384 0.366666666666667
0.201807193676454 0.160246469815189 0.366666666666666
0.194440710525479 0.158850072454721 0.366666666666666
0.182562785725411 0.14396852445026 0.366666666666666
0.186311883740505 0.138810434677806 0.366666666666666
0.177350752384995 0.134291637130035 0.366666666666666
0.172245618299487 0.131666159833666 0.366666666666666
0.157636593185607 0.118804415710429 0.366666666666667
0.157063903384329 0.1183879396235 0.366666666666666
0.148440881451599 0.104688545340991 0.366666666666666
0.139690599662163 0.102457219836967 0.366666666666666
0.131766179925193 0.0924663061393228 0.366666666666667
0.12920866797262 0.0863371302046071 0.366666666666666
0.117011856857912 0.0789002316615031 0.366666666666667
0.108707084276129 0.0708651059168418 0.366666666666666
0.0991726893617745 0.0616811807595055 0.366666666666666
0.094476036165193 0.0518609741761467 0.366666666666666
0.0886174236310475 0.0500495566960746 0.366666666666667
0.0755370342639568 0.040924243885522 0.366666666666666
0.0789172157353767 0.0312669905419708 0.366666666666666
0.0615981179356064 0.0198988638149833 0.366666666666667
0.0538123120189527 0.0132279183534584 0.366666666666666
0.050095324462528 0.00748081343587727 0.366666666666666
0.0466128547194638 -0.00126865455511798 0.366666666666666
0.0325071001578603 -0.0106864153161551 0.366666666666667
0.0251754747725718 -0.0240876884972703 0.366666666666666
0.0189925365925794 -0.0219029475094059 0.366666666666666
0.0139574342439525 -0.0326228476784302 0.366666666666666
0.00113377180559395 -0.0394498827593469 0.366666666666667
-0.0006183294299902 -0.0464475622733541 0.366666666666667
-0.0121959204605047 -0.0545275157996764 0.366666666666666
-0.0278113701307806 -0.0697398921505013 0.366666666666666
-0.0317345383486159 -0.0718808672208384 0.366666666666666
-0.0389695952847135 -0.0769914700557381 0.366666666666666
-0.051284247709994 -0.0891572667976068 0.366666666666666
-0.0488346624327844 -0.10264282682844 0.366666666666666
-0.0720859190556742 -0.110889335612659 0.366666666666667
-0.0714466266904538 -0.115087021935526 0.366666666666666
-0.0815491219073978 -0.125795254848712 0.366666666666666
-0.0894679932285393 -0.12644936370332 0.366666666666666
-0.0975345467181066 -0.147737406454555 0.366666666666666
-0.108661812486095 -0.146837788143908 0.366666666666666
-0.115957530281263 -0.162551412303713 0.366666666666666
-0.12819477258496 -0.169237293807347 0.366666666666666
-0.139434901527858 -0.179138332106737 0.366666666666666
-0.146721178604542 -0.184232785190346 0.366666666666666
-0.157491197402838 -0.197773573658236 0.366666666666666
-0.164143626198287 -0.215648858347039 0.366666666666667
-0.172590238076911 -0.218581201654438 0.366666666666666
-0.176978813206454 -0.221987476966213 0.366666666666667
-0.183425449323316 -0.239656733824222 0.366666666666666
0.294075138862054 0.241271338264399 0.366666666666667
0.280073878095224 0.227497691560942 0.366666666666666
0.276709338865594 0.228012264637284 0.366666666666667
0.274350753930674 0.222492681703692 0.366666666666666
0.268646061546474 0.212383757928877 0.366666666666666
0.265312612834477 0.210202929718419 0.366666666666667
0.251912481602138 0.200244241253204 0.366666666666666
0.242010482061452 0.196673717582888 0.366666666666666
0.243245655860185 0.18632669170028 0.366666666666666
0.230243331665403 0.180901504119552 0.366666666666666
0.230212362836913 0.177757495263265 0.366666666666666
0.21914432232211 0.169568451187885 0.366666666666666
0.210027647779038 0.16005506786077 0.366666666666667
0.213056012925762 0.154865026447967 0.366666666666666
0.203092590265612 0.150429317829926 0.366666666666666
0.188929753496374 0.140824523549529 0.366666666666666
0.18606496784664 0.137686530566397 0.366666666666666
0.184676572008004 0.126748390756418 0.366666666666666
0.168731724215079 0.125194577832918 0.366666666666666
0.164866694470843 0.121031594684545 0.366666666666667
0.164178232000756 0.104294304014166 0.366666666666667
0.153226726266858 0.0982060903671351 0.366666666666666
0.143273201441436 0.0943454558871405 0.366666666666666
0.141318805317433 0.0855077913891817 0.366666666666666
0.133252444062658 0.0776472011736726 0.366666666666666
0.121113713227517 0.0665763847954873 0.366666666666667
0.113449190693603 0.0581832504025716 0.366666666666666
0.108808844317184 0.0584814338632421 0.366666666666666
0.0989696260892131 0.0437439668058882 0.366666666666666
0.094598863296252 0.0403047165099141 0.366666666666666
0.0867270560155731 0.0265758904237645 0.366666666666667
0.0758035209211923 0.0233803715680183 0.366666666666666
0.0646170523556454 0.0143048233136785 0.366666666666666
0.0650626320015244 0.0100905816118558 0.366666666666666
0.0522778920118053 -0.0032714407780775 0.366666666666666
0.047111024350645 -0.0119689022040162 0.366666666666666
0.0433110926064011 -0.013282568266667 0.366666666666666
0.0382613514660125 -0.0264899458947404 0.366666666666666
0.0277314568238685 -0.0275872292644966 0.366666666666667
0.0142671639791379 -0.0442678867256538 0.366666666666666
0.0075901979262945 -0.0538737266917041 0.366666666666666
-0.00264057812545306 -0.0561828675838233 0.366666666666666
-0.00604696247446492 -0.0630617648641531 0.366666666666666
-0.0208654525335884 -0.0800373739811832 0.366666666666667
-0.024924509357519 -0.0772600790658308 0.366666666666666
-0.0317445048432507 -0.0844329353603171 0.366666666666666
-0.0405217060746155 -0.10335525130924 0.366666666666666
-0.0521882629686116 -0.101647703221864 0.366666666666666
-0.0614416786761357 -0.124304265451961 0.366666666666666
-0.0665042988474651 -0.125301817522795 0.366666666666666
-0.0736299901981022 -0.134011021210375 0.366666666666666
-0.083003512829827 -0.141149851504907 0.366666666666666
-0.0939535320670287 -0.144533933083234 0.366666666666666
-0.109350072602511 -0.160109579391627 0.366666666666666
-0.105739871279476 -0.160848314631493 0.366666666666666
-0.118389843390882 -0.175550423587936 0.366666666666666
-0.135367498256985 -0.189314954998421 0.366666666666666
-0.134402588080408 -0.192317635179632 0.366666666666667
-0.146241878334405 -0.202878898903756 0.366666666666666
-0.156593530284141 -0.217397918912572 0.366666666666666
-0.173499331214259 -0.226610548781052 0.366666666666666
-0.177354959257336 -0.239075367067421 0.366666666666666
0.289524463851248 0.235378712810419 0.366666666666666
0.292979980903967 0.234178103387882 0.366666666666666
0.2814168431062 0.223622530897403 0.366666666666666
0.272981476904871 0.210700339219345 0.366666666666666
0.271598766373416 0.204839447017944 0.366666666666666
0.267802703776316 0.201068752773584 0.366666666666666
0.260314417152903 0.19896505645097 0.366666666666666
0.251638384716164 0.190186002917201 0.366666666666666
0.248914963795649 0.184591012987833 0.366666666666666
0.241812305764132 0.171649715318174 0.366666666666666
0.231718874280093 0.17048911055983 0.366666666666666
0.228608353712035 0.160328834875674 0.366666666666666
0.226204217968113 0.154965821301373 0.366666666666666
0.213506724303658 0.153650397984848 0.366666666666667
0.208617853146518 0.141903001074556 0.366666666666666
0.204824310897532 0.13923772695568 0.366666666666667
0.194177631342841 0.131098263423013 0.366666666666666
0.18342307821105 0.117945084168259 0.366666666666667
0.181898206284138 0.118876432258718 0.366666666666666
0.175577963512172 0.104731548338684 0.366666666666666
0.164981406554063 0.0982459481655504 0.366666666666666
0.155213211136486 0.0891611512857761 0.366666666666666
0.157698923805305 0.0888599792533208 0.366666666666666
0.140699635501897 0.0758609784267391 0.366666666666666
0.140520682020107 0.070822298349752 0.366666666666666
0.136229940351484 0.0639327657780359 0.366666666666666
0.12615678801307 0.0545881150450073 0.366666666666666
0.114306840769807 0.0473009735274126 0.366666666666666
0.109828150572733 0.0479174763940399 0.366666666666667
0.107217096245021 0.0392334108363292 0.366666666666666
0.0931633961180993 0.0207215072162821 0.366666666666667
0.0856087908878304 0.0249528899125927 0.366666666666667
0.0826690771260131 0.0112034333721201 0.366666666666666
0.0726127671621942 0.00571488024402392 0.366666666666666
0.0595159305775957 -0.00676112653455502 0.366666666666667
0.0521566907132665 -0.0148849015104283 0.366666666666667
0.053087155688761 -0.023102656792985 0.366666666666666
0.0387891227661646 -0.0299060337858177 0.366666666666667
0.0289369028981954 -0.0399371624579819 0.366666666666666
