ply
format ascii 1.0
element vertex 880
property float x
property float y
property float z
end_header
-0.237603625918197 0.130314113300097 0.366666666666666
-0.235852023380769 0.145417373540302 0.366666666666666
-0.226220510650195 0.149486288049373 0.366666666666666
-0.212325143995957 0.159158437108167 0.366666666666666
-0.203729857687923 0.165173069687433 0.366666666666666
-0.199143848232795 0.178422658383435 0.366666666666666
-0.194035678657487 0.182059514622675 0.366666666666666
-0.190497412038066 0.200100602493454 0.366666666666666
-0.186894261804683 0.203736572999706 0.366666666666666
-0.172850676762866 0.219430170553271 0.366666666666667
-0.166127088233489 0.213681089933854 0.366666666666666
-0.158872826099357 0.234402319331851 0.366666666666666
-0.153360353292876 0.243771962307436 0.366666666666666
-0.43870423155321 -0.0939845894363576 0.366666666666666
-0.43392553318324 -0.0880590490802987 0.366666666666666
-0.421497624794093 -0.074406537609156 0.366666666666666
-0.416997477655718 -0.0681559598549822 0.366666666666666
-0.421907192216011 -0.0656240663467827 0.366666666666666
-0.41101651027428 -0.0540704744551334 0.366666666666666
-0.401514736771533 -0.0485425759115651 0.366666666666666
-0.398891553695479 -0.0449139493570754 0.366666666666666
-0.392851215595914 -0.0335030068949368 0.366666666666666
-0.387766108300726 -0.0318582033057288 0.366666666666666
-0.375934533561731 -0.0259264278013126 0.366666666666666
-0.375373030477872 -0.0189519896349319 0.366666666666666
-0.375240023670565 -0.00775884463028927 0.366666666666666
-0.358250514602399 0.0060372614947656 0.366666666666666
-0.358249990905403 0.00632852056108512 0.366666666666667
-0.345391227390088 0.0200485221335767 0.366666666666666
-0.346242510732399 0.0199199211415737 0.366666666666666
-0.337212293106957 0.0311867085258716 0.366666666666666
-0.328865296763994 0.0354083211560975 0.366666666666666
-0.325591312676706 0.0426342166064988 0.366666666666666
-0.322805896198074 0.0539053025810816 0.366666666666666
-0.313960289718763 0.0580350956046558 0.366666666666666
-0.305249132700608 0.0627748988333711 0.366666666666666
-0.296509414366845 0.0801827158315753 0.366666666666666
-0.294980728854025 0.0829434576561276 0.366666666666666
-0.283900306765027 0.084116267020293 0.366666666666666
-0.274956317053087 0.105975217293317 0.366666666666666
-0.26938483911464 0.106865016150424 0.366666666666667
-0.271715871651011 0.114134887980824 0.366666666666666
-0.256032304326858 0.127090475189748 0.366666666666666
-0.253923804245757 0.133621063827687 0.366666666666666
-0.246683710052072 0.145372947366247 0.366666666666666
-0.240315700388992 0.149471062276204 0.366666666666666
-0.229362915149736 0.157210799685337 0.366666666666666
-0.222459523697918 0.169821507204429 0.366666666666666
-0.21387244888867 0.171979671798278 0.366666666666666
-0.206180114944613 0.183081586450885 0.366666666666666
-0.197914835006381 0.195414842649656 0.366666666666666
-0.193362859973777 0.202977815506955 0.366666666666666
-0.187211091452036 0.206463326115136 0.366666666666666
-0.1835056644897 0.219429616625934 0.366666666666666
-0.170216692311191 0.228001916480314 0.366666666666666
-0.163860201189034 0.234371413570375 0.366666666666666
-0.152648669209897 0.248046564216271 0.366666666666666
-0.444478286560946 -0.0889929198922283 0.366666666666666
-0.442872432819064 -0.0807916008690517 0.366666666666666
-0.426933660458478 -0.0728223351163139 0.366666666666666
-0.429832369394863 -0.0628297286679524 0.366666666666666
-0.420763992782877 -0.0570403401357842 0.366666666666667
-0.421137171898203 -0.0575056535867183 0.366666666666666
-0.406286495693509 -0.0423964746492482 0.366666666666666
-0.40363534668025 -0.0425238565453074 0.366666666666666
-0.399302977643761 -0.0267277500253765 0.366666666666666
-0.391118928990987 -0.0294520657753615 0.366666666666666
-0.385654581659931 -0.0130815310287326 0.366666666666667
-0.383662538287421 -0.00841037961547021 0.366666666666666
-0.374088279138088 -0.00920940630572424 0.366666666666666
-0.369620240190473 0.00323946178365458 0.366666666666666
-0.368074314918903 0.00856732758478537 0.366666666666666
-0.360015627239818 0.0183338744906963 0.366666666666666
-0.356991320846989 0.0211879192945622 0.366666666666666
-0.337924068945341 0.0383806232521639 0.366666666666666
-0.341908578259917 0.0417288575170489 0.366666666666666
-0.335265551226412 0.0479443219387501 0.366666666666666
-0.325002250319013 0.056473689590559 0.366666666666666
-0.318368688150496 0.0679517552016164 0.366666666666666
-0.310448783388025 0.0738734647062857 0.366666666666666
-0.307984372526511 0.0810292787954856 0.366666666666666
-0.298966111908061 0.0912924212495737 0.366666666666667
-0.294096183612464 0.104010009684833 0.366666666666666
-0.285636599267405 0.106828899058395 0.366666666666666
-0.284280253864408 0.113426982245554 0.366666666666666
-0.277370056053717 0.120624383503177 0.366666666666666
-0.262981207831076 0.13076121648818 0.366666666666667
-0.256654642957778 0.138015759173194 0.366666666666666
-0.254162558004344 0.152455569616959 0.366666666666666
-0.252190301696671 0.154207887008285 0.366666666666666
-0.241373557094771 0.159792355247322 0.366666666666666
-0.228498375496824 0.174989705772881 0.366666666666666
-0.227509782360328 0.178395192547827 0.366666666666666
-0.221020233957052 0.186208553848936 0.366666666666667
-0.208596285345061 0.193379360580248 0.366666666666666
-0.201921851173033 0.205373646414651 0.366666666666666
-0.195609735078433 0.213649264248863 0.366666666666666
-0.189200202147405 0.228278032741402 0.366666666666666
-0.184923973012763 0.237890087251783 0.366666666666666
-0.168945266111337 0.242074611134829 0.366666666666666
-0.452084640740563 -0.0788204440708326 0.366666666666667
-0.442540021384044 -0.0774338119738838 0.366666666666666
-0.440387529803599 -0.0682241182109996 0.366666666666666
-0.436205579125665 -0.0539661256015403 0.366666666666666
-0.432631779660617 -0.059147432587722 0.366666666666666
-0.42206489126698 -0.0414601578840606 0.366666666666667
-0.412349778100466 -0.0375473945388008 0.366666666666666
-0.417585473707227 -0.0362806376331885 0.366666666666666
-0.407326983117193 -0.0299071641212275 0.366666666666666
-0.401440607872707 -0.0152512038623421 0.366666666666666
-0.396062592838635 -0.00798271521492269 0.366666666666666
-0.389772590015056 0.00310602676073702 0.366666666666666
-0.387361315910135 0.0027741069005168 0.366666666666667
-0.379671367427938 0.0104768363234257 0.366666666666666
-0.371776402111853 0.0195052969250336 0.366666666666666
-0.369164783163565 0.0229139777625958 0.366666666666667
-0.353279452365053 0.0377508750810219 0.366666666666666
-0.354551647226893 0.0471421120325197 0.366666666666666
-0.34096801575379 0.0538031538197914 0.366666666666666
-0.34416785078437 0.0566521849913689 0.366666666666666
-0.330712421051527 0.0617708680756005 0.366666666666666
-0.32744396123264 0.0769413559389071 0.366666666666666
-0.319542154550837 0.0866236429398605 0.366666666666666
-0.319285077219673 0.0879616055672339 0.366666666666666
-0.310811770721248 0.0921779795258975 0.366666666666666
-0.303326744471632 0.104723888485251 0.366666666666666
-0.295093624142612 0.115680531405326 0.366666666666666
-0.284900919405566 0.118202811434635 0.366666666666666
-0.281568882567605 0.130903181976321 0.366666666666667
-0.277695238658945 0.138517174079227 0.366666666666666
-0.268595716642247 0.144044668467315 0.366666666666666
-0.252951242936859 0.155111594401506 0.366666666666666
-0.255007336897126 0.159573930669339 0.366666666666666
-0.242744972956941 0.169870762296788 0.366666666666666
-0.242702492094517 0.175289965059182 0.366666666666666
-0.23472921373476 0.184716123528274 0.366666666666666
-0.228042365370298 0.194843926891666 0.366666666666666
-0.222058904679199 0.205835649152655 0.366666666666666
-0.206232445503593 0.221085399181853 0.366666666666666
-0.201626471828168 0.219192971915087 0.366666666666666
-0.1940890595354 0.239479103970989 0.366666666666666
-0.194496114611073 0.241583580923339 0.366666666666666
-0.181768914725073 0.248404859614412 0.366666666666666
-0.454637939612183 -0.0699346575138318 0.366666666666666
-0.44665419860179 -0.0681412940162908 0.366666666666667
-0.447392161496242 -0.0609437931735375 0.366666666666666
-0.440109145174803 -0.0499425059640358 0.366666666666666
-0.429570580093893 -0.043214875278539 0.366666666666666
-0.426667355351119 -0.0379677187630862 0.366666666666666
-0.421052459040696 -0.029162070796416 0.366666666666666
-0.417508404331263 -0.0182143231507951 0.366666666666666
-0.414751942907182 -0.0178596997153746 0.366666666666666
-0.40283868618364 -0.00341053390311267 0.366666666666666
-0.402188644525911 -0.00188394976081836 0.366666666666667
-0.399271057126146 0.00469533549041462 0.366666666666666
-0.387203827745002 0.00978952987536871 0.366666666666667
-0.381197935027038 0.0178502928917548 0.366666666666666
-0.377435994299697 0.0296792328736337 0.366666666666666
-0.370577027174336 0.0355988347376583 0.366666666666666
-0.36618211366825 0.041660038571274 0.366666666666666
-0.355090875951266 0.0491562636007117 0.366666666666666
-0.349854537218161 0.051077999521331 0.366666666666666
-0.345924636762168 0.0613592659783327 0.366666666666666
-0.336450591474985 0.0767218892258698 0.366666666666666
-0.33433020092119 0.0801034101904 0.366666666666666
-0.32103772945167 0.0863507072538241 0.366666666666666
-0.324289189912052 0.0934590462019638 0.366666666666666
-0.314409396842224 0.100262918775743 0.366666666666666
-0.300527715406342 0.112685602708086 0.366666666666666
-0.304461871218803 0.116154071460313 0.366666666666667
-0.291396582091185 0.13372224948622 0.366666666666666
-0.281297864107676 0.136790301322448 0.366666666666666
-0.283490309355061 0.141863238622741 0.366666666666666
-0.268296496869986 0.153050387513118 0.366666666666666
-0.268029494386675 0.159106786161378 0.366666666666666
-0.257912049014951 0.168615734420472 0.366666666666667
-0.251729923242395 0.182381038164365 0.366666666666666
-0.244058149146058 0.191339849805431 0.366666666666666
-0.242949143115438 0.200536157033099 0.366666666666666
-0.227082402228212 0.207938314954242 0.366666666666666
-0.225535023699074 0.207545740210297 0.366666666666666
-0.21221614367904 0.225446161731682 0.366666666666666
-0.206872037888408 0.2353611633853 0.366666666666666
-0.199837687472981 0.235899589077641 0.366666666666666
-0.465583522881983 -0.0715002016665943 0.366666666666666
-0.458790833123827 -0.0583570594161608 0.366666666666666
-0.455218517892113 -0.0565920907655331 0.366666666666666
-0.444472301104671 -0.0496373679239746 0.366666666666666
-0.439054073801703 -0.0399090688856488 0.366666666666666
-0.438408375633675 -0.0324602005988398 0.366666666666666
-0.428260813349003 -0.0252678285075434 0.366666666666667
-0.420483594873137 -0.0160174326081444 0.366666666666666
-0.422927282925315 -0.0163626857939578 0.366666666666666
-0.413430153123352 0.000748177857792808 0.366666666666667
-0.403899973925577 0.00215086853113204 0.366666666666667
-0.398964837986022 0.0166248874258358 0.366666666666666
-0.389444232757771 0.0217875840251403 0.366666666666666
-0.384692692071268 0.0306409928440674 0.366666666666666
-0.383592890663542 0.0381939041550769 0.366666666666667
-0.381905471174769 0.040541298758705 0.366666666666666
-0.369579340692774 0.0437074419463645 0.366666666666666
-0.360138708181994 0.0600058410038143 0.366666666666666
-0.354399307190499 0.0649621014898861 0.366666666666666
-0.353584010611481 0.0686156030814145 0.366666666666666
-0.346579445599468 0.0811360142573418 0.366666666666666
-0.338975165716274 0.0841633786220934 0.366666666666666
-0.325163832654779 0.0946446027635093 0.366666666666667
-0.323994065480778 0.0980361814838778 0.366666666666666
-0.323942573162519 0.102356653393065 0.366666666666666
-0.310466534054692 0.114981319700683 0.366666666666666
-0.307580101412659 0.127080141474514 0.366666666666666
-0.305686380518831 0.130943740226434 0.366666666666666
-0.288996665953577 0.139858127492985 0.366666666666667
-0.284254644516836 0.154366546633226 0.366666666666666
-0.281797177052635 0.162083716862713 0.366666666666667
-0.272119101548608 0.15998845403162 0.366666666666666
-0.264844896146483 0.179198008212386 0.366666666666666
-0.258175128804196 0.189432875561879 0.366666666666666
-0.255329631813517 0.187729756767799 0.366666666666666
-0.239220123505362 0.199677712940951 0.366666666666666
-0.243972344490366 0.204932389948936 0.366666666666666
-0.224626480799257 0.222192398812125 0.366666666666666
-0.217678906137731 0.2297205676601 0.366666666666667
-0.210577881030261 0.235435645716709 0.366666666666667
-0.208420342870569 0.247265831660575 0.366666666666666
-0.47068413566666 -0.062566128817953 0.366666666666666
-0.463633277046714 -0.0536774380576664 0.366666666666666
-0.45792323960482 -0.048189017321474 0.366666666666666
-0.449575593190992 -0.0338120074378318 0.366666666666666
-0.448503689247217 -0.0299264247945539 0.366666666666666
-0.439193454944002 -0.0238771720883911 0.366666666666666
-0.432077328135869 -0.0154995999286397 0.366666666666666
-0.427057683500853 -0.0162312336146207 0.366666666666666
-0.427850764702135 -0.00885140943329978 0.366666666666666
-0.413490261866859 0.0083829190962083 0.366666666666666
-0.415376863789041 0.00408783866213056 0.366666666666666
-0.408035524110306 0.0186534787653464 0.366666666666666
-0.401736054940585 0.0216977821637203 0.366666666666667
-0.394315295027491 0.0299351130563589 0.366666666666666
-0.385969710182561 0.0382036325911415 0.366666666666666
-0.386580374296961 0.0444350608777489 0.366666666666666
-0.38012637185836 0.0555870320948262 0.366666666666666
-0.369181084821764 0.0610388844434492 0.366666666666666
-0.366817027052362 0.069374832101164 0.366666666666666
-0.360904474793466 0.082649622508628 0.366666666666666
-0.352944496479529 0.0807760415148853 0.366666666666667
-0.342719944794006 0.0915458490058524 0.366666666666666
-0.336229660159248 0.104406576230804 0.366666666666666
-0.33620156696603 0.108435865919682 0.366666666666666
-0.327536679917901 0.11348621477501 0.366666666666666
-0.322445460292511 0.120747768280269 0.366666666666666
-0.311647501263332 0.135875013048633 0.366666666666666
-0.308939064417751 0.143722107017852 0.366666666666666
-0.301445523242882 0.156465476741219 0.366666666666666
-0.29131984406215 0.162632632694987 0.366666666666666
-0.289223066171445 0.167468393606896 0.366666666666666
-0.274879016447961 0.179064707717397 0.366666666666666
-0.276742134442323 0.180514948041909 0.366666666666666
-0.27111076447391 0.192804295086937 0.366666666666666
-0.255752437457628 0.200725239162562 0.366666666666666
-0.248777073541601 0.207536280225415 0.366666666666666
-0.240029264189286 0.223617418816254 0.366666666666666
-0.237604788750264 0.227768500682425 0.366666666666666
-0.22682547754531 0.234115088594052 0.366666666666666
-0.222802666365304 0.242847750049279 0.366666666666667
-0.47987423449835 -0.0570502048262479 0.366666666666666
-0.469418049034707 -0.0439960641779915 0.366666666666666
-0.463219722585272 -0.0395045959322285 0.366666666666666
-0.460655849305639 -0.0401310279639077 0.366666666666666
-0.455031678830136 -0.0256339578902452 0.366666666666666
-0.452342752535732 -0.024630700106319 0.366666666666666
-0.445899278335749 -0.0110826119825134 0.366666666666666
-0.434886853277341 -0.012457790603784 0.366666666666666
-0.424236116844274 0.00141619226702686 0.366666666666666
-0.426430076105582 0.0134063486603956 0.366666666666666
-0.418451287165058 0.0148589732732339 0.366666666666666
-0.409280448558426 0.0236631529952226 0.366666666666667
-0.409315583677025 0.0253407069135363 0.366666666666666
-0.401371908396126 0.0348533438655357 0.366666666666666
-0.393847783287092 0.0492695343038739 0.366666666666666
-0.389179810517587 0.0511774098273112 0.366666666666666
-0.38330309309144 0.0601782186857288 0.366666666666666
-0.381709578761972 0.0695455209747011 0.366666666666666
-0.367798530993003 0.0792874250723532 0.366666666666667
-0.363305453004503 0.086579289882696 0.366666666666666
-0.3585123328624 0.0936446916650625 0.366666666666666
-0.355533947270167 0.106463520849891 0.366666666666666
-0.343171913161449 0.112377871345739 0.366666666666666
-0.334642149601977 0.122737439221815 0.366666666666666
-0.334709102528393 0.123289685244458 0.366666666666666
-0.324236323979175 0.132009922539242 0.366666666666666
-0.321804388389621 0.142666575374277 0.366666666666666
-0.316189426449789 0.14153522799253 0.366666666666666
-0.306245241006534 0.159710836789802 0.366666666666667
-0.295920465219859 0.167095954295916 0.366666666666666
-0.297593492693067 0.170053522660737 0.366666666666667
-0.284668563769166 0.181826827987033 0.366666666666666
-0.277848054713479 0.192678482766503 0.366666666666666
-0.275224486954323 0.191176234099364 0.366666666666666
-0.271109010782351 0.207482419469178 0.366666666666666
-0.263645421286932 0.22109882406747 0.366666666666666
-0.249042184543265 0.228783926615853 0.366666666666666
-0.240341029865954 0.234337182817845 0.366666666666666
-0.240422793407857 0.245287296840388 0.366666666666666
-0.237222928882657 0.248685247723736 0.366666666666666
-0.479140058335778 -0.0453794792084098 0.366666666666666
-0.47353813925257 -0.0424806004575085 0.366666666666666
-0.471583216740152 -0.0353482670878177 0.366666666666666
-0.466555251125132 -0.0267811658810397 0.366666666666666
-0.459077880134072 -0.0234045534643819 0.366666666666666
-0.456610713097425 -0.00788484365916782 0.366666666666666
-0.451893176125069 -0.0131905539455774 0.366666666666666
-0.444503222846585 -0.00024021767143185 0.366666666666666
-0.438660216128855 0.00950594699517808 0.366666666666666
-0.43508085807056 0.0169717361320237 0.366666666666666
-0.430119499470585 0.0192015578332815 0.366666666666667
-0.416509086853984 0.0355139143706282 0.366666666666666
-0.416013930771694 0.03697735675742 0.366666666666666
-0.410685407298869 0.0438017127201095 0.366666666666666
-0.406091677851041 0.0509484978695317 0.366666666666666
-0.391522624933145 0.0568537803532733 0.366666666666666
-0.396589146126115 0.0601443840456924 0.366666666666667
-0.384898426128867 0.0713552241672534 0.366666666666666
-0.377910736958353 0.0830722484308368 0.366666666666667
-0.376670177790078 0.0871317608229819 0.366666666666667
-0.367069817096556 0.0995150018368446 0.366666666666666
-0.360400794309378 0.106343330593766 0.366666666666666
-0.349813487127864 0.115383473490117 0.366666666666666
-0.346224555062448 0.118878774220946 0.366666666666666
-0.33838233328173 0.132681739112701 0.366666666666667
-0.330892426091975 0.143589454412986 0.366666666666666
-0.325592828337826 0.150569303358304 0.366666666666666
-0.320641404855985 0.157544207672211 0.366666666666666
-0.308967256875322 0.165660792340272 0.366666666666666
-0.310496701840861 0.1698223783477 0.366666666666667
-0.302704432209943 0.180480124077057 0.366666666666666
-0.289435322961485 0.188341920382352 0.366666666666667
-0.286316612835676 0.191325195929211 0.366666666666666
-0.28268130978523 0.20023336961091 0.366666666666666
-0.267916463838109 0.211049365116433 0.366666666666666
-0.26325974791785 0.222893504313102 0.366666666666666
-0.26016312184946 0.227906101930782 0.366666666666666
-0.255719660722865 0.236615946995796 0.366666666666666
-0.249620419802822 0.243727601145142 0.366666666666666
-0.48986546698064 -0.0450755255323328 0.366666666666667
-0.486717107298 -0.0345460997294015 0.366666666666666
-0.47411901424572 -0.0341478294676927 0.366666666666666
-0.47285067134102 -0.0218542329482826 0.366666666666666
-0.465754355226811 -0.0175564599897462 0.366666666666666
-0.456994445820676 -0.00673001488399178 0.366666666666666
-0.456774949720487 -0.00305860100004391 0.366666666666666
-0.451853529936068 0.00499327526211699 0.366666666666666
-0.441407822032673 0.0200958857792318 0.366666666666666
-0.438371178634021 0.0161730655827674 0.366666666666666
-0.433022655467987 0.033525185069083 0.366666666666666
-0.424515516627503 0.031788052114217 0.366666666666666
-0.419637801346565 0.042158562342866 0.366666666666666
-0.418070434655761 0.0483393337023437 0.366666666666666
-0.409541965344522 0.0587903054398983 0.366666666666667
-0.406143899070515 0.0701800573533656 0.366666666666666
-0.396589456132126 0.0705631719295404 0.366666666666667
-0.386951638587534 0.0816159877457387 0.366666666666666
-0.387014057010016 0.0890898346724529 0.366666666666666
-0.383826417582975 0.0918816511918916 0.366666666666666
-0.375039654264221 0.104652540096813 0.366666666666666
-0.368871397872343 0.11425032497928 0.366666666666666
-0.351990882889105 0.12703311081699 0.366666666666666
-0.357187313320002 0.125168013424516 0.366666666666666
-0.343550943822232 0.138159520559644 0.366666666666666
-0.341319627635495 0.14839308036404 0.366666666666666
-0.335913028140782 0.150127939611359 0.366666666666666
-0.327447386562334 0.166075891188582 0.366666666666666
-0.319831375217061 0.167613436601043 0.366666666666666
-0.316204785127769 0.176993028124305 0.366666666666666
-0.30956744103779 0.190366739891732 0.366666666666666
-0.307715717338615 0.191514998293597 0.366666666666666
-0.293075508034301 0.212998894030731 0.366666666666666
-0.285272993858162 0.211927714603267 0.366666666666666
-0.276824442516004 0.216522699769798 0.366666666666666
-0.269078914759145 0.228183499470989 0.366666666666666
-0.261433232799949 0.23918908392499 0.366666666666666
-0.49152705980907 -0.0395041017927128 0.366666666666666
-0.49103954676989 -0.0305512832609435 0.366666666666666
-0.489122722415629 -0.0220497803876758 0.366666666666667
-0.481811189502784 -0.0184127504962266 0.366666666666666
-0.467878438340746 -0.00831538875235489 0.366666666666667
-0.46617652055984 -0.00463892405944519 0.366666666666666
-0.460451383601924 0.00804167880468636 0.366666666666667
-0.456935021104062 0.0145171690983193 0.366666666666666
-0.45251227191122 0.0180865591152888 0.366666666666666
-0.44208449274058 0.0244066482473263 0.366666666666666
-0.435701479069063 0.0351712039736728 0.366666666666667
-0.429911870949961 0.0404756162130242 0.366666666666666
-0.42453093593013 0.050061734336367 0.366666666666666
-0.424208493981327 0.0578530800051228 0.366666666666666
-0.412162303869151 0.0628499771288743 0.366666666666667
-0.404265766274513 0.0715210151743291 0.366666666666666
-0.400188864872584 0.0815809585072766 0.366666666666667
-0.397538629108258 0.0946962472938952 0.366666666666666
-0.390761210017757 0.0930805576166489 0.366666666666666
-0.386370382605711 0.100996242053962 0.366666666666666
-0.379639287334596 0.11502197015301 0.366666666666666
-0.376450708696514 0.1183759315035 0.366666666666666
-0.368985498681112 0.129991685009317 0.366666666666666
-0.363111617589314 0.129453012572042 0.366666666666666
-0.357626232572475 0.140775509517432 0.366666666666666
-0.35284880130929 0.145595516804074 0.366666666666666
-0.343095895567035 0.158793285763871 0.366666666666666
-0.336382523740641 0.161613641890467 0.366666666666666
-0.327858255318143 0.17770771391333 0.366666666666666
-0.326769134911401 0.184052412700374 0.366666666666667
-0.308978999477788 0.196301128049769 0.366666666666666
-0.311794748978739 0.199661551423265 0.366666666666667
-0.301307602186543 0.204041771790126 0.366666666666666
-0.293577955231885 0.219979537411018 0.366666666666666
-0.289225137228607 0.230369253218917 0.366666666666666
-0.278244760835913 0.232325541965651 0.366666666666666
-0.271773929545107 0.239545720952197 0.366666666666666
-0.494765453915852 -0.029995044533574 0.366666666666666
-0.493664782324378 -0.0239249045659612 0.366666666666666
-0.48688615087812 -0.0142772052306528 0.366666666666666
-0.480784914888241 -0.01205038701083 0.366666666666666
-0.473435526421127 -0.00127305836003798 0.366666666666666
-0.471298867967127 0.00663329145057311 0.366666666666667
-0.466659872955982 0.0130244793097633 0.366666666666666
-0.459910459046219 0.0165125398770692 0.366666666666667
-0.452626491072693 0.0340768412792105 0.366666666666666
-0.451087805296625 0.037056078648845 0.366666666666666
-0.443971424162889 0.044716961646642 0.366666666666666
-0.437872907409262 0.046577669151575 0.366666666666666
-0.432601308603185 0.0568384711101352 0.366666666666666
-0.427749595183621 0.0667887151023324 0.366666666666667
-0.420332059583718 0.0685990056311437 0.366666666666666
-0.417399247330814 0.0805358599919441 0.366666666666666
-0.405517722850097 0.0903030703014391 0.366666666666666
-0.403236184366766 0.0918410038282707 0.366666666666666
-0.393636116582757 0.105472266338133 0.366666666666666
-0.392761603855307 0.1129133158028 0.366666666666666
-0.381998552446256 0.121811601653265 0.366666666666666
-0.371740483771372 0.125853223315851 0.366666666666666
-0.372599677934972 0.135169821240718 0.366666666666666
-0.368958096883169 0.136597495162098 0.366666666666666
-0.361797435604656 0.15020876769793 0.366666666666666
-0.35064253784901 0.159796007836472 0.366666666666667
-0.344639395931428 0.164148023346478 0.366666666666666
-0.346653319456299 0.169369055236573 0.366666666666666
-0.337333490471761 0.182843827351299 0.366666666666666
-0.325534424031431 0.198061351131949 0.366666666666666
-0.317909588967702 0.204892657296684 0.366666666666666
-0.318118843933164 0.205466424449909 0.366666666666666
-0.310724801356959 0.214949299316342 0.366666666666666
-0.297306970069236 0.232684621311459 0.366666666666666
-0.292327572119793 0.237935067975033 0.366666666666666
-0.283940232340008 0.247746122600503 0.366666666666666
-0.282334440754687 0.244839938279804 0.366666666666666
-0.5 -0.0145285296835555 0.350085295652242
-0.5 -0.0164432605140106 0.36540349332259
-0.497852999386897 -0.00406005608436195 0.366666666666666
-0.48793142949579 -0.00571430870445199 0.366666666666667
-0.486530127245694 0.000815703041123433 0.366666666666666
-0.483525781538446 0.0109910074525389 0.366666666666667
-0.473323554960233 0.0120633490140203 0.366666666666666
-0.470507692880667 0.0236972897235544 0.366666666666666
-0.468656991045058 0.032349004539411 0.366666666666666
-0.458383287979376 0.0382186172561054 0.366666666666666
-0.451833189471365 0.0492947367266408 0.366666666666667
-0.444734345471698 0.0570220565868441 0.366666666666666
-0.439582093666506 0.0696867536442039 0.366666666666666
-0.42724202527954 0.076040682908938 0.366666666666667
-0.432277653146137 0.0779680634658111 0.366666666666666
-0.421075556781448 0.085338574641008 0.366666666666666
-0.416698895943133 0.0886737067547176 0.366666666666666
-0.405961200512708 0.100259081508345 0.366666666666667
-0.401783441622007 0.106621145402302 0.366666666666666
-0.396551428225331 0.117690244004289 0.366666666666666
-0.398256643431607 0.124042457494451 0.366666666666666
-0.390758946062622 0.13107922884823 0.366666666666666
-0.385152671950193 0.134818084424124 0.366666666666666
-0.370216859865524 0.155647540141742 0.366666666666667
-0.362721951690602 0.154445341900249 0.366666666666666
-0.356412757297286 0.167179590911758 0.366666666666666
-0.359195983503849 0.174935789237267 0.366666666666666
-0.346542766368166 0.182213450002353 0.366666666666667
-0.346371164059129 0.183405325663231 0.366666666666666
-0.334470903542509 0.201558818950819 0.366666666666666
-0.327115920186725 0.21097413027866 0.366666666666666
-0.320869943417647 0.218212608353021 0.366666666666667
-0.31437551298185 0.225400542942244 0.366666666666666
-0.303516086359488 0.238063552019435 0.366666666666667
-0.297369501211592 0.243954665502625 0.366666666666667
-0.29439517867958 0.246368851842652 0.366666666666666
-0.5 0.00284806798374454 0.339237544180064
-0.5 0.000665283092278338 0.355756154014572
-0.5 0.00526098156589061 0.357360890171181
-0.490484179424586 0.00909716650532311 0.366666666666666
-0.487423887304188 0.0102093329145758 0.366666666666666
-0.483913521007035 0.0225894607701421 0.366666666666666
-0.474617484595812 0.0247337035543017 0.366666666666666
-0.476711219105854 0.0281976277272464 0.366666666666666
-0.467082785268372 0.0393550545752633 0.366666666666666
-0.458947868319559 0.0517328670258435 0.366666666666666
-0.452655404020438 0.0575216183991733 0.366666666666666
-0.449240577903677 0.0651303604550347 0.366666666666666
-0.444900847518626 0.0678351451482348 0.366666666666666
-0.439079889255571 0.0813203276851342 0.366666666666667
-0.430872357322248 0.0840013483330052 0.366666666666666
-0.427280032601208 0.0928476695713075 0.366666666666666
-0.429072475211872 0.0981889991480249 0.366666666666666
-0.412221430241729 0.113702276454384 0.366666666666666
-0.41042926112755 0.112571598036891 0.366666666666666
-0.41015660005661 0.120968525149284 0.366666666666666
-0.395486436260741 0.131950873257776 0.366666666666666
-0.392745164775065 0.141549623537258 0.366666666666666
-0.388891967582153 0.13969580440325 0.366666666666667
-0.373859387434405 0.158904544584623 0.366666666666666
-0.380641272459447 0.164300085327292 0.366666666666666
-0.369748332146905 0.167489706593547 0.366666666666666
-0.359604665182659 0.181537195501678 0.366666666666666
-0.359851191784385 0.190623054281522 0.366666666666666
-0.350587860306791 0.20180911614012 0.366666666666666
-0.344297806921869 0.205859101803644 0.366666666666666
-0.336382292980421 0.216208384988675 0.366666666666666
-0.32780319707151 0.22855520815554 0.366666666666666
-0.325983551553537 0.229027873125237 0.366666666666666
-0.315193196095442 0.243860173578854 0.366666666666667
-0.5 0.0115239721218272 0.336934826246069
-0.5 0.0192077335087359 0.337190419136183
-0.5 0.0143886183646782 0.34566840787959
-0.5 0.0128794879630103 0.361417430388654
-0.498850770495861 0.0231357514240117 0.366666666666667
-0.495364433847166 0.0263521309769682 0.366666666666666
-0.483900561048648 0.0314323783247821 0.366666666666666
-0.477213200655457 0.0343567950812198 0.366666666666666
-0.473785960824088 0.0518108847537423 0.366666666666666
-0.476039598439658 0.048130105825931 0.366666666666667
-0.464161787476924 0.0633887923402366 0.366666666666666
-0.460467486497761 0.0616145419053505 0.366666666666666
-0.451978855948169 0.0743643270439585 0.366666666666666
-0.443049849794638 0.0856420763210012 0.366666666666666
-0.441417783884691 0.0863055133758168 0.366666666666666
-0.437893709690391 0.0955957169208117 0.366666666666666
-0.431552462032268 0.11049154449012 0.366666666666666
-0.423030236712574 0.112021142187099 0.366666666666666
-0.418414795740099 0.124641176607496 0.366666666666666
-0.415431430907972 0.1254011422878 0.366666666666666
-0.399104649774876 0.138340977844903 0.366666666666666
-0.401563750227357 0.144289162541712 0.366666666666666
-0.393586654156048 0.157512784673344 0.366666666666666
-0.384328840117135 0.169029131403058 0.366666666666666
-0.384042503898776 0.1657370445964 0.366666666666666
-0.376960569517664 0.180235941148615 0.366666666666666
-0.362777183027904 0.186260864523494 0.366666666666666
-0.36441676598465 0.193843217710854 0.366666666666666
-0.35769565819464 0.207570899059616 0.366666666666666
-0.34962073234441 0.217407468554622 0.366666666666666
-0.344010564600087 0.223583274018273 0.366666666666666
-0.332942949280843 0.228526540371124 0.366666666666666
-0.334257346218287 0.234421386189182 0.366666666666666
-0.5 0.0260538390583362 0.325293398354829
-0.5 0.0290219362662204 0.331019576891858
-0.5 0.0263220582105967 0.345696097086887
-0.5 0.0323713345698138 0.35056318625718
-0.5 0.0279413565295552 0.359428109052262
-0.498958122731848 0.0299815001640114 0.366666666666666
-0.490045651953324 0.0383839558881798 0.366666666666666
-0.48759199210479 0.0498490636660625 0.366666666666667
-0.479439719538143 0.0483598636250476 0.366666666666666
-0.474742315957917 0.0619384147781717 0.366666666666666
-0.47188518185075 0.0656325724673259 0.366666666666666
-0.460341307882131 0.0749975435164271 0.366666666666666
-0.461589426774639 0.087140653161241 0.366666666666667
-0.453180628500422 0.0903551931883054 0.366666666666666
-0.443634309150352 0.099940470703831 0.366666666666666
-0.439086342311239 0.107994094714485 0.366666666666666
-0.437968987499503 0.109548258386499 0.366666666666666
-0.434041970749955 0.123479324548735 0.366666666666666
-0.421366569070268 0.122973545271879 0.366666666666666
-0.415177356576251 0.141709704827979 0.366666666666666
-0.408904981173224 0.142095893915533 0.366666666666666
-0.412444295818508 0.14768014661804 0.366666666666666
-0.396246274167512 0.16172650161072 0.366666666666666
-0.393768102193499 0.175478882565345 0.366666666666666
-0.386369624166251 0.183045445325688 0.366666666666666
-0.379402793891729 0.181908099288385 0.366666666666666
-0.36905677824938 0.194668310415635 0.366666666666667
-0.368385346688636 0.206163316675274 0.366666666666666
-0.366232229371989 0.20874257665272 0.366666666666666
-0.35831379998789 0.223118065729056 0.366666666666666
-0.349228692313248 0.230445364532872 0.366666666666666
-0.344905655730718 0.231594206063492 0.366666666666666
-0.334416933648371 0.240362541464175 0.366666666666667
-0.5 0.0378924600471753 0.329776067783916
-0.5 0.0396614890649558 0.32800008531585
-0.5 0.035025180990952 0.347169716054579
-0.5 0.0420379823803733 0.34604368879203
-0.5 0.0455828128799899 0.351996021517475
-0.497919038136334 0.0405312292259676 0.366666666666666
-0.493388913906984 0.0491443167108149 0.366666666666666
-0.492240356340801 0.0539668902299627 0.366666666666666
-0.484403965428926 0.0605532195007743 0.366666666666666
-0.481883646413792 0.0676408040388519 0.366666666666666
-0.477117599965615 0.0737895777323453 0.366666666666667
-0.464298178722149 0.093377428063594 0.366666666666666
-0.459798081831844 0.0970628728833644 0.366666666666666
-0.4541396545201 0.103338839305162 0.366666666666666
-0.44941588641505 0.104780817939337 0.366666666666666
-0.443879148775459 0.120787487851761 0.366666666666667
-0.433287285149341 0.132086266785097 0.366666666666666
-0.428824359725025 0.139097780182784 0.366666666666666
-0.42274934362985 0.142172914507202 0.366666666666666
-0.423943831011489 0.14444591248711 0.366666666666666
-0.411088291916981 0.159402577250045 0.366666666666667
-0.403528315012636 0.170020896310273 0.366666666666666
-0.403995406754103 0.174265588556795 0.366666666666667
-0.394429147165375 0.185236474329944 0.366666666666666
-0.383228247331275 0.19845688754725 0.366666666666666
-0.378459568288669 0.195159563896722 0.366666666666666
-0.373307414717574 0.209646618024842 0.366666666666666
-0.365147366002685 0.216585907895842 0.366666666666666
-0.364656899056193 0.224143407067905 0.366666666666666
-0.352363160949527 0.241558440292219 0.366666666666666
-0.346466472248351 0.239278688370139 0.366666666666666
-0.5 0.0569184845024588 0.319023901218078
-0.5 0.0556083494902451 0.325885606559141
-0.5 0.0550694505507781 0.339894524791164
-0.5 0.0540936115489715 0.346176262624905
-0.5 0.0599023823884794 0.348783775682545
-0.5 0.0550918102395591 0.355840543268258
-0.496472504648856 0.0606880659530325 0.366666666666666
-0.491923395734465 0.0610470554103676 0.366666666666666
-0.492205917727783 0.0738112130780842 0.366666666666666
-0.487398466062464 0.0763903307361707 0.366666666666667
-0.475164067487389 0.0844868079813509 0.366666666666667
-0.475530778010747 0.0908031839368239 0.366666666666667
-0.462176680653778 0.0997014637886794 0.366666666666666
-0.460112806394562 0.106879156040674 0.366666666666666
-0.454508200322875 0.115159025219446 0.366666666666666
-0.446505735693733 0.12397297458583 0.366666666666666
-0.440580118250099 0.129445243518283 0.366666666666666
-0.442031579161718 0.140984538871425 0.366666666666666
-0.434916587999984 0.150721751312105 0.366666666666666
-0.42606056213275 0.155304599834973 0.366666666666667
-0.422791183556304 0.166135270094059 0.366666666666666
-0.407901356886876 0.174680052012142 0.366666666666666
-0.399998184883805 0.191205328315329 0.366666666666666
-0.401452715478517 0.185467137033608 0.366666666666666
-0.389666063028778 0.207781187751432 0.366666666666666
-0.39396364448339 0.201459819202531 0.366666666666667
-0.386467731373396 0.213364487577962 0.366666666666666
-0.367145549756137 0.227754581789111 0.366666666666666
-0.366552399186571 0.228203634680926 0.366666666666666
-0.358465035505258 0.243557122449239 0.366666666666666
-0.5 0.0719326434070369 0.327864516180283
-0.5 0.0689486192295221 0.336054847190703
-0.5 0.0766596447150757 0.346076878389093
-0.5 0.0744297363397107 0.355157729244532
-0.495685465988814 0.0709165121647051 0.366666666666667
-0.5 0.0792665260783716 0.366679548068593
-0.488522561014965 0.0884260114478403 0.366666666666666
-0.488942638411383 0.0943230646210394 0.366666666666666
-0.477599168616746 0.101842117941643 0.366666666666666
-0.469597594655377 0.115897705389471 0.366666666666666
-0.465965634385924 0.112850879790032 0.366666666666666
-0.466291368160059 0.125388840063772 0.366666666666666
-0.456681718194225 0.132782315717582 0.366666666666666
-0.446439383381654 0.137628609092664 0.366666666666666
-0.444442735563144 0.147027466894687 0.366666666666666
-0.436569674772574 0.152329231722451 0.366666666666667
-0.427999069212378 0.16640247285827 0.366666666666666
-0.428533177365006 0.176464797691271 0.366666666666666
-0.422841008645945 0.184046558244964 0.366666666666666
-0.407818469311437 0.193086421160631 0.366666666666666
-0.402144410157799 0.19727338576388 0.366666666666666
-0.399004109885757 0.204874906608393 0.366666666666666
-0.399721965162084 0.216806465667642 0.366666666666666
-0.384540845863148 0.226628916293732 0.366666666666666
-0.375209982558907 0.233772127590146 0.366666666666666
-0.37167886108853 0.247416424358528 0.366666666666666
-0.37440631840348 0.245809232095135 0.366666666666666
-0.5 0.0931494121054824 0.317202890904981
-0.5 0.0890247952218169 0.330846786239791
-0.5 0.0841392045664584 0.340312086825799
-0.5 0.0921996831602155 0.33830013990211
-0.5 0.0863970888007759 0.35448021515258
-0.5 0.0940870375386579 0.362341861610366
-0.490969011049262 0.0937910778617042 0.366666666666666
-0.489045553798177 0.107059578309754 0.366666666666666
-0.484247066895997 0.106949615760756 0.366666666666666
-0.481361214024105 0.120693377307017 0.366666666666666
-0.469840680626709 0.123372371729234 0.366666666666666
-0.467330904230555 0.128102070047563 0.366666666666666
-0.465823510182052 0.139372333432344 0.366666666666666
-0.456411672556554 0.146593762960874 0.366666666666666
-0.443641213498545 0.156233096524802 0.366666666666666
-0.443074810959739 0.167547790047893 0.366666666666666
-0.442748965014598 0.167838174478228 0.366666666666666
-0.434754457046593 0.179907338378805 0.366666666666666
-0.423502444660968 0.185011733768643 0.366666666666666
-0.415306678714703 0.20063869170085 0.366666666666666
-0.412659516431978 0.208416553807185 0.366666666666666
-0.411304542330887 0.210160139848713 0.366666666666666
-0.405787233374817 0.221987807287922 0.366666666666666
-0.396021299066109 0.228631119588909 0.366666666666667
-0.38777634643069 0.236592401554941 0.366666666666666
-0.386578174596561 0.247664313586045 0.366666666666667
-0.5 0.0988903238181419 0.322313128912682
-0.5 0.103144387306564 0.328491304334015
-0.5 0.0955324733685182 0.346217232808567
-0.5 0.103088873227074 0.349420081494501
-0.5 0.105217336874646 0.344756700775165
-0.499524814666508 0.0993226470322219 0.366666666666667
-0.493740600448044 0.105691314740339 0.366666666666666
-0.493335047847299 0.117931700614511 0.366666666666666
-0.484853137319685 0.126606575157301 0.366666666666666
-0.479036006703049 0.131060229017156 0.366666666666666
-0.478328999724504 0.134275080917929 0.366666666666666
-0.464830018226232 0.146867482633246 0.366666666666666
-0.460691920656375 0.156209192674149 0.366666666666666
-0.452816174471766 0.167701999269085 0.366666666666666
-0.449602991652211 0.174601231144495 0.366666666666666
-0.447186422997624 0.183517136190857 0.366666666666666
-0.438979853228787 0.184309694243808 0.366666666666666
-0.435001843041852 0.19082953781361 0.366666666666666
-0.42166097364694 0.207647338050961 0.366666666666666
-0.419852559892897 0.216569332007432 0.366666666666666
-0.411847889445258 0.222671951902399 0.366666666666666
-0.414458144618606 0.225177102743978 0.366666666666666
-0.402619570835056 0.241507097330676 0.366666666666666
-0.398540618712561 0.24754565807631 0.366666666666666
-0.5 0.115665982376347 0.320413346620842
-0.5 0.11565132418974 0.327932220625448
-0.5 0.114853557343321 0.333764120743548
-0.5 0.121357312148274 0.34388753359302
-0.5 0.107420866078952 0.357903886771622
-0.5 0.11452069892534 0.36386944340937
-0.49271476057246 0.119534531129091 0.366666666666666
-0.49436294451728 0.129335057814767 0.366666666666666
-0.489476778403757 0.13235479729168 0.366666666666666
-0.479035696055413 0.146584803157334 0.366666666666667
-0.476551253053298 0.151668420264129 0.366666666666666
-0.466934177563978 0.163720531927512 0.366666666666666
-0.46789447050385 0.163124446825436 0.366666666666667
-0.456675561089229 0.171748830307771 0.366666666666666
-0.449551642754239 0.186377559438077 0.366666666666666
-0.448329572315395 0.190789971855623 0.366666666666666
-0.44060312914526 0.195449372625451 0.366666666666666
-0.433128476712213 0.211273628858858 0.366666666666666
-0.431249161982495 0.212776154803702 0.366666666666666
-0.421354426706207 0.228457837585738 0.366666666666666
-0.411279790689324 0.234246541921665 0.366666666666666
-0.407544254517735 0.240345292037446 0.366666666666666
-0.403325831544903 0.245684391695546 0.366666666666666
-0.453678028907398 0.2 0.163326503705584
-0.45 0.2 0.184375944824676
-0.452244804310367 0.2 0.192901576942808
-0.456270961324074 0.2 0.201458705459013
-0.452172563945892 0.2 0.21085748638031
-0.451745727222649 0.2 0.218873857211688
-0.5 0.12688130452031 0.317402171310488
-0.5 0.126839455179238 0.333807274467626
-0.5 0.126546676026609 0.334589778317601
-0.5 0.135499608844391 0.338150203588043
-0.5 0.136240820173686 0.35028719474478
-0.5 0.132661834790471 0.362070261197919
-0.49707292554851 0.134315928292638 0.366666666666667
-0.497434537254619 0.142049852174484 0.366666666666666
-0.482389445977633 0.152963786536366 0.366666666666666
-0.481411569107045 0.155761428630059 0.366666666666666
-0.474591085776561 0.159162346916959 0.366666666666666
-0.474132709047814 0.174192238200649 0.366666666666666
-0.468210247305801 0.183100307834244 0.366666666666666
-0.45656223565242 0.186016430503753 0.366666666666666
-0.452709969634817 0.197213592847334 0.366666666666667
-0.446248105179325 0.207037713783944 0.366666666666666
-0.43676925976191 0.217442870460997 0.366666666666666
-0.438305027410957 0.22428266255582 0.366666666666667
-0.429300927655 0.234823766219849 0.366666666666667
-0.42218705242684 0.242178027481067 0.366666666666666
-0.462365289672968 0.199999999999999 0.177238849044505
-0.460808298305438 0.2 0.182195093263482
-0.456391456379162 0.2 0.194856347051411
-0.461207383241298 0.2 0.211433270178732
-0.464750061782405 0.2 0.205288228051287
-0.468120165787318 0.2 0.225318204472588
-0.461783429601603 0.2 0.237400057083248
-0.464476100167323 0.2 0.242180988765041
-0.46858759814024 0.2 0.253887342681935
-0.5 0.156517835418239 0.318602246385379
-0.5 0.151333803545662 0.331412321829953
-0.5 0.141911466195614 0.34682018503719
-0.5 0.146250162248525 0.350399354417483
-0.5 0.148923454700365 0.356913382109125
-0.499837155477499 0.151782236729059 0.366666666666666
-0.488633878063648 0.158571586949409 0.366666666666666
-0.487848281006603 0.161106607870552 0.366666666666667
-0.486610985809286 0.174251280591406 0.366666666666666
-0.482261361963896 0.177695748337786 0.366666666666666
-0.466192998404446 0.189027542902833 0.366666666666666
-0.465763419157362 0.20111318803969 0.366666666666666
-0.459088130090489 0.204236211956793 0.366666666666666
-0.452033834914444 0.217243472426734 0.366666666666666
-0.447559243415116 0.222063425747222 0.366666666666666
-0.445328479148085 0.235815859498867 0.366666666666666
-0.437030381627058 0.239401793911711 0.366666666666666
-0.424730221606831 0.248083241704613 0.366666666666666
-0.468666562362062 0.2 0.18184065968053
-0.476913681909078 0.2 0.198650870394025
-0.479452687583058 0.2 0.207254517281571
-0.473732876814458 0.2 0.208234089751684
-0.473018219390075 0.199999999999999 0.220111022390128
-0.467703651236789 0.2 0.22329072081562
-0.477772051016698 0.2 0.243237396278572
-0.468973043983868 0.2 0.249230364329868
-0.476992838309883 0.2 0.26145041594612
-0.481084183845062 0.2 0.268997624278649
-0.5 0.163723620184328 0.319770337010692
-0.5 0.160417272618498 0.338350200517817
-0.5 0.158394407094239 0.346211756790033
-0.5 0.161288421697181 0.344641027767232
-0.5 0.171191361581603 0.347042286807536
-0.496275505986623 0.162587774151782 0.366666666666666
-0.495158064965759 0.173623114471572 0.366666666666666
-0.488013457369917 0.174907280223273 0.366666666666666
-0.482017752828331 0.194631866602681 0.366666666666666
-0.480613345561068 0.193461347028804 0.366666666666666
-0.469392224044121 0.205987358158184 0.366666666666666
-0.464818679496874 0.21505851437914 0.366666666666666
-0.465502520560689 0.222558237966158 0.366666666666666
-0.459510729729254 0.224635792559781 0.366666666666666
-0.454358474394411 0.23273596365009 0.366666666666666
-0.437369466161666 0.249885449415361 0.366666666666667
-0.489201199136829 0.2 0.19531292693574
-0.488281970633672 0.2 0.210381134652116
-0.489281583849549 0.2 0.214917667649985
-0.486642533124879 0.2 0.219836893535265
-0.488394137737309 0.2 0.229564306381384
-0.485017732239392 0.2 0.246529713590838
-0.486039017287089 0.2 0.251699169291366
-0.488872689157682 0.2 0.260164500926434
-0.483105394648155 0.2 0.267354951692202
-0.483179120461313 0.2 0.279646361195735
-0.485172921873226 0.2 0.287793296582249
-0.489547841330592 0.199999999999999 0.29792683063823
-0.5 0.180876267299801 0.32570025358399
-0.5 0.188228312854283 0.328865203792995
-0.5 0.174602112274448 0.349599730793785
-0.5 0.179980988048787 0.355130716432189
-0.5 0.183021442812314 0.354158190300379
-0.497684800485591 0.18616128926317 0.366666666666666
-0.488262499436859 0.19441149530931 0.366666666666666
-0.485967889195746 0.202219357366069 0.366666666666667
-0.477040342635119 0.218797626448342 0.366666666666666
-0.473318598718107 0.223708173817656 0.366666666666666
-0.462583334936164 0.225428379478258 0.366666666666666
-0.461300322272922 0.237439351452098 0.366666666666666
-0.454201549746831 0.249447828276091 0.366666666666667
-0.495947964684195 0.2 0.194646151725128
-0.5 0.20640331815863 0.208307708064646
-0.5 0.201197493583678 0.218440884683149
-0.498474582833911 0.2 0.22906388898365
-0.5 0.200519565930515 0.234133390249232
-0.499522810085932 0.2 0.244065938361519
-0.499547733715818 0.2 0.260090916761678
-0.496168695641411 0.2 0.263017204448932
-0.5 0.204772671425744 0.278957019058153
-0.5 0.199992436607341 0.288098971103594
-0.498134734204366 0.2 0.294093164456825
-0.495405444852597 0.199999999999999 0.29883077481556
-0.5 0.192445129696435 0.316793911616668
-0.5 0.192447589817421 0.326518566547555
-0.5 0.193507190714479 0.343819465931071
-0.5 0.187418736521038 0.352889237376588
-0.5 0.20288108782185 0.344941707871186
-0.5 0.201739998735945 0.361204898689748
-0.498297750208327 0.20386173627543 0.366666666666666
-0.49371229108597 0.210777526273462 0.366666666666666
-0.481718367380069 0.218175770279351 0.366666666666666
-0.478428395962933 0.223947222183029 0.366666666666666
-0.469347785347672 0.240346186531133 0.366666666666667
-0.464843743439743 0.238472375873509 0.366666666666666
