ply
format ascii 1.0
element vertex 851
property float x
property float y
property float z
end_header
0.0656426706752558 -0.0693808448760566 0.366666666666666
0.0587337604757236 -0.0550582287794187 0.366666666666666
0.0466986121081818 -0.04901748581917 0.366666666666666
0.0422568286366058 -0.0407917130943693 0.366666666666666
0.0373153387664927 -0.0371288026705904 0.366666666666666
0.0371643229676653 -0.0280421235787616 0.366666666666667
0.0287830133827715 -0.0218496476179558 0.366666666666666
0.0171214556902491 -0.01286509306119 0.366666666666666
-0.00273284890523981 -0.00336546399731683 0.366666666666667
-0.00770196264295737 0.00395657906524718 0.366666666666666
-0.00990004014693994 0.0107579161686823 0.366666666666666
-0.0222249277851566 0.0226689591593473 0.366666666666667
-0.0257523357067 0.0216017557172168 0.366666666666666
-0.0372933837182119 0.038643592317336 0.366666666666666
-0.0436591924019821 0.0460881290296199 0.366666666666666
-0.0503173769441759 0.0558985502588314 0.366666666666666
-0.0519295509131495 0.0583662943537592 0.366666666666666
-0.0735141917884649 0.0750478179666718 0.366666666666666
-0.0705202435066163 0.0743397847659264 0.366666666666666
-0.085449702192994 0.0935784203140867 0.366666666666666
-0.0892374160296553 0.092325216872387 0.366666666666666
-0.104646310741714 0.0995820389057488 0.366666666666666
-0.109335573373923 0.11675935313111 0.366666666666666
-0.124794722433621 0.119456801289441 0.366666666666666
-0.130517221789447 0.132567263741057 0.366666666666666
-0.135263053906169 0.136393910555463 0.366666666666666
-0.146984993135196 0.15197113624938 0.366666666666666
-0.152591734721598 0.159930815264047 0.366666666666667
-0.172846549395879 0.177207981034431 0.366666666666667
-0.174357973039133 0.167462265251268 0.366666666666666
-0.194323827525464 0.190690499562736 0.366666666666666
-0.191072514115627 0.198562824586078 0.366666666666667
-0.20182319094263 0.201465616720058 0.366666666666666
-0.218898314090689 0.216159508997817 0.366666666666666
-0.22886201776856 0.220487265342709 0.366666666666666
-0.235836657650676 0.230885021331787 0.366666666666666
-0.251040715561955 0.242548085876881 0.366666666666667
0.239801787633129 -0.25 0.341566357582983
0.240957873903427 -0.249999999999999 0.352142980771863
0.243520357800513 -0.25 0.359354255941053
0.238230960223617 -0.249999999999999 0.362149590874202
0.237029609027755 -0.246714581511825 0.366666666666666
0.232211750750777 -0.237750752532444 0.366666666666666
0.217176460363409 -0.231594556021171 0.366666666666666
0.211541084724321 -0.225086064994596 0.366666666666666
0.208110499619386 -0.214565606489669 0.366666666666667
0.197240262325193 -0.212791440843382 0.366666666666666
0.193182079962073 -0.205403944263686 0.366666666666666
0.194634048766816 -0.200447703516959 0.366666666666666
0.180330630725391 -0.194395273812431 0.366666666666666
0.178231165537118 -0.188927658609408 0.366666666666666
0.162044350205619 -0.176363597581667 0.366666666666667
0.162345290660087 -0.176144334623387 0.366666666666666
0.157725029372337 -0.169514915689738 0.366666666666666
0.149615404969296 -0.163792988490477 0.366666666666666
0.140386413845883 -0.148902241819826 0.366666666666666
0.13172906228658 -0.1435346302488 0.366666666666666
0.123115565264866 -0.134873049545552 0.366666666666666
0.11855125925858 -0.134383116859366 0.366666666666666
0.110101851569247 -0.12301651012404 0.366666666666666
0.1095438194653 -0.115301560883304 0.366666666666666
0.0962886393828543 -0.115591411971062 0.366666666666666
0.0947951221303873 -0.107973790095413 0.366666666666666
0.0864355355919085 -0.0990836767575266 0.366666666666666
0.0737478413177145 -0.0855214010197735 0.366666666666666
0.0613863462779003 -0.0788516806501703 0.366666666666666
0.0666017861769053 -0.0742883729828539 0.366666666666667
0.057533192210239 -0.0677277100832049 0.366666666666666
0.0414361532251868 -0.0516413719728027 0.366666666666666
0.0331750299501983 -0.0465755045461762 0.366666666666666
0.0261801008399764 -0.0384911159793298 0.366666666666666
0.0234785372849425 -0.0393394245159739 0.366666666666667
0.0204864538307869 -0.0307394842551662 0.366666666666667
0.0101525507206303 -0.0173016621421012 0.366666666666666
-0.00938463107208595 -0.0138413929665783 0.366666666666666
-0.00320838629672846 -0.0114107424088658 0.366666666666666
-0.0200254498922976 -0.00179724519130163 0.366666666666666
-0.0216671431884905 0.0140274736245087 0.366666666666666
-0.0346277671919478 0.0256190410908885 0.366666666666667
-0.0404389409754593 0.0216514027549842 0.366666666666666
-0.0485618104838304 0.0359532045371538 0.366666666666666
-0.0582687089085767 0.0469390733888055 0.366666666666666
-0.0735073880311372 0.0498143790088045 0.366666666666666
-0.0807059909092479 0.061139260268468 0.366666666666666
-0.0796446014977868 0.0694274565128374 0.366666666666666
-0.0875771959925444 0.0794562168358989 0.366666666666666
-0.104753812050401 0.0878402147053324 0.366666666666666
-0.119445461310599 0.0942465695116488 0.366666666666666
-0.115887056568264 0.103882697233592 0.366666666666667
-0.121889170761637 0.112884489036622 0.366666666666666
-0.133011683463295 0.122160065253915 0.366666666666666
-0.150537504957301 0.134589961446605 0.366666666666666
-0.157368806953777 0.138461948981173 0.366666666666666
-0.1602535663011 0.149055667550901 0.366666666666666
-0.17092057003994 0.15342215836822 0.366666666666666
-0.181702295991143 0.170209716893437 0.366666666666667
-0.195476980742703 0.188592707604363 0.366666666666666
-0.206926045306639 0.193125693772774 0.366666666666666
-0.212605844179676 0.199317456512775 0.366666666666666
-0.226020096808125 0.214407146435618 0.366666666666666
-0.236764197210341 0.219668376348674 0.366666666666666
-0.245403012376265 0.22808651092514 0.366666666666666
-0.25405726345653 0.242315760160983 0.366666666666666
-0.262974858708998 0.247725748297442 0.366666666666667
0.219906666893988 -0.249999999999999 0.320524175228773
0.224558815386627 -0.249999999999999 0.333430006834254
0.224007378272112 -0.25 0.345693484995941
0.228873845611648 -0.249999999999999 0.358381311813309
0.223667226260058 -0.249177886213898 0.366666666666666
0.224474325433499 -0.249999999999999 0.365553708719379
0.215482713530189 -0.244157777819473 0.366666666666666
0.213631266112571 -0.238347223638482 0.366666666666666
0.195024909828118 -0.226016481953137 0.366666666666666
0.195076908121035 -0.217559855823932 0.366666666666666
0.188748197439102 -0.216579169764434 0.366666666666666
0.181857298655504 -0.209221048430331 0.366666666666666
0.175802602489212 -0.206688495043049 0.366666666666667
0.167291782043517 -0.187665978286497 0.366666666666666
0.154688027362005 -0.181346090098169 0.366666666666666
0.153069255182899 -0.182866096672807 0.366666666666667
0.142391398777742 -0.170792789215248 0.366666666666667
0.145005977754937 -0.164055938519966 0.366666666666666
0.139324320347017 -0.158765159940822 0.366666666666666
0.126973321795516 -0.151033182729722 0.366666666666666
0.121149773194971 -0.149905005307531 0.366666666666666
0.111844468002974 -0.138679163528958 0.366666666666666
0.106436523566364 -0.127852847248386 0.366666666666666
0.0953924483217679 -0.125706884632427 0.366666666666667
0.0897734799974113 -0.115507210564195 0.366666666666666
0.0770144591594548 -0.102581981377297 0.366666666666666
0.08027638590609 -0.101967822259336 0.366666666666666
0.0697633295809444 -0.0994373605780909 0.366666666666666
0.0665819990381029 -0.0855598786588852 0.366666666666666
0.0499643755677596 -0.0810225537930543 0.366666666666666
0.0384913620831541 -0.0739399601803737 0.366666666666666
0.0342809258816634 -0.0670877166601587 0.366666666666666
0.0314662485079244 -0.057229287998795 0.366666666666666
0.0242304718374597 -0.0520672010598733 0.366666666666666
0.0120156842340467 -0.0440440882798576 0.366666666666666
0.00248815134111325 -0.0330067761031464 0.366666666666666
-0.00296062597630849 -0.0255104472755345 0.366666666666666
-0.00955523058025601 -0.0210689910991067 0.366666666666666
-0.0189878896159415 -0.0155024695162545 0.366666666666666
-0.0244063866695426 -0.00727319416315481 0.366666666666666
-0.0352485213640244 0.00618199676502876 0.366666666666666
-0.0422916890916135 0.0138168096926766 0.366666666666667
-0.0523506389088484 0.0271403428781184 0.366666666666666
-0.0572193465965847 0.0292538607088347 0.366666666666666
-0.0639420428344631 0.0340188624989683 0.366666666666666
-0.0672368396343681 0.041870538697602 0.366666666666666
-0.0791900021454707 0.052432191949484 0.366666666666666
-0.0907809299045023 0.0685259158377947 0.366666666666666
-0.0952961496977705 0.0746715698824093 0.366666666666666
-0.107584951463278 0.0742467420229674 0.366666666666666
-0.116279490952416 0.083517848653414 0.366666666666666
-0.129971706478279 0.0973950631361169 0.366666666666666
-0.143627958377006 0.10903094711625 0.366666666666666
-0.146189210882686 0.125162254134662 0.366666666666666
-0.153128521103856 0.117548935384973 0.366666666666666
-0.170221550840927 0.139502861339089 0.366666666666666
-0.176059787637379 0.143229444902262 0.366666666666666
-0.187884563395867 0.152062952548357 0.366666666666667
-0.192724569649339 0.15805209136501 0.366666666666666
-0.203006105990973 0.177559899998246 0.366666666666666
-0.210946360323604 0.173749282014609 0.366666666666666
-0.224173007027895 0.197438403711324 0.366666666666666
-0.234747054633749 0.201772237292659 0.366666666666666
-0.242000740577155 0.20664219199736 0.366666666666666
-0.253927621861497 0.224900806891416 0.366666666666666
-0.26294017948197 0.233252884532644 0.366666666666666
-0.2700884609476 0.237867118526325 0.366666666666666
0.212032048167198 -0.249999999999999 0.328486831542246
0.212490469125712 -0.249999999999999 0.322634123510897
0.215466799313489 -0.249999999999999 0.337166886643394
0.213083461761534 -0.25 0.339088789954634
0.207840771266071 -0.25 0.348117199737723
0.208495495818477 -0.25 0.365391622623653
0.203442764423376 -0.24912128325128 0.366666666666667
0.207011806438993 -0.244775740144287 0.366666666666666
0.193680700239967 -0.233293470328957 0.366666666666666
0.185089255451901 -0.224715276189141 0.366666666666666
0.183113457220709 -0.221561525904633 0.366666666666667
0.175254444595235 -0.214620960864733 0.366666666666666
0.16328091077541 -0.206381176207969 0.366666666666666
0.159840378166839 -0.198807254155583 0.366666666666667
0.15529213540576 -0.193363972816838 0.366666666666666
0.149143054286361 -0.18491418453257 0.366666666666667
0.141601459288584 -0.176300147341939 0.366666666666666
0.138259470006866 -0.179429500739176 0.366666666666666
0.129105549924928 -0.17330569994266 0.366666666666666
0.122213909843421 -0.163578953051402 0.366666666666666
0.111685481957092 -0.153169601315693 0.366666666666667
0.107022863316255 -0.141393967805068 0.366666666666666
0.0991309641838321 -0.144333807509239 0.366666666666666
0.0866007349238272 -0.13388576156512 0.366666666666666
0.085019085703018 -0.123609362796332 0.366666666666666
0.0824313293941696 -0.116881122088755 0.366666666666666
0.0671105645023529 -0.111123197806781 0.366666666666666
0.064104148352996 -0.107004177526478 0.366666666666666
0.0510111277608768 -0.0912312389077783 0.366666666666666
0.0472911274601176 -0.0855738430356534 0.366666666666666
0.0418219040296052 -0.0793217791130254 0.366666666666666
0.0316836680349714 -0.0715513033370789 0.366666666666666
0.0238347960681779 -0.0601951192929859 0.366666666666666
0.0175715614065855 -0.0596025869349033 0.366666666666667
0.00801363301082901 -0.0490991613593615 0.366666666666666
0.00214827105445996 -0.0385833905974453 0.366666666666666
-0.00431845980131176 -0.0363374699479712 0.366666666666666
-0.0151022361852394 -0.0212072732383506 0.366666666666666
-0.0234179902361798 -0.0212005772160591 0.366666666666666
-0.0336809592600758 -0.0100233496135212 0.366666666666666
-0.0358449658373884 -0.00524461056488845 0.366666666666666
-0.0549431455451804 0.00561666694552461 0.366666666666666
-0.0538296626031033 0.0140198567752811 0.366666666666666
-0.0669885698666495 0.0191740522038079 0.366666666666667
-0.0729317049135955 0.0282266838812617 0.366666666666666
-0.0775785325454814 0.0322819936833707 0.366666666666666
-0.0864637622022867 0.0433013476480754 0.366666666666666
-0.0961228627939645 0.0571742991076227 0.366666666666666
-0.108343000369798 0.06516081699505 0.366666666666666
-0.114943478619878 0.0698116169583718 0.366666666666666
-0.129099877976812 0.086580636170155 0.366666666666666
-0.13123417664458 0.0912214978755621 0.366666666666666
-0.144543509359482 0.102900402719603 0.366666666666666
-0.159951428751708 0.114275588016101 0.366666666666666
-0.155776140959669 0.117339665842728 0.366666666666666
-0.16695720285032 0.122814346774679 0.366666666666666
-0.182026104747632 0.133728252326605 0.366666666666667
-0.198301488376731 0.146507349971952 0.366666666666666
-0.208692294589477 0.155304325438283 0.366666666666666
-0.213882154823368 0.166904493799843 0.366666666666666
-0.225516766219455 0.174346665255234 0.366666666666666
-0.234573691654626 0.188830906420816 0.366666666666666
-0.243027921947132 0.188541766550225 0.366666666666666
-0.242803051232709 0.196969533314945 0.366666666666666
-0.255463135648486 0.21494140528041 0.366666666666666
-0.262670179842972 0.213584708919699 0.366666666666666
-0.283005066767761 0.233961354723385 0.366666666666666
-0.290531793025015 0.238249039445233 0.366666666666666
0.204074636554428 -0.249999999999999 0.327891756764144
0.196756048897911 -0.25 0.340346791707847
0.196270787781229 -0.25 0.346313937884137
0.207356496804729 -0.25 0.360367116209387
0.199238621991076 -0.248187979753029 0.366666666666666
0.193498371846482 -0.248800022183671 0.366666666666666
0.19103613307757 -0.239993213562204 0.366666666666666
0.180469116341171 -0.236625774423488 0.366666666666666
0.17534130641758 -0.226422428962492 0.366666666666666
0.175092080224468 -0.226286909595298 0.366666666666666
0.169809420779052 -0.220866487957995 0.366666666666666
0.153532392832881 -0.210478947319655 0.366666666666666
0.144871639291464 -0.203432497327086 0.366666666666666
0.139599981702704 -0.196293206575749 0.366666666666666
0.138964417701347 -0.188723067023636 0.366666666666666
0.128799071543677 -0.184920584501811 0.366666666666666
0.123852262842198 -0.173066534364706 0.366666666666666
0.111370584082654 -0.160104657474803 0.366666666666666
0.109391357897381 -0.158793839888947 0.366666666666666
0.0959319864137259 -0.15585367452631 0.366666666666666
0.0893490268549737 -0.145989494508585 0.366666666666666
0.0823738954055183 -0.130745543712412 0.366666666666666
0.0808631319499093 -0.133536674859347 0.366666666666666
0.0706014104685865 -0.127713397939591 0.366666666666666
0.0709210799491229 -0.116519567678717 0.366666666666666
0.0555349013598756 -0.106142571545768 0.366666666666666
0.0474538384139803 -0.102819044077728 0.366666666666666
0.0460819342291242 -0.0992799375082963 0.366666666666666
0.0381216263966026 -0.089656768039235 0.366666666666666
0.0293453046110696 -0.0779826243999121 0.366666666666667
0.0110326955776265 -0.0725118446606026 0.366666666666666
0.00903603075063628 -0.0638956685195827 0.366666666666666
-0.00573557361669705 -0.0581536239588513 0.366666666666666
-0.00916260630888508 -0.0453422560732811 0.366666666666666
-0.00888535289943143 -0.0490692989618882 0.366666666666666
-0.0247082073291197 -0.0330955093529758 0.366666666666666
-0.0283569746620763 -0.0273482321666313 0.366666666666666
-0.0379648151311038 -0.0156466702917797 0.366666666666666
-0.0453279437163408 -0.00331589170140801 0.366666666666666
-0.0494991615171799 -0.0069201139496006 0.366666666666666
-0.0628584806011926 0.00605671445038974 0.366666666666666
-0.0723633330260585 0.0175067314713919 0.366666666666666
-0.0853488190472196 0.0228493224566638 0.366666666666666
-0.0899399263138216 0.0338828033784882 0.366666666666666
-0.0957119933393804 0.0459514855213328 0.366666666666666
-0.108591277348407 0.0522716108246214 0.366666666666666
-0.117755470004318 0.0628578312677632 0.366666666666666
-0.125364952567956 0.0707806148633838 0.366666666666667
-0.141587145853484 0.0759218847507851 0.366666666666666
-0.145801320387185 0.0859897832691263 0.366666666666666
-0.148597700530293 0.0895242890984658 0.366666666666666
-0.161692196400217 0.110456336234514 0.366666666666666
-0.166297385483518 0.111655996208325 0.366666666666666
-0.175935278424881 0.115413192839829 0.366666666666666
-0.187906918065894 0.124211988801966 0.366666666666666
-0.192511384752335 0.132280103280545 0.366666666666666
-0.214898138383328 0.148158824124845 0.366666666666666
-0.219990926090431 0.152266024693359 0.366666666666666
-0.230739376329961 0.170031968278209 0.366666666666666
-0.232680584385097 0.178862096543041 0.366666666666666
-0.250827559459431 0.193643245665939 0.366666666666666
-0.260356388157251 0.200090036441136 0.366666666666666
-0.2741700525216 0.201853328499839 0.366666666666666
-0.277311596022213 0.219657165121671 0.366666666666666
-0.292868408289602 0.221087339176516 0.366666666666666
-0.298546348491621 0.231418690043259 0.366666666666666
-0.30196626270701 0.244776393669415 0.366666666666666
0.1955052476032 -0.249999999999999 0.322169340834307
0.188294978100477 -0.25 0.332343171537217
0.179937210833522 -0.25 0.332050312983541
0.192200876859409 -0.25 0.35077711610895
0.190642155015937 -0.25 0.351433148470954
0.186327398637903 -0.25 0.364076774991761
0.185847341001807 -0.242534405938347 0.366666666666666
0.179193916439846 -0.241818373782239 0.366666666666666
0.169863230433208 -0.230860630908238 0.366666666666667
0.16564830706478 -0.230094651564783 0.366666666666666
0.151014197726993 -0.220093446373739 0.366666666666666
0.152588811056869 -0.220935172900792 0.366666666666666
0.14779996139885 -0.210156513757749 0.366666666666666
0.129611027251618 -0.202511049410566 0.366666666666666
0.134243287542901 -0.199256640840963 0.366666666666666
0.119093829330432 -0.18674785065711 0.366666666666666
0.11334720837048 -0.184065356329929 0.366666666666666
0.106033054470456 -0.173993349364821 0.366666666666666
0.101821262555255 -0.161721661723756 0.366666666666666
0.0942856269983865 -0.154766610156449 0.366666666666666
0.0856783287660606 -0.158881203519852 0.366666666666666
0.081052932734636 -0.15055384359052 0.366666666666666
0.0722970667772069 -0.138692439757336 0.366666666666666
0.0624511419161751 -0.129626717462844 0.366666666666666
0.0586573600081073 -0.12627852019724 0.366666666666666
0.0489482606783699 -0.117740806839183 0.366666666666666
0.0494859122371379 -0.116399449465579 0.366666666666666
0.0324322927145598 -0.105287221748678 0.366666666666666
0.0307183740940513 -0.0910809585576527 0.366666666666666
0.0234363579452752 -0.0928587334454562 0.366666666666667
0.00688715984336809 -0.0791176756380119 0.366666666666666
-0.00238489060383855 -0.0752310999502625 0.366666666666667
-0.00490401835712433 -0.0560046052262654 0.366666666666666
-0.0180790977412262 -0.0549596740950591 0.366666666666666
-0.0189082820157093 -0.0506909810013836 0.366666666666666
-0.0275967776377924 -0.0366324694246631 0.366666666666667
-0.035126718379562 -0.0312254418395601 0.366666666666666
-0.0427147885363178 -0.0232960909484216 0.366666666666666
-0.0567877596345798 -0.0222962934123402 0.366666666666666
-0.0639139828372097 -0.00750913163248403 0.366666666666666
-0.0755617230505261 0.000423570895046163 0.366666666666667
-0.0780199180695837 -0.000426899779583624 0.366666666666666
-0.0889453984270232 0.00921964973358418 0.366666666666666
-0.105056275754844 0.0329428189364851 0.366666666666666
-0.103685434474386 0.0391427308218503 0.366666666666666
-0.113170249002151 0.0334758675610514 0.366666666666667
-0.123929286798364 0.0520562408219256 0.366666666666666
-0.133503317682793 0.0592236245269562 0.366666666666667
-0.13728056401266 0.0691058271458787 0.366666666666666
-0.154248202575955 0.0730866953062919 0.366666666666666
-0.163069603423469 0.0885916544786482 0.366666666666666
-0.172339252959179 0.0901710125152559 0.366666666666666
-0.172381987475403 0.10153862581267 0.366666666666666
-0.189659681654507 0.118302218653446 0.366666666666666
-0.191404348187455 0.115753640816995 0.366666666666666
-0.210417934241743 0.138977566285693 0.366666666666666
-0.215801187546408 0.148365230784226 0.366666666666666
-0.22220436030303 0.141776705609713 0.366666666666666
-0.237540022310129 0.157397439891729 0.366666666666666
-0.238180399284629 0.161405504623883 0.366666666666667
-0.249878290074551 0.168508785736904 0.366666666666666
-0.259660399896743 0.183812249913704 0.366666666666666
-0.275403765023949 0.196115419510257 0.366666666666666
-0.291634541333469 0.209834800800467 0.366666666666667
-0.295878145395212 0.210277248904797 0.366666666666667
-0.300038853899864 0.226570626318533 0.366666666666666
-0.31037118844871 0.233331748562042 0.366666666666666
-0.324377432776973 0.249785711200944 0.366666666666666
0.175304952383563 -0.25 0.320247750982724
0.178858269959406 -0.25 0.327169096677284
0.176032464553628 -0.25 0.336323228449785
0.16982578458439 -0.25 0.345135682320863
0.174159433136918 -0.25 0.356346362460737
0.174419595108674 -0.249140975819209 0.366666666666667
0.171022403735559 -0.242616345674263 0.366666666666666
0.163393020849844 -0.241569769545254 0.366666666666666
0.15901180057999 -0.234985364071032 0.366666666666666
0.149853586434834 -0.223933162042708 0.366666666666666
0.142274623846458 -0.220421208383975 0.366666666666666
0.13564236387071 -0.207172607941715 0.366666666666666
0.131497593100629 -0.202205077972571 0.366666666666666
0.11662664198926 -0.194922122393842 0.366666666666666
0.112465655546755 -0.197463393154297 0.366666666666666
0.109444152013778 -0.183137449949387 0.366666666666666
0.0985552351547592 -0.18382851496572 0.366666666666666
0.0917242543510758 -0.172538328079872 0.366666666666666
0.0860859047609323 -0.166250260385171 0.366666666666667
0.0805744407779573 -0.158124070088314 0.366666666666666
0.0741126208811111 -0.150210674071599 0.366666666666666
0.0653058245680887 -0.150663116487065 0.366666666666666
0.0603964911032863 -0.144572009420854 0.366666666666666
0.0446468598372491 -0.132558563606223 0.366666666666666
0.0362360319067341 -0.118424073273867 0.366666666666666
0.0349263546116374 -0.115742969703523 0.366666666666666
0.0270576325412162 -0.107525043648662 0.366666666666667
0.0261195443646991 -0.0997424486760298 0.366666666666666
0.0135037130227878 -0.0978905754113455 0.366666666666666
-0.00139317947997007 -0.0853920172719188 0.366666666666666
-0.00166275069227991 -0.0817212165492274 0.366666666666666
-0.0102855155153017 -0.0709625243051871 0.366666666666666
-0.0177411176277258 -0.0632271269599336 0.366666666666666
-0.0297510288060755 -0.0557900384508388 0.366666666666666
-0.0398561337238737 -0.0466499354537367 0.366666666666666
-0.0409717123428857 -0.0358741895272252 0.366666666666666
-0.0573787777810505 -0.0310127901541107 0.366666666666666
-0.0570611247817261 -0.0250938480499161 0.366666666666666
-0.0753171180379024 -0.0179034223241244 0.366666666666666
-0.0785944356441574 -0.00766720392219142 0.366666666666666
-0.0902242634262878 0.00850142059714163 0.366666666666666
-0.0951098148918027 0.008254556356195 0.366666666666666
-0.0984849737161093 0.0166002375869908 0.366666666666666
-0.115722395905824 0.0280297859540184 0.366666666666666
-0.116695756140786 0.0282711942816302 0.366666666666667
-0.128185564107775 0.0383600217579192 0.366666666666666
-0.142599623291567 0.0506066668236923 0.366666666666666
-0.143004625261084 0.0558718796506678 0.366666666666666
-0.154815229412508 0.0652654382679665 0.366666666666666
-0.167659916800018 0.0794834809405244 0.366666666666667
-0.17455582196574 0.0873290000882539 0.366666666666666
-0.186584939923663 0.103089694870386 0.366666666666666
-0.192408273064215 0.0999289196451219 0.366666666666666
-0.204261881816033 0.112353110956734 0.366666666666666
-0.211564517006689 0.123927877422272 0.366666666666667
-0.229544640168099 0.129625793497938 0.366666666666667
-0.239801960194499 0.148547557669042 0.366666666666666
-0.246307751688352 0.147329007766879 0.366666666666666
-0.257460389395252 0.160242729181812 0.366666666666667
-0.257674095135487 0.165599507147317 0.366666666666666
-0.269238543595975 0.171988693553561 0.366666666666666
-0.280226583679485 0.180621544216267 0.366666666666666
-0.286974186126976 0.193823849182889 0.366666666666666
-0.306591610406202 0.209339135961406 0.366666666666666
-0.317060558761726 0.225055971379283 0.366666666666666
-0.320655475657287 0.226208515786582 0.366666666666667
-0.33049966381613 0.22974662666294 0.366666666666666
0.159957638890499 -0.249999999999999 0.322966290641306
0.153379740327343 -0.249999999999999 0.323335575947425
0.156201929536859 -0.249999999999999 0.325022981996461
0.155312627628775 -0.249999999999999 0.339564371235144
0.164137203704738 -0.25 0.359097501950179
0.160062549004768 -0.249434294908293 0.366666666666666
0.154218221591438 -0.25 0.361582373267879
0.151668579497927 -0.241292573240107 0.366666666666666
0.142713675010632 -0.231718288327934 0.366666666666666
0.132894811389133 -0.224640903261441 0.366666666666666
0.130920159507157 -0.222162818284915 0.366666666666666
0.121025795809136 -0.214582911025624 0.366666666666666
0.117287355122221 -0.204921128778621 0.366666666666666
0.10285272799259 -0.20209356930723 0.366666666666666
0.100677303639945 -0.195529864998376 0.366666666666666
0.0912972968915141 -0.188913739552175 0.366666666666666
0.090354480493455 -0.177228981228015 0.366666666666666
0.0796221490479368 -0.170312656943392 0.366666666666666
0.0678576437677059 -0.164494417151356 0.366666666666667
0.0623652753339848 -0.163064020839935 0.366666666666666
0.0564582291930668 -0.152589644020134 0.366666666666666
0.0493127316499802 -0.148077817091145 0.366666666666666
0.0396594490414382 -0.133489425048195 0.366666666666666
0.0331008316291472 -0.129850776346867 0.366666666666666
0.0255183299749244 -0.121470162008833 0.366666666666666
0.0241160958206833 -0.116018140059726 0.366666666666666
0.0141651489347906 -0.109737673056069 0.366666666666666
0.00279337300338122 -0.0996762661831386 0.366666666666667
-0.00243207925429932 -0.0962511649346303 0.366666666666666
-0.0137896469454019 -0.0862253401157812 0.366666666666666
-0.0188132716059251 -0.0747859342566274 0.366666666666667
-0.0222832875747903 -0.0722557981722963 0.366666666666666
-0.0384824689782984 -0.0654751228368678 0.366666666666666
-0.0367745093147856 -0.0534887383974178 0.366666666666666
-0.0523107703278768 -0.0464444675008711 0.366666666666666
-0.0607693193981041 -0.0341350506050409 0.366666666666666
-0.0739201175646145 -0.0339641360138838 0.366666666666666
-0.083165597132129 -0.0169343086635339 0.366666666666666
-0.0793359275152335 -0.0200485086658456 0.366666666666666
-0.0891390894706932 -0.0119313522198412 0.366666666666666
-0.105340924253399 0.0020038530057147 0.366666666666666
-0.106081769412601 0.0074984423522552 0.366666666666666
-0.12194637567958 0.024182744993094 0.366666666666666
-0.127774546828184 0.0250474657273131 0.366666666666667
-0.133628408306142 0.0311488635789756 0.366666666666666
-0.150423400960529 0.0395367828929367 0.366666666666666
-0.156650729813894 0.0470824142719043 0.366666666666666
-0.160511759231065 0.0603994225454934 0.366666666666667
-0.169406510029142 0.0649795581411597 0.366666666666666
-0.180052311735283 0.079510209161633 0.366666666666666
-0.18752247134685 0.0829162543948621 0.366666666666666
-0.201270762898159 0.0959155423940302 0.366666666666666
-0.211511489663432 0.100959683630144 0.366666666666666
-0.219280601957351 0.115623321534833 0.366666666666667
-0.223929967027305 0.117507270759408 0.366666666666666
-0.247791787183861 0.13660013624396 0.366666666666666
-0.243027066981921 0.137641115495552 0.366666666666666
-0.254057419307572 0.148661461862087 0.366666666666666
-0.278108910415176 0.160305565084342 0.366666666666666
-0.281504475739441 0.168023140956576 0.366666666666666
-0.285021353162145 0.175269357155322 0.366666666666666
-0.297541432102048 0.192058980524597 0.366666666666666
-0.312376223749408 0.205651897080241 0.366666666666666
-0.326170018457877 0.207288725289808 0.366666666666666
-0.330305805297296 0.226130457475683 0.366666666666666
-0.342943916761373 0.230574846591425 0.366666666666666
-0.348579455611806 0.236536703417328 0.366666666666666
-0.366014910274939 0.247326673015341 0.366666666666666
0.154780300056809 -0.249999999999999 0.324905009737572
0.14816799669459 -0.249999999999999 0.332753297037797
0.154908474016487 -0.25 0.340320893748015
0.149848539055416 -0.249999999999999 0.35023235106746
0.147729048611918 -0.25 0.352229928383502
0.141459892815044 -0.249999999999999 0.362108959101403
0.144103530863968 -0.249875059384973 0.366666666666666
0.142684208040953 -0.239451117656097 0.366666666666666
0.135245956132548 -0.236602714238781 0.366666666666666
0.118771784019326 -0.222966413158222 0.366666666666666
0.113733705901286 -0.223212261005326 0.366666666666666
0.10552693239279 -0.209750409204697 0.366666666666667
0.104150867105096 -0.20566600464656 0.366666666666666
0.0929169624887999 -0.20115177453356 0.366666666666666
0.086100167107154 -0.190783127743628 0.366666666666666
0.0737759146956704 -0.180954211601042 0.366666666666667
0.0753410998427517 -0.177190043439009 0.366666666666666
0.0693815833856996 -0.17775608473641 0.366666666666666
0.053924277314668 -0.165698667930887 0.366666666666666
0.0578809277313583 -0.162480449819857 0.366666666666666
0.0440667897748719 -0.152055129117909 0.366666666666666
0.039144854317106 -0.151456179951455 0.366666666666666
0.0295902902384144 -0.138235314375522 0.366666666666667
0.0162474517069525 -0.131889411861932 0.366666666666666
0.00997249784388215 -0.127148127199765 0.366666666666666
0.00343968142065697 -0.120455235764128 0.366666666666666
-0.00372772761281546 -0.10959345066721 0.366666666666666
-0.00412174371468564 -0.0976321664749462 0.366666666666666
-0.023708318800383 -0.0905367893175455 0.366666666666666
-0.0311844092462558 -0.0777550684326316 0.366666666666667
-0.0358138393248965 -0.0804612631774289 0.366666666666667
-0.0415572860388039 -0.0697565613010125 0.366666666666666
-0.0579397202557849 -0.0605088067951524 0.366666666666666
-0.0605327062486641 -0.0505642783114422 0.366666666666666
-0.06325291187261 -0.0454608818539865 0.366666666666666
-0.0805944648444199 -0.0342235229823266 0.366666666666666
-0.0844523382568221 -0.0256727886733509 0.366666666666666
-0.0932963551170767 -0.0201233816979616 0.366666666666667
-0.102997778271314 -0.0141769672186138 0.366666666666666
-0.109680765656709 -0.0077925190398432 0.366666666666666
-0.122321744067719 0.00122075895867797 0.366666666666666
-0.133089228737083 0.00785541963598043 0.366666666666666
-0.133368911642785 0.0205674824711094 0.366666666666666
-0.146865456807219 0.0269303233861117 0.366666666666666
-0.152536157465806 0.0319441566241768 0.366666666666666
-0.167612104822237 0.0515439114569942 0.366666666666666
-0.16749804892306 0.0487879589959251 0.366666666666666
-0.184831829838274 0.0640165387893171 0.366666666666666
-0.19122933077971 0.070537291974817 0.366666666666666
-0.206777587792771 0.0856365565065697 0.366666666666666
-0.20728080353424 0.0862310113570018 0.366666666666666
-0.21539025037715 0.10002914167558 0.366666666666666
-0.232670739121915 0.116486066670477 0.366666666666666
-0.236586639767126 0.116044045483095 0.366666666666666
-0.250828874375118 0.124988541067063 0.366666666666666
-0.257493854488138 0.130461280117032 0.366666666666666
-0.268657584636856 0.147719969629617 0.366666666666666
-0.275104192199445 0.149111864937116 0.366666666666666
-0.288222857883749 0.166530696688062 0.366666666666666
-0.301628790529765 0.170111989081812 0.366666666666666
-0.310737878564002 0.183740023755031 0.366666666666667
-0.328048144683976 0.197076527486607 0.366666666666666
-0.319963977499878 0.199679653972274 0.366666666666666
-0.347545133043556 0.216432272258032 0.366666666666666
-0.355549365983322 0.225032669172911 0.366666666666666
-0.369300537633349 0.234301786674688 0.366666666666666
-0.371771718441485 0.242752547858781 0.366666666666666
0.139850936366161 -0.25 0.324422951451258
0.133153011662912 -0.25 0.328222100073618
0.134838506898762 -0.25 0.329621537193636
0.126460670168156 -0.25 0.334819492279183
0.137155354201705 -0.249999999999999 0.354853385397969
0.131892853403139 -0.25 0.359143145889895
0.122779917287172 -0.242777571782967 0.366666666666666
0.121637021540957 -0.238836455966083 0.366666666666666
0.119587701405739 -0.233138250762544 0.366666666666667
0.108558468495682 -0.230712360263757 0.366666666666666
0.0982807799861527 -0.218287313462885 0.366666666666666
0.0983857219376039 -0.216380037768117 0.366666666666666
0.0902098549463767 -0.208336655223675 0.366666666666666
0.0847736368633261 -0.197492369770779 0.366666666666666
0.0776119331713275 -0.193933665930194 0.366666666666666
0.0625969980957243 -0.181791419524619 0.366666666666667
0.060029279264883 -0.17650286998748 0.366666666666666
0.0485493394778775 -0.176654010872278 0.366666666666666
0.0489745875880982 -0.171716207583188 0.366666666666666
0.0377137663150314 -0.161065167317592 0.366666666666666
0.0265886247477267 -0.151067711260489 0.366666666666666
0.020141789595469 -0.145568125817739 0.366666666666666
0.0199259718032009 -0.137318109142274 0.366666666666666
0.0109026663502442 -0.13636259919354 0.366666666666666
-0.00114214956101482 -0.116070121465186 0.366666666666666
-0.0145138353572133 -0.11334913955295 0.366666666666666
-0.0195609761236571 -0.107824702031339 0.366666666666666
-0.0235318084680669 -0.0979720279139834 0.366666666666666
-0.0304711788456317 -0.0934656508126863 0.366666666666666
-0.0374455891668924 -0.0888100330752257 0.366666666666666
-0.0431946055813127 -0.076258556498741 0.366666666666666
-0.0656268832745737 -0.0689364886050313 0.366666666666666
-0.0639517986114255 -0.0621631665100421 0.366666666666666
-0.0719947773294208 -0.0501848103866633 0.366666666666667
-0.0862122075531763 -0.0432678022582466 0.366666666666666
-0.0877566883548352 -0.0381789240032697 0.366666666666666
-0.105052572771047 -0.0262318482856706 0.366666666666666
-0.114817967259227 -0.0216917428001111 0.366666666666666
-0.108983412006763 -0.0221505816659884 0.366666666666666
-0.132053199940574 -0.00735929491865991 0.366666666666666
-0.130164279179455 0.00423961589467464 0.366666666666666
-0.139331218111739 0.0112100124749057 0.366666666666666
-0.151799285985547 0.0131229782060432 0.366666666666666
-0.162649346395404 0.0299925144316556 0.366666666666666
-0.165803154326239 0.0379994543747567 0.366666666666666
-0.177095758106833 0.0403365215877156 0.366666666666666
-0.183754722492144 0.0526449650776294 0.366666666666666
-0.195517463744712 0.0639910627429197 0.366666666666666
-0.212445084546558 0.0769769860945542 0.366666666666666
-0.220726776628006 0.0862513908387351 0.366666666666666
-0.228354030053059 0.0890890702770848 0.366666666666666
-0.242333094003529 0.095534034773872 0.366666666666666
-0.250035795030195 0.109775514959756 0.366666666666666
-0.258786273585695 0.112998849686403 0.366666666666666
-0.266989178450086 0.126931651271932 0.366666666666666
-0.268062586700882 0.138861666055665 0.366666666666666
-0.278948741695387 0.137961275645265 0.366666666666666
-0.290107070714997 0.146009941891222 0.366666666666666
-0.306017706814256 0.165992638360823 0.366666666666666
-0.317300878037889 0.168813019480507 0.366666666666666
-0.325522442171285 0.191972468561367 0.366666666666666
-0.338399822922272 0.195564132416148 0.366666666666666
-0.345087393353633 0.211570019520384 0.366666666666666
-0.35846483829509 0.21351186040213 0.366666666666666
-0.371057339901732 0.219282001950076 0.366666666666666
-0.372246472792144 0.224870537666297 0.366666666666666
-0.386933727009008 0.24272995917724 0.366666666666666
0.128074049329191 -0.249999999999999 0.329211078796394
0.123547994065371 -0.25 0.33628473621072
0.120184040419259 -0.249999999999999 0.342298399765655
0.128365492336385 -0.249999999999999 0.358101015123973
0.121743682275398 -0.249999999999999 0.36029184604159
0.115078649141867 -0.248273844387841 0.366666666666666
0.110576540674834 -0.243189507044976 0.366666666666666
0.10985660102042 -0.237905080843142 0.366666666666667
0.0970126395813805 -0.226100680274845 0.366666666666666
0.0888664640055195 -0.216667461384478 0.366666666666666
0.0831644090032639 -0.214625429951025 0.366666666666667
0.0757995040035846 -0.206298043650684 0.366666666666666
0.0723421014060111 -0.199477201657268 0.366666666666666
0.0563766224718456 -0.192953779472387 0.366666666666666
0.0523427487457997 -0.179718761166662 0.366666666666666
0.0530479910242038 -0.185837162710181 0.366666666666666
0.040607755937889 -0.171200912760846 0.366666666666666
0.0313578513775309 -0.163905924442656 0.366666666666666
0.0271245416779598 -0.160593892214075 0.366666666666666
0.017536327819873 -0.156073018825835 0.366666666666666
0.00381410442483332 -0.139902374894444 0.366666666666667
0.00491862284814676 -0.137583138797649 0.366666666666666
-0.0139881344418999 -0.127675208108508 0.366666666666666
-0.0108754449410392 -0.127403974975577 0.366666666666667
-0.0250667461369747 -0.116924332092196 0.366666666666666
-0.036409564690089 -0.10771764225529 0.366666666666667
-0.0446290337555873 -0.0997653126298896 0.366666666666666
-0.0426768393901096 -0.0987097341940813 0.366666666666666
-0.0527560437545783 -0.0859736374400973 0.366666666666667
-0.0640812961707061 -0.0768001308459224 0.366666666666666
-0.0685366637708798 -0.0735163848939505 0.366666666666666
-0.0786902880449891 -0.0593112852082724 0.366666666666666
-0.0925459724352036 -0.0468677919143597 0.366666666666666
-0.100746662912241 -0.0395064824422739 0.366666666666666
-0.101752944905193 -0.0358502675991726 0.366666666666666
-0.114688550362825 -0.0258100576727426 0.366666666666666
-0.125568078084557 -0.0214359610795305 0.366666666666666
-0.13254892238135 -0.0145640643887844 0.366666666666666
-0.147086949384706 0.00177582887411872 0.366666666666666
-0.146334421790905 0.00374584190454995 0.366666666666666
-0.153228835885723 0.00890148241292131 0.366666666666666
-0.164933857271178 0.0250838382765357 0.366666666666666
-0.178286403829099 0.0334126838567396 0.366666666666666
-0.18146185974382 0.038936238118277 0.366666666666666
-0.193218516574215 0.0424873090333498 0.366666666666666
-0.202811582088614 0.0544503734854865 0.366666666666666
-0.215508045360374 0.0682880152050973 0.366666666666667
-0.221841808964237 0.0739318270143666 0.366666666666666
-0.237546522820413 0.0876487383565931 0.366666666666666
-0.240423238909863 0.0884738588998399 0.366666666666666
-0.251284189752771 0.0986661882508671 0.366666666666666
-0.271452183349674 0.110487237258589 0.366666666666666
-0.275712193125111 0.117546188111438 0.366666666666666
-0.285544136639454 0.13526416710812 0.366666666666666
-0.291669103500353 0.136559201216217 0.366666666666666
-0.297356374920592 0.14162353504141 0.366666666666666
-0.308861179719889 0.152770614343208 0.366666666666666
-0.326057582565139 0.164990580624637 0.366666666666666
-0.335358435790142 0.179194577113284 0.366666666666666
-0.336896233013077 0.186169277323585 0.366666666666666
-0.350435904883696 0.191478532493795 0.366666666666666
-0.375242140441179 0.208664738606094 0.366666666666666
-0.372830626384092 0.210055071478523 0.366666666666666
-0.379837955726591 0.22792775669608 0.366666666666666
-0.393724601982976 0.235784356606341 0.366666666666666
-0.409779736699548 0.244687799234401 0.366666666666666
0.111190261551303 -0.25 0.318423928525931
0.109227686955501 -0.249999999999999 0.320659069509142
0.102701197448291 -0.25 0.332257366500882
0.109794097995392 -0.25 0.350702076335336
0.113575253229684 -0.249999999999999 0.359474772670761
0.102579415052527 -0.25 0.360656293858307
0.0981354018998064 -0.245338238571533 0.366666666666666
0.0990676877421167 -0.239868482719521 0.366666666666667
0.0875112795052134 -0.231595302909635 0.366666666666666
0.0811074822301033 -0.227198266350159 0.366666666666666
0.0738106364328981 -0.219177472130698 0.366666666666666
0.0741562263617187 -0.213558459637355 0.366666666666666
0.0622916973122969 -0.202234861525028 0.366666666666666
0.0592044530302646 -0.202361144452688 0.366666666666666
0.0492723329284942 -0.192905649189844 0.366666666666666
0.0345429736326334 -0.184777908237466 0.366666666666666
0.0267370556792886 -0.174666922701909 0.366666666666666
0.0196467514888242 -0.172747974868182 0.366666666666666
0.014800937539581 -0.16259648904889 0.366666666666667
0.00537493860053702 -0.151881857736292 0.366666666666666
-0.0012165957634256 -0.148060197825099 0.366666666666666
-0.00537863196551783 -0.138827587405249 0.366666666666666
-0.00929734789935032 -0.133000399124024 0.366666666666667
-0.0243690711181619 -0.133276216304734 0.366666666666666
-0.0361540979191282 -0.121741702571646 0.366666666666666
-0.0356189763119857 -0.117949050321177 0.366666666666666
-0.0468734802632884 -0.109524882279529 0.366666666666666
-0.0574531955797463 -0.10328231389729 0.366666666666666
-0.0610388534687933 -0.0976049839390349 0.366666666666666
-0.0742477141576099 -0.0842316360086192 0.366666666666666
-0.0794723560069627 -0.0686511907312316 0.366666666666667
-0.0868032239975629 -0.0729282017346473 0.366666666666666
-0.100051863540064 -0.0632686885271818 0.366666666666666
-0.103628556328403 -0.0547207667707851 0.366666666666667
-0.10730892191888 -0.0477603194739406 0.366666666666666
-0.118407540415945 -0.0344656916656623 0.366666666666666
-0.127708796044933 -0.0256475224797208 0.366666666666667
-0.138555534298799 -0.0211008441391789 0.366666666666666
-0.14675434772293 -0.0172482452012103 0.366666666666666
-0.159406013453538 -0.00587431629009097 0.366666666666666
-0.163594401399486 -0.00195380234257805 0.366666666666666
-0.17573931302963 0.0131326556745434 0.366666666666667
-0.183948780117183 0.0190399968612981 0.366666666666666
-0.187284047345442 0.031073659206391 0.366666666666666
-0.200263177052208 0.0411982995185607 0.366666666666667
-0.209896205597624 0.0447331910022379 0.366666666666666
-0.228374993170135 0.0593364561807366 0.366666666666666
-0.229805796671092 0.0659965641797702 0.366666666666667
-0.245189175273134 0.0811756304330066 0.366666666666666
-0.249601137800927 0.0862611263832406 0.366666666666666
-0.261757646934162 0.0837796453500748 0.366666666666667
-0.26592933449264 0.103337343976825 0.366666666666666
-0.288590074571104 0.113921349218203 0.366666666666666
-0.291759585813768 0.120464014064868 0.366666666666667
-0.310112918996096 0.134660575277733 0.366666666666666
-0.305573843217909 0.132842126409018 0.366666666666666
-0.314822810261632 0.152766043235432 0.366666666666666
-0.340456373568057 0.166820659231448 0.366666666666666
-0.336947754956354 0.168419867739986 0.366666666666666
-0.355159177470106 0.178800558683335 0.366666666666666
-0.357560163091325 0.186261739406481 0.366666666666666
-0.369270086609179 0.192465676626077 0.366666666666666
-0.377530602860043 0.206046227380361 0.366666666666666
-0.397287001853208 0.209852308470645 0.366666666666666
-0.409322616668917 0.222453394650552 0.366666666666666
-0.419175665634884 0.24665834663237 0.366666666666666
0.102666260028984 -0.25 0.32114565962244
0.0922569414767073 -0.25 0.326230292562189
0.0996955361532958 -0.249999999999999 0.337936174750412
0.0959698012732597 -0.249999999999999 0.345168750018732
0.0934435110044868 -0.249999999999999 0.342570458933416
0.091209089138492 -0.25 0.357110835908033
0.0906589822701493 -0.25 0.362640648192993
0.0825374990154828 -0.245902443150967 0.366666666666666
0.075772406063608 -0.232649781626803 0.366666666666667
0.0673862594918796 -0.222690593307482 0.366666666666666
0.0573270449402155 -0.213127151080291 0.366666666666666
0.0565432544891612 -0.21740778841188 0.366666666666666
0.0419580053137646 -0.207031538938304 0.366666666666666
0.0399533935224779 -0.198170297177608 0.366666666666666
0.0288795987662122 -0.196305396578797 0.366666666666666
0.0221210339658491 -0.188751743092791 0.366666666666666
0.016434745571049 -0.18090697847822 0.366666666666666
0.0075831616474529 -0.16803823881813 0.366666666666666
0.0025773683587804 -0.165651161222923 0.366666666666666
-0.00111518064969055 -0.159145962754558 0.366666666666666
-0.0105170256016213 -0.148746415942984 0.366666666666666
-0.0224706599856481 -0.139514249923268 0.366666666666666
-0.0326242938193153 -0.136898182910171 0.366666666666666
-0.0351633143709237 -0.125068853834534 0.366666666666667
-0.0501158037527563 -0.11516624402691 0.366666666666666
-0.0502975403752211 -0.116832064957567 0.366666666666666
-0.0634024935169331 -0.104168626936811 0.366666666666666
-0.0691334609152021 -0.0990037276087041 0.366666666666666
-0.0732258756134907 -0.0887091423132511 0.366666666666666
-0.0851784603341054 -0.082635366906236 0.366666666666666
-0.0901877766779901 -0.0822254750052261 0.366666666666666
-0.106123705028719 -0.0685528050981108 0.366666666666666
-0.115084697691009 -0.0628918542202451 0.366666666666666
-0.116736898222925 -0.0557154432272182 0.366666666666667
-0.131768724169706 -0.0456099679868118 0.366666666666666
-0.13616503805914 -0.0325264579723085 0.366666666666667
-0.143961351687945 -0.031214136279911 0.366666666666666
-0.152419749678399 -0.0215278665178823 0.366666666666666
-0.163426714908938 -0.0125963897721272 0.366666666666666
-0.180820748171223 0.00363632841993034 0.366666666666667
-0.181781817329549 0.00328879286047837 0.366666666666666
-0.190364416718523 0.011605369460872 0.366666666666666
-0.210618570903376 0.031798392850832 0.366666666666666
-0.21575087596063 0.0333159848345293 0.366666666666666
-0.216946194100864 0.0419295947234443 0.366666666666666
-0.228527420972068 0.0521401461245523 0.366666666666666
-0.235668840938487 0.0601427056004836 0.366666666666666
-0.246979574894697 0.0640812600288299 0.366666666666666
-0.261324345140973 0.0724964044566874 0.366666666666666
-0.269413836371829 0.093385599370379 0.366666666666666
-0.281254137549273 0.0951376025694698 0.366666666666666
-0.288737345407553 0.107542857169833 0.366666666666666
-0.300996247358026 0.113492468779585 0.366666666666666
-0.308969319439016 0.122413928924337 0.366666666666666
-0.324629364743471 0.127245359067902 0.366666666666666
-0.332266693793759 0.148132848739808 0.366666666666666
-0.34262001607497 0.154189474154201 0.366666666666666
-0.354997266374735 0.160525173422183 0.366666666666666
-0.359956526490538 0.173029163563496 0.366666666666666
-0.372138488046777 0.172449589220028 0.366666666666666
-0.375081186100746 0.187963373582676 0.366666666666666
-0.401957585894476 0.206747611560457 0.366666666666666
-0.410243597797029 0.218729944499975 0.366666666666666
-0.4089366979684 0.213976037510153 0.366666666666666
-0.425151022209433 0.22898466091781 0.366666666666666
-0.439361258945807 0.236691544613276 0.366666666666667
-0.453622667928076 0.246767386498766 0.366666666666666
0.0808367207821349 -0.25 0.329951622062207
0.0878044392204687 -0.249999999999999 0.340175057253244
0.0838675294048351 -0.25 0.346406757790053
0.0760289418579569 -0.249999999999999 0.352190915348647
0.0820166231877374 -0.248072847581178 0.366666666666666
0.0729885188562374 -0.248067848224394 0.366666666666666
0.0704934316527515 -0.245331152330346 0.366666666666666
0.0619907336129915 -0.228631540569426 0.366666666666666
0.0528392386111829 -0.228307201551682 0.366666666666666
