ply
format ascii 1.0
element vertex 877
property float x
property float y
property float z
end_header
0.174714434066638 0.430906705399036 0.174418604651163
0.187045511384503 0.421001741964026 0.174418604651162
0.0874329551584938 0.5 0.312081888812949
0.0889694555399418 0.5 0.313621817815327
0.104330299192403 0.494290194937539 0.313953488372093
0.0991163562420712 0.486693798856874 0.313953488372093
0.11823201322052 0.478823701001809 0.313953488372093
0.125504927453632 0.468106431439871 0.313953488372093
0.130004063688831 0.469320586870055 0.313953488372093
0.142737743877209 0.460922484035252 0.313953488372093
0.148279679166284 0.45792243162367 0.313953488372093
0.149010945549361 0.450248526885522 0.313953488372093
0.156380625765514 0.446289766480462 0.313953488372093
0.170307369229258 0.437743812689412 0.313953488372093
0.180441392009694 0.433912309289678 0.313953488372093
0.184896679775864 0.429128020567567 0.313953488372093
0.188899647139002 0.425564653187877 0.313953488372093
0.198443781896618 0.42102109537156 0.313953488372093
0.211932410727666 0.41074870318296 0.313953488372093
0.211314577711426 0.408549995764083 0.313953488372093
0.23229185392473 0.39310734571917 0.313953488372093
0.227782252967625 0.396498145042124 0.313953488372093
0.24425246922835 0.389570277630306 0.313953488372093
0.247191322636158 0.38106927608345 0.313953488372093
0.252274786416859 0.379428687581896 0.313953488372093
0.260749656371297 0.37272345717439 0.313953488372093
0.282477291094941 0.360379436223555 0.313953488372093
0.280615237267587 0.358987354819938 0.313953488372093
0.294058594120046 0.348928015395022 0.313953488372093
0.305459966355711 0.347018741952477 0.313953488372093
0.311136812731894 0.333796236559033 0.313953488372093
0.320314465473453 0.326913076679438 0.313953488372093
0.325551633285643 0.328156067791602 0.313953488372093
0.34194416430808 0.31789479530394 0.313953488372093
0.354096846775444 0.307769928681849 0.313953488372093
0.353810080300486 0.303989735626346 0.313953488372093
0.375045742772191 0.292985746866456 0.313953488372093
0.376607128699193 0.289735554778533 0.313953488372093
0.385957887164085 0.281572089282037 0.313953488372093
0.394987904450334 0.269045096516779 0.313953488372093
0.411657090052594 0.259802504710362 0.313953488372093
0.417836296204383 0.261315335078291 0.313953488372093
0.425002197111007 0.249810616753894 0.313953488372093
0.430596929445341 0.245207983217658 0.313953488372093
0.446115093107639 0.228246291646232 0.313953488372093
0.459853512961896 0.231682920583362 0.313953488372093
0.462749990288511 0.221495482832941 0.313953488372093
0.47304449809075 0.2125897753823 0.313953488372093
0.483010114287456 0.205962996653175 0.313953488372093
0.494406640357401 0.197807424435119 0.313953488372093
0.182347322829305 0.443667909329458 0.174418604651162
0.183515141463493 0.438138131123253 0.174418604651163
0.195511224852586 0.433563288983024 0.174418604651163
0.207256580469586 0.426789975029777 0.174418604651163
0.098003480102004 0.5 0.310265614845457
0.10599801567915 0.494944051725858 0.313953488372093
0.110075399278356 0.488455710277931 0.313953488372093
0.121020861802103 0.491804156175897 0.313953488372093
0.133048979894758 0.475537827739212 0.313953488372093
0.133613933929281 0.47662974215622 0.313953488372093
0.144237046180173 0.470416311544004 0.313953488372093
0.146800768416572 0.469694401191329 0.313953488372093
0.16020355324412 0.460447901435486 0.313953488372093
0.166490087881133 0.457009744093759 0.313953488372093
0.177961859608451 0.441615613392423 0.313953488372093
0.183409044101885 0.435983437775867 0.313953488372093
0.194166204712577 0.440851662028451 0.313953488372093
0.197072797638881 0.433200507013249 0.313953488372093
0.201602290081643 0.426071163001113 0.313953488372093
0.21022964765281 0.414292688433031 0.313953488372093
0.218786896171144 0.415658450678436 0.313953488372093
0.232801568246087 0.411051675480977 0.313953488372093
0.240395247094919 0.405198321622496 0.313953488372093
0.249128411260812 0.391228259324433 0.313953488372093
0.261600108092044 0.385358812691645 0.313953488372093
0.274867051823616 0.374585894426955 0.313953488372093
0.271379896925201 0.371769734098676 0.313953488372093
0.279220956168754 0.365160432055943 0.313953488372093
0.299539418020228 0.354197489376395 0.313953488372093
0.301404256269733 0.351847387580169 0.313953488372093
0.312762137079478 0.345631986303416 0.313953488372093
0.318326552767528 0.337597307208595 0.313953488372093
0.327526761090332 0.332055200299813 0.313953488372093
0.34456540329797 0.329757711300897 0.313953488372093
0.343775885850555 0.318212742834746 0.313953488372093
0.356145190127911 0.316453972854861 0.313953488372093
0.367186670969658 0.311749128572357 0.313953488372093
0.371258203319913 0.307388643167567 0.313953488372093
0.379095404975922 0.293821079707804 0.313953488372093
0.396452784863761 0.287969482131333 0.313953488372093
0.403014762821176 0.281522616071947 0.313953488372093
0.413453880424603 0.275205723219998 0.313953488372093
0.422442578741301 0.264108311078036 0.313953488372093
0.427410681669423 0.2655537873988 0.313953488372093
0.447580654029142 0.251312650398208 0.313953488372093
0.460676166777424 0.243000696446569 0.313953488372093
0.468573802680574 0.233700664075878 0.313953488372093
0.467733157281796 0.231384473484747 0.313953488372093
0.481779032046626 0.219881719558325 0.313953488372093
0.488953372748218 0.218998732048521 0.313953488372093
0.181731182408726 0.447721147399815 0.174418604651163
0.19386890217167 0.444403128824864 0.174418604651162
0.208952030221576 0.433448689592644 0.174418604651163
0.205754819053634 0.432562914114067 0.174418604651162
0.221579935204577 0.428051114755906 0.174418604651163
0.227402531528704 0.42149912776199 0.174418604651163
0.122027028451603 0.5 0.312858419374288
0.129361283064419 0.487723409191321 0.313953488372093
0.13791822142629 0.484230900939789 0.313953488372093
0.138328845613136 0.485672502162938 0.313953488372093
0.148380576526983 0.481665700845432 0.313953488372093
0.157018750540347 0.473232860535352 0.313953488372093
0.172203627791281 0.463797836089919 0.313953488372093
0.172776988651154 0.460048058806184 0.313953488372093
0.176948567730715 0.459439769553205 0.313953488372093
0.191647887797822 0.452609497932742 0.313953488372093
0.202043270490124 0.442954024684692 0.313953488372093
0.201606384481863 0.441117240343009 0.313953488372093
0.21468391122106 0.433059590177246 0.313953488372093
0.228591811922447 0.425609369739951 0.313953488372093
0.231731416445861 0.415182900236525 0.313953488372093
0.244479515603031 0.415218322729963 0.313953488372093
0.246725584114093 0.409781232457877 0.313953488372093
0.255570895663118 0.400231354145935 0.313953488372093
0.259952589283847 0.396884105576597 0.313953488372093
0.270959257869969 0.387373601996462 0.313953488372093
0.282384064910503 0.383974181189481 0.313953488372093
0.288844873206966 0.377979929229932 0.313953488372093
0.299041390014697 0.374672656704245 0.313953488372093
0.305890703455778 0.363483617919843 0.313953488372093
0.318532842340836 0.36063592440151 0.313953488372093
0.32393409697421 0.347842039768405 0.313953488372093
0.326360942631961 0.341259700671161 0.313953488372093
0.347982345334565 0.334437306273348 0.313953488372093
0.35669676671017 0.323223947148219 0.313953488372093
0.36752445218902 0.313755862073366 0.313953488372093
0.374676985367106 0.314111717791893 0.313953488372093
0.382481018584162 0.316358327763165 0.313953488372093
0.388713703032541 0.300876211922423 0.313953488372093
0.403111328990261 0.291521572698709 0.313953488372093
0.407888315365381 0.283599166844704 0.313953488372093
0.423934268136456 0.277590735022197 0.313953488372093
0.426928611897526 0.276122518197923 0.313953488372093
0.443053108944858 0.262201823729411 0.313953488372093
0.452258003174021 0.258546986853275 0.313953488372093
0.460988512804096 0.252052055443208 0.313953488372093
0.462208911519657 0.243518546125083 0.313953488372093
0.486365178084089 0.237911715377998 0.313953488372093
0.493757532843653 0.230383802459622 0.313953488372093
0.198416017854824 0.459649875126677 0.174418604651163
0.198845848222445 0.449907048332633 0.174418604651163
0.208057854566753 0.4456666302409 0.174418604651163
0.224263497031526 0.437571742081286 0.174418604651163
0.224200111436553 0.436099507357234 0.174418604651163
0.235218398975865 0.430391598452643 0.174418604651163
0.238551622488296 0.424899936557925 0.174418604651163
0.14013632824083 0.495329592888346 0.313953488372093
0.137185192741587 0.494160688628709 0.313953488372093
0.143942820376638 0.485350448124933 0.313953488372093
0.157475622993251 0.482507858505213 0.313953488372093
0.170347558294965 0.474087435713632 0.313953488372093
0.173736858660006 0.470924991836784 0.313953488372093
0.177580059587212 0.468924141711277 0.313953488372093
0.181579898846795 0.460872117675748 0.313953488372093
0.199629300230405 0.454895124372919 0.313953488372093
0.202343682510541 0.44298949134643 0.313953488372093
0.210806421080427 0.448056587263927 0.313953488372093
0.224922814130749 0.438179770653431 0.313953488372093
0.227692266146377 0.43219044760882 0.313953488372093
0.237774167702932 0.419463294023652 0.313953488372093
0.244645582827866 0.420312462316852 0.313953488372093
0.250604735297398 0.412695311049959 0.313953488372093
0.257555889910121 0.40800676680895 0.313953488372093
0.270465704414154 0.401987538917988 0.313953488372093
0.287247439059931 0.391332984257669 0.313953488372093
0.29351774534069 0.385518922688268 0.313953488372093
0.298800868488225 0.381811455876763 0.313953488372093
0.309267753104997 0.373791300286879 0.313953488372093
0.323110509270551 0.36115953008377 0.313953488372093
0.31961264375935 0.366315895228772 0.313953488372093
0.331861017992941 0.362157307738792 0.313953488372093
0.349866950757245 0.349715263577306 0.313953488372093
0.358383911470845 0.34491491772607 0.313953488372093
0.361438349913578 0.328526719924939 0.313953488372093
0.369023819406142 0.324958551975375 0.313953488372093
0.384460979795866 0.325205007173022 0.313953488372093
0.38210867865698 0.322494075624982 0.313953488372093
0.396592496816411 0.309031233479953 0.313953488372093
0.40767024864343 0.298438374599936 0.313953488372093
0.414292217254858 0.296555966740178 0.313953488372093
0.426528703604367 0.286625887983629 0.313953488372093
0.438445215062909 0.282096990053847 0.313953488372093
0.447659805846245 0.277844832037873 0.313953488372093
0.457780208081295 0.26685915234029 0.313953488372093
0.467588305454478 0.265564332061254 0.313953488372093
0.477519007379904 0.254604569474585 0.313953488372093
0.485184169036174 0.243014018460587 0.313953488372093
0.205147648375306 0.466267575748419 0.174418604651163
0.206770517049986 0.451827508377399 0.174418604651162
0.219343047466465 0.44659243222546 0.174418604651163
0.221281118061222 0.448281086596951 0.174418604651162
0.238760378105058 0.436002506595932 0.174418604651163
0.243585752601184 0.434309903753871 0.174418604651163
0.246043608973335 0.432814752391291 0.174418604651163
0.142427996263322 0.5 0.308508237417828
0.149671326198876 0.495680265170044 0.313953488372093
0.151397413495793 0.496325326476881 0.313953488372093
0.160030904648038 0.48788737973089 0.313953488372093
0.166470751558284 0.483809797502692 0.313953488372093
0.185048045643887 0.477696462010933 0.313953488372093
0.189302175488903 0.466483404874188 0.313953488372093
0.188929717213978 0.472616000545025 0.313953488372093
0.210164095625217 0.463451319486701 0.313953488372093
0.21410504787474 0.455845625256831 0.313953488372093
0.222376548764129 0.444873459353527 0.313953488372093
0.228058730872024 0.446554154661794 0.313953488372093
0.230897982541112 0.439332133957142 0.313953488372093
0.242676715532939 0.435919473561545 0.313953488372093
0.252270270958212 0.426497411698662 0.313953488372093
0.2608229840501 0.423618729299241 0.313953488372093
0.273623100481989 0.414230043524053 0.313953488372093
0.279205630256264 0.40924489713463 0.313953488372093
0.291018975077159 0.401094169344363 0.313953488372093
0.294596719473164 0.397773215357618 0.313953488372093
0.304219561162934 0.388406924113209 0.313953488372093
0.313794041385406 0.375437318165028 0.313953488372093
0.319792994425586 0.383129384092285 0.313953488372093
0.333051627765186 0.367443256402613 0.313953488372093
0.342041963728835 0.367294415411894 0.313953488372093
0.355916657859724 0.35780834568981 0.313953488372093
0.363908405572806 0.34445738329247 0.313953488372093
0.363189348077746 0.342872003017685 0.313953488372093
0.376737953311184 0.332816375748727 0.313953488372093
0.384956417267011 0.332792126650768 0.313953488372093
0.398262405483818 0.319188455593358 0.313953488372093
0.411169110918773 0.318080084188345 0.313953488372093
0.414961252994467 0.316267061571555 0.313953488372093
0.428703649474929 0.296019981755066 0.313953488372093
0.44237235570246 0.294169968787775 0.313953488372093
0.448549439874662 0.2842377242043 0.313953488372093
0.457616590598279 0.278616397508172 0.313953488372093
0.464103352143172 0.270516851998675 0.313953488372093
0.470539808248684 0.266678439256248 0.313953488372093
0.486380209824037 0.253647038525278 0.313953488372093
0.499439914235785 0.244221976498531 0.313953488372093
0.203712503107075 0.470783473550914 0.174418604651163
0.215682584501924 0.459912492737029 0.174418604651163
0.225896182572373 0.453972844555188 0.174418604651162
0.232250255314513 0.453656562440076 0.174418604651163
0.234738410483857 0.444707116835322 0.174418604651163
0.253487063963609 0.443000371583617 0.174418604651163
0.26193004930958 0.429376010369965 0.174418604651163
0.268890420564245 0.427055491321558 0.174418604651162
0.275618924894542 0.427762333636376 0.174418604651163
0.16346814838854 0.499236411047239 0.313953488372093
0.175212332796021 0.491199420119729 0.313953488372093
0.179784240720467 0.487699485079457 0.313953488372093
0.18536140279526 0.487424026691165 0.313953488372093
0.190631444622602 0.483516842121616 0.313953488372093
0.195746556701435 0.470594147408753 0.313953488372093
0.207928620918231 0.464224175239217 0.313953488372093
0.221472633342832 0.464689686346172 0.313953488372093
0.228623135956185 0.455138864597124 0.313953488372093
0.234523437506334 0.45429303846086 0.313953488372093
0.234442605041931 0.449566128583739 0.313953488372093
0.253092688568588 0.434799212463763 0.313953488372093
0.25589436395684 0.431366319818757 0.313953488372093
0.273165538098721 0.425248102117651 0.313953488372093
0.268595173889457 0.423055115546087 0.313953488372093
0.28606367727003 0.409586188163692 0.313953488372093
0.295746152240104 0.407074351602444 0.313953488372093
0.297140492041802 0.403843895584658 0.313953488372093
0.31038508089983 0.393776540838853 0.313953488372093
0.327329789429187 0.385686349186567 0.313953488372093
0.327499054889784 0.381063883910225 0.313953488372093
0.333174568200161 0.375318970010246 0.313953488372093
0.352132876707152 0.369648088674526 0.313953488372093
0.356680991002956 0.360839706475265 0.313953488372093
0.372563986254591 0.350788865166039 0.313953488372093
0.381737853681729 0.353137627835388 0.313953488372093
0.380931310693236 0.348279732922501 0.313953488372093
0.389470791157942 0.338497982977618 0.313953488372093
0.405780027758673 0.331144203641188 0.313953488372093
0.40898725445669 0.327518388840086 0.313953488372093
0.4234405648058 0.316837197604724 0.313953488372093
0.432755817950771 0.304015986352076 0.313953488372093
0.447129768498458 0.303873659066189 0.313953488372093
0.450141027742477 0.295911731022497 0.313953488372093
0.453982273986317 0.290843387448417 0.313953488372093
0.475178694453584 0.280026043092963 0.313953488372093
0.485106989399715 0.273443913400878 0.313953488372093
0.496853137521648 0.259816599217628 0.313953488372093
0.208836978402197 0.476261545940634 0.174418604651162
0.221394635266969 0.468992857523437 0.174418604651163
0.234252639700487 0.460239457266228 0.174418604651163
0.242965502663145 0.456045317194605 0.174418604651163
0.247197850683906 0.459683707839451 0.174418604651163
0.254542347092662 0.44856517669077 0.174418604651162
0.260389878469173 0.442598320122258 0.174418604651163
0.270055949660962 0.440445555604733 0.174418604651162
0.279278926287092 0.429345745841934 0.174418604651163
0.283263734052664 0.427829786796241 0.174418604651163
0.293522803536227 0.424396508163002 0.174418604651163
0.181104546892072 0.498395299471449 0.313953488372093
0.189511907327715 0.494992458641143 0.313953488372093
0.202347483336401 0.479196060823584 0.313953488372093
0.207770154399053 0.479704608960942 0.313953488372093
0.210242616353844 0.474237265568098 0.313953488372093
0.228258423250132 0.466724016974901 0.313953488372093
0.228279323346097 0.464816650792452 0.313953488372093
0.23805776032508 0.456770452409969 0.313953488372093
0.24696377368364 0.452107576191849 0.313953488372093
0.258723413743978 0.44420720035745 0.313953488372093
0.265649757595046 0.438678398595992 0.313953488372093
0.27268891118291 0.432945538971221 0.313953488372093
0.283827402136559 0.427114517967643 0.313953488372093
0.295404953923785 0.422683956378342 0.313953488372093
0.300283379412091 0.415611453132325 0.313953488372093
0.306174620408583 0.410198239320073 0.313953488372093
0.319505953825449 0.400163104055946 0.313953488372093
0.326919207190254 0.397838138421649 0.313953488372093
0.336205855188351 0.394983706858812 0.313953488372093
0.347301690406779 0.389701221822105 0.313953488372093
0.35467051156154 0.371318267186889 0.313953488372093
0.363566454478825 0.368862651722163 0.313953488372093
0.372528060003002 0.361125647483096 0.313953488372093
0.375518895181938 0.362765543621492 0.313953488372093
0.39848570084808 0.350661607899126 0.313953488372093
0.405355052276747 0.336974228431169 0.313953488372093
0.413391390663252 0.332202725889109 0.313953488372093
0.414394885717073 0.335562274144938 0.313953488372093
0.43479384836786 0.32247301362679 0.313953488372093
0.437364383838584 0.32099749079874 0.313953488372093
0.450380090891877 0.309313447092769 0.313953488372093
0.462391828949675 0.299788235049583 0.313953488372093
0.471723330142797 0.296759107926053 0.313953488372093
0.483003808895416 0.285612315846709 0.313953488372093
0.49554197150533 0.279784159165294 0.313953488372093
0.223690008454283 0.480721226700574 0.174418604651162
0.230707690872331 0.47847370714798 0.174418604651163
0.230935508328343 0.469205002438991 0.174418604651162
0.245364128080919 0.463367937846706 0.174418604651163
0.253729580937611 0.462167356285591 0.174418604651163
0.260477176209046 0.452855876971106 0.174418604651163
0.275256419784016 0.443774894774885 0.174418604651163
0.283346904828836 0.439398276212414 0.174418604651162
0.280114705596888 0.440809147216903 0.174418604651163
0.296175818767574 0.42784845845565 0.174418604651163
0.306706293883872 0.423275450719093 0.174418604651163
0.198906883667188 0.5 0.310521908730374
0.205240143899721 0.499670557368334 0.313953488372093
0.208414871840287 0.488490050658843 0.313953488372093
0.21624462356458 0.488450240076273 0.313953488372093
0.224122302195441 0.478883240998866 0.313953488372093
0.237576381203202 0.476370214861698 0.313953488372093
0.236349150367553 0.46796828462788 0.313953488372093
0.240646160399494 0.465894911313937 0.313953488372093
0.255799811633161 0.451876477680255 0.313953488372093
0.268324012424086 0.446830916888608 0.313953488372093
0.273472462305477 0.445848013733067 0.313953488372093
0.282430995700091 0.438415365564666 0.313953488372093
0.288318995213247 0.439159673220821 0.313953488372093
0.30164574196752 0.421761810747381 0.313953488372093
0.311918378589323 0.42025120815814 0.313953488372093
0.314092391960424 0.417035502616719 0.313953488372093
0.326033594076458 0.404807953472426 0.313953488372093
0.334381138580609 0.40917711530379 0.313953488372093
0.346275975340482 0.392491899835898 0.313953488372093
0.357756203678244 0.38558812297288 0.313953488372093
0.356798566159293 0.385963022673216 0.313953488372093
0.367899046912937 0.373852938748742 0.313953488372093
0.381062264438822 0.376388060792161 0.313953488372093
0.390067089326927 0.363233457999325 0.313953488372093
0.395563214679688 0.362974599122119 0.313953488372093
0.412093715721166 0.348945251758701 0.313953488372093
0.41874466873575 0.346659319603428 0.313953488372093
0.426668973672302 0.339086550317028 0.313953488372093
0.434814192471986 0.332286373097335 0.313953488372093
0.444897425723266 0.327785943674057 0.313953488372093
0.46258498096504 0.319264947561677 0.313953488372093
0.46628171479326 0.311779340387573 0.313953488372093
0.472842315002851 0.308939138502649 0.313953488372093
0.49355079782281 0.298690332959483 0.313953488372093
0.493870403602162 0.293455630252583 0.313953488372093
0.22706573731075 0.485139275633649 0.174418604651163
0.241073330087722 0.4828982378999 0.174418604651163
0.249408779032896 0.471837942679487 0.174418604651162
0.251136967621701 0.478301497545684 0.174418604651163
0.260018814019258 0.467648132093281 0.174418604651163
0.265030911928552 0.458038227630306 0.174418604651163
0.279975490061368 0.459522168278766 0.174418604651163
0.284769874115971 0.44840896762553 0.174418604651163
0.295153669255533 0.449238881666841 0.174418604651163
0.30429751919708 0.434579747895587 0.174418604651162
0.308949353431445 0.431253072756007 0.174418604651163
0.315716886530325 0.426105818770796 0.174418604651163
0.326264847572127 0.42138265996915 0.174418604651163
0.212249680700897 0.495517546260059 0.313953488372093
0.22382383907498 0.496291905366038 0.313953488372093
0.227222779784425 0.487509962569112 0.313953488372093
0.241955676670568 0.480898265413954 0.313953488372093
0.249136664488423 0.473953928718287 0.313953488372093
0.247058975063068 0.47038016274857 0.313953488372093
0.264519597614176 0.468263752888987 0.313953488372093
0.275849198236954 0.460721326092281 0.313953488372093
0.279497919447722 0.456923583471768 0.313953488372093
0.283414593388569 0.447998269103138 0.313953488372093
0.297880716535399 0.441600614781193 0.313953488372093
0.303143058541998 0.441360661388939 0.313953488372093
0.310001325834451 0.424779077237507 0.313953488372093
0.321332717929847 0.424890240371687 0.313953488372093
0.337339953393493 0.417543833099503 0.313953488372093
0.345747839152889 0.409687453424566 0.313953488372093
0.351417190226973 0.403759415775557 0.313953488372093
0.364537724446133 0.395577580226486 0.313953488372093
0.365941858166293 0.39059446482386 0.313953488372093
0.370289206923218 0.383048960563748 0.313953488372093
0.383712758831784 0.381538834306142 0.313953488372093
0.39771889645749 0.372750398330541 0.313953488372093
0.410956178784903 0.36393554910343 0.313953488372093
0.413754618166128 0.35355691791476 0.313953488372093
0.432101213928355 0.345295535689854 0.313953488372093
0.428191021110582 0.353012272786529 0.313953488372093
0.443047079252463 0.33538569213747 0.313953488372093
0.458569400516993 0.329182607477336 0.313953488372093
0.457510399851798 0.328724714904395 0.313953488372093
0.475197194642827 0.315918216842606 0.313953488372093
0.491719650680504 0.309367827981462 0.313953488372093
0.493959802534766 0.299536872080305 0.313953488372093
0.241391151213017 0.497072217893323 0.174418604651163
0.245066696566276 0.492321101417457 0.174418604651163
0.245024208401487 0.488155952475909 0.174418604651163
0.266183195407727 0.477667200779181 0.174418604651163
0.261833458361189 0.477641820101018 0.174418604651163
0.275239012610221 0.461214478711117 0.174418604651163
0.291780580824018 0.454915007948279 0.174418604651163
0.291899452491496 0.460772209584187 0.174418604651162
0.296715704682099 0.456446758923179 0.174418604651163
0.299026165521994 0.450592783519075 0.174418604651163
0.317455401094181 0.4429248523747 0.174418604651163
0.320544259638745 0.43005803985314 0.174418604651163
0.335683981709865 0.427436247365833 0.174418604651163
0.343718477123351 0.424300577412879 0.174418604651163
0.223793088724227 0.496494420474288 0.313953488372093
0.243057637699491 0.488791705313873 0.313953488372093
0.24075908984753 0.492724971850997 0.313953488372093
0.251773309898338 0.479328363703038 0.313953488372093
0.260627234348767 0.474751045158733 0.313953488372093
0.266545228631313 0.472597857869667 0.313953488372093
0.278768499526528 0.462268655492695 0.313953488372093
0.288569770920667 0.454451228542565 0.313953488372093
0.297008846278723 0.453789051331507 0.313953488372093
0.302908877070438 0.451218523225936 0.313953488372093
0.312976109351407 0.44472307661964 0.313953488372093
0.315538060440165 0.434791302031209 0.313953488372093
0.32751862279609 0.427536636056014 0.313953488372093
0.347733646753755 0.417568458727134 0.313953488372093
0.344383901000444 0.420694215415011 0.313953488372093
0.349529925844238 0.413463331339806 0.313953488372093
0.367720371456555 0.406446498868445 0.313953488372093
0.369836741416559 0.401680564899822 0.313953488372093
0.390084392769613 0.386971743140901 0.313953488372093
0.394782571050825 0.385332144501491 0.313953488372093
0.403033708781424 0.380743736350092 0.313953488372093
0.412410782261411 0.37078513633188 0.313953488372093
0.416528221056479 0.367949782934216 0.313953488372093
0.440048591923583 0.356605750086596 0.313953488372093
0.43812614103975 0.352196561359621 0.313953488372093
0.450783845351319 0.350206440341001 0.313953488372093
0.459922352005625 0.339436902862904 0.313953488372093
0.474100321777386 0.333133476068082 0.313953488372093
0.484070740450737 0.325029322486239 0.313953488372093
0.492980661322242 0.313856681235167 0.313953488372093
0.496306003011956 0.319123592557181 0.313953488372093
0.247920976589692 0.499999999999999 0.170744365556966
0.248304125714514 0.499999999999999 0.16832382456872
0.265872475259715 0.490045732824821 0.174418604651163
0.267546622106975 0.484250496258428 0.174418604651163
0.274060393656174 0.476598417417219 0.174418604651163
0.281568250761439 0.474698311197991 0.174418604651163
0.293788012849324 0.467702885667936 0.174418604651163
0.298196809053464 0.464158323485835 0.174418604651163
0.298933582412757 0.45605820782908 0.174418604651163
0.322866733899532 0.453831789626928 0.174418604651163
0.325669381009643 0.441662962648678 0.174418604651163
0.327139800046264 0.442369914317276 0.174418604651163
0.334188671986292 0.434506330822368 0.174418604651163
0.354895053609495 0.42580201065826 0.174418604651162
0.358782112854943 0.426237630456843 0.174418604651163
0.244891187707648 0.5 0.312928610049396
0.255883969861077 0.492509468919366 0.313953488372093
0.262720506277901 0.482222194808333 0.313953488372093
0.276135137145061 0.480590141289962 0.313953488372093
0.27721207339078 0.481075697698276 0.313953488372093
0.286297700148427 0.472226811291421 0.313953488372093
0.29386522657926 0.461201040339877 0.313953488372093
0.307623101514615 0.459398600410922 0.313953488372093
0.315209240352885 0.450303584666631 0.313953488372093
0.315653779893477 0.448257956710781 0.313953488372093
0.326812760648178 0.442235416335391 0.313953488372093
0.335743923887679 0.442282721312055 0.313953488372093
0.348500432995488 0.431258911032044 0.313953488372093
0.358859610072427 0.42152557325497 0.313953488372093
0.362676646463407 0.412872112218921 0.313953488372093
0.370778034891471 0.414876416412915 0.313953488372093
0.381615337386279 0.405734301226221 0.313953488372093
0.38656789266099 0.401782455885004 0.313953488372093
0.406266053024981 0.384384154297129 0.313953488372093
0.407869082940031 0.3807038839866 0.313953488372093
0.421534994396664 0.381380709625877 0.313953488372093
0.432347587229052 0.368983174992082 0.313953488372093
0.433981239341946 0.363167704476179 0.313953488372093
0.447989896205865 0.35956561388467 0.313953488372093
0.463021091628792 0.350563954014598 0.313953488372093
0.471958657994741 0.345161950013035 0.313953488372093
0.473960118021078 0.337809085687525 0.313953488372093
0.49591160682809 0.329240929848367 0.313953488372093
0.255089131202424 0.499999999999999 0.159631486654187
0.255994587277089 0.499999999999999 0.165984866533609
0.264589765451285 0.499999999999999 0.171922024458269
0.272002368708554 0.488612979007059 0.174418604651163
0.281712095572402 0.488191951408049 0.174418604651163
0.287619664343617 0.479269037886324 0.174418604651162
0.290380896852941 0.47466576657896 0.174418604651163
0.303672237645929 0.468551400533244 0.174418604651163
0.316693852427146 0.465762820576732 0.174418604651163
0.322716704719782 0.458984786328815 0.174418604651163
0.337942803466332 0.449094487278799 0.174418604651162
0.333933746896954 0.449996315373728 0.174418604651163
0.342515247728438 0.444913883101106 0.174418604651163
0.351676105711835 0.434164242128148 0.174418604651163
0.362971500562212 0.425556004219173 0.174418604651163
0.369599769806014 0.42796814534358 0.174418604651163
0.260358846680175 0.5 0.309366517014948
0.266085017490991 0.495977548241433 0.313953488372093
0.267522919002454 0.497394776929741 0.313953488372093
0.284854387674868 0.48365894394784 0.313953488372093
0.291432218576791 0.474009450503263 0.313953488372093
0.30635868904893 0.474950538143002 0.313953488372093
0.302263809440326 0.465703854952847 0.313953488372093
0.320373133053182 0.463085505797137 0.313953488372093
0.32264017277739 0.453461952641386 0.313953488372093
0.333373272130215 0.45044967043217 0.313953488372093
0.339886892035438 0.441190103281364 0.313953488372093
0.359205276100476 0.43320250199454 0.313953488372093
0.358461171809093 0.4309950507673 0.313953488372093
0.369471797425254 0.420803562123324 0.313953488372093
0.379653358898315 0.413665887333126 0.313953488372093
0.382363560268947 0.410473252893997 0.313953488372093
0.396619003312271 0.406088016603273 0.313953488372093
0.410409260348947 0.402160565589733 0.313953488372093
0.420045653799062 0.390355363836876 0.313953488372093
0.424251881580678 0.383815872714531 0.313953488372093
0.431842458010134 0.378231795317857 0.313953488372093
0.454955496599705 0.369599603119943 0.313953488372093
0.453142998924415 0.370387559861321 0.313953488372093
0.465925776518202 0.358157577218418 0.313953488372093
0.480335488555317 0.351891966387896 0.313953488372093
0.478055407968391 0.352520184346834 0.313953488372093
0.488911009061849 0.339021458102813 0.313953488372093
0.499742760796941 0.336425563837086 0.313953488372093
0.273219640604641 0.499999999999999 0.159762849138585
0.278062231651606 0.499999999999999 0.172408093703423
0.279900821362517 0.498918432724617 0.174418604651163
0.288082041720879 0.496449661130867 0.174418604651163
0.300342762237637 0.486410221183746 0.174418604651163
0.305717763983075 0.481999568221585 0.174418604651163
0.312512446869673 0.480581492093407 0.174418604651163
0.321136267925517 0.477280353767706 0.174418604651163
0.333254125216266 0.463464479970267 0.174418604651163
0.333866405911042 0.459318181489871 0.174418604651163
0.347025943642184 0.457150749458548 0.174418604651163
0.349103361432144 0.452158346689502 0.174418604651162
0.361815060065183 0.441376412169761 0.174418604651162
0.370766822395344 0.43154339069577 0.174418604651163
0.38770080838864 0.423550687217448 0.174418604651163
0.384465597474657 0.428060516970106 0.174418604651163
0.400529615566751 0.419837039994788 0.174418604651163
0.281729758162302 0.5 0.310893913703387
0.295599494917451 0.490711598727807 0.313953488372093
0.300579204317205 0.481751264557606 0.313953488372093
0.310828536550994 0.483091831791386 0.313953488372093
0.312816154366752 0.47512325084262 0.313953488372093
0.322666034791742 0.469576761359406 0.313953488372093
0.338013404182199 0.463356422229789 0.313953488372093
0.342433854674281 0.451001070198092 0.313953488372093
0.348658713695636 0.452728765668498 0.313953488372093
0.361470686967942 0.442983828782184 0.313953488372093
0.365962596270006 0.440780261832271 0.313953488372093
0.37081611896696 0.430099551910043 0.313953488372093
0.37978465651682 0.430845274401136 0.313953488372093
0.402570655259072 0.420145398635262 0.313953488372093
0.397996345290294 0.415111833870418 0.313953488372093
0.418884300501482 0.410465004508852 0.313953488372093
0.430220958486634 0.402614449037121 0.313953488372093
0.43180474481078 0.392728795295327 0.313953488372093
0.444881115952552 0.389088884665382 0.313953488372093
0.455571559771752 0.375201265772068 0.313953488372093
0.464178765819429 0.36539548553347 0.313953488372093
0.474358246433701 0.371324020665788 0.313953488372093
0.488825919061732 0.357482431046973 0.313953488372093
0.494435761495339 0.348996238742424 0.313953488372093
0.290584052167767 0.499999999999999 0.151285138193563
0.291905370991631 0.499999999999999 0.168506022783841
0.293370547524286 0.498764559982989 0.174418604651163
0.299938843992762 0.494943680746923 0.174418604651162
0.303742194520957 0.489711832148463 0.174418604651162
0.320532939796294 0.486193078885378 0.174418604651163
0.329852906819233 0.477566861537846 0.174418604651163
0.330048245894219 0.474376636339961 0.174418604651163
0.341833293480917 0.464054746178496 0.174418604651163
0.354953516805099 0.463541827914451 0.174418604651163
0.358987187489363 0.451525554522125 0.174418604651163
0.377670535387478 0.44294861139368 0.174418604651163
0.379442677070423 0.447480005181916 0.174418604651163
0.385688640430826 0.438361330042782 0.174418604651163
0.3924368025327 0.428269170156501 0.174418604651163
0.401514755754767 0.426314508609527 0.174418604651163
0.413934855979248 0.42160481648091 0.174418604651163
0.296418792605639 0.499858360510107 0.313953488372093
0.310121055159962 0.495618991043653 0.313953488372093
0.309234199233619 0.484455800684491 0.313953488372093
0.321468946019891 0.48295402647497 0.313953488372093
0.337123887403246 0.474144517508061 0.313953488372093
0.344743757152554 0.469838129666053 0.313953488372093
0.344300360707124 0.467758838625305 0.313953488372093
0.362029473298559 0.45916915821585 0.313953488372093
0.364168733642656 0.454297271706466 0.313953488372093
0.37385050848726 0.449535966470646 0.313953488372093
0.390019704656763 0.43867061759032 0.313953488372093
0.400346544154672 0.426191277576656 0.313953488372093
0.400410982284527 0.42882790417703 0.313953488372093
0.412893443347138 0.420281269710808 0.313953488372093
0.429924407887051 0.414937252008045 0.313953488372093
0.430149483939933 0.406093546127522 0.313953488372093
0.439209345625837 0.402724894437508 0.313953488372093
0.44492750442435 0.401696816957505 0.313953488372093
0.462040342323741 0.390134118692623 0.313953488372093
0.472614292782033 0.377695151423744 0.313953488372093
0.482333491036426 0.376477370059814 0.313953488372093
0.492859059643299 0.365353053132886 0.313953488372093
0.309774147833758 0.499999999999999 0.147568139656738
0.313821929433863 0.499999999999999 0.148050802545393
0.315929723251671 0.499999999999999 0.161798019428488
0.309280545728182 0.494618021155085 0.174418604651162
0.314358294385437 0.497857607697172 0.174418604651163
0.324748264064875 0.486828064455389 0.174418604651163
0.333527806630938 0.486234582958358 0.174418604651162
0.343527503967286 0.476999665424645 0.174418604651163
0.349124934691571 0.475379849713699 0.174418604651162
0.363105128872841 0.465696998691958 0.174418604651162
0.361791723221899 0.468718511907873 0.174418604651162
0.37679310655519 0.454223631103891 0.174418604651163
0.384242999636829 0.457470965654751 0.174418604651163
0.394702058423937 0.441678032415032 0.174418604651163
0.399981578940824 0.440535349859403 0.174418604651162
0.413438258137654 0.433186604840009 0.174418604651163
0.422091397106316 0.423602520830505 0.174418604651163
0.426082039591198 0.420584847531179 0.174418604651163
0.309693519438317 0.5 0.312393535496749
0.326818368258244 0.490133380296292 0.313953488372093
0.330094959976412 0.48558777005849 0.313953488372093
0.339286942811764 0.478344496356128 0.313953488372093
0.352426158914338 0.472597220098789 0.313953488372093
0.362876122427855 0.469319826484798 0.313953488372093
0.370331156244244 0.459585940726605 0.313953488372093
0.375038353725018 0.455316546133418 0.313953488372093
0.384670461289278 0.453288205464979 0.313953488372093
0.39147600487721 0.441074137946613 0.313953488372093
0.398214393783041 0.439349205756718 0.313953488372093
0.409744435466685 0.430619072477941 0.313953488372093
0.415744630072628 0.431327237782238 0.313953488372093
0.429529341362361 0.425312214117847 0.313953488372093
0.445480091760681 0.412220829238203 0.313953488372093
0.449544393164298 0.410122224039314 0.313953488372093
0.461660397273352 0.40310771251227 0.313953488372093
0.468590263255025 0.397732186946385 0.313953488372093
0.486288590204724 0.386583221378874 0.313953488372093
0.486247337632594 0.380371743133682 0.313953488372093
0.491795720909934 0.380275293681002 0.313953488372093
0.321729055089851 0.499999999999999 0.140827677592344
0.330534704139596 0.499999999999999 0.141643639242775
0.333746801629462 0.499999999999999 0.145582535264538
0.328943784415562 0.499999999999999 0.152216244722844
0.326262396739914 0.499999999999999 0.169854032071734
0.332623351520469 0.499192939990227 0.174418604651163
0.34035397785495 0.49730209141785 0.174418604651163
0.347486645890498 0.48317028193109 0.174418604651163
0.354122906252641 0.479757602276454 0.174418604651163
0.364888342610046 0.474013388087126 0.174418604651162
0.372555517682893 0.465734163682942 0.174418604651162
0.382099424131212 0.462458882612786 0.174418604651163
0.389632576606848 0.455049670001905 0.174418604651163
0.400042296328962 0.4516839665198 0.174418604651163
0.405680015441241 0.441297542542595 0.174418604651162
0.417881033760662 0.441223095543719 0.174418604651163
0.427318718557451 0.439094469806487 0.174418604651163
0.435046069450409 0.431553508694554 0.174418604651163
0.44316959024921 0.422254536896726 0.174418604651163
0.456152565000274 0.419591760302578 0.174418604651162
0.332688907604836 0.490781930540368 0.313953488372093
0.347851229944272 0.483805442185988 0.313953488372093
0.350626661249926 0.489508253458202 0.313953488372093
0.36220659906674 0.470566035497762 0.313953488372093
0.376795259592946 0.466652936356107 0.313953488372093
0.37514529667613 0.469422231621139 0.313953488372093
0.3912193657391 0.458956834016031 0.313953488372093
0.406843231731694 0.44904743042453 0.313953488372093
0.416755203146071 0.439147820999174 0.313953488372093
0.419795593411757 0.443529812126539 0.313953488372093
0.436614066890093 0.431366723284732 0.313953488372093
0.434517684068359 0.427042864940537 0.313953488372093
0.446516200714219 0.424898817864143 0.313953488372093
0.453637090352354 0.417891581636119 0.313953488372093
0.46527614190815 0.410630503107583 0.313953488372093
0.482227611919537 0.398201120420842 0.313953488372093
0.493618127543283 0.392630898109726 0.313953488372093
0.496577334911215 0.394356635581596 0.313953488372093
0.33358896116044 0.499999999999999 0.159732119067013
0.354693468992491 0.499999999999999 0.153819917748958
0.341790115209845 0.499999999999999 0.168959436339731
0.345383856995769 0.49892412904492 0.174418604651163
0.349541946007862 0.497899353614525 0.174418604651162
0.360238301828069 0.489626377729432 0.174418604651163
0.3722981784984 0.479296466355718 0.174418604651163
0.377801289573206 0.481227763201732 0.174418604651163
0.383796308610245 0.467799123703873 0.174418604651163
0.399257876888444 0.468051845171681 0.174418604651162
0.408697883506106 0.457030616865869 0.174418604651163
0.418781363875275 0.446106847167386 0.174418604651162
0.425355254110998 0.451808553344978 0.174418604651162
0.430499668490133 0.442854508345391 0.174418604651163
0.442186210471437 0.429929032861857 0.174418604651163
0.457015374427736 0.425701218330411 0.174418604651163
0.460800112829168 0.422411733423374 0.174418604651163
0.345794525537788 0.496693617489774 0.313953488372093
0.351603022584309 0.492070590197898 0.313953488372093
0.359926246241596 0.493774153622395 0.313953488372093
0.367653847074187 0.482082656522924 0.313953488372093
0.374374693373802 0.478300041696714 0.313953488372093
0.390700024033622 0.472032464713548 0.313953488372093
0.397994971052827 0.45990837643597 0.313953488372093
0.402671048902305 0.457154072252296 0.313953488372093
0.421395876112368 0.455736789007671 0.313953488372093
0.426068059780119 0.449284666821319 0.313953488372093
0.434954101344946 0.4437093718137 0.313953488372093
0.445862636838461 0.433495223651383 0.313953488372093
0.448746993868553 0.427710122066114 0.313953488372093
0.469473601181686 0.414213103600852 0.313953488372093
0.47113332522762 0.417137533004586 0.313953488372093
0.474170215191526 0.410345826458496 0.313953488372093
0.492731883812812 0.404434206811884 0.313953488372093
0.497412501266557 0.400412452053239 0.313953488372093
0.352284975126266 0.499999999999999 0.144075177221505
0.349703565554938 0.499999999999999 0.158903565472026
0.35438991810874 0.499999999999999 0.159943527490552
0.368855016760168 0.499999999999999 0.156189078704765
0.357919008504752 0.497162050791573 0.174418604651163
0.367474698933703 0.496147758919489 0.174418604651163
0.385335490849053 0.490928900195441 0.174418604651163
0.3941737613415 0.476893621059083 0.174418604651163
0.394704822488338 0.474370852597223 0.174418604651163
0.412414601026197 0.467316525628862 0.174418604651162
0.417741024008707 0.466003097198696 0.174418604651162
0.429599279549959 0.461613269137818 0.174418604651163
0.439239893774538 0.447981988978549 0.174418604651162
0.436860542789231 0.452362426642807 0.174418604651163
0.447261757198822 0.437081977299073 0.174418604651163
0.461126481884093 0.436471675069695 0.174418604651163
0.474855738721389 0.42693174331241 0.174418604651163
0.352221106259628 0.5 0.310883367204173
0.361232097378745 0.5 0.312519131599815
0.362586625006947 0.497058999850639 0.313953488372093
0.378050198575443 0.487019268420758 0.313953488372093
0.384442191709446 0.48615340117074 0.313953488372093
0.399523394208245 0.480340090233853 0.313953488372093
0.40797961271443 0.471665924608632 0.313953488372093
0.411622521412034 0.465437532841465 0.313953488372093
0.423370261315289 0.4620544657874 0.313953488372093
0.431994833429051 0.459712130811748 0.313953488372093
0.437439606994127 0.446087810334871 0.313953488372093
0.449578279584623 0.446778033281849 0.313953488372093
0.463509576901418 0.43087952691321 0.313953488372093
0.471426418902506 0.433964145408836 0.313953488372093
0.485293249683483 0.420437367040519 0.313953488372093
0.48980018163014 0.412159513561423 0.313953488372093
0.380452824319849 0.499999999999999 0.13961595816197
0.385129378375604 0.499999999999999 0.15205107394834
0.376061200690781 0.499999999999999 0.170448097686238
0.386136319592569 0.499999999999999 0.166686984075028
0.379467484853292 0.49411001646046 0.174418604651163
0.401108009542959 0.485748352248269 0.174418604651163
0.399097778091701 0.486192702838043 0.174418604651163
0.409202166534413 0.478298022437761 0.174418604651163
0.419799941124965 0.475447045168003 0.174418604651162
0.426287902493028 0.464091480645363 0.174418604651163
0.445609127131746 0.460142022382751 0.174418604651162
0.453090391496547 0.451191529222668 0.174418604651163
0.455470901837084 0.454981309507768 0.174418604651163
0.464569469773413 0.441050248715575 0.174418604651163
0.476771801051258 0.437979870560063 0.174418604651163
0.489784553777639 0.434514785846202 0.174418604651163
0.491420808095539 0.423127594865534 0.174418604651163
0.379706800833233 0.5 0.308998599520821
0.383146277993007 0.496742457476739 0.313953488372093
0.388278027842631 0.49064598274259 0.313953488372093
0.402805130455761 0.481631415969888 0.313953488372093
0.41496070511743 0.476774876814463 0.313953488372093
0.420274371120644 0.472704235340661 0.313953488372093
0.4348701660885 0.469994795713671 0.313953488372093
0.433883667720163 0.464415192646208 0.313953488372093
0.444309996560932 0.453598065500072 0.313953488372093
0.457870350064111 0.447338064159969 0.313953488372093
0.465068650675543 0.440882744301763 0.313953488372093
0.48622001546486 0.429093403433968 0.313953488372093
0.479706663999979 0.434113701319085 0.313953488372093
0.494958242444469 0.422353922834841 0.313953488372093
0.396329765071247 0.499999999999999 0.143281111979343
0.397948981992915 0.499999999999999 0.147957906668521
0.392991430324537 0.499999999999999 0.160171027419337
0.394910507560942 0.499999999999999 0.168905618738404
0.401031537914637 0.498424441184828 0.174418604651163
0.409441930720683 0.48623059385222 0.174418604651163
0.423010884146002 0.482633385177516 0.174418604651163
0.436361398770721 0.480817366887227 0.174418604651163
0.435522873059197 0.478091088986379 0.174418604651163
0.450377727892349 0.472934240442862 0.174418604651163
0.457668797214871 0.457415988118948 0.174418604651163
0.467043834037565 0.451829688445657 0.174418604651163
0.473781130745808 0.450689146321488 0.174418604651163
0.487662417952301 0.442032265451943 0.174418604651163
0.49657704405004 0.438487292036852 0.174418604651163
0.393403010591762 0.499805546167269 0.313953488372093
0.402663582448782 0.493932857387204 0.313953488372093
0.403508959609504 0.491038137433292 0.313953488372093
0.419900852767448 0.483864087129668 0.313953488372093
0.425464278755498 0.484373830855671 0.313953488372093
0.443714153624972 0.468286086041323 0.313953488372093
0.4389153098686 0.469132782273034 0.313953488372093
0.460997424089166 0.456362758767336 0.313953488372093
0.463551986949216 0.453438345584133 0.313953488372093
0.476148522428553 0.448911399976951 0.313953488372093
0.481934906046803 0.439834610137223 0.313953488372093
0.490442058976257 0.442424198915462 0.313953488372093
0.415986977545223 0.499999999999999 0.140760522331329
0.412601885495049 0.499999999999999 0.169064550101214
0.425356684575187 0.499999999999999 0.157490244697131
0.415070802934082 0.492617390721069 0.174418604651163
0.425543447414252 0.492286032027581 0.174418604651163
0.429703897275904 0.491707393179719 0.174418604651163
0.449431424140685 0.481096367256928 0.174418604651163
0.454146366737707 0.478038667201936 0.174418604651163
0.461186124674791 0.474769617322429 0.174418604651163
0.464644482447735 0.467124915526558 0.174418604651163
0.477792121249576 0.462497816610259 0.174418604651163
0.486925847334305 0.452634586202683 0.174418604651163
0.408372273839217 0.499876107899215 0.313953488372093
0.421154792562206 0.493436606185802 0.313953488372093
0.428099977114066 0.487777121853347 0.313953488372093
0.435022327996402 0.486168530345495 0.313953488372093
0.445317148269353 0.485384229220259 0.313953488372093
0.460920231587643 0.468214989962737 0.313953488372093
0.468462852336474 0.470400428563797 0.313953488372093
0.475535114254371 0.461517342394989 0.313953488372093
0.479553187858311 0.455414094056742 0.313953488372093
0.494994050329453 0.453529400033656 0.313953488372093
0.434617476289637 0.499999999999999 0.139696435114377
0.434515589380898 0.499999999999999 0.147543863787303
0.432374317285292 0.499999999999999 0.150252190029038
0.434067140695458 0.499999999999999 0.163367736796041
0.440571557939778 0.496530352213877 0.174418604651163
0.449718130808322 0.493844339425674 0.174418604651163
0.454771403289723 0.483362253836226 0.174418604651162
0.468197807500719 0.484330642719349 0.174418604651163
0.46331112411149 0.482339229474912 0.174418604651163
0.484703542789231 0.464036199047955 0.174418604651163
0.491202557459653 0.466866093141111 0.174418604651163
