ply
format ascii 1.0
element vertex 877
property float x
property float y
property float z
end_header
0.495893601406783 0.257827528910854 0.330483887651205
0.494631429728942 0.265207842326997 0.330483887651205
0.491256716163481 0.275586306879101 0.330483887651205
0.484038944172356 0.289464415910875 0.330483887651205
0.478736011959437 0.29201989199858 0.330483887651205
0.472108113774638 0.302386552333159 0.330483887651205
0.463276317940232 0.310658620282969 0.330483887651205
0.477795108038322 0.268545260100336 0.143213670267129
0.48306846510518 0.275260834750947 0.147423678212499
0.479808890230282 0.27163296875023 0.154454757451549
0.478620622697151 0.275444764516901 0.157351214663841
0.477795108038322 0.274216543489519 0.177755937646508
0.477795108038322 0.276496644520762 0.175925650089301
0.477795108038322 0.275224873830059 0.193313439350719
0.477795108038322 0.277592681825232 0.197541422770891
0.477795108038323 0.282521242702154 0.209908051405572
0.477795108038322 0.278442758084993 0.211531798073358
0.477795108038323 0.272953492270713 0.234519821423024
0.477795108038322 0.276149351526226 0.241291041736524
0.477795108038322 0.274997712544044 0.254813890095728
0.477795108038322 0.278625897181423 0.259696577966632
0.477795108038322 0.273855322969874 0.267577295545749
0.5 0.242791536919398 0.313886746239998
0.5 0.236304705941739 0.324846731220192
0.496857478941518 0.245404337848174 0.330483887651205
0.494335955288956 0.252142441711349 0.330483887651205
0.487828970467704 0.259349069266836 0.330483887651204
0.485580045713397 0.268075034552844 0.330483887651205
0.480940764680393 0.281471923409592 0.330483887651205
0.474383347637181 0.285587432224845 0.333667283529223
0.469908478659106 0.290243998067149 0.337605974533387
0.46500024239893 0.291838715314851 0.337562167628318
0.453747516980156 0.315004162172227 0.330483887651205
0.477795108038322 0.260650354979476 0.137110689306986
0.477087200836192 0.25802265297578 0.15035640889179
0.477795108038322 0.259073163805927 0.168575230566014
0.477795108038322 0.258335214553596 0.181742137765235
0.477795108038322 0.26417882954101 0.179867940922624
0.477408742039645 0.25802265297578 0.19781683278063
0.472343060624306 0.25802265297578 0.197998632502035
0.477795108038322 0.267142664058513 0.207158066648901
0.477795108038322 0.26278061118575 0.219711395070201
0.477795108038322 0.261840649832463 0.227896571628603
0.474642869206784 0.258022652975781 0.237979095629443
0.477795108038322 0.261779614618062 0.238538778397915
0.477795108038322 0.26565227736708 0.254875033810077
0.477795108038322 0.26299507056289 0.268040268704662
0.477343331105761 0.25802265297578 0.270404749510704
0.5 0.223044826014997 0.325289411465748
0.498360227829467 0.22687991199512 0.330483887651205
0.488856766930601 0.236897455521921 0.330483887651205
0.483670201543152 0.248431072567826 0.330483887651205
0.476395190547882 0.254108702289159 0.330483887651205
0.480439402991024 0.257878836117848 0.330483887651205
0.467806338111384 0.269008198253163 0.330483887651205
0.456752959431275 0.2877642844759 0.330483887651205
0.467951816702332 0.283748983829779 0.335191272287294
0.444526078380317 0.306069087948417 0.330483887651205
0.44259541047481 0.305049668093059 0.330483887651205
0.47069153063667 0.25802265297578 0.14325447443956
0.472767470916168 0.25802265297578 0.147946259023651
0.465234694949726 0.25802265297578 0.162283771605651
0.470754209688191 0.25802265297578 0.166141371091765
0.472838660903477 0.25802265297578 0.183723813196875
0.469037699016172 0.25802265297578 0.188048704321477
0.462281775203877 0.25802265297578 0.186090623343137
0.469512990761615 0.25802265297578 0.20585908820399
0.466832628653701 0.25802265297578 0.211892548965264
0.462218573383005 0.25802265297578 0.222229883868905
0.46505975207701 0.25802265297578 0.237376306956898
0.466845055063439 0.25802265297578 0.247740135041768
0.470739228734701 0.258022652975781 0.248472297763019
0.5 0.215228689310315 0.32060228032906
0.5 0.215714266088072 0.320055227397127
0.490731235722807 0.22209297210123 0.330483887651205
0.493513629385938 0.227832747890717 0.330483887651205
0.49077139024516 0.225484726843632 0.330483887651205
0.482242296124084 0.241564211197314 0.330483887651205
0.476338510332446 0.245176088144852 0.330483887651205
0.462480942651739 0.258813019714726 0.330483887651205
0.459149877960182 0.265470251041586 0.330483887651205
0.455525169210834 0.276699732888846 0.330483887651205
0.446671935007912 0.281362723513191 0.330483887651205
0.451372117685842 0.285303635180023 0.330483887651205
0.440574425213277 0.298868510111832 0.330483887651205
0.435859091390187 0.307141855224205 0.330483887651205
0.427807214520128 0.315846946862856 0.330483887651205
0.464459225402446 0.238800333265631 0.145183822444158
0.464459225402446 0.237194528747907 0.162898921720196
0.464459225402446 0.236306760531476 0.169875348327219
0.464459225402446 0.245744004042003 0.175570084749662
0.464459225402446 0.251802743743757 0.177858131595256
0.460316038564116 0.256363823151964 0.187101253486075
0.461036509458705 0.25802265297578 0.184589597593738
0.460316038564116 0.253203045048346 0.201218165123432
0.460316038564116 0.256593397868275 0.206866832749661
0.460316038564116 0.25565816089933 0.220181456482909
0.460316038564116 0.242192725119492 0.237453229476598
0.5 0.189859737715836 0.314184891604473
0.5 0.190589540261636 0.323839823345278
0.5 0.202580119381039 0.31987571850025
0.490416419374375 0.205126998856165 0.330483887651205
0.493875550975091 0.213823840495867 0.330483887651205
0.489107748336936 0.218435331609256 0.330483887651205
0.476760072051735 0.229213890456174 0.330483887651205
0.475831761085137 0.230464673479489 0.330483887651205
0.472183190923763 0.238678473983539 0.330483887651205
0.464597483348812 0.243708949764922 0.330483887651205
0.450028206961576 0.263096931305161 0.330483887651205
0.454428156856649 0.262013681407019 0.330483887651205
0.44494627008866 0.281475909852969 0.330483887651205
0.442554234365575 0.284411152522691 0.330483887651205
0.427551344215766 0.294877122272589 0.330483887651205
0.426711527952992 0.299756381691435 0.330483887651204
0.421261728826302 0.313581434516102 0.330483887651205
0.464459225402446 0.230192909247652 0.149323940482489
0.464459225402446 0.232722832186584 0.168969439430201
0.464459225402446 0.225128820565604 0.177827694655485
0.46252353735394 0.226658210861273 0.181112457523411
0.460355087089951 0.244029850124606 0.181112457523411
0.460316038564116 0.233777069013051 0.197565191151046
0.460316038564116 0.235381185867824 0.203442421978736
0.460316038564116 0.24424612378293 0.211389066058257
0.460316038564116 0.241628539098677 0.221883430867287
0.460316038564116 0.239282812199594 0.231794831783853
0.460316038564116 0.235196646201971 0.238713849328768
0.5 0.181007742254238 0.313946163328135
0.5 0.180013474129947 0.328766956208527
0.492566963685069 0.187729723166111 0.330483887651205
0.492683476009688 0.190606339746933 0.330483887651205
0.48179533057873 0.200098323088917 0.330483887651204
0.476991453695532 0.208039367304019 0.330483887651205
0.474269575911148 0.2240362957694 0.330483887651205
0.470846146423507 0.228663889785116 0.330483887651205
0.458068219095397 0.23769717330129 0.330483887651204
0.453352192810111 0.241370134658157 0.330483887651205
0.452128986397087 0.249239396959074 0.330483887651205
0.44074838413222 0.259980038943976 0.330483887651205
0.444958335148576 0.266175199950795 0.330483887651205
0.43303225563149 0.282531534943877 0.330483887651205
0.428217438514939 0.287657152060523 0.330483887651205
0.415663023047115 0.300997133429895 0.330483887651205
0.414303080432536 0.302387044508156 0.330483887651205
0.40864336928247 0.315462691435065 0.330483887651205
0.464459225402446 0.221428949742187 0.162024947684488
0.464459225402446 0.218469825346663 0.176544129842009
0.460423878429471 0.222476268492581 0.181112457523411
0.460316038564116 0.215135410863507 0.194187286264963
0.460316038564116 0.215416983042703 0.202381043586484
0.460316038564116 0.212093400531697 0.218365545633277
0.460316038564116 0.212162257980916 0.224935121132282
0.460316038564116 0.222338832526607 0.232464822107737
0.460316038564116 0.226699756145485 0.228926399107629
0.460316038564116 0.217748935062894 0.245757159757782
0.5 0.166981696033216 0.327111487190074
0.5 0.16778493692721 0.327704206043846
0.494757728735359 0.175870959736131 0.330483887651205
0.486980072866491 0.174640949463166 0.330483887651205
0.487178531376007 0.180546154409285 0.330483887651205
0.472502240384467 0.199893168061601 0.330483887651205
0.469674654266313 0.207216207570755 0.330483887651205
0.462289966272942 0.215685621537188 0.330483887651205
0.454114498942902 0.218818916418363 0.330483887651205
0.459368885501372 0.222845164749957 0.330483887651204
0.450887746612131 0.236362887250092 0.330483887651205
0.43980512170385 0.248936242605353 0.330483887651205
0.434755260491326 0.260053073342445 0.330483887651205
0.435835055408316 0.261320649778376 0.330483887651205
0.421114439798765 0.278513635708472 0.330483887651205
0.417431625095004 0.275794181600926 0.330483887651205
0.412361155655867 0.28680512945897 0.330483887651205
0.400818975133757 0.301849295243095 0.330483887651205
0.393265761051006 0.308262311225043 0.330483887651205
0.464459225402446 0.196623925411011 0.177000917696247
0.460316038564116 0.201483631740451 0.18144406416264
0.460316038564116 0.202248127104254 0.192158088982036
0.460316038564116 0.201064788636093 0.199682188315104
0.460316038564116 0.199624268124664 0.220834060228579
0.460316038564116 0.213713819619327 0.211728017344869
0.460316038564116 0.195671026501836 0.23550602131211
0.460316038564116 0.205241258204932 0.233570887637484
0.5 0.147480789775435 0.320165245759632
0.5 0.150579565177775 0.316807031838945
0.5 0.153537798011611 0.325918904314496
0.494594473099117 0.151819843683157 0.330483887651205
0.486417568027925 0.166200094156683 0.330483887651205
0.476559291131832 0.179610794083728 0.330483887651205
0.481187347547095 0.17510753651844 0.330483887651205
0.47545195444234 0.189413170231171 0.330483887651205
0.461260616871833 0.192710778232707 0.330483887651205
0.460010448025814 0.202113526024009 0.330483887651205
0.452362470298493 0.214797451472486 0.330483887651205
0.444825160868 0.225053952751559 0.330483887651205
0.437200254471498 0.227060437040813 0.330483887651205
0.430239561160063 0.237044836182239 0.330483887651205
0.436034040029382 0.24450987527279 0.330483887651205
0.4237819026926 0.262402822003591 0.330483887651205
0.415763642202976 0.266220044275876 0.330483887651205
0.415498587308078 0.26638015356463 0.330483887651205
0.398805315349411 0.283115187445038 0.330483887651205
0.395408338737082 0.287408991956075 0.330483887651205
0.388675574944642 0.297184666362205 0.330483887651204
0.387670786791578 0.310829950045116 0.330483887651205
0.37983401441328 0.314705640466271 0.330483887651205
0.464459225402446 0.183965859087179 0.180559239178564
0.460316038564116 0.189042436603075 0.190922113312699
0.460316038564116 0.184263201051109 0.208008213045422
0.460316038564116 0.186810809247803 0.205023511444254
0.460316038564116 0.1821111571327 0.223789813691268
0.460316038564116 0.18752393539707 0.231749414906033
0.460316038564116 0.186678099995172 0.237502307716474
0.5 0.13671213543903 0.312338366281707
0.5 0.14148683960981 0.314507888966071
0.499134012574403 0.131730939601999 0.330483887651205
0.497105467149791 0.140806267161873 0.330483887651205
0.490207766638366 0.144363946325909 0.330483887651205
0.477117025325175 0.159609203451006 0.330483887651204
0.474907828339407 0.161056918781642 0.330483887651205
0.46728146609429 0.169371629011148 0.330483887651205
0.461894379742599 0.176366984872937 0.330483887651205
0.459356959570607 0.192647581720692 0.330483887651205
0.448839428248374 0.197387037250925 0.330483887651205
0.451481292283202 0.207424896261575 0.330483887651204
0.443782390286945 0.219443200539252 0.330483887651205
0.435731422556119 0.22459326640459 0.330483887651205
0.430140584622335 0.238032620018504 0.330483887651205
0.423008262788628 0.238101665796393 0.330483887651205
0.414290939131886 0.254564556783653 0.330483887651205
0.411772381427284 0.26473551158307 0.330483887651205
0.403829378731907 0.260162688918762 0.330483887651205
0.4006329030014 0.273413509818065 0.330483887651205
0.392049139391843 0.283066000497896 0.330483887651205
0.390791774628671 0.286982472318517 0.330483887651205
0.37615696459339 0.308265871895241 0.330483887651205
0.369910390957144 0.314392922889034 0.330483887651205
0.460316038564116 0.174155647135571 0.194091790990653
0.458282544840969 0.172545816062255 0.206565750982964
0.457909196903245 0.172546091139852 0.206239222612133
0.45894237483667 0.172528625984465 0.226971077162021
0.460316038564116 0.177748335491962 0.227605713084887
0.460316038564116 0.177873698307546 0.236560576802614
0.460316038564116 0.18037045654572 0.24541355596987
0.5 0.120445498375331 0.321893292435845
0.498798497988637 0.114453713878422 0.330483887651205
0.495893849519556 0.126266188953723 0.330483887651205
0.491562732260972 0.132915234009231 0.330483887651205
0.4774106270285 0.143857538269069 0.330483887651205
0.477536685805427 0.147994474567281 0.330483887651205
0.472684492422821 0.161332798467124 0.330483887651205
0.464853313838822 0.173063946460746 0.330483887651205
0.462944710563416 0.17658075791104 0.330483887651205
0.454132613571111 0.186332903695587 0.330483887651205
0.452175199170119 0.186044279981085 0.330483887651204
0.441032612832073 0.196552796061308 0.330483887651205
0.438266406353209 0.20972900031556 0.330483887651205
0.435078009027139 0.210913567706743 0.330483887651205
0.419633394189292 0.229569271472442 0.330483887651205
0.417183669181621 0.228557573982153 0.330483887651205
0.40996001175701 0.237607563909274 0.330483887651205
0.404370719617275 0.249658168376336 0.330483887651204
0.40033111628118 0.260690245799161 0.330483887651205
0.393323554896085 0.260495397871078 0.330483887651205
0.382136837501244 0.279851707492378 0.330483887651205
0.385236341003731 0.283924672719142 0.330483887651204
0.366342949864191 0.292258101892878 0.330483887651204
0.366522579981387 0.296491201543136 0.330483887651205
0.462517106571979 0.156133503584116 0.205380200563713
0.462517106571979 0.14522907746793 0.226338101816415
0.462517106571979 0.147886779880711 0.232219772643254
0.462517106571979 0.146356040024424 0.245180794896333
0.453855156279861 0.172528080997234 0.22761799932006
0.45453502893817 0.17252205921295 0.234766103824833
0.497291777298786 0.102376405439979 0.330483887651205
0.5 0.103461118647045 0.329121735772787
0.490951810762259 0.121715647697098 0.330483887651205
0.490144210168569 0.118721216318403 0.330483887651205
0.485612509513952 0.131702582816551 0.330483887651205
0.471274720560726 0.133894615079132 0.330483887651205
0.469541209559308 0.149308821979026 0.330483887651205
0.46085563907935 0.159288916785469 0.330483887651205
0.457299909308295 0.162830075833031 0.330483887651205
0.456268248630668 0.170275322612313 0.330483887651205
0.444939176734305 0.178484123294676 0.330483887651205
0.437592329221948 0.184654233521536 0.330483887651205
0.430704430078721 0.188679394279967 0.330483887651204
0.427226601130152 0.200854980531079 0.330483887651205
0.418116214245878 0.211627013457157 0.330483887651205
0.417811185034623 0.220500012977653 0.330483887651205
0.404434078087613 0.228117320010456 0.330483887651205
0.401559341092063 0.234345892427923 0.330483887651205
0.402431417162234 0.245771165900386 0.330483887651204
0.397030865995843 0.246993631699046 0.330483887651205
0.388236210552984 0.253874846798698 0.330483887651205
0.37889174809377 0.273040960211701 0.330483887651205
0.378727301865785 0.273657455154861 0.330483887651205
0.367885010284876 0.287222114215127 0.330483887651205
0.355823325375148 0.297591854066069 0.330483887651205
0.349006742883034 0.304569970189325 0.330483887651205
0.462517106571979 0.141579225144749 0.220664175275153
0.462517106571979 0.139540950537215 0.22571206349584
0.462517106571979 0.140039701300368 0.232782066196131
0.5 0.0810639521310927 0.314369705544552
0.462517106571979 0.138613045063094 0.248618406658933
0.499502584117656 0.0875576674022601 0.330483887651205
0.498668122504513 0.0907721812444761 0.330483887651205
0.491842180643209 0.0981501871339497 0.330483887651205
0.48358757009504 0.105283987831969 0.330483887651205
0.48271269879868 0.114544909303885 0.330483887651205
0.473148846452263 0.125956362558402 0.330483887651205
0.466091070890474 0.136314869361868 0.330483887651205
0.462573306133453 0.133716470347757 0.330483887651205
0.455213210238114 0.14150039934498 0.330483887651204
0.450813873250793 0.155493776888788 0.330483887651205
0.448606226641355 0.164632225725871 0.330483887651204
0.439813887873478 0.169015859020605 0.330483887651204
0.4271984103914 0.179903121241197 0.330483887651204
0.426085426377738 0.186558093757005 0.330483887651204
0.419763651553294 0.201227998146382 0.330483887651205
0.42008619599127 0.19983307692422 0.330483887651205
0.414459133622451 0.210549957235887 0.330483887651205
0.398116752629518 0.224489577335688 0.330483887651205
0.398034660761719 0.22646850890503 0.330483887651205
0.393624722047573 0.233468590014925 0.330483887651205
0.378658651903592 0.245187525471186 0.330483887651205
0.376129629169938 0.256739854710463 0.330483887651204
0.365087669482 0.262429738892899 0.330483887651205
0.357713715540351 0.275796876760572 0.330483887651205
0.356219391465513 0.275999520387027 0.330483887651205
0.357868252025378 0.283913607450907 0.330483887651205
0.34665598751058 0.29855745092691 0.330483887651205
0.332096812909056 0.312451401256849 0.330483887651205
0.462517106571979 0.122043814955069 0.229137630986597
0.462517106571979 0.125659676085534 0.244020226760076
0.5 0.0707549547660595 0.314170030347586
0.5 0.0691035907458477 0.321817521627451
0.499083700160664 0.0720774778443096 0.330483887651204
0.499629637815631 0.0804432688021553 0.330483887651205
0.493521640866361 0.0802781817280052 0.330483887651204
0.479929621734696 0.0908519809950818 0.330483887651204
0.476321168883258 0.10381097912262 0.330483887651205
0.477633017502009 0.108085326991292 0.330483887651205
0.465774245889949 0.11834369542654 0.330483887651205
0.463121287294472 0.125420485812818 0.330483887651205
0.461925172381687 0.129984286446524 0.330483887651205
0.452083643102945 0.134170787191843 0.330483887651205
0.439219520871689 0.151397866726001 0.330483887651205
0.433016529015741 0.161011601296736 0.330483887651205
0.42983639001654 0.158246415914286 0.330483887651205
0.428226317736733 0.175588335910471 0.330483887651205
0.415516086586951 0.179009673922514 0.330483887651205
0.415786161538765 0.184552267086587 0.330483887651205
0.4090393296991 0.201499495259952 0.330483887651205
0.399593023564932 0.210654667757589 0.330483887651205
0.389803540450109 0.216878139878094 0.330483887651205
0.396457350302419 0.216035451799028 0.330483887651205
0.38365899381865 0.236499143323772 0.330483887651205
0.378226892499765 0.243926543509051 0.330483887651205
0.364789791191291 0.251559041540043 0.330483887651204
0.364034416567312 0.253553168500826 0.330483887651205
0.364535124634822 0.265079981485738 0.330483887651205
0.349726423687595 0.272160986440527 0.330483887651204
0.349225561700164 0.28609276517158 0.330483887651205
0.337085333510923 0.29384310271423 0.330483887651205
0.332235737665705 0.298649230356883 0.330483887651205
0.322675494459742 0.304360423144577 0.330483887651205
0.320402687229328 0.316471924310797 0.330483887651205
0.462517106571979 0.100459593731774 0.246613314396705
0.5 0.0529070333151071 0.318428525088401
0.5 0.0493193070179824 0.322794971708054
0.498449056561379 0.0618102216056913 0.330483887651205
0.493349965335357 0.063648343898686 0.330483887651205
0.492376478651846 0.0729658800177421 0.330483887651205
0.479379007393001 0.0850079817717296 0.330483887651204
0.482254594144938 0.0833084672437472 0.330483887651205
0.470423789176923 0.0921619959385168 0.330483887651205
0.46768166654996 0.102307264694982 0.330483887651205
0.46235447974495 0.104986780355185 0.330483887651205
0.45356432000064 0.11904133475622 0.330483887651205
0.45484359394453 0.11922854278635 0.330483887651205
0.445255296817017 0.140435989407836 0.330483887651205
0.434419592533217 0.147641106609679 0.330483887651205
0.430444082470139 0.147386668759993 0.330483887651205
0.429968564373726 0.154096932058376 0.330483887651204
0.42070509353354 0.172056972059947 0.330483887651205
0.412069820287121 0.17139701798493 0.330483887651205
0.409374131808202 0.175194610204329 0.330483887651205
0.397769708662793 0.193564414977183 0.330483887651205
0.397222000846951 0.194922270152994 0.330483887651205
0.386097794766937 0.207501091468271 0.330483887651205
0.384809048956673 0.216713474311224 0.330483887651205
0.381775847365293 0.217473871151099 0.330483887651205
0.373797542392203 0.23640674047034 0.330483887651205
0.366391273482486 0.240631357583016 0.330483887651205
0.352242613872716 0.253951111023705 0.330483887651205
0.349211426744674 0.256001326438794 0.330483887651205
0.344109582982713 0.267092475237057 0.330483887651205
0.334176835455073 0.27810989385895 0.330483887651204
0.33154354826724 0.283696248620621 0.330483887651205
0.321202268138183 0.295595607124787 0.330483887651204
0.31748964229551 0.31017101341825 0.330483887651205
0.311668370134774 0.312640547797008 0.330483887651205
0.5 0.0362771211070504 0.317276075835377
0.5 0.0393170160991304 0.325435269346398
0.498191723699949 0.0459368828818879 0.330483887651205
0.493645805121626 0.0445636859091409 0.330483887651205
0.491604580970251 0.0580613831465666 0.330483887651205
0.478358123782475 0.0626708122423229 0.330483887651205
0.476072397257618 0.0671634673798389 0.330483887651205
0.469196626732727 0.0813659107048739 0.330483887651205
0.460211501669914 0.0867008877062204 0.330483887651205
0.459090102407103 0.0935897627556658 0.330483887651205
0.453808788874614 0.107032267001856 0.330483887651204
0.44572833724153 0.112222363403408 0.330483887651205
0.445732233707613 0.118201250299055 0.330483887651205
0.443176208788289 0.121185932794479 0.330483887651205
0.431922699634699 0.13313988548278 0.330483887651205
0.424669903662593 0.142238414860207 0.330483887651205
0.4176098112246 0.145546521873216 0.330483887651205
0.413250897101838 0.155535096486102 0.330483887651204
0.402108903975618 0.164242667091607 0.330483887651205
0.402581978215241 0.176274166184563 0.330483887651204
0.401041160018344 0.181074541155791 0.330483887651205
0.387745164820778 0.191017561850411 0.330483887651205
0.377741629282331 0.204487856799892 0.330483887651204
0.377169428986293 0.211113037585057 0.330483887651205
0.371552924564335 0.214373441226395 0.330483887651205
0.362458079301439 0.224497262003411 0.330483887651205
0.353392053850612 0.235947235938688 0.330483887651205
0.347392338170695 0.239451938001573 0.330483887651205
0.33982244156312 0.252217189007411 0.330483887651205
0.341133071225923 0.264053531385444 0.330483887651205
0.337051357120765 0.266030939419848 0.330483887651205
0.327766671954733 0.277871362605858 0.330483887651205
0.321684450928772 0.290201996194462 0.330483887651205
0.309850201772604 0.302361393963792 0.330483887651205
0.30581701065202 0.305686000584073 0.330483887651205
0.297367384477926 0.309121562511508 0.330483887651205
0.5 0.0268799707662835 0.323922711381538
0.496040340103427 0.0286354930433007 0.330483887651205
0.494555564608919 0.0395696485758855 0.330483887651205
0.484791044037544 0.0434212196670141 0.330483887651205
0.486983277821421 0.0551985851602207 0.330483887651205
0.47898586228834 0.0562847723726471 0.330483887651205
0.472363769056555 0.0705187138025987 0.330483887651205
0.465501268297185 0.0691084120409811 0.330483887651204
0.460416653208171 0.0774750843029852 0.330483887651205
0.453179531558301 0.0911064089916472 0.330483887651205
0.444960228438441 0.0950797858628716 0.330483887651205
0.437016497280885 0.110678698228203 0.330483887651205
0.441554898170099 0.107933740386098 0.330483887651205
0.425578161266014 0.120191381090672 0.330483887651205
0.422416375364107 0.124883364295118 0.330483887651205
0.41305232473893 0.138115450320133 0.330483887651205
0.415289805445811 0.14420322140781 0.330483887651205
0.40937228667061 0.153458340523537 0.330483887651205
0.40719100474347 0.151440892001492 0.330483887651205
0.394515651041801 0.163939546951523 0.330483887651205
0.389328345719504 0.177060829875134 0.330483887651205
0.382434438697641 0.18812732801002 0.330483887651204
0.371894477500668 0.189341250657224 0.330483887651205
0.372678964839012 0.203289427554427 0.330483887651205
0.369422780898871 0.208635973067949 0.330483887651205
0.361360084285638 0.216036898195805 0.330483887651204
0.354684336382942 0.22526289239048 0.330483887651204
0.345939128273748 0.241420994469269 0.330483887651205
0.338658527480684 0.24326904903622 0.330483887651205
0.334965390584015 0.24733732151203 0.330483887651205
0.325837543991448 0.261593818831003 0.330483887651205
0.323762618921921 0.262771203796349 0.330483887651205
0.304468949239001 0.283475992785678 0.330483887651205
0.301220570864749 0.288957580333196 0.330483887651205
0.300927077958939 0.292244861417194 0.330483887651205
0.297078717273536 0.29680587513898 0.330483887651205
0.497952196262138 0.013544664817374 0.330483887651204
0.492174629399958 0.0309846592502026 0.330483887651205
0.489621670841638 0.0292398734387195 0.330483887651205
0.481048692853911 0.04014072421988 0.330483887651205
0.468378356074509 0.0521205916247462 0.330483887651205
0.471453784626221 0.0558206226769107 0.330483887651205
0.461187747251999 0.061164263862948 0.330483887651204
0.459967810084489 0.0744772290196068 0.330483887651205
0.457087976318104 0.0740037402212672 0.330483887651205
0.445701546393775 0.0852387013245137 0.330483887651205
0.443312189800665 0.0906921192211103 0.330483887651205
0.441851640022146 0.0963433012425378 0.330483887651205
0.428770672514673 0.10175978559549 0.330483887651205
0.422539390829546 0.112541816870438 0.330483887651205
0.421534307683564 0.118001759789441 0.330483887651205
0.416601799166488 0.129490346853017 0.330483887651205
0.406836097045985 0.135624940335788 0.330483887651205
0.3938537535981 0.144888812037847 0.330483887651205
0.391455683503778 0.159686034587528 0.330483887651205
0.390782357381527 0.158064741970188 0.330483887651204
0.380788525924982 0.166645492193594 0.330483887651205
0.370881517467593 0.181875332869587 0.330483887651205
0.369912650968761 0.191131172855248 0.330483887651204
0.365234164036984 0.190014427661761 0.330483887651204
0.360575688885545 0.20229633217763 0.330483887651205
0.345526690729685 0.212291061626258 0.330483887651205
0.346167216118842 0.22127797456682 0.330483887651204
0.33714977376603 0.225283081247761 0.330483887651205
0.335202480783837 0.236633220427814 0.330483887651205
0.325762212190896 0.242824335640272 0.330483887651205
0.312579667195805 0.253643167610133 0.330483887651205
0.310604456615252 0.264665960818556 0.330483887651204
0.304863177627269 0.272215563459065 0.330483887651205
0.296019068516967 0.279290104727416 0.330483887651204
0.29009388852189 0.281576601022449 0.330483887651204
0.283736589811338 0.298723531422253 0.330483887651205
0.275500331094168 0.308127586747199 0.330483887651205
0.263437839736476 0.315980415887579 0.330483887651205
0.491382337898723 0.0171890884135887 0.330483887651205
0.485163792796777 0.0133764623697323 0.330483887651205
0.478709531354231 0.0321571040839543 0.330483887651205
0.469423361148808 0.0394022932782828 0.330483887651205
0.467870705340433 0.0429816464866346 0.330483887651205
0.459847507904804 0.0496009946346524 0.330483887651205
0.452672030308288 0.0526032217364618 0.330483887651205
0.451571947415895 0.0613473736112836 0.330483887651205
0.452906063720027 0.0662437734706407 0.330483887651205
0.437393177075952 0.0773575146681539 0.330483887651204
0.438104873469877 0.083832116495065 0.330483887651205
0.427395583658717 0.0959388405574386 0.330483887651205
0.420675492049733 0.103079800837105 0.330483887651205
0.416132482614312 0.105203404248902 0.330483887651205
0.40912482107835 0.112565934768388 0.330483887651205
0.407964741692003 0.11658368750057 0.330483887651205
0.40229080085415 0.133350609010289 0.330483887651205
0.39838241747939 0.139004424980169 0.330483887651205
0.386065116594013 0.145191770407984 0.330483887651205
0.380037269021516 0.155231124123365 0.330483887651205
0.378388357750828 0.162092913755633 0.330483887651205
0.369720338728683 0.173757878458668 0.330483887651205
0.36418614859774 0.177520449800549 0.330483887651205
0.353400840597521 0.191344787187794 0.330483887651204
0.346905189787397 0.202596878388863 0.330483887651204
0.345768063213699 0.198871878498857 0.330483887651205
0.336247421339342 0.212243381128757 0.330483887651205
0.333309160935615 0.212808352917545 0.330483887651204
0.321750120744472 0.228045600607837 0.330483887651205
0.318952134436079 0.233255620656115 0.330483887651205
0.308070218494395 0.249512979007817 0.330483887651205
0.304369921177994 0.256274100778809 0.330483887651205
0.295133260325566 0.266563073581429 0.330483887651205
0.290895725709397 0.271464597402382 0.330483887651205
0.278209010544472 0.282650486522898 0.330483887651205
0.276594678492697 0.294725327925644 0.330483887651205
0.263774046069401 0.298819186495386 0.330483887651205
0.262815622289851 0.308556298428202 0.330483887651205
0.25805653289328 0.312214476868647 0.330483887651205
0.486127623384288 0.00559815859237339 0.330483887651204
0.473733714609238 0.0146052788869752 0.330483887651205
0.47059800711291 0.0260001252732665 0.330483887651205
0.470898047259178 0.0255959725085582 0.330483887651205
0.457603090770009 0.0327402676115087 0.330483887651205
0.45464476385847 0.0362086419272136 0.330483887651205
0.44793240361509 0.0509927190645253 0.330483887651204
0.447963607063738 0.0494726204015541 0.330483887651205
0.445246258271676 0.0590087773436737 0.330483887651205
0.43578592026506 0.0732990610056991 0.330483887651204
0.42567948498325 0.0797543133906286 0.330483887651205
0.417996622526258 0.0899421537170426 0.330483887651205
0.420673731343022 0.0846185727154196 0.330483887651205
0.406642392358817 0.0975860868905071 0.330483887651205
0.403022162981297 0.106012514923768 0.330483887651205
0.39207761787578 0.118816510386172 0.330483887651205
0.389646910669135 0.120764882760317 0.330483887651205
0.383565395464307 0.126376711150897 0.330483887651205
0.383172487534827 0.141712917107319 0.330483887651205
0.374879406939847 0.148321567648435 0.330483887651205
0.36935458355834 0.153288107074525 0.330483887651205
0.365323020080196 0.162283558900857 0.330483887651204
0.359573961156738 0.167940135604602 0.330483887651205
0.351523129735004 0.179126624646502 0.330483887651205
0.342843709667747 0.184926660021828 0.330483887651205
0.336649349039839 0.197140253998706 0.330483887651205
0.324455602991023 0.211552474273727 0.330483887651204
0.321428913686783 0.219758667478684 0.330483887651205
0.319579345663499 0.215751287546103 0.330483887651205
0.315163658702117 0.231744453354066 0.330483887651205
0.298073811213341 0.242119084507673 0.330483887651205
0.293391379983167 0.250096037113024 0.330483887651204
0.284995634656212 0.258818660484328 0.330483887651205
0.282941865039447 0.26838309287684 0.330483887651205
0.274206281541518 0.271640494444385 0.330483887651205
0.273796669305398 0.286238477972163 0.330483887651205
0.257255229160759 0.297806922654304 0.330483887651205
0.24955475566338 0.299257102656266 0.330483887651205
0.246550749812059 0.305033490117478 0.330483887651205
0.477150931500667 -0.000463224508121448 0.330483887651205
0.472469353888366 0.00615971296524129 0.330483887651204
0.466796383237122 0.0132942628412411 0.330483887651205
0.464373431629831 0.0234456046220445 0.330483887651205
0.456475650171972 0.0228430020362159 0.330483887651205
0.448714917224292 0.0309542317960713 0.330483887651205
0.442387988339713 0.0431454238227562 0.330483887651205
0.442755382677828 0.0434254751553756 0.330483887651205
0.436647675528117 0.0533309730377613 0.330483887651205
0.426632136895813 0.0614919933581187 0.330483887651205
0.426130455768863 0.0672946511221423 0.330483887651204
0.416075735865616 0.0802187735264716 0.330483887651205
0.408719852963286 0.0803384293405806 0.330483887651205
0.406732376096899 0.0936651128437312 0.330483887651205
0.401912600898001 0.10536984839101 0.330483887651205
0.388641866793721 0.114404849236001 0.330483887651205
0.389274703557629 0.114615310322852 0.330483887651205
0.376703784076216 0.130779373424233 0.330483887651205
0.370787230189388 0.131935825791015 0.330483887651205
0.374296117701561 0.133590713112638 0.330483887651204
0.357915768825918 0.149616896434718 0.330483887651205
0.362187578250114 0.150591372911091 0.330483887651205
0.345502436351374 0.163845034999547 0.330483887651205
0.33768982983882 0.170367214286063 0.330483887651205
0.334673677646565 0.182640356850615 0.330483887651205
0.330702053896267 0.198306926880446 0.330483887651205
0.316691233714347 0.201931877627224 0.330483887651205
0.3161814662994 0.211548545510344 0.330483887651205
0.306278921993161 0.21730064102111 0.330483887651205
0.301130060058184 0.223661114661007 0.330483887651205
0.294114244148602 0.230004631845937 0.330483887651205
0.291449266289617 0.248763564795634 0.330483887651205
0.285583994846553 0.25496603873382 0.330483887651205
0.283059947009258 0.259684678132565 0.330483887651205
0.265587708122835 0.264014114230246 0.330483887651205
0.258526059705475 0.275770927621489 0.330483887651205
0.254449552468028 0.286742213023822 0.330483887651205
0.246072245629634 0.302479956368577 0.330483887651205
0.246201696764561 0.303680621291075 0.330483887651205
0.47203532266512 -0.00373971999886248 0.330483887651205
0.464496916489484 0.00131866178317989 0.330483887651205
0.461712795645382 0.00188835674137724 0.330483887651205
0.460703917161182 0.00995869463026923 0.330483887651205
0.455753716395393 0.0201981666157726 0.330483887651204
0.443275477949463 0.0216634081054042 0.330483887651205
0.443958864689538 0.0277211896267596 0.330483887651204
0.42875294934099 0.0430737327555658 0.330483887651205
0.42471174596404 0.0453624725706105 0.330483887651205
0.420274743639954 0.0643846881121969 0.330483887651205
0.417221678236622 0.0688344424158917 0.330483887651205
0.407049644432737 0.0767558851297281 0.330483887651205
0.40539698401336 0.083461999985905 0.330483887651205
0.401140927811554 0.0866589627527577 0.330483887651205
0.389743134480774 0.0900518872175953 0.330483887651205
0.379557981989784 0.101256170154136 0.330483887651205
0.377210673620813 0.109713428007373 0.330483887651205
0.371706575575485 0.120091518473418 0.330483887651205
0.367921379909392 0.127313812570888 0.330483887651205
0.35566512988528 0.139458702476474 0.330483887651205
0.357332603186381 0.139823595959182 0.330483887651205
0.350371540601913 0.142995805518433 0.330483887651205
0.34443544435304 0.165168906564634 0.330483887651205
0.338052068206172 0.165635863305112 0.330483887651204
0.329088505481216 0.175967484972961 0.330483887651205
0.316538557376516 0.183463098431343 0.330483887651205
0.316719120219734 0.189767155714018 0.330483887651205
0.314022212347769 0.195055223952417 0.330483887651205
0.309997308527314 0.206931633376397 0.330483887651205
0.2956586572322 0.212800896099118 0.330483887651205
0.29264763760873 0.231989714538426 0.330483887651204
0.289078871021062 0.228938235597829 0.330483887651205
0.273029276085714 0.242937681950398 0.330483887651205
0.27090010092837 0.254154686277448 0.330483887651205
0.259214293702558 0.26469901138577 0.330483887651204
0.256500674658534 0.263183578752298 0.330483887651204
0.247881586886935 0.27697003237238 0.330483887651205
0.240371586971901 0.28895129043464 0.330483887651204
0.235943496174709 0.301126641552404 0.330483887651205
0.220278474116687 0.310815321438691 0.330483887651205
0.214977149758916 0.315430822167032 0.330483887651205
0.465714791911096 -0.0163365245957519 0.330483887651205
0.456132284113182 -0.00799505701722467 0.330483887651205
0.449745856205262 0.00475335725251774 0.330483887651205
0.445122070266641 0.0115735101719612 0.330483887651205
0.439951585695131 0.0201216731777539 0.330483887651205
0.442379678839014 0.0159285264426736 0.330483887651205
0.434985319922221 0.0244586023615903 0.330483887651205
0.424476307646941 0.0402444225242563 0.330483887651205
0.419678685807699 0.0455344635200223 0.330483887651204
0.418843721529076 0.0485340691477072 0.330483887651205
0.413417345498671 0.0540933028364264 0.330483887651205
0.397175499664679 0.0677748538443989 0.330483887651205
0.393984037417144 0.0677269773686654 0.330483887651204
0.388434760070983 0.0817356871503571 0.330483887651205
0.386733709751269 0.0883418992215233 0.330483887651205
0.373280820768416 0.102361660023669 0.330483887651205
0.376310563016181 0.106687899264369 0.330483887651205
0.360578461857606 0.113093235631503 0.330483887651205
0.364042158271306 0.118723269910437 0.330483887651205
0.358284753517511 0.1300983612891 0.330483887651204
0.349572867133281 0.133752443830405 0.330483887651205
0.336165859642165 0.145408591094137 0.330483887651204
0.333710279881449 0.155804944019893 0.330483887651205
0.335322247607474 0.159892392331132 0.330483887651205
0.319048090641592 0.167401685430135 0.330483887651205
0.31454707886664 0.170937020756893 0.330483887651205
0.308464842594801 0.190318591879511 0.330483887651204
0.3029015859419 0.187646476789402 0.330483887651205
0.295318109721793 0.203491448170997 0.330483887651205
0.289590294784305 0.212189639030748 0.330483887651205
0.27976838139772 0.213913431390369 0.330483887651205
0.270492341183934 0.228041311808384 0.330483887651205
0.267089352686886 0.235300689306766 0.330483887651205
0.267659535652761 0.236392534764368 0.330483887651205
0.258109324273715 0.248919653153459 0.330483887651205
0.24224534238179 0.267213710140722 0.330483887651205
0.23804013588377 0.272481663588168 0.330483887651205
0.231411604145327 0.284045861614185 0.330483887651205
0.225151987400691 0.290737834539313 0.330483887651205
0.219332464160032 0.299727042834901 0.330483887651204
0.214072333864534 0.303711042980655 0.330483887651205
0.461416825692538 -0.0139337942709048 0.330483887651205
0.453617019267552 -0.0147165015285053 0.330483887651205
0.454825755804244 -0.0120744528844032 0.330483887651205
0.438567494602919 -0.0035653937160543 0.330483887651205
0.434950597923641 0.00692348611965801 0.330483887651205
0.432913150909101 0.0159718293828091 0.330483887651205
0.419802090181706 0.0278683794623747 0.330483887651204
0.420072755589431 0.0336764260382559 0.330483887651204
0.411646234699966 0.0391790452270425 0.330483887651204
0.408369091534125 0.040519883401108 0.330483887651205
0.402998407205454 0.0491110647697347 0.330483887651205
0.397474693016896 0.0563838687473863 0.330483887651205
0.386892372981417 0.0711857053921793 0.330483887651205
0.387302115206049 0.073357603882569 0.330483887651205
0.375336869274733 0.0829255526302342 0.330483887651205
0.37759926614589 0.0867056322096602 0.330483887651205
0.372168279928665 0.0903541181521835 0.330483887651205
0.355828178606172 0.108188253249976 0.330483887651205
0.353630257517244 0.110332239002149 0.330483887651205
0.343719197900135 0.124566645446331 0.330483887651205
0.343479153467975 0.135972274407474 0.330483887651204
0.337223291350408 0.136981806930564 0.330483887651205
0.330594268601085 0.142575018620318 0.330483887651205
0.323192629720289 0.147126142769822 0.330483887651205
0.314808559579909 0.162626815318573 0.330483887651205
0.309177779980083 0.168938962621651 0.330483887651205
0.300309686571628 0.180841548753136 0.330483887651205
0.292009117301621 0.187214634937941 0.330483887651205
0.289055048045032 0.190844501133634 0.330483887651205
0.281101961910944 0.206009252378804 0.330483887651205
0.268745630096503 0.211100537288877 0.330483887651205
0.267792051687989 0.217726562074424 0.330483887651205
0.258550894300378 0.227975574533651 0.330483887651205
0.255686644455413 0.236530839246063 0.330483887651205
0.252084878300501 0.250060307500537 0.330483887651205
0.237156409294974 0.251483855129962 0.330483887651205
0.235966398013379 0.25785167194297 0.330483887651205
0.225449326232992 0.27350599196363 0.330483887651205
0.221237502561569 0.281223342047331 0.330483887651204
0.212863291565377 0.291655677535763 0.330483887651205
0.20270048633274 0.304878282436883 0.330483887651205
0.194800332088017 0.316358166726895 0.330483887651205
0.454380510814933 -0.0298922017747392 0.330483887651205
0.453542756490795 -0.0232100606998264 0.330483887651205
0.43522403658188 -0.00625770301464319 0.330483887651204
0.435653404504679 -0.000160265644909796 0.330483887651204
0.430004170933417 0.00244243739645527 0.330483887651205
0.428366949356269 0.0073695500169431 0.330483887651204
0.419087242729859 0.0172356651351835 0.330483887651205
0.408978485154705 0.0266600780795792 0.330483887651205
0.408558993932053 0.0360899361548249 0.330483887651205
0.40334862589159 0.0411408494646218 0.330483887651205
0.393204557248833 0.0449293264794407 0.330483887651205
0.394151659544926 0.0462872653086664 0.330483887651205
0.380481515625247 0.0615326592384849 0.330483887651204
0.373831833858256 0.071164180766633 0.330483887651204
0.367136268782602 0.0778241492866545 0.330483887651205
0.367169269899786 0.0765467761488552 0.330483887651205
0.356271659608944 0.0916091435582409 0.330483887651205
0.356223557650662 0.0968989145144319 0.330483887651205
0.343120258653637 0.109650255949682 0.330483887651205
0.339536338183361 0.108196670718221 0.330483887651205
0.328499528523645 0.126889392973018 0.330483887651205
0.328958406520153 0.124725251403033 0.330483887651205
0.321809857399921 0.134155108261767 0.330483887651205
0.314722920748201 0.145898574308282 0.330483887651205
0.305173965442635 0.16040465284646 0.330483887651205
0.301648369332469 0.163283302447667 0.330483887651205
0.288355891951931 0.177732162923567 0.330483887651205
0.289571419626177 0.184032362103609 0.330483887651205
0.282033294855621 0.180515045922408 0.330483887651205
0.272331597700887 0.191125036829859 0.330483887651205
0.265779235116486 0.210552244643492 0.330483887651205
0.26642847045242 0.212323911057171 0.330483887651205
0.254093222988012 0.223214486705021 0.330483887651205
0.245969199219915 0.228929181947094 0.330483887651205
0.242078164404733 0.243054086656 0.330483887651205
0.231260087869501 0.249069337879385 0.330483887651205
0.225680878387466 0.266452141053911 0.330483887651205
0.215357693574625 0.263322328609412 0.330483887651205
0.204536525300795 0.280671567732997 0.330483887651205
0.209515875852644 0.286100721205485 0.330483887651205
0.200009483307863 0.290843749902333 0.330483887651205
0.18542499855197 0.309493441274615 0.330483887651205
0.18330867170968 0.311467444827852 0.330483887651205
0.450856409329627 -0.0354026368967071 0.330483887651205
0.443791049822515 -0.024137913149483 0.330483887651204
0.434408365480223 -0.0120519923157565 0.330483887651205
0.430882985921287 -0.011670519691517 0.330483887651205
0.425947910454828 -0.0112367700999639 0.330483887651205
0.413396775781125 0.00762109061647039 0.330483887651205
0.413813788814063 0.00841987523202926 0.330483887651205
0.408225523950408 0.0107675740097013 0.330483887651205
0.405510578955364 0.0191054585045019 0.330483887651205
0.391275722164092 0.0368017717541124 0.330483887651205
0.391909091966475 0.0339500796749683 0.330483887651205
0.376714957938815 0.0469136902334754 0.330483887651205
0.380517660663338 0.052604653105699 0.330483887651205
0.376214929592127 0.0633151384848774 0.330483887651204
0.366583269581614 0.0704609227301658 0.330483887651205
0.359043178090654 0.074869902946513 0.330483887651205
0.350370012293952 0.0842973990086289 0.330483887651205
0.347578251747616 0.0957513737574413 0.330483887651205
0.339287701929349 0.103057256781805 0.330483887651205
0.334053944386249 0.103217704652061 0.330483887651205
0.329595225797168 0.11671400523516 0.330483887651205
0.320297556281935 0.119719880100636 0.330483887651205
0.316097194339746 0.132892386584907 0.330483887651205
0.310708309956234 0.139560094996187 0.330483887651205
0.30097415920927 0.14699798631163 0.330483887651205
0.294415846603184 0.151259797959971 0.330483887651205
0.293907682766899 0.162457833676263 0.330483887651204
0.279490446473237 0.172140748058564 0.330483887651205
0.273390057476104 0.177053487682332 0.330483887651205
0.268985287651115 0.195461173585989 0.330483887651205
0.260451913862472 0.198926562020137 0.330483887651205
0.260195098956042 0.199604984010901 0.330483887651205
0.250899990178599 0.221618824283731 0.330483887651205
0.239884620072616 0.227022518579536 0.330483887651205
0.232552075772801 0.231664687207993 0.330483887651205
0.222441816675977 0.244273475870416 0.330483887651205
0.213661924172428 0.250976144416751 0.330483887651205
0.21336676630405 0.261628176694155 0.330483887651205
0.200721934015644 0.271996962117641 0.330483887651204
0.197152549470804 0.27917193498088 0.330483887651205
0.183665086205984 0.285724101573294 0.330483887651205
0.181694375405095 0.303436509833366 0.330483887651205
0.171346279563598 0.307476610543549 0.330483887651205
0.169336054661061 0.310579924055218 0.330483887651205
0.441417994562472 -0.0409615440066551 0.330483887651205
0.432160899623658 -0.0256948437001661 0.330483887651205
0.429410137800305 -0.026262423738922 0.330483887651205
0.426760302384494 -0.018896188773946 0.330483887651205
0.418442310428536 -0.0140588567745691 0.330483887651204
0.410660506784513 0.000357280748878125 0.330483887651205
0.408096301558689 -0.00020546218272938 0.330483887651205
0.398013806799601 0.0131100953639266 0.330483887651205
0.389990879126411 0.0172044473113983 0.330483887651205
0.393014057048821 0.0249786832621757 0.330483887651204
0.380422026735007 0.0304581197823314 0.330483887651205
0.378845141705923 0.0420660994387961 0.330483887651205
0.367771746608237 0.0455018607225608 0.330483887651205
0.362387713035534 0.0503472768702548 0.330483887651205
0.353662659210112 0.0614499788090599 0.330483887651205
0.350884464165363 0.0656377618725299 0.330483887651204
0.343307594369568 0.0716315163511314 0.330483887651205
0.339015537601876 0.0833260020607013 0.330483887651205
0.332878076791939 0.0956165582406785 0.330483887651205
0.32689673220526 0.0971676397912623 0.330483887651204
0.321626561160595 0.113829134854409 0.330483887651205
0.312675548150151 0.124120042251149 0.330483887651205
0.311480913145656 0.119562077981179 0.330483887651205
0.303464922118394 0.129312362022141 0.330483887651205
0.291927684146926 0.142356340147516 0.330483887651205
0.291688128844052 0.14909705433396 0.330483887651205
0.280067569338396 0.160393056239548 0.330483887651205
0.272139390363145 0.173192344022526 0.330483887651205
0.268417504056989 0.176383697064593 0.330483887651205
0.260056617045455 0.182868213395784 0.330483887651205
0.258469513107962 0.184390898829389 0.330483887651205
0.24149175882015 0.201704168507697 0.330483887651205
0.233445812223188 0.217073035374236 0.330483887651205
0.228592264165624 0.222701567099751 0.330483887651205
0.223710467914753 0.227363630337788 0.330483887651205
0.218561711148682 0.24329141462944 0.330483887651204
0.207114367422438 0.241296547892046 0.330483887651205
0.212970629744839 0.247754048925143 0.330483887651205
