ply
format ascii 1.0
element vertex 858
property float x
property float y
property float z
end_header
-0.318206944367559 0.47683028965576 0.229166666666667
-0.326091840377849 0.465922730037413 0.229166666666667
-0.334362405862907 0.463134938748496 0.229166666666667
-0.343678604506647 0.451041586984799 0.229166666666666
-0.342574780844392 0.451026988605258 0.229166666666667
-0.352733001104834 0.444351485479098 0.229166666666667
-0.369094761456901 0.442445798812061 0.229166666666667
-0.372125283918729 0.432766664075623 0.229166666666667
-0.380666700437628 0.427586763781546 0.229166666666667
-0.392266650329692 0.42058250481295 0.229166666666667
-0.398477986606153 0.415836448736618 0.229166666666667
-0.409147790267325 0.403052915638709 0.229166666666667
-0.42413262722739 0.403905734325359 0.229166666666666
-0.42607209103874 0.403725828349393 0.229166666666667
-0.441057909976291 0.39046053294355 0.229166666666666
-0.449583840738578 0.381559012679495 0.229166666666667
-0.453689534038893 0.379180629413805 0.229166666666667
-0.46808443472526 0.366306033048126 0.229166666666667
-0.478849243367729 0.371219562730509 0.229166666666667
-0.478081405550323 0.356054757775446 0.229166666666667
-0.496464027669804 0.357399498177885 0.229166666666667
-0.499699360054505 0.343946443947465 0.229166666666667
-0.264943814841539 0.494791666666667 0.151697517889744
-0.270505144397114 0.494791666666667 0.16208370459501
-0.277952992173516 0.494791666666667 0.165242980317659
-0.258629920869164 0.494791666666667 0.187257742252677
-0.266677999844492 0.494791666666667 0.193110584567804
-0.277508782698022 0.494791666666667 0.186769966105408
-0.267497678135112 0.494791666666666 0.209367315920792
-0.273984149254073 0.494791666666667 0.207846784987375
-0.26555926093268 0.491401032964988 0.223958333333333
-0.280701341034026 0.487838431322481 0.223958333333333
-0.281842303486064 0.481828991888199 0.223958333333333
-0.291666666666666 0.484801778591888 0.228487944863951
-0.295751919176111 0.474386597777625 0.229166666666667
-0.306157202189123 0.463263406854991 0.229166666666667
-0.317008775057536 0.465430879300098 0.229166666666667
-0.324327830334222 0.454844655291423 0.229166666666667
-0.33632156144704 0.444722923527288 0.229166666666666
-0.336274922381095 0.451578389799152 0.229166666666667
-0.35391569005486 0.439701394384291 0.229166666666667
-0.354297740911074 0.429069194637636 0.229166666666667
-0.366158338894924 0.428066470063472 0.229166666666667
-0.36781838503734 0.424802117133256 0.229166666666667
-0.38243706767185 0.416505437294261 0.229166666666667
-0.389984519105355 0.415645342665004 0.229166666666667
-0.396386469023267 0.40704390441986 0.229166666666667
-0.420978694182651 0.395093716208132 0.229166666666667
-0.426255150808067 0.384901902753759 0.229166666666667
-0.433750551394872 0.378433593176433 0.229166666666667
-0.439623920307688 0.376334939178784 0.229166666666667
-0.45218846831824 0.365732025795804 0.229166666666667
-0.462850183513547 0.363996287336137 0.229166666666667
-0.4607282504042 0.360447400359118 0.229166666666667
-0.481474952355558 0.346114011149083 0.229166666666667
-0.482289045456545 0.343357162867103 0.229166666666667
-0.497648778464006 0.334649340929696 0.229166666666667
-0.258490201803403 0.494791666666667 0.151675088373039
-0.248678834129841 0.494791666666667 0.170808758427918
-0.248614936381479 0.494791666666667 0.183116260939749
-0.25360887551855 0.494791666666667 0.186522249744221
-0.254632060651968 0.494791666666667 0.206258774749944
-0.249616877462229 0.494791666666667 0.209715533111126
-0.257870978611591 0.494791666666667 0.21657223635017
-0.261280847565732 0.489309984934266 0.223958333333334
-0.258301092186084 0.490017610525637 0.223958333333334
-0.266326893068967 0.482018467740846 0.223958333333333
-0.27487276025896 0.482534490967757 0.223958333333333
-0.283079970929996 0.474458499517512 0.223958333333333
-0.294625573345388 0.467966062159088 0.229166666666667
-0.300092660653898 0.46038128360017 0.229166666666667
-0.310338003002609 0.453877817543134 0.229166666666667
-0.320917217842028 0.446939079585264 0.229166666666667
-0.327194858973982 0.44834627307135 0.229166666666667
-0.334038953782723 0.437439909380489 0.229166666666666
-0.347544272359725 0.427915264601622 0.229166666666667
-0.34998577000742 0.426652786720607 0.229166666666667
-0.359678008426155 0.423028581939786 0.229166666666667
-0.36834293424348 0.414427058706065 0.229166666666667
-0.379477549369412 0.406044391432505 0.229166666666666
-0.38522702576827 0.396600604152037 0.229166666666667
-0.399009752681661 0.392178376411764 0.229166666666667
-0.402625460541732 0.390914521077415 0.229166666666667
-0.419279152950651 0.381865237789922 0.229166666666667
-0.427978225366715 0.375152499637234 0.229166666666667
-0.430619790985383 0.374043009788108 0.229166666666667
-0.443676197749015 0.361210982484892 0.229166666666667
-0.453948738806435 0.357784213042017 0.229166666666667
-0.462633896629343 0.357008817987402 0.229166666666667
-0.471724405278534 0.349042719466594 0.229166666666667
-0.481861827578364 0.338079447986664 0.229166666666667
-0.484688153772146 0.33583379683148 0.229166666666667
-0.227006613883856 0.494791666666667 0.18487730369654
-0.241844962344722 0.494791666666667 0.182837270756088
-0.236028456054626 0.494791666666667 0.18507394269707
-0.235676358693266 0.494791666666667 0.206495258530326
-0.23794728281661 0.494791666666667 0.213659803095716
-0.227666782244251 0.493191865673579 0.223958333333333
-0.239484848172328 0.490346208997898 0.223958333333333
-0.254257931977522 0.482709772472759 0.223958333333333
-0.262629169615945 0.472676540487843 0.223958333333333
-0.264714320574912 0.47239403636815 0.223958333333333
-0.279454917879216 0.46608682534564 0.223958333333333
-0.285848315259365 0.458524029775678 0.223958333333333
-0.287226704367507 0.454724769639176 0.223958333333333
-0.297594631118052 0.459155510337389 0.229166666666667
-0.310144072145375 0.442454844987808 0.229166666666667
-0.309837411872436 0.443874001854656 0.229166666666667
-0.318385673393093 0.441757073156389 0.229166666666667
-0.323867698777786 0.427503829308072 0.229166666666667
-0.335031789637365 0.424237346402665 0.229166666666667
-0.341934891636214 0.423142472893005 0.229166666666667
-0.355038045465757 0.413717225115974 0.229166666666667
-0.362683030136667 0.406222581341512 0.229166666666667
-0.378520396276013 0.399300613684724 0.229166666666666
-0.377748760220437 0.391329968876245 0.229166666666666
-0.382951455637473 0.388314055445421 0.229166666666667
-0.395078921815064 0.386755674144623 0.229166666666667
-0.412123258389228 0.373435772281787 0.229166666666667
-0.415242972607755 0.371039344098174 0.229166666666667
-0.424813964221613 0.367402844933083 0.229166666666667
-0.441072096675265 0.358666318769091 0.229166666666667
-0.444282772545903 0.349882075591022 0.229166666666667
-0.455089506522283 0.338569907552633 0.229166666666667
-0.463538529476371 0.338941084973276 0.229166666666666
-0.482373915471048 0.330684017743749 0.229166666666667
-0.485143737381279 0.32270422575623 0.229166666666667
-0.492274706906438 0.323247884059536 0.229166666666667
-0.497184579410861 0.310562124401126 0.229166666666667
-0.222062906821395 0.494791666666666 0.183839032755718
-0.225880385721612 0.494791666666666 0.185886617217133
-0.222977465184862 0.494791666666667 0.201027968141806
-0.213966995217314 0.494791666666666 0.214471108312369
-0.222595327903541 0.494791666666666 0.223269318515011
-0.224731226160817 0.487994050049028 0.223958333333333
-0.234941610207543 0.486489993649237 0.223958333333333
-0.243607835860059 0.479766137688109 0.223958333333333
-0.250955932561923 0.471737222341148 0.223958333333333
-0.257688593381911 0.465463711177329 0.223958333333333
-0.266220590219824 0.464248878248112 0.223958333333333
-0.267586513883313 0.463361979374672 0.223958333333334
-0.283019236179413 0.451078515388188 0.223958333333333
-0.291666666666667 0.446338367045205 0.226712828415233
-0.296785833813992 0.437197329444721 0.229166666666667
-0.299822724101825 0.432795306707349 0.229166666666667
-0.312316749396304 0.425205380241513 0.229166666666667
-0.319991984737734 0.42495184949599 0.229166666666667
-0.322580590721846 0.419680792530422 0.229166666666667
-0.336981875565185 0.414377779170243 0.229166666666667
-0.347530242599 0.406316809233992 0.229166666666667
-0.349431876606224 0.40097020113115 0.229166666666667
-0.361252654109311 0.390961703393029 0.229166666666667
-0.375454293180372 0.386462541471275 0.229166666666667
-0.382696711126202 0.376895635196924 0.229166666666667
-0.394234974971765 0.379457758570441 0.229166666666667
-0.396782766554903 0.373724747016251 0.229166666666667
-0.412274135790759 0.359248455314059 0.229166666666667
-0.417156390984626 0.355608203424757 0.229166666666667
-0.429144879396847 0.34698934164028 0.229166666666667
-0.444846672456998 0.340784011221313 0.229166666666667
-0.444587814438085 0.333739855019832 0.229166666666667
-0.455212012621619 0.327169117676128 0.229166666666667
-0.468833188248014 0.325711379026998 0.229166666666667
-0.477007920411301 0.318507730049698 0.229166666666667
-0.486861363058118 0.312253527166588 0.229166666666667
-0.49376133287064 0.305454879360186 0.229166666666667
-0.202621647951379 0.494791666666667 0.198440211040872
-0.207555060815454 0.494791666666667 0.202621656898151
-0.198803004074057 0.493358358792262 0.223958333333333
-0.202997532494337 0.494521098205477 0.223958333333333
-0.211174487365728 0.491943495893467 0.223958333333333
-0.226147390081625 0.482468779585195 0.223958333333333
-0.225410484951779 0.478820786446326 0.223958333333333
-0.234188001725141 0.466957341898105 0.223958333333333
-0.238779106423048 0.463090822149133 0.223958333333333
-0.244878016437938 0.465048050375825 0.223958333333333
-0.253643789316608 0.460472761330614 0.223958333333333
-0.267885112290976 0.451114974708573 0.223958333333333
-0.275880748240086 0.444264620713872 0.223958333333333
-0.284883283040006 0.438032066376957 0.223958333333333
-0.285224534387203 0.430033437775759 0.223958333333333
-0.291641321758461 0.42685492572887 0.229166666666667
-0.307453998842624 0.426995689156854 0.229166666666667
-0.31950407392391 0.410753389589404 0.229166666666667
-0.320927925887556 0.408634148661546 0.229166666666667
-0.337082701150237 0.400662109748559 0.229166666666667
-0.340289712910155 0.400193552066152 0.229166666666666
-0.348051239605606 0.400296631754558 0.229166666666667
-0.356478770071667 0.381463194927666 0.229166666666667
-0.370990212935833 0.377555814278523 0.229166666666667
-0.373935219586462 0.378140129673358 0.229166666666667
-0.381786537283664 0.373518329935719 0.229166666666667
-0.387936072363362 0.366499363651859 0.229166666666667
-0.399951133666153 0.353787140659483 0.229166666666667
-0.415240873477192 0.348116602846336 0.229166666666667
-0.417033491307823 0.339406650042206 0.229166666666667
-0.42701549185472 0.332003400100222 0.229166666666667
-0.43842915758758 0.331113511317183 0.229166666666667
-0.452681832288592 0.319082972184979 0.229166666666667
-0.464983419704833 0.314250209678984 0.229166666666667
-0.47152623160871 0.305113455529989 0.229166666666667
-0.482923776536733 0.301967269925652 0.229166666666667
-0.487308409686636 0.289514236114172 0.229166666666667
-0.49869205461008 0.288863952967782 0.229166666666667
-0.191417754229628 0.494791666666667 0.209501991847363
-0.191963899598608 0.494791666666667 0.221056922332717
-0.1937577250008 0.494791666666667 0.222601246482698
-0.194731566435394 0.48566836746422 0.223958333333333
-0.20565492746598 0.482926215512211 0.223958333333333
-0.210314100406156 0.47970898274264 0.223958333333333
-0.215698149357983 0.476048069275561 0.223958333333333
-0.229999505406881 0.466052488985013 0.223958333333333
-0.234470032717548 0.461455765839175 0.223958333333333
-0.246317885208991 0.456026156113357 0.223958333333333
-0.253809173753603 0.448350581880115 0.223958333333333
-0.254025633044911 0.443407608144834 0.223958333333333
-0.27136374912765 0.437280682765818 0.223958333333333
-0.284150054819581 0.425550513600927 0.223958333333333
-0.278536089047859 0.425993064740187 0.223958333333333
-0.293268213403532 0.416365039079821 0.229166666666667
-0.298567916367691 0.417354404193482 0.229166666666667
-0.312700803973765 0.405169775269687 0.229166666666666
-0.315900275924363 0.409933252979156 0.229166666666667
-0.324350464305327 0.396489561161496 0.229166666666667
-0.333060307370904 0.391014515506801 0.229166666666667
-0.338379289230465 0.38574781578962 0.229166666666667
-0.345178759106823 0.385303217998073 0.229166666666667
-0.355875355680267 0.376760938437052 0.229166666666667
-0.37521000116385 0.367745691995197 0.229166666666667
-0.376597654315692 0.36324177650388 0.229166666666667
-0.384843855895254 0.35007733532048 0.229166666666666
-0.389920630812351 0.351932563417312 0.229166666666667
-0.406349811979711 0.340596479778287 0.229166666666667
-0.415321464393677 0.327898420868054 0.229166666666667
-0.425287511022686 0.330075284619476 0.229166666666667
-0.428645880951362 0.324621752397265 0.229166666666667
-0.43720829960092 0.318836529908206 0.229166666666667
-0.445972839764245 0.310024774961 0.229166666666667
-0.463091498163916 0.304687128376777 0.229166666666667
-0.470072348601964 0.297789245827532 0.229166666666666
-0.480632567383968 0.28409607241199 0.229166666666667
-0.494675451996046 0.274559049028675 0.229166666666667
-0.17804134331843 0.494791666666667 0.212957401350123
-0.175958450511738 0.48927273028916 0.223958333333334
-0.178405595431594 0.487947776181624 0.223958333333334
-0.18641742329385 0.482448108802802 0.223958333333333
-0.199841115642707 0.478664660889951 0.223958333333334
-0.210695629051211 0.465960157101316 0.223958333333333
-0.21171461813474 0.463577686317035 0.223958333333334
-0.226328383000695 0.456631145059889 0.223958333333333
-0.235521021585473 0.447585971593104 0.223958333333333
-0.247124987715492 0.445808997133191 0.223958333333333
-0.247755376637853 0.440131346710321 0.223958333333333
-0.257206118963462 0.436962487876343 0.223958333333333
-0.263941987362299 0.429060653466007 0.223958333333333
-0.270603513102466 0.416714204608386 0.223958333333333
-0.279074451794686 0.419198326040358 0.223958333333333
-0.290821535324602 0.412868534738548 0.223958333333333
-0.299875914604554 0.402544916631498 0.229166666666667
-0.305379874365589 0.405708181605292 0.229166666666667
-0.303453277761139 0.394236473756721 0.229166666666667
-0.312217596429603 0.387010416365786 0.229166666666667
-0.329443111066947 0.382701955520813 0.229166666666667
-0.33016012775686 0.382749227167512 0.229166666666667
-0.336280759674541 0.378014492740057 0.229166666666667
-0.346967600703415 0.36756995698087 0.229166666666667
-0.359238018656343 0.357530645071044 0.229166666666667
-0.370636514269854 0.355803611874278 0.229166666666667
-0.382659965978787 0.351265803034793 0.229166666666667
-0.388943289711811 0.336419987269012 0.229166666666667
-0.398561175529862 0.340031593361512 0.229166666666667
-0.403931065869638 0.328363602596445 0.229166666666667
-0.414730907495091 0.323332532038249 0.229166666666667
-0.421585049779578 0.316624590463016 0.229166666666667
-0.440545222100856 0.299936701755035 0.229166666666667
-0.440639680760806 0.298087516307393 0.229166666666667
-0.457766179592321 0.290200541468668 0.229166666666667
-0.462420804971739 0.289953728043755 0.229166666666667
-0.478294286097164 0.276686992076903 0.229166666666667
-0.483550962539232 0.276874244842343 0.229166666666667
-0.495736216143971 0.265436872977993 0.229166666666667
-0.498573016838726 0.261850151657853 0.229166666666667
-0.154178479481795 0.488584140345525 0.223958333333333
-0.166869653449519 0.483549107490376 0.223958333333333
-0.176983161690823 0.477879317012896 0.223958333333333
-0.186766097606435 0.472222102574951 0.223958333333333
-0.18955672396107 0.467767292282579 0.223958333333333
-0.206033131082979 0.458725969555896 0.223958333333333
-0.200344591400253 0.460680366868738 0.223958333333333
-0.210896529910628 0.453383221061957 0.223958333333333
-0.225277457955763 0.449746477099289 0.223958333333333
-0.230904703710679 0.440089803101926 0.223958333333333
-0.238719211490122 0.434190060650307 0.223958333333333
-0.243203437326213 0.431303845276682 0.223958333333333
-0.251937707853325 0.421253548523208 0.223958333333334
-0.261490585960726 0.420540092056557 0.223958333333333
-0.270178177338152 0.411240216638551 0.223958333333333
-0.281699470794806 0.40092181363195 0.223958333333333
-0.286161188308047 0.394069217996724 0.223958333333334
-0.297529885695963 0.396863988612652 0.229166666666667
-0.300553545881919 0.395787278835934 0.229166666666667
-0.308970746748368 0.382064518448714 0.229166666666667
-0.321333733516456 0.379321119227325 0.229166666666667
-0.328952990094269 0.378021708269226 0.229166666666667
-0.338259853022822 0.3653597853313 0.229166666666667
-0.342307297900137 0.359603862142152 0.229166666666667
-0.349581102202842 0.35268419723136 0.229166666666667
-0.369373274650771 0.338839474585101 0.229166666666667
-0.373790768298276 0.337487461490364 0.229166666666666
-0.378964219034362 0.335848536287901 0.229166666666667
-0.384147559894529 0.331348647480196 0.229166666666667
-0.400058226575271 0.327696119819407 0.229166666666667
-0.407563338676762 0.314953528320624 0.229166666666667
-0.422695444766543 0.307548181780275 0.229166666666667
-0.429348015381522 0.295631044372385 0.229166666666667
-0.439048213103466 0.290326799510639 0.229166666666667
-0.4514811926865 0.282547159967892 0.229166666666666
-0.460359443850789 0.278128049857473 0.229166666666667
-0.469588644006459 0.272322902541942 0.229166666666667
-0.475501640102463 0.26114594569987 0.229166666666667
-0.485260504371286 0.258335611900435 0.229166666666667
-0.488552747290205 0.25837053634121 0.229166666666667
-0.161512890152913 0.485954784975916 0.223958333333333
-0.159692390438542 0.478553638355463 0.223958333333333
-0.167396401035907 0.471411988820884 0.223958333333333
-0.173020603053716 0.466308977704202 0.223958333333333
-0.192069158038092 0.45727326839642 0.223958333333333
-0.186733435044391 0.461341012058319 0.223958333333333
-0.196405722598504 0.453609329652421 0.223958333333333
-0.210598927269321 0.444261136296238 0.223958333333333
-0.214026303144531 0.441556717221561 0.223958333333333
-0.224109830970076 0.432284817546297 0.223958333333333
-0.232569754593327 0.429079807831647 0.223958333333333
-0.245496462284864 0.419734610536583 0.223958333333333
-0.245341195951684 0.413661303645743 0.223958333333333
-0.25240823458979 0.414074607458223 0.223958333333333
-0.263876484005578 0.405703181792553 0.223958333333333
-0.270668252002974 0.397155257355271 0.223958333333334
-0.280185936823552 0.390488752170989 0.223958333333333
-0.290572154632534 0.391872327004244 0.223958333333333
-0.291666666666667 0.388780943954902 0.228845451541521
-0.3012404965571 0.380905259489242 0.229166666666667
-0.31307414448615 0.36624051429844 0.229166666666667
-0.320281487960363 0.361838237829932 0.229166666666667
-0.331757650044166 0.365305730211046 0.229166666666667
-0.333367147116109 0.353027807500189 0.229166666666667
-0.354481608309579 0.343224594331846 0.229166666666667
-0.348783702732429 0.343458717337543 0.229166666666667
-0.361271353096757 0.330722359347246 0.229166666666667
-0.374875078728905 0.325197494599604 0.229166666666667
-0.381125751773939 0.31927760037071 0.229166666666667
-0.392390250627522 0.309116846737978 0.229166666666667
-0.402466579024082 0.311565829801236 0.229166666666667
-0.405338571599776 0.305420295519331 0.229166666666667
-0.423523412130409 0.297336221457708 0.229166666666667
-0.430601201961771 0.284047246738935 0.229166666666667
-0.448644338608243 0.278363738697014 0.229166666666667
-0.452345309736439 0.274364638489509 0.229166666666667
-0.463433358400509 0.264908292690165 0.229166666666667
-0.468258468225819 0.263335773399385 0.229166666666667
-0.473889193413278 0.248208818255172 0.229166666666667
-0.49181272984817 0.242130092504697 0.229166666666667
-0.499677370453921 0.230797013227424 0.229166666666667
-0.152233797847869 0.47856975510349 0.223958333333333
-0.161540598991323 0.470443520079538 0.223958333333333
-0.166301995344351 0.471586528972146 0.223958333333333
-0.170317495671833 0.464844725264559 0.223958333333333
-0.177931199368155 0.456074182257947 0.223958333333333
-0.190558686080448 0.452091695538001 0.223958333333333
-0.1974353078228 0.447570416720653 0.223958333333333
-0.20322218233719 0.435054554513121 0.223958333333333
-0.21217393023946 0.43044376982292 0.223958333333333
-0.218311226515354 0.423392526583522 0.223958333333333
-0.220162103843571 0.41955319529914 0.223958333333333
-0.230491285803822 0.417236854241786 0.223958333333333
-0.243464234105435 0.411794994539189 0.223958333333333
-0.257259068672465 0.402921437665677 0.223958333333333
-0.256379682245609 0.402681668894442 0.223958333333333
-0.26878695872488 0.394005145348328 0.223958333333333
-0.272321837454228 0.389455434763725 0.223958333333333
-0.283670274694883 0.378852615806852 0.223958333333333
-0.291666666666667 0.372033013280918 0.228786728962652
-0.29806596827973 0.368997005608388 0.229166666666667
-0.301998969057824 0.360931512073381 0.229166666666667
-0.321161211673327 0.360389393413226 0.229166666666667
-0.330067283672863 0.352161616892923 0.229166666666667
-0.327531819406545 0.347991243007018 0.229166666666667
-0.340476615902089 0.335504345999895 0.229166666666666
-0.34506969657876 0.33175091185117 0.229166666666667
-0.359772063507865 0.323490263904701 0.229166666666667
-0.369211821948172 0.324116973789419 0.229166666666667
-0.381054210863044 0.313708447894898 0.229166666666667
-0.376682989856982 0.308174148045413 0.229166666666666
-0.392709633622434 0.302853102845005 0.229166666666667
-0.400178024525419 0.298560694351336 0.229166666666667
-0.414677253766528 0.288750893158893 0.229166666666667
-0.422040362471149 0.28365980211331 0.229166666666667
-0.429438631621233 0.271382011921916 0.229166666666667
-0.441049230901799 0.267140476433527 0.229166666666666
-0.454757465810761 0.250010925565314 0.229166666666666
-0.455510304067727 0.248599513894022 0.229166666666667
-0.473331711117008 0.239778147693087 0.229166666666667
-0.482285243859838 0.241413816938416 0.229166666666667
-0.490649377405557 0.231290940364003 0.229166666666667
-0.49360892714956 0.226197925212397 0.229166666666666
-0.141162734939802 0.469273953378445 0.223958333333334
-0.14846194954364 0.466734129646808 0.223958333333333
-0.155169666750506 0.459832806384857 0.223958333333333
-0.165610626904643 0.453915318182986 0.223958333333333
-0.172494520530757 0.453292883244587 0.223958333333333
-0.17712046203656 0.442693158536688 0.223958333333334
-0.189906982084723 0.434148948525248 0.223958333333333
-0.191378741788405 0.428430385200976 0.223958333333333
-0.203266875395708 0.427366158523585 0.223958333333334
-0.212074797833317 0.426988383069124 0.223958333333334
-0.211292799054781 0.417209961625728 0.223958333333333
-0.231602208213634 0.405512407851015 0.223958333333333
-0.230291605293294 0.406769395239157 0.223958333333333
-0.239095357331721 0.395955495290823 0.223958333333333
-0.253046614682831 0.386884044408578 0.223958333333333
-0.25456740163917 0.388273984924661 0.223958333333333
-0.273853808523798 0.375618125572002 0.223958333333333
-0.27361203858864 0.368910404241352 0.223958333333333
-0.285847892064049 0.369817473428764 0.223958333333333
-0.290568448772338 0.363549440765386 0.223958333333333
-0.291666666666667 0.361642518708827 0.227190164049265
-0.314442607027885 0.346116870333154 0.229166666666666
-0.316264071861991 0.340044971083716 0.229166666666667
-0.321194879395673 0.33640923965223 0.229166666666667
-0.331863272999441 0.330255995391628 0.229166666666667
-0.340605763316626 0.329434979988068 0.229166666666667
-0.350384860693597 0.3109883620886 0.229166666666667
-0.352908524373608 0.318760880294288 0.229166666666667
-0.36987997695406 0.299974102950747 0.229166666666667
-0.371783822256046 0.298419600453596 0.229166666666667
-0.385480227689576 0.292634757126116 0.229166666666667
-0.395716051124056 0.283602489602079 0.229166666666667
-0.401661395062713 0.280856344097252 0.229166666666667
-0.415097292429857 0.275157117851374 0.229166666666667
-0.418297421798837 0.268781726661431 0.229166666666666
-0.430823479327365 0.255831491198747 0.229166666666667
-0.438299385254493 0.256292287786864 0.229166666666667
-0.446200567323883 0.250750642467149 0.229166666666667
-0.464759870620044 0.242917712309036 0.229166666666667
-0.465628366290448 0.234631230295072 0.229166666666667
-0.485823136899399 0.217843477866447 0.229166666666667
-0.495665965712805 0.217541991887918 0.229166666666667
-0.132400670315362 0.470985316435637 0.223958333333334
-0.142287778184618 0.458329354537043 0.223958333333333
-0.151253216256984 0.447021837726823 0.223958333333333
-0.154485433365362 0.444732972755021 0.223958333333333
-0.158980671868526 0.44810311103667 0.223958333333333
-0.171699586143247 0.434851422037064 0.223958333333334
-0.181719507504008 0.428636792726755 0.223958333333333
-0.188632105261571 0.426088289976033 0.223958333333333
-0.189791054584791 0.426579688642954 0.223958333333334
-0.213268479686892 0.407308495398875 0.223958333333333
-0.20876706147695 0.407269131399637 0.223958333333333
-0.225113355485126 0.398736817114271 0.223958333333333
-0.229038694722148 0.39639241011071 0.223958333333333
-0.239791300961085 0.387141808239074 0.223958333333333
-0.249639769667944 0.382922650737018 0.223958333333333
-0.253403785543415 0.37750502884798 0.223958333333333
-0.262814418974954 0.372511610331508 0.223958333333333
-0.267218435636501 0.372755032516962 0.223958333333333
-0.279742004173919 0.363164308572437 0.223958333333333
-0.284758301830926 0.356237110340891 0.223958333333333
-0.291666666666667 0.351661069129952 0.225565286035712
-0.301325243194456 0.341184274416905 0.229166666666667
-0.30409428394527 0.338921714174891 0.229166666666667
-0.312535196521408 0.335114718324586 0.229166666666667
-0.324881401384079 0.320184026333471 0.229166666666667
-0.336385457760046 0.313659563723483 0.229166666666667
-0.337442593943266 0.316680661060217 0.229166666666667
-0.355107635984157 0.304754597546518 0.229166666666666
-0.353166241443396 0.300911604166285 0.229166666666666
-0.375470284730586 0.287221060394188 0.229166666666667
-0.374635163256209 0.288606384230009 0.229166666666667
-0.389458637733461 0.282929933477039 0.229166666666667
-0.399773098942691 0.271743313374932 0.229166666666667
-0.408945969951262 0.260659028126352 0.229166666666667
-0.410012756041996 0.259212505343956 0.229166666666667
-0.431226172713204 0.248389702745345 0.229166666666667
-0.43924012043334 0.238697746621151 0.229166666666667
-0.446988057994034 0.241173810331646 0.229166666666667
-0.454029617379089 0.235980081845354 0.229166666666667
-0.458504135730929 0.224279414883252 0.229166666666667
-0.470036107285421 0.212289005578695 0.229166666666667
-0.488378977831983 0.205781350562967 0.229166666666667
-0.494913938849744 0.202850132746852 0.229166666666667
-0.131755752290647 0.457354559992252 0.223958333333333
-0.139384964287786 0.449793893990105 0.223958333333333
-0.14124689663024 0.448961109127422 0.223958333333334
-0.155062081740591 0.440772827859453 0.223958333333334
-0.155072092755726 0.433254803684992 0.223958333333333
-0.168740950949067 0.423761833742925 0.223958333333333
-0.177231448208995 0.420025557775369 0.223958333333333
-0.177588091386817 0.420822251058553 0.223958333333334
-0.187529899528844 0.409437616468673 0.223958333333334
-0.193188318034469 0.406269437109724 0.223958333333333
-0.210823908047909 0.398847947608437 0.223958333333333
-0.212189394835864 0.399952427226537 0.223958333333333
-0.221109638192233 0.393662421898318 0.223958333333333
-0.231177063918005 0.379509786388454 0.223958333333333
-0.24132576670619 0.377008547773659 0.223958333333333
-0.245269676140498 0.374994812957319 0.223958333333333
-0.261205792932638 0.36248667998606 0.223958333333333
-0.259380740613168 0.363094819663789 0.223958333333333
-0.270975992668416 0.349556944802454 0.223958333333333
-0.273928096704308 0.352456248134508 0.223958333333334
-0.291666666666667 0.336671381911281 0.225064251596029
-0.291666666666667 0.330663148344172 0.22623478650994
-0.29645523353542 0.32745841321973 0.229166666666667
-0.313124877022762 0.328298026402441 0.229166666666666
-0.315632913579226 0.321613102302498 0.229166666666667
-0.329286746068377 0.310296177820672 0.229166666666667
-0.335967529106354 0.304061779361714 0.229166666666667
-0.34618511074579 0.296668957543953 0.229166666666667
-0.349522810599273 0.292117124601357 0.229166666666667
-0.355190385671815 0.290211953706467 0.229166666666667
-0.373919311005535 0.280973985392695 0.229166666666667
-0.382039209780169 0.272617115322238 0.229166666666667
-0.392109500028444 0.258130614697659 0.229166666666667
-0.402780300951319 0.252565517740934 0.229166666666666
-0.405586718028062 0.251732810102566 0.229166666666667
-0.419004095006551 0.243126327277666 0.229166666666667
-0.428174099156893 0.235719332616828 0.229166666666667
-0.437162019131097 0.235084327136825 0.229166666666667
-0.447594506036488 0.222984975375593 0.229166666666667
-0.46840561550096 0.214089462845887 0.229166666666667
-0.467296449406516 0.210717355260945 0.229166666666667
-0.47916658132334 0.200549232090697 0.229166666666667
-0.489708240534689 0.194073859792357 0.229166666666667
-0.119068870606361 0.448887631475854 0.223958333333333
-0.125570747070618 0.451227966683246 0.223958333333333
-0.139678097723221 0.442135283366099 0.223958333333333
-0.147696475826752 0.435136449098092 0.223958333333333
-0.156634524102853 0.433319825236462 0.223958333333333
-0.165951966924472 0.418209568601261 0.223958333333333
-0.168630566362335 0.417329495205188 0.223958333333333
-0.181570270426964 0.409398284475264 0.223958333333333
-0.185177352560543 0.407614510714159 0.223958333333333
-0.194548456987518 0.404511898463628 0.223958333333333
-0.197770584870358 0.397076217789761 0.223958333333333
-0.204511410981544 0.389063526382105 0.223958333333333
-0.215049122288718 0.387102015354255 0.223958333333333
-0.230077492429558 0.377338414375148 0.223958333333333
-0.226320018322011 0.369855850425349 0.223958333333333
-0.237302550610758 0.365752567119577 0.223958333333333
-0.246658408528156 0.356378820086086 0.223958333333334
-0.254262998256253 0.352881659252845 0.223958333333333
-0.265760731782374 0.351668005558827 0.223958333333334
-0.27103972837969 0.341668223773287 0.223958333333333
-0.279151572899851 0.3313831034918 0.223958333333333
-0.291666666666667 0.323699386335659 0.22891033271688
-0.291666666666667 0.321004785770647 0.227860052971494
-0.308411858097372 0.316301959632075 0.229166666666667
-0.308318004472379 0.314497111115932 0.229166666666667
-0.326213581341959 0.297942174179818 0.229166666666667
-0.328018934284982 0.299139103572003 0.229166666666667
-0.336408751229412 0.288894725180424 0.229166666666667
-0.351283738459642 0.281749809678169 0.229166666666667
-0.358837307731313 0.280331999010125 0.229166666666666
-0.366302206425693 0.26544704235411 0.229166666666667
-0.377610012743175 0.259116183679212 0.229166666666667
-0.390839513351059 0.252661438975007 0.229166666666667
-0.394927353469857 0.254883263976047 0.229166666666667
-0.409636917582924 0.236788067379409 0.229166666666667
-0.408859411667429 0.239309328687493 0.229166666666666
-0.422349888207604 0.230479482128388 0.229166666666666
-0.428373632646212 0.227095446881608 0.229166666666667
-0.433068200533265 0.218716674036273 0.229166666666667
-0.451375043143989 0.207800580022649 0.229166666666667
-0.460159660372293 0.196821409786674 0.229166666666666
-0.466729993011318 0.19484460796914 0.229166666666667
-0.476464628239033 0.18667973691601 0.229166666666667
-0.494888494391616 0.16993661918782 0.229166666666667
-0.11762198265291 0.444382688605178 0.223958333333334
-0.118144429935667 0.442769580442112 0.223958333333333
-0.125449838054322 0.433664147746855 0.223958333333333
-0.138287404229303 0.421853445963453 0.223958333333333
-0.140574859396841 0.425224610896951 0.223958333333333
-0.155033438931049 0.419419168487791 0.223958333333333
-0.165613101326294 0.40960054632081 0.223958333333333
-0.173009935779977 0.402194133114814 0.223958333333333
-0.178966789096138 0.402830198716467 0.223958333333333
-0.186483878408581 0.390886731143745 0.223958333333333
-0.188330662396616 0.393024279062237 0.223958333333334
-0.201304082132173 0.377132472283079 0.223958333333333
-0.204471203673244 0.37560697378844 0.223958333333333
-0.212643360697547 0.375314880114012 0.223958333333333
-0.22372310441102 0.362955332721194 0.223958333333334
-0.23410494996893 0.35961360065799 0.223958333333333
-0.232703895286073 0.349579062070669 0.223958333333333
-0.2497272303775 0.346061059942732 0.223958333333333
-0.260863148417682 0.337131052338545 0.223958333333333
-0.265180625083165 0.329307421257311 0.223958333333333
-0.27328692527812 0.330073003688225 0.223958333333333
-0.290433513406806 0.316259020712599 0.223958333333333
-0.284917925335323 0.31557918359966 0.223958333333333
-0.297398287625747 0.311761188996555 0.229166666666666
-0.30141791257599 0.30442740418359 0.229166666666667
-0.315481055533796 0.294915063451873 0.229166666666666
-0.327994078731609 0.284540470127349 0.229166666666667
-0.32704695982978 0.279424087877542 0.229166666666667
-0.342866959849005 0.281247482007004 0.229166666666667
-0.348438996823322 0.272725438988891 0.229166666666667
-0.359826968260552 0.258895654707208 0.229166666666667
-0.366289511922582 0.256909724051308 0.229166666666667
-0.377230920445368 0.247951423456573 0.229166666666667
-0.390337944787645 0.24472280242321 0.229166666666666
-0.395422713279377 0.233845383448708 0.229166666666667
-0.398327496064941 0.233242075754744 0.229166666666666
-0.421191808491273 0.219839092023113 0.229166666666667
-0.430715898122562 0.216347705535255 0.229166666666667
-0.435842765137683 0.21174184350723 0.229166666666667
-0.44016885159146 0.201008357613035 0.229166666666667
-0.454203965930252 0.189393470381015 0.229166666666666
-0.462624051893375 0.17896849412911 0.229166666666667
-0.46977316416669 0.175851891445851 0.229166666666667
-0.486549374960816 0.16590735537205 0.229166666666667
-0.493408101749715 0.162576609545821 0.229166666666667
-0.109234956418197 0.439943981475242 0.223958333333333
-0.115521528125675 0.431883362584087 0.223958333333333
-0.127226203394332 0.431881427749695 0.223958333333333
-0.129301244567523 0.420182043977632 0.223958333333333
-0.138752959835917 0.417892424334058 0.223958333333333
-0.148971321336043 0.410023354508363 0.223958333333333
-0.158227763329266 0.406556333380206 0.223958333333333
-0.161180027533438 0.397233880067328 0.223958333333333
-0.168323974668037 0.396185172111948 0.223958333333333
-0.178700594155369 0.379446249439327 0.223958333333333
-0.184049381092032 0.380026151712954 0.223958333333333
-0.193426868755539 0.375099288464894 0.223958333333333
-0.199016942306527 0.36933253713178 0.223958333333333
-0.203207774635911 0.370003917186011 0.223958333333333
-0.216840453053451 0.355605621565076 0.223958333333333
-0.232185140861831 0.344223165564718 0.223958333333333
-0.236132135251751 0.342605367229905 0.223958333333333
-0.242856311718573 0.337414692769499 0.223958333333333
-0.251010112607896 0.335681707414007 0.223958333333333
-0.259397374413513 0.322930896134775 0.223958333333333
-0.26584716032471 0.324342199921639 0.223958333333333
-0.274857895491607 0.314836915800384 0.223958333333333
-0.285555111615374 0.30614755618687 0.223958333333333
-0.291770837547965 0.298418422237299 0.229166666666667
-0.300533949302952 0.298342482425301 0.229166666666667
-0.312791507707093 0.28465364753238 0.229166666666667
-0.309134233299865 0.282227688184982 0.229166666666667
-0.325634110756078 0.271970121520046 0.229166666666667
-0.334917917903906 0.265488553524862 0.229166666666667
-0.346238094187846 0.257852649477315 0.229166666666667
-0.354906133792709 0.2480279106513 0.229166666666667
-0.359188614080838 0.250687935577961 0.229166666666667
-0.373310795425617 0.236758757508347 0.229166666666667
-0.379148759741767 0.238991271777551 0.229166666666666
-0.386834576117228 0.225819610987678 0.229166666666667
-0.401461542965156 0.216621579223254 0.229166666666666
-0.402666501150999 0.213473658670395 0.229166666666667
-0.413656151323168 0.209777905870934 0.229166666666667
-0.424040135534182 0.196915083159177 0.229166666666667
-0.440242777577763 0.185762348161423 0.229166666666667
-0.448831124696041 0.184623643723154 0.229166666666667
-0.45266199583098 0.18034318815436 0.229166666666667
-0.465464801316355 0.172325568496019 0.229166666666667
-0.483033994766832 0.163990968602961 0.229166666666667
-0.478559371189392 0.160475024118511 0.229166666666667
-0.48974719187853 0.153341590717101 0.229166666666667
-0.103564669771505 0.4374360261973 0.223958333333333
-0.109421036287173 0.429669683816447 0.223958333333333
-0.122075819652922 0.418613096506372 0.223958333333333
-0.120254809573765 0.421466908536802 0.223958333333333
-0.131714176203096 0.406239473374987 0.223958333333333
-0.134608546650563 0.402098344618356 0.223958333333333
-0.151409799847533 0.399316228396338 0.223958333333333
-0.155900285522165 0.394352540563291 0.223958333333334
-0.165353090881493 0.384734140130269 0.223958333333333
-0.176644194816212 0.381201113026703 0.223958333333333
-0.176388746918351 0.370586667767144 0.223958333333333
-0.17988757557395 0.370734655775528 0.223958333333334
-0.198355700231029 0.363201997773596 0.223958333333333
-0.20252655485937 0.359275321452826 0.223958333333333
-0.21706760296235 0.348530612358235 0.223958333333333
-0.222340044204355 0.341882925772663 0.223958333333333
-0.227951954523025 0.33613868666148 0.223958333333333
-0.237572510692503 0.334290478697641 0.223958333333333
-0.245477794241203 0.328196565345404 0.223958333333333
-0.251639894606439 0.321313232289057 0.223958333333333
-0.26014666525168 0.313111405158474 0.223958333333333
-0.276750529198767 0.302885243315719 0.223958333333333
-0.277037054446502 0.305220476840877 0.223958333333333
-0.282042253723707 0.29421508440876 0.229166666666667
-0.287995314844398 0.291315016898451 0.229166666666667
-0.29447844119101 0.278753305060478 0.229166666666667
-0.307599779740776 0.27773094198019 0.229166666666666
-0.314740719489746 0.264340770889459 0.229166666666667
-0.330769339955594 0.257337466957683 0.229166666666667
-0.338392879888321 0.259364334610135 0.229166666666667
-0.339881580053951 0.24933259417758 0.229166666666667
-0.354256032677845 0.238913739291887 0.229166666666667
-0.356796546624848 0.231874040905585 0.229166666666667
-0.371187506791977 0.233082224754774 0.229166666666667
-0.379658476463971 0.221879110223318 0.229166666666667
-0.384276073438159 0.21610290839888 0.229166666666666
-0.399446851652669 0.203941870012549 0.229166666666667
-0.415601870110501 0.198462342121674 0.229166666666667
-0.417005918709655 0.18790381440988 0.229166666666667
-0.42819792191416 0.180398015303061 0.229166666666667
-0.44730310488186 0.174537174074756 0.229166666666667
-0.451427629871078 0.171487292917554 0.229166666666667
-0.457036355774851 0.16260000761693 0.229166666666667
-0.472136310738552 0.149814757977255 0.229166666666667
-0.471043488002375 0.149222630754717 0.229166666666667
-0.480194436587531 0.141366786960755 0.229166666666667
-0.0912702143071323 0.430988292556186 0.223958333333333
-0.101424298113428 0.423830957118766 0.223958333333333
-0.114391536689631 0.410147620962755 0.223958333333333
-0.123763176301403 0.403968981637078 0.223958333333333
-0.12425451515251 0.402113954845461 0.223958333333333
-0.13503334082966 0.401639699724276 0.223958333333334
-0.145616995712136 0.387212083183468 0.223958333333333
-0.148361905944239 0.388309385060511 0.223958333333333
-0.15547665722927 0.38364995621369 0.223958333333333
-0.168732611225339 0.372859749474153 0.223958333333333
-0.172565761900717 0.370559807131187 0.223958333333333
-0.184939327347538 0.358058855589685 0.223958333333333
-0.192007964518319 0.356352586994619 0.223958333333334
-0.195904715490095 0.344249523305892 0.223958333333333
-0.212498190952423 0.338820331312996 0.223958333333333
-0.215842236735494 0.336311998608617 0.223958333333334
-0.221721187488147 0.330902668434405 0.223958333333333
-0.228036102985409 0.330221469529585 0.223958333333333
-0.238451826969457 0.317967711957489 0.223958333333333
-0.238016500369471 0.311345835625105 0.223958333333333
-0.247083553429583 0.309141377513242 0.223958333333333
-0.260745349065909 0.305549310468039 0.223958333333333
-0.271592020064323 0.297451745592591 0.223958333333333
-0.278824710919891 0.292626458588258 0.229166666666666
-0.282303991907787 0.281535811878781 0.229166666666667
-0.295113569245821 0.272927539690332 0.229166666666667
-0.302423242510303 0.265354236239273 0.229166666666667
-0.318188161994442 0.254213754652201 0.229166666666667
-0.315949198004467 0.253798806338031 0.229166666666666
-0.321915125074925 0.248494114230861 0.229166666666667
-0.33328744906073 0.239209841028873 0.229166666666667
-0.351477571919737 0.226008487303284 0.229166666666667
-0.354852912181169 0.228619712240747 0.229166666666667
-0.363769321641726 0.224602387333948 0.229166666666667
-0.372173608672199 0.211013293228285 0.229166666666667
-0.385221137107834 0.206094683809375 0.229166666666667
-0.400059382460084 0.196083132280469 0.229166666666667
-0.400416405116897 0.196354227574737 0.229166666666667
-0.411565689732789 0.186753093377585 0.229166666666667
-0.420595158683688 0.176841854197573 0.229166666666667
-0.425658828361836 0.172296934096174 0.229166666666667
-0.444042956179903 0.164539661986081 0.229166666666667
-0.453443021764558 0.159259225373013 0.229166666666667
-0.466948808570654 0.149217211682205 0.229166666666667
-0.466535891934359 0.140508825914437 0.229166666666667
-0.481712616847043 0.129124288245201 0.229166666666666
-0.482447534692935 0.12246355278792 0.229166666666667
-0.0868764790104354 0.415825374311069 0.223958333333333
-0.0947413404376287 0.409920170973752 0.223958333333333
-0.109612157583222 0.407668273665691 0.223958333333333
-0.11210900720973 0.407411877826948 0.223958333333333
-0.121570463966368 0.392482140603657 0.223958333333333
-0.125286693258357 0.386419506898656 0.223958333333333
-0.137207746983164 0.380270743720471 0.223958333333334
-0.13989302801976 0.383922781634514 0.223958333333334
-0.149326031689997 0.377801312284343 0.223958333333333
-0.163171228933126 0.364237315716555 0.223958333333333
-0.164276161466976 0.360223215267592 0.223958333333333
-0.174776851967324 0.360068248779234 0.223958333333333
-0.182034124370196 0.347758450044073 0.223958333333333
-0.188179694657691 0.344035414691949 0.223958333333333
-0.197165523407123 0.336038006639411 0.223958333333333
-0.213792770721744 0.329739483713331 0.223958333333333
-0.219974705310519 0.318140628066072 0.223958333333333
-0.228040652712867 0.320021781576399 0.223958333333333
-0.230315469225486 0.30812289421839 0.223958333333333
-0.237799821100555 0.299082268798635 0.223958333333333
-0.242872055643303 0.301240845354616 0.223958333333333
-0.255422878476546 0.291666666666667 0.225262148122643
-0.257919720234474 0.288444819624271 0.229166666666667
-0.263374417776604 0.28300376467569 0.229166666666667
-0.282618676849447 0.27668834428896 0.229166666666666
-0.286482252334584 0.266618265512894 0.229166666666667
-0.298277188022036 0.26078884395981 0.229166666666667
-0.301753165980335 0.252804378541289 0.229166666666667
-0.314362671631895 0.249773981418714 0.229166666666667
-0.319751986795043 0.241906883326299 0.229166666666667
-0.33384626751999 0.230937219306502 0.229166666666667
-0.336694140317364 0.229160494229208 0.229166666666667
-0.344038099688091 0.221002070451758 0.229166666666667
-0.36344702138401 0.210009933413416 0.229166666666667
-0.370481366652102 0.203436983429891 0.229166666666667
-0.371700503816179 0.195658740099291 0.229166666666667
-0.381700384394408 0.195704449640247 0.229166666666667
-0.402428481048374 0.185489054496699 0.229166666666667
-0.400927093005054 0.175986995474005 0.229166666666667
-0.420491185661473 0.169738312359831 0.229166666666667
-0.417785866681275 0.168186184360818 0.229166666666667
-0.440308624955204 0.148425114122456 0.229166666666667
-0.442317848484977 0.140711715958861 0.229166666666667
-0.45543072054552 0.135067368379749 0.229166666666667
-0.458100462427152 0.128592537157207 0.229166666666667
-0.476227234613737 0.120914977133263 0.229166666666667
-0.479659093143128 0.123007424565789 0.229166666666667
-0.494482794967922 0.109022486414251 0.229166666666667
-0.0843512346059205 0.406748378217368 0.223958333333333
-0.0862666862832717 0.409881560083464 0.223958333333333
-0.0961471400432186 0.407746080681545 0.223958333333333
-0.112356640459801 0.389859865162386 0.223958333333333
-0.113764051840705 0.389663949573454 0.223958333333333
-0.114397652908025 0.385958797270898 0.223958333333333
-0.135456424206616 0.375592745244747 0.223958333333334
-0.136522541052301 0.376228272322355 0.223958333333333
-0.150124012600424 0.363109209311007 0.223958333333333
-0.149743665234274 0.360493322577029 0.223958333333333
-0.162522793996815 0.352519379485136 0.223958333333333
-0.172080726343926 0.346993066179149 0.223958333333333
-0.176007333367539 0.339684486571798 0.223958333333333
-0.18602436281866 0.333248997560624 0.223958333333333
-0.186199062448938 0.328413061866797 0.223958333333333
-0.196957169616565 0.328850253030448 0.223958333333333
-0.205690022694868 0.314546201056075 0.223958333333334
-0.221035725117015 0.306480686758759 0.223958333333333
-0.224961583422404 0.303660579851114 0.223958333333333
-0.235999950459942 0.296076675935772 0.223958333333333
-0.241841632737047 0.291666666666667 0.228094779861355
-0.23788850672498 0.287816624137622 0.229166666666667
-0.256441141077987 0.279505849079247 0.229166666666667
-0.26543413159123 0.268736161096002 0.229166666666667
-0.267130294046523 0.270544915939083 0.229166666666667
-0.272912425253683 0.258404672921691 0.229166666666667
-0.292749822773714 0.253174890415154 0.229166666666667
-0.295786494104451 0.245886326244554 0.229166666666667
-0.299822979161428 0.242681568308499 0.229166666666667
-0.310905845961539 0.234171097145209 0.229166666666667
-0.3167451710882 0.232952975947982 0.229166666666667
-0.331526779823809 0.212810786126118 0.229166666666667
-0.339401719883265 0.21454396097834 0.229166666666667
-0.356654322635515 0.206990520170173 0.229166666666667
-0.355330257460753 0.201286922197699 0.229166666666667
-0.372933623052752 0.186651946369466 0.229166666666667
-0.383575281131655 0.187195434700318 0.229166666666667
-0.38084407921172 0.176094145854873 0.229166666666667
-0.394527025464572 0.169184167768027 0.229166666666667
-0.405445667296316 0.158421124583809 0.229166666666666
-0.413962412585185 0.154245022758794 0.229166666666667
-0.432006949693949 0.140834708871664 0.229166666666667
-0.436962579752158 0.134978262747254 0.229166666666667
-0.447276147728472 0.125879266059705 0.229166666666667
-0.45490531961845 0.124236377584539 0.229166666666666
-0.466434838891546 0.119198981691677 0.229166666666667
-0.471956591074427 0.113435602737851 0.229166666666667
-0.484347027830984 0.1027121992337 0.229166666666667
-0.489022404714793 0.095121385475788 0.229166666666667
