ply
format ascii 1.0
element vertex 910
property float x
property float y
property float z
end_header
0.471982744423494 -0.464834789335317 0.60593220338983
0.461029926869477 -0.466987015583936 0.60593220338983
0.456720805435191 -0.465024950802266 0.60593220338983
0.45105792531946 -0.470948102648391 0.60593220338983
0.438439339388312 -0.471365752040037 0.60593220338983
0.428260924893816 -0.475977703005336 0.60593220338983
0.417284051988044 -0.473548347379142 0.60593220338983
0.409849149559721 -0.471577641883049 0.60593220338983
0.396503018500506 -0.478856810425252 0.60593220338983
0.387754653800366 -0.480497209902828 0.60593220338983
0.375937610205731 -0.483323128304375 0.60593220338983
0.365129250772933 -0.485384310326043 0.60593220338983
0.368539851387191 -0.483254964827811 0.60593220338983
0.348130376537985 -0.487603474983922 0.60593220338983
0.33821813915935 -0.490588883044301 0.60593220338983
0.331473090095676 -0.486475191941576 0.60593220338983
0.316881144053458 -0.495390095338554 0.60593220338983
0.315977689726283 -0.491492589421259 0.60593220338983
0.300275938243472 -0.496233422252547 0.60593220338983
0.290761494399592 -0.496351367670351 0.60593220338983
0.281143799997625 -0.495984003828707 0.60593220338983
0.268801839895368 -0.498274191865189 0.60593220338983
0.5 -0.448488477744953 0.488900489019915
0.5 -0.451136277087014 0.498586151418401
0.5 -0.45370663202531 0.504234968608514
0.5 -0.45004244094448 0.521580102868249
0.5 -0.450320510012464 0.528227302806939
0.5 -0.450197917276423 0.533018461089481
0.5 -0.446258994172117 0.540651540726175
0.5 -0.450293040203248 0.550361732075395
0.5 -0.445887989258215 0.554378315348689
0.5 -0.454318365885585 0.567919960901294
0.5 -0.449021923349732 0.575151302759402
0.5 -0.45292561303163 0.588944712923015
0.497543856485881 -0.454354571539409 0.591101694915254
0.5 -0.446699908740976 0.597085328279012
0.498104504577353 -0.452241913499246 0.60593220338983
0.494036334337857 -0.447708316803902 0.60593220338983
0.478724522193417 -0.452104573616671 0.60593220338983
0.476051486288542 -0.458579311033454 0.60593220338983
0.464016779575048 -0.458228566606321 0.60593220338983
0.453034121903929 -0.456084616325347 0.60593220338983
0.445693451472737 -0.456527042234739 0.60593220338983
0.431172269302594 -0.466034908800704 0.60593220338983
0.421127176751726 -0.462805000824194 0.60593220338983
0.422008103108894 -0.468649434217344 0.60593220338983
0.413599786249335 -0.468968532723889 0.60593220338983
0.39768920920414 -0.470491480490504 0.60593220338983
0.395927619847126 -0.467633153657287 0.60593220338983
0.375319574836546 -0.468929734536657 0.60593220338983
0.363982379242798 -0.473721384954124 0.60593220338983
0.360378429816377 -0.472026890797577 0.60593220338983
0.356614245121961 -0.473823809671657 0.60593220338983
0.338606365598886 -0.480428447698836 0.60593220338983
0.325017285716285 -0.484586472476403 0.60593220338983
0.318557532681889 -0.486367950416117 0.60593220338983
0.30909864313944 -0.484588481640303 0.60593220338983
0.29933446250306 -0.489394637823427 0.60593220338983
0.297776669626286 -0.485546145534369 0.60593220338983
0.288307348046193 -0.485208498026637 0.60593220338983
0.271223932818387 -0.493670160589748 0.60593220338983
0.263056126894208 -0.495859790407591 0.60593220338983
0.248985996438581 -0.49819001490223 0.60593220338983
0.239603970156531 -0.498400754928788 0.60593220338983
0.224130992672465 -0.499183081416185 0.60593220338983
0.5 -0.437921145281383 0.496207530340097
0.5 -0.440426082793373 0.499730914283665
0.5 -0.441197032239275 0.50992848431701
0.5 -0.439016264225686 0.512912188071258
0.5 -0.438607631065807 0.523644434887517
0.5 -0.441887707126794 0.535317826059125
0.5 -0.4423110606182 0.547696871794305
0.5 -0.444836993616396 0.547972468144961
0.5 -0.442657751131025 0.554614998537604
0.5 -0.44193615771642 0.56439021212085
0.5 -0.442849968097473 0.575723980428398
0.5 -0.441240896401799 0.58412287472741
0.5 -0.44342585982104 0.59064347076129
0.5 -0.442856774622985 0.600419825604469
0.493980708211918 -0.440017178201759 0.60593220338983
0.488454221617199 -0.443645599294945 0.60593220338983
0.475302905274467 -0.448829366036196 0.60593220338983
0.470970855589057 -0.449570759280345 0.60593220338983
0.45844949365654 -0.445752208729226 0.60593220338983
0.450195412668245 -0.44946410750136 0.60593220338983
0.449020861279675 -0.452446947014029 0.60593220338983
0.435382628571397 -0.451159632919321 0.60593220338983
0.429843022067581 -0.451292929852168 0.60593220338983
0.412237023860427 -0.459375753480853 0.60593220338983
0.411555024145892 -0.457063822364678 0.60593220338983
0.39038491373986 -0.457624510097056 0.60593220338983
0.385864369681335 -0.461574741355927 0.60593220338983
0.382832378529274 -0.460265862660862 0.60593220338983
0.370796351913207 -0.462679715854178 0.60593220338983
0.35685614065712 -0.467527124426991 0.60593220338983
0.352433377423412 -0.463393715249428 0.60593220338983
0.336330781983609 -0.467464864985402 0.60593220338983
0.32741286016835 -0.469921621472931 0.60593220338983
0.31984137708444 -0.474754212662243 0.60593220338983
0.306647120736442 -0.476447284800597 0.60593220338983
0.303404484027934 -0.478618880396944 0.60593220338983
0.292161839703678 -0.477423498620289 0.60593220338983
0.280013869346443 -0.476951652945166 0.60593220338983
0.264569016277502 -0.479206065658235 0.60593220338983
0.250183287919346 -0.482399570850231 0.60593220338983
0.241664053285189 -0.485856122192272 0.60593220338983
0.229510225583001 -0.488397071578015 0.60593220338983
0.229997416742468 -0.489159245684507 0.60593220338983
0.218459246224459 -0.492150683805436 0.60593220338983
0.209108920910996 -0.491086483491319 0.60593220338983
0.190925481519642 -0.494392412640893 0.60593220338983
0.185923571144243 -0.496652737413658 0.60593220338983
0.5 -0.434994923646244 0.491598165377151
0.5 -0.434293158764871 0.49575520097211
0.5 -0.433527516987286 0.513244770680486
0.5 -0.432338862896069 0.521764781627741
0.5 -0.432176867007764 0.530130051052732
0.5 -0.436052183233969 0.531450761401587
0.5 -0.430357046639274 0.543516266311419
0.5 -0.432668949839339 0.553588852530471
0.5 -0.43580148306539 0.562197743381305
0.5 -0.433317005685014 0.564303798507561
0.5 -0.436014793648041 0.576288141705783
0.5 -0.431636890513449 0.579258201055412
0.5 -0.430182150143601 0.590876811124755
0.5 -0.430884796470712 0.605156774717005
0.499206382400152 -0.430390681085572 0.60593220338983
0.485882781245535 -0.438205408345409 0.60593220338983
0.481808776154323 -0.437552518691063 0.60593220338983
0.473493349697761 -0.438391027173443 0.60593220338983
0.462446680624752 -0.439598013404191 0.60593220338983
0.450275353499636 -0.444911692606711 0.60593220338983
0.449496621817826 -0.443176146731362 0.60593220338983
0.436652488887452 -0.440577718837642 0.60593220338983
0.420797117024226 -0.448037376416478 0.60593220338983
0.416427759253286 -0.450183711487856 0.60593220338983
0.403540578073689 -0.448824570648847 0.60593220338983
0.396721431017297 -0.44988728360611 0.60593220338983
0.388292172119167 -0.451857944828188 0.60593220338983
0.378188926207329 -0.456352273603001 0.60593220338983
0.366502104728947 -0.459665583520495 0.60593220338983
0.36674215760075 -0.460625973369435 0.60593220338983
0.355008866578166 -0.460911955753198 0.60593220338983
0.339986339090044 -0.459030418685878 0.60593220338983
0.33379126758552 -0.461261983424886 0.60593220338983
0.32322382730943 -0.462167243759122 0.60593220338983
0.308768906688252 -0.466676984520236 0.60593220338983
0.307221984948058 -0.467280455423851 0.60593220338983
0.290076426586731 -0.469384016436123 0.60593220338983
0.277339656362861 -0.470856319170803 0.60593220338983
0.265367931113605 -0.471707742095608 0.60593220338983
0.267089781290713 -0.477549237966614 0.60593220338983
0.250200957551252 -0.475118516682689 0.60593220338983
0.241046077338547 -0.480737890526148 0.60593220338983
0.221652373870676 -0.478563720902761 0.60593220338983
0.222790233055163 -0.484659228103201 0.60593220338983
0.201818904528509 -0.48666354134551 0.60593220338983
0.18719788309049 -0.486588944683283 0.60593220338983
0.188681450736746 -0.491836433699569 0.60593220338983
0.176441441477608 -0.486802410477128 0.60593220338983
0.159129453208462 -0.489215923656652 0.60593220338983
0.148849232063288 -0.492042665455214 0.60593220338983
0.135145357482166 -0.49887528160894 0.60593220338983
0.134060980683015 -0.493543460353329 0.60593220338983
0.0944199520455004 -0.499924637277776 0.60593220338983
0.5 -0.427955378619495 0.490536902464245
0.5 -0.427024646493555 0.503076957508025
0.5 -0.426526809050687 0.508992062436894
0.5 -0.423235673558922 0.522552241795656
0.5 -0.424706268366852 0.522229065495091
0.5 -0.421318311047614 0.532155073537286
0.5 -0.423294656707215 0.542501459381269
0.5 -0.426510616305103 0.553637073298124
0.5 -0.422920544843444 0.562792531704136
0.5 -0.426995757351154 0.57096927076603
0.5 -0.427598306767188 0.578105539289075
0.5 -0.421141607644686 0.583717079561376
0.498271650879972 -0.425652221819122 0.591101694915254
0.5 -0.428406324227696 0.599411739790852
0.5 -0.429337838219419 0.603448937025209
0.487253424972158 -0.426188402923282 0.60593220338983
0.473432456478405 -0.432435622504677 0.60593220338983
0.475099283502964 -0.425529863260433 0.60593220338983
0.460764202974115 -0.426804355711606 0.60593220338983
0.453803733158067 -0.433214207451751 0.60593220338983
0.448121130787299 -0.437076022258266 0.60593220338983
0.432275819127744 -0.433737973748209 0.60593220338983
0.423834098881237 -0.433894739129931 0.60593220338983
0.417744522177166 -0.435312890177598 0.60593220338983
0.404777399909479 -0.444980060846428 0.60593220338983
0.399908811727672 -0.445796058463665 0.60593220338983
0.386820935376255 -0.447858600763721 0.60593220338983
0.379558545685587 -0.444117845021873 0.60593220338983
0.372862724360098 -0.444552155263694 0.60593220338983
0.363339235856559 -0.449621446679139 0.60593220338983
0.353382517226646 -0.453077346850327 0.60593220338983
0.343111008941084 -0.450531237505589 0.60593220338983
0.330003003217369 -0.450405103796878 0.60593220338983
0.325931743950977 -0.452916776023267 0.60593220338983
0.318598252100473 -0.458700367552161 0.60593220338983
0.292322446175008 -0.457247577447283 0.60593220338983
0.295628638413235 -0.45710228899596 0.60593220338983
0.276319554662262 -0.462755350435297 0.60593220338983
0.27167558063372 -0.467319205993018 0.60593220338983
0.262848411148529 -0.469575706583181 0.60593220338983
0.246886665958967 -0.467893351795461 0.60593220338983
0.242429011120844 -0.473505709141296 0.60593220338983
0.223899889127372 -0.468001416768228 0.60593220338983
0.217368995295012 -0.476070604691905 0.60593220338983
0.208307239270504 -0.478469885509644 0.60593220338983
0.203155311769335 -0.474280737959014 0.60593220338983
0.175664570609149 -0.481688507722877 0.60593220338983
0.174922709266684 -0.476154541220154 0.60593220338983
0.160605683135629 -0.487858260710845 0.60593220338983
0.144314217975372 -0.483030074671151 0.60593220338983
0.1311164074049 -0.488629914158799 0.60593220338983
0.132901653305297 -0.488330103582858 0.60593220338983
0.109077540485827 -0.489911420921297 0.60593220338983
0.106213978173437 -0.495255946730105 0.60593220338983
0.0929394763199089 -0.494196209459315 0.60593220338983
0.0754377105928139 -0.497065365454219 0.60593220338983
0.0529974365939884 -0.4974459743552 0.60593220338983
0.5 -0.413509713354134 0.496127673807565
0.5 -0.417045599772713 0.500061013455649
0.5 -0.417416199285213 0.509121119520062
0.5 -0.414798795148274 0.516707082847812
0.5 -0.414466175708665 0.523638646709894
0.5 -0.417378275526802 0.528251263115787
0.5 -0.415845350167346 0.542755735162193
0.5 -0.414041661171791 0.547558740651501
0.5 -0.413031979489722 0.556042432744243
0.5 -0.413107710041176 0.568727195389246
0.5 -0.41242104964865 0.58025930175444
0.5 -0.420056695563848 0.582803678405776
0.5 -0.413019391870861 0.590618060361666
0.5 -0.413774384812727 0.599652366900347
0.5 -0.419948445603319 0.602509467070018
0.492771989654491 -0.421682244908451 0.60593220338983
0.483672425907295 -0.423150916976615 0.60593220338983
0.467518321078832 -0.420729584718783 0.60593220338983
0.458164635600147 -0.421018628239185 0.60593220338983
0.448520636828217 -0.426084025800214 0.60593220338983
0.439827353915199 -0.423687068044256 0.60593220338983
0.433443763057501 -0.42846404917598 0.60593220338983
0.426272601901341 -0.427547936618419 0.60593220338983
0.420878618575784 -0.431434945878997 0.60593220338983
0.407221111631579 -0.432610956548421 0.60593220338983
0.400282433556857 -0.432222199809817 0.60593220338983
0.385497604394718 -0.432784833874179 0.60593220338983
0.380017945331251 -0.436501281291131 0.60593220338983
0.368842120928017 -0.435723694448586 0.60593220338983
0.358650088876804 -0.442344164797614 0.60593220338983
0.352439592523709 -0.445278257600247 0.60593220338983
0.343707356101847 -0.446786843141387 0.60593220338983
0.325199740413529 -0.442441238803826 0.60593220338983
0.320170329569829 -0.442999588684569 0.60593220338983
0.309745085120963 -0.444402373510042 0.60593220338983
0.302670988159134 -0.453027752757183 0.60593220338983
0.290611291032758 -0.456061323335848 0.60593220338983
0.279060510865009 -0.453186574025229 0.60593220338983
0.26215850090044 -0.458165565352011 0.60593220338983
0.254609627676369 -0.455517449198398 0.60593220338983
0.238983197524723 -0.460947876609008 0.60593220338983
0.229506182487508 -0.457841903412063 0.60593220338983
0.224030914725483 -0.461116904926377 0.60593220338983
0.222398085110685 -0.458997561950974 0.60593220338983
0.210078563256078 -0.460756364838533 0.60593220338983
0.201235431728006 -0.465078336093613 0.60593220338983
0.183231113328992 -0.47282556784257 0.60593220338983
0.179582876253732 -0.474415229096712 0.60593220338983
0.17035877031376 -0.467676594249749 0.60593220338983
0.156526691741938 -0.474008617494064 0.60593220338983
0.136207908011184 -0.476111901336073 0.60593220338983
0.132023067852302 -0.482153415015206 0.60593220338983
0.116969096845068 -0.485686003471645 0.60593220338983
0.110204778207959 -0.484116561685579 0.60593220338983
0.0952597029662538 -0.48333393492727 0.60593220338983
0.0801030809415562 -0.484686820878029 0.60593220338983
0.0680919514801817 -0.490150462110641 0.60593220338983
0.047916936544728 -0.487073822362905 0.60593220338983
0.0350215811305665 -0.489216621018525 0.60593220338983
0.0361936638775951 -0.492290477320084 0.60593220338983
0.0117086850635227 -0.497649440147361 0.60593220338983
-0.0145242134362161 -0.499536526751751 0.60593220338983
0.5 -0.406500931734127 0.492668044622474
0.5 -0.412225351874456 0.497800610300406
0.5 -0.40621670594193 0.506979104074547
0.5 -0.409896543906663 0.514036448217128
0.5 -0.410513055714814 0.528073948386791
0.5 -0.405915454715957 0.535479857878516
0.5 -0.406715767921722 0.544809316323427
0.5 -0.410350421539203 0.550941264224061
0.5 -0.407426922629102 0.565738525641222
0.5 -0.404569832149256 0.566174899568018
0.5 -0.410598705765773 0.575047379722667
0.5 -0.409800575139724 0.57929998397314
0.5 -0.407640221695818 0.586490792369162
0.5 -0.411074434141779 0.601438719744162
0.499809428683487 -0.409761300280481 0.60593220338983
0.48940943186467 -0.408527084033695 0.60593220338983
0.478837460634733 -0.410382611971459 0.60593220338983
0.471018716898634 -0.413133290629117 0.60593220338983
0.464387687575075 -0.410120253526476 0.60593220338983
0.454895727883748 -0.419622793624489 0.60593220338983
0.439147006014528 -0.413642967746281 0.60593220338983
0.440435223311589 -0.417436918577096 0.60593220338983
0.42586866225757 -0.420433005335471 0.60593220338983
0.423190412435419 -0.419840845639742 0.60593220338983
0.409818450019956 -0.423474748241907 0.60593220338983
0.403874870194216 -0.425407720673342 0.60593220338983
0.384544024456227 -0.424469724005427 0.60593220338983
0.379331258488875 -0.429270811455237 0.60593220338983
0.365767078050674 -0.432211016908378 0.60593220338983
0.354645738090887 -0.433237643392579 0.60593220338983
0.349599845748949 -0.432181183820559 0.60593220338983
0.341237211890866 -0.431898909874137 0.60593220338983
0.333143855486913 -0.437231680192564 0.60593220338983
0.320419673495038 -0.434676407964839 0.60593220338983
0.31000802504598 -0.440082244185064 0.60593220338983
0.294037345312438 -0.444051108091846 0.60593220338983
0.295059020042219 -0.443579305359881 0.60593220338983
0.284774917085902 -0.447339010840523 0.60593220338983
0.270824782419112 -0.446274206549768 0.60593220338983
0.260434763392579 -0.449014282284545 0.60593220338983
0.239359699241411 -0.450564614911329 0.60593220338983
0.238033183048248 -0.448651836568068 0.60593220338983
0.226464150720864 -0.4583685285917 0.60593220338983
0.215117686859275 -0.454024929762562 0.60593220338983
0.206847777143998 -0.454544017167428 0.60593220338983
0.193741236886545 -0.458673493518162 0.60593220338983
0.179533765300436 -0.456066755700402 0.60593220338983
0.168463498443729 -0.46057882125129 0.60593220338983
0.162235198994966 -0.464347524556376 0.60593220338983
0.157589974477373 -0.467274832990378 0.60593220338983
0.138840606715988 -0.469973739124601 0.60593220338983
0.117524821163101 -0.47011375930523 0.60593220338983
0.108838876867698 -0.471421060729922 0.60593220338983
0.105602659938591 -0.469573326197834 0.60593220338983
0.0996426631930824 -0.476136380252652 0.60593220338983
0.0894215512748844 -0.477920382739949 0.60593220338983
0.0666605022972046 -0.482172591928408 0.60593220338983
0.0529265173164431 -0.480345254718978 0.60593220338983
0.0409529398634057 -0.48538278367168 0.60593220338983
0.0370047889535144 -0.481873312491974 0.60593220338983
0.0220439822915507 -0.482969335528431 0.60593220338983
0.000410485543683616 -0.48731621667638 0.60593220338983
-0.00898463001590918 -0.489028157159668 0.60593220338983
-0.0117931086877422 -0.490085233770144 0.60593220338983
-0.0235066866993446 -0.49850107967898 0.60593220338983
-0.0626792029324885 -0.497307693208374 0.60593220338983
0.5 -0.401252076459017 0.492862768619386
0.5 -0.396511142906691 0.503714790841461
0.5 -0.401000265472252 0.508775561345501
0.5 -0.402727974871627 0.517572058177205
0.5 -0.396558102274385 0.525068439606309
0.5 -0.402299953778183 0.534429034126765
0.5 -0.39797659484353 0.538024216273957
0.5 -0.395806801087191 0.549867614357377
0.5 -0.40209202118162 0.557088042248927
0.5 -0.396451684354922 0.568673577457622
0.5 -0.402222893653225 0.572807182065365
0.5 -0.402743958779693 0.583169909585273
0.496001711953885 -0.39788666378122 0.591101694915254
0.5 -0.399900969037137 0.597459672913194
0.494716689786013 -0.401770985066324 0.60593220338983
0.490090677025366 -0.403802262051738 0.60593220338983
0.478017298358273 -0.407235355313711 0.60593220338983
0.46538533499295 -0.409051578349142 0.60593220338983
0.468321505061376 -0.401555853287147 0.60593220338983
0.451385583889289 -0.406773059368928 0.60593220338983
0.443584896710434 -0.412848225523626 0.60593220338983
0.431096233932453 -0.411775743335274 0.60593220338983
0.422991785742514 -0.412157140495822 0.60593220338983
0.411899382563445 -0.411410674237122 0.60593220338983
0.410668133852074 -0.411450737691058 0.60593220338983
0.394223329191733 -0.420485307623832 0.60593220338983
0.388497233949207 -0.422473351845192 0.60593220338983
0.376686449264911 -0.415387736518695 0.60593220338983
0.36587364745404 -0.425131269723636 0.60593220338983
0.363511929013402 -0.421964092416691 0.60593220338983
0.346240475117298 -0.421680672355768 0.60593220338983
0.343076216624041 -0.424510821877638 0.60593220338983
0.32687863926738 -0.42570464789944 0.60593220338983
0.319053154735995 -0.430223187858887 0.60593220338983
0.308250801956902 -0.431523858735129 0.60593220338983
0.294292590519058 -0.436084892150137 0.60593220338983
0.290759153338285 -0.434948920901231 0.60593220338983
0.284510964498647 -0.437265576481557 0.60593220338983
0.267119013267132 -0.432822684573766 0.60593220338983
0.262862650770087 -0.436501996281259 0.60593220338983
0.250973669132194 -0.440115655185249 0.60593220338983
0.241309101731876 -0.446264686780457 0.60593220338983
0.222543890577889 -0.447319938836731 0.60593220338983
0.215113982326106 -0.449360354222156 0.60593220338983
0.20061221395752 -0.444252435331367 0.60593220338983
0.196249046725181 -0.445260225699028 0.60593220338983
0.18142250869705 -0.449054205333053 0.60593220338983
0.175573024058948 -0.456816821052475 0.60593220338983
0.164237293841753 -0.456392333235501 0.60593220338983
0.157322578869957 -0.450846478690762 0.60593220338983
0.140139910449987 -0.460777804314044 0.60593220338983
0.117432906208504 -0.46049510136857 0.60593220338983
0.112991593936929 -0.457544270313385 0.60593220338983
0.0970526856026602 -0.461387568788285 0.60593220338983
0.0925404151248841 -0.469726925520557 0.60593220338983
0.0756344972491928 -0.471051928926492 0.60593220338983
0.0650248850076285 -0.470853165241179 0.60593220338983
0.0583597260948058 -0.476328279410776 0.60593220338983
0.0428391366288724 -0.472143941291558 0.60593220338983
0.0283311098965574 -0.474683803345449 0.60593220338983
0.0206697246724123 -0.479118107208415 0.60593220338983
0.00641195243325953 -0.483559498540062 0.60593220338983
-0.00780836492724218 -0.483701283474395 0.60593220338983
-0.0235269173659454 -0.480232096250277 0.60593220338983
-0.034991676267477 -0.485422669128871 0.60593220338983
-0.0439201928417857 -0.484634310260269 0.60593220338983
-0.0597312570089618 -0.491795600257539 0.60593220338983
-0.0704595204396263 -0.488348782172238 0.60593220338983
-0.0830509721053453 -0.490026896411479 0.60593220338983
-0.093631609420559 -0.491992747924333 0.60593220338983
-0.126960325915803 -0.495614596318058 0.60593220338983
-0.133051274111736 -0.499408468102315 0.60593220338983
-0.144170422694526 -0.499681989565453 0.60593220338983
0.5 -0.39473236043829 0.492618853686464
0.5 -0.394532012872772 0.496750547256884
0.5 -0.393288984747205 0.507861290470097
0.5 -0.392863623240703 0.520339464742723
0.5 -0.39526385246521 0.521883127960743
0.5 -0.391739661637711 0.539219250356221
0.5 -0.387701993676731 0.544810038979655
0.5 -0.392728592810579 0.553427406703379
0.5 -0.395047962413609 0.56037115801371
0.5 -0.392300140894464 0.571742593269258
0.5 -0.393647140701581 0.574255664851499
0.5 -0.388587029855388 0.582115687719577
0.5 -0.394878806853006 0.588552592871253
0.5 -0.395213142866911 0.599016298044642
0.49760159076171 -0.39302564750283 0.60593220338983
0.488656814297319 -0.391722612916985 0.60593220338983
0.48202933685572 -0.395688380368694 0.60593220338983
0.468454110590256 -0.394749832628203 0.60593220338983
0.462423021877789 -0.393965265463262 0.60593220338983
0.458279644663801 -0.402146089008382 0.60593220338983
0.444589861997881 -0.402518348839636 0.60593220338983
0.427607069924746 -0.401607455769659 0.60593220338983
0.423783256889104 -0.400229838927775 0.60593220338983
0.417518307544607 -0.404316661763321 0.60593220338983
0.40995560861496 -0.405241165755414 0.60593220338983
0.400240217081835 -0.407628744508993 0.60593220338983
0.387912913115275 -0.407396841665298 0.60593220338983
0.377920502203561 -0.406762377210764 0.60593220338983
0.3659230359547 -0.40900123673798 0.60593220338983
0.359379748722531 -0.413104018626006 0.60593220338983
0.352337332364493 -0.417384426695449 0.60593220338983
0.339816914287547 -0.413299529655686 0.60593220338983
0.331564561500246 -0.421108851107953 0.60593220338983
0.320499410044271 -0.422347833352767 0.60593220338983
0.310525045842951 -0.41981322002169 0.60593220338983
0.308311557853861 -0.424825430838893 0.60593220338983
0.288204462079154 -0.422789871752772 0.60593220338983
0.277044258219782 -0.430881053360511 0.60593220338983
0.269663519530629 -0.432104229938539 0.60593220338983
0.254802317298574 -0.429721776379642 0.60593220338983
0.25346823531565 -0.428468686588117 0.60593220338983
0.23939048084714 -0.43416078676831 0.60593220338983
0.229751608118947 -0.437297613663378 0.60593220338983
0.224018350587464 -0.43109568997681 0.60593220338983
0.200491008532846 -0.439162356112854 0.60593220338983
0.19825401002504 -0.439470688023547 0.60593220338983
0.185286011173606 -0.440380167783855 0.60593220338983
0.167591861355493 -0.440579088297719 0.60593220338983
0.160735681048726 -0.44634566452455 0.60593220338983
0.14993119166746 -0.444181906017128 0.60593220338983
0.144176206380113 -0.443079644190335 0.60593220338983
0.13277663293695 -0.449417822809333 0.60593220338983
0.117326282842163 -0.455931228045263 0.60593220338983
0.108636472897086 -0.453523598488541 0.60593220338983
0.094776915721191 -0.459009677414118 0.60593220338983
0.0734130215526365 -0.460359396667903 0.60593220338983
0.0613653509404811 -0.457175713877529 0.60593220338983
0.0519115363645922 -0.464076265662654 0.60593220338983
0.0399189993936089 -0.466906826362597 0.60593220338983
0.0344856985254546 -0.4602257800531 0.60593220338983
0.0286080206587757 -0.465342525891156 0.60593220338983
0.0127179325274181 -0.472732163810154 0.60593220338983
-0.00904388688648192 -0.474013613354365 0.60593220338983
-0.0270290291400232 -0.476028884992783 0.60593220338983
-0.0329863512659554 -0.472852550748634 0.60593220338983
-0.0526645673463796 -0.479371673016591 0.60593220338983
-0.0587541786119635 -0.480100283737974 0.60593220338983
-0.0663111445663705 -0.476688076277804 0.60593220338983
-0.0856163766717931 -0.47981098963545 0.60593220338983
-0.100586168533322 -0.483642007564896 0.60593220338983
-0.117105727687544 -0.487807537607255 0.60593220338983
-0.128003645639974 -0.493047168767677 0.60593220338983
-0.130416044375063 -0.494222146565261 0.60593220338983
-0.154846233716565 -0.498252952305775 0.60593220338983
-0.165648666800581 -0.494311107180394 0.60593220338983
-0.177452217731846 -0.49196181163336 0.60593220338983
-0.201964917762242 -0.498713473688171 0.60593220338983
0.5 -0.381127170121529 0.49751445911143
0.5 -0.381562788887958 0.500052535393527
0.5 -0.385751997213965 0.506593160327977
0.5 -0.383371055642018 0.520151657988041
0.5 -0.385457328147356 0.526155298541259
0.5 -0.384701108672291 0.536582307098196
0.5 -0.381271295816554 0.540947979069401
0.5 -0.383784185951226 0.54540509947539
0.5 -0.385329881620518 0.562383790315623
0.5 -0.381322039402088 0.563399438024325
0.5 -0.386280531778335 0.571980966778168
0.5 -0.383701506653784 0.584582719469073
0.498325725023367 -0.379546974363406 0.591101694915254
0.5 -0.387169228140255 0.601391381629192
0.49916852461801 -0.381210297261432 0.60593220338983
0.485576168308185 -0.386006868771203 0.60593220338983
0.485042612523019 -0.383403898176338 0.60593220338983
0.465753864516674 -0.387204467970646 0.60593220338983
0.466963403343895 -0.389217754614865 0.60593220338983
0.456484913500337 -0.38849504807646 0.60593220338983
0.438784505265888 -0.393183110804599 0.60593220338983
0.43672447658036 -0.388805042955873 0.60593220338983
0.426998786556019 -0.393114806897885 0.60593220338983
0.411826588205787 -0.393244219949309 0.60593220338983
0.4047842380663 -0.400961834130337 0.60593220338983
0.400832769422683 -0.396737887421936 0.60593220338983
0.386586938955028 -0.396989605016146 0.60593220338983
0.375554734696581 -0.405209477735056 0.60593220338983
0.370646438683111 -0.399667045932242 0.60593220338983
0.361847562931244 -0.406206451360186 0.60593220338983
0.345001170398717 -0.404944521611732 0.60593220338983
0.346727376986279 -0.406608949185085 0.60593220338983
0.329572621602846 -0.41013336209827 0.60593220338983
0.316459706330909 -0.40964672680561 0.60593220338983
0.309615534725288 -0.414584434637573 0.60593220338983
0.294545881560826 -0.416912544826992 0.60593220338983
0.297553907692084 -0.414236078357785 0.60593220338983
0.277008123867026 -0.412953337012594 0.60593220338983
0.26766845504206 -0.421955254083876 0.60593220338983
0.254975407226413 -0.42541772336516 0.60593220338983
0.246651090829477 -0.416988545852211 0.60593220338983
0.235579328257659 -0.424419175885171 0.60593220338983
0.222871716933867 -0.428935750558689 0.60593220338983
0.215514620404177 -0.429624428643122 0.60593220338983
0.20768941589092 -0.430829487333697 0.60593220338983
0.197418648854828 -0.426275800218044 0.60593220338983
0.18940010672254 -0.433889945173169 0.60593220338983
0.167665140192723 -0.432638038677678 0.60593220338983
0.15858796906506 -0.430638982093143 0.60593220338983
0.142173061890093 -0.433105172729851 0.60593220338983
0.146296055033192 -0.436401460383398 0.60593220338983
0.126859254777463 -0.438545725981974 0.60593220338983
0.117227849378951 -0.443162857640287 0.60593220338983
0.101676022316157 -0.443600769355311 0.60593220338983
0.0950533999885203 -0.44443020177661 0.60593220338983
0.078868950532015 -0.444454125487396 0.60593220338983
0.0697069595615333 -0.45028641831821 0.60593220338983
0.0625426184467964 -0.452124455877593 0.60593220338983
0.0464374468642861 -0.449029672178313 0.60593220338983
0.0254508613685875 -0.454393432676193 0.60593220338983
0.0179039958189235 -0.452252113762334 0.60593220338983
0.015216518466062 -0.457265951600165 0.60593220338983
-0.000246717614489988 -0.457321205444733 0.60593220338983
-0.0242922784811981 -0.460384751842442 0.60593220338983
-0.0284470462297471 -0.466691104778454 0.60593220338983
-0.0499049871210769 -0.471026519528714 0.60593220338983
-0.0635263352680992 -0.470804909346794 0.60593220338983
-0.0619820552327678 -0.46963551977551 0.60593220338983
-0.0787463688606462 -0.469691927644723 0.60593220338983
-0.0917156946143102 -0.478757593400234 0.60593220338983
-0.116830500270914 -0.478357044491915 0.60593220338983
-0.127216126986368 -0.475690868902026 0.60593220338983
-0.139717145890383 -0.480638771721939 0.60593220338983
-0.150594892148843 -0.486410167559479 0.60593220338983
-0.156582627725227 -0.488640360303073 0.60593220338983
-0.179202992537816 -0.489121248606354 0.60593220338983
-0.194976555209822 -0.48677840799727 0.60593220338983
-0.194281247425954 -0.494293887479865 0.60593220338983
-0.226867687828366 -0.494551721167361 0.60593220338983
-0.243495539970411 -0.492817834016928 0.60593220338983
-0.252122974012615 -0.499410190420083 0.60593220338983
0.5 -0.373276051603303 0.495100336085485
0.5 -0.375910186897943 0.500290832461553
0.5 -0.37512143217082 0.506015233896229
0.5 -0.372850559946284 0.519055451815665
0.5 -0.373130663704564 0.526200539556422
0.5 -0.378435187553006 0.53039979154368
0.5 -0.372304027807298 0.54396814210716
0.5 -0.376014922427707 0.552492875425196
0.5 -0.375992891346154 0.561124646397612
0.5 -0.374436754211104 0.570037676711548
0.5 -0.374183162875348 0.580599677383472
0.5 -0.377470968574022 0.582663462482437
0.5 -0.378104216698792 0.589493905641159
0.5 -0.370958628818361 0.596521931949124
0.498792512783236 -0.37310505645673 0.60593220338983
0.493091288242976 -0.374286798981979 0.60593220338983
0.479407042276402 -0.373871304573164 0.60593220338983
0.473923701081655 -0.377319619859602 0.60593220338983
0.462169356423918 -0.37717741536421 0.60593220338983
0.45213995028523 -0.38321546783459 0.60593220338983
0.449765560350563 -0.379721540938205 0.60593220338983
0.432880962328412 -0.384027855779602 0.60593220338983
0.422205033485581 -0.382406995364575 0.60593220338983
0.414570027342062 -0.389306305197969 0.60593220338983
0.413109463604501 -0.391274597952119 0.60593220338983
0.396531511748777 -0.386922345338251 0.60593220338983
0.387233838886765 -0.390408614708713 0.60593220338983
0.373284553484711 -0.396372826138273 0.60593220338983
0.374267056642194 -0.395060890016837 0.60593220338983
0.362487569081071 -0.395801042136283 0.60593220338983
0.345430910024723 -0.394666136251988 0.60593220338983
0.338315541309055 -0.3992407391395 0.60593220338983
0.333903681796136 -0.400783707406606 0.60593220338983
0.318745031362373 -0.401178592857165 0.60593220338983
0.31279929531931 -0.400827681519285 0.60593220338983
0.305455601506859 -0.402688328926758 0.60593220338983
0.287126144561928 -0.410713291556495 0.60593220338983
0.285335693320489 -0.403410972460591 0.60593220338983
0.27349836235664 -0.410676238546156 0.60593220338983
0.258049202585043 -0.40667876061858 0.60593220338983
0.251590901979552 -0.411460419020426 0.60593220338983
0.238232765521784 -0.417305051260319 0.60593220338983
0.229822096049438 -0.411151031994085 0.60593220338983
0.214827073177753 -0.418562279560149 0.60593220338983
0.198195189037613 -0.421231656563345 0.60593220338983
0.200040635288034 -0.422263114017757 0.60593220338983
0.176302062888321 -0.424695085767106 0.60593220338983
0.169731790151156 -0.420327497156702 0.60593220338983
0.16051135057923 -0.425125565046865 0.60593220338983
0.156752669931075 -0.431281637219507 0.60593220338983
0.134327662797085 -0.42553927809571 0.60593220338983
0.12711066670826 -0.426944768844648 0.60593220338983
0.109482899749865 -0.434855586760659 0.60593220338983
0.107828995175237 -0.437417217539207 0.60593220338983
0.0943286629656414 -0.43349185028098 0.60593220338983
0.0866537297591882 -0.442566512965708 0.60593220338983
0.0750488113269189 -0.440641045096209 0.60593220338983
0.0562360697300431 -0.436305752106549 0.60593220338983
0.0460739071598797 -0.447940137564754 0.60593220338983
0.040788246958235 -0.448228486440835 0.60593220338983
0.0138426071128772 -0.4468858565536 0.60593220338983
0.0131835802964639 -0.446125424677067 0.60593220338983
-0.00618805271237694 -0.45293664190501 0.60593220338983
-0.0205181628349922 -0.449044368707706 0.60593220338983
-0.0292018793786056 -0.454683971410122 0.60593220338983
-0.0439060283540411 -0.461127018964728 0.60593220338983
-0.0609636827704843 -0.454933019210894 0.60593220338983
-0.070678851675285 -0.45773127548996 0.60593220338983
-0.0808928788083254 -0.46553039858758 0.60593220338983
-0.0961966847199745 -0.463344974370392 0.60593220338983
-0.115061095858113 -0.463131239406481 0.60593220338983
-0.115810631462507 -0.465561397239142 0.60593220338983
-0.141879399399591 -0.470861719273879 0.60593220338983
-0.145560408694292 -0.468488464661848 0.60593220338983
-0.159615429164808 -0.472481536902518 0.60593220338983
-0.175932801205703 -0.474409067830494 0.60593220338983
-0.187466930212583 -0.480409108120238 0.60593220338983
-0.207267141648315 -0.477754609113492 0.60593220338983
-0.222672478899791 -0.485828392840085 0.60593220338983
-0.228286839619515 -0.480121883581991 0.60593220338983
-0.25329368668993 -0.490892071008665 0.60593220338983
-0.269520744515736 -0.491280271797415 0.60593220338983
-0.279071911507748 -0.488452183680914 0.60593220338983
-0.286477882252915 -0.492650947773652 0.60593220338983
-0.327186266649982 -0.49862560166124 0.60593220338983
0.5 -0.364616399741983 0.492574695196955
0.5 -0.363428687651349 0.498551968531134
0.5 -0.365753024150981 0.505694120798695
0.5 -0.370338057418213 0.515736063769769
0.5 -0.363929237073575 0.527921455983507
0.5 -0.370490669609518 0.535946844701732
0.5 -0.367560705226844 0.544797534303858
0.5 -0.365820361507358 0.554828128188896
0.5 -0.364132824643478 0.560533734877611
0.5 -0.369295933130032 0.563897528176007
0.5 -0.36827476215807 0.567580543325763
0.5 -0.364863711088513 0.584182063791002
0.497667195638813 -0.366731767014209 0.591101694915254
0.5 -0.363288357946201 0.596307535353408
0.494098171224806 -0.371657535154361 0.60593220338983
0.490721222665858 -0.368303856072926 0.60593220338983
0.483641422608837 -0.367173805781997 0.60593220338983
0.467629940964282 -0.370630592291788 0.60593220338983
0.463791756261822 -0.373700737484195 0.60593220338983
0.450736860184561 -0.370599733729266 0.60593220338983
0.440813715561882 -0.379109468517179 0.60593220338983
0.429810008278896 -0.376990517662462 0.60593220338983
0.428018295904523 -0.382009938560149 0.60593220338983
0.416380765385511 -0.379228184249004 0.60593220338983
0.408704454652844 -0.380044352881172 0.60593220338983
0.398840840624358 -0.382617809346639 0.60593220338983
0.395004405015832 -0.378699522780873 0.60593220338983
0.384206422599463 -0.38584870898128 0.60593220338983
0.371598109052083 -0.388247530098407 0.60593220338983
0.353971828614573 -0.386021802337641 0.60593220338983
0.351782385091288 -0.384497847855977 0.60593220338983
0.340917680921386 -0.394210329724642 0.60593220338983
0.330193607865251 -0.394878778439514 0.60593220338983
0.318797304872231 -0.391832444973964 0.60593220338983
0.314501233683557 -0.396121941572853 0.60593220338983
0.294202916113013 -0.397481901488082 0.60593220338983
0.284911064857142 -0.399244961869196 0.60593220338983
0.273998491899104 -0.403558281258117 0.60593220338983
0.263572172110653 -0.405078533713289 0.60593220338983
0.263991243676051 -0.39709087090597 0.60593220338983
0.243309910889141 -0.408858289133313 0.60593220338983
0.232780306899425 -0.402240452836788 0.60593220338983
0.224580200174831 -0.407871391126062 0.60593220338983
0.212891702037581 -0.40816844132989 0.60593220338983
0.208595931757962 -0.412559677846577 0.60593220338983
0.197594035056694 -0.407171463098507 0.60593220338983
0.186491151394508 -0.409189441046192 0.60593220338983
0.173777762490764 -0.415475768675095 0.60593220338983
0.15966363611753 -0.421199226564254 0.60593220338983
0.151846776621699 -0.419884795565629 0.60593220338983
0.135685507762243 -0.41901576460733 0.60593220338983
0.131524031640112 -0.416715634686286 0.60593220338983
0.122650955979642 -0.422894672699171 0.60593220338983
0.104228097432751 -0.428443342022752 0.60593220338983
0.0970433901329665 -0.428766182523565 0.60593220338983
0.0784325409938239 -0.429181149222186 0.60593220338983
0.071730584286198 -0.425841739629524 0.60593220338983
0.0632653150177998 -0.43022212117694 0.60593220338983
0.0394406145838027 -0.429877840894236 0.60593220338983
0.0284253610354968 -0.439492214585366 0.60593220338983
0.0211343959424496 -0.438565688759001 0.60593220338983
0.00394249115678214 -0.436077332133614 0.60593220338983
-0.00932011246943429 -0.439808091983136 0.60593220338983
-0.0174459843210031 -0.445839125222674 0.60593220338983
-0.0306029364622459 -0.439972093625298 0.60593220338983
-0.046560837682439 -0.442746739373267 0.60593220338983
-0.0609472187001802 -0.453443898023992 0.60593220338983
-0.0621990992414083 -0.446056431973167 0.60593220338983
-0.0838036451527856 -0.447963912043233 0.60593220338983
-0.0905836828659649 -0.454468517891013 0.60593220338983
-0.11886948584297 -0.454786540081137 0.60593220338983
-0.129557390886649 -0.462867175973504 0.60593220338983
-0.133966591072506 -0.458877986926619 0.60593220338983
-0.150609416599813 -0.461289437586389 0.60593220338983
-0.167540514894321 -0.467690949749621 0.60593220338983
-0.174871387277913 -0.465192989540467 0.60593220338983
-0.19082295540979 -0.472069957298891 0.60593220338983
-0.208915811062723 -0.467604783700243 0.60593220338983
-0.229412866503267 -0.475557304431083 0.60593220338983
-0.236038157326871 -0.472778065534362 0.60593220338983
-0.246810541300458 -0.480017575303888 0.60593220338983
-0.262720204229549 -0.480220536185893 0.60593220338983
-0.277487514796165 -0.475611594072788 0.60593220338983
-0.300288342722883 -0.48666961031274 0.60593220338983
-0.313067112182714 -0.487460334413811 0.60593220338983
-0.32614980539739 -0.483239581389412 0.60593220338983
-0.345607734795269 -0.485998247611195 0.60593220338983
-0.352898903356671 -0.494115347669334 0.60593220338983
-0.361446529227688 -0.491964471226181 0.60593220338983
-0.37827381455316 -0.497985824196825 0.60593220338983
-0.404972276393282 -0.493901817079008 0.60593220338983
-0.416759658620879 -0.496660717533694 0.60593220338983
0.5 -0.354908693174485 0.492637069992993
0.5 -0.356490851821901 0.492675467176985
0.5 -0.355793881445468 0.511234485121741
0.5 -0.355077830957404 0.518086722599128
0.5 -0.360142416682617 0.528234311053521
0.5 -0.359333752708395 0.530737776050706
0.5 -0.355418948508795 0.546877933811426
0.5 -0.355862373307647 0.54792640298091
0.5 -0.362752127499267 0.554697002918743
0.5 -0.357788388420804 0.570015255753413
0.5 -0.354926572591773 0.575989627052063
0.5 -0.354263980586516 0.584220528103418
0.499662532090617 -0.360485866902781 0.591101694915254
0.5 -0.356400227068109 0.600839100261343
0.495239842422852 -0.361707958197055 0.60593220338983
0.484868057634247 -0.355957323352544 0.60593220338983
0.48117306694044 -0.35745781079031 0.60593220338983
0.46756812730485 -0.364571411230358 0.60593220338983
0.461427138855497 -0.361716787263279 0.60593220338983
0.454652791436268 -0.366326676155701 0.60593220338983
0.447354682080052 -0.366907798061761 0.60593220338983
0.432262266405745 -0.369514570746554 0.60593220338983
0.425278196856686 -0.371632654922419 0.60593220338983
0.412110218324034 -0.370087885796035 0.60593220338983
0.412015376273622 -0.371754106484254 0.60593220338983
0.395686795893052 -0.373496881082757 0.60593220338983
0.388498709837792 -0.37774040534752 0.60593220338983
0.380624794028141 -0.372227584291646 0.60593220338983
0.366194702816751 -0.379177715036674 0.60593220338983
0.357394771968989 -0.382366480527588 0.60593220338983
0.348770377093244 -0.377639332544137 0.60593220338983
0.334956710523004 -0.377981415505541 0.60593220338983
0.325857646904062 -0.379417260890682 0.60593220338983
0.320267800803742 -0.385888672369535 0.60593220338983
0.309572942066775 -0.386070521716437 0.60593220338983
0.296054548848755 -0.385870662004577 0.60593220338983
0.284006546006607 -0.387548335472024 0.60593220338983
0.277798426135935 -0.390656246789689 0.60593220338983
0.269219284197301 -0.389929876456823 0.60593220338983
0.261160682201606 -0.396867175042551 0.60593220338983
0.247974567745726 -0.392464851461467 0.60593220338983
0.239785057733617 -0.400473105043211 0.60593220338983
0.227376094367951 -0.3967149201715 0.60593220338983
0.220081880640657 -0.398648384601815 0.60593220338983
0.197733625074634 -0.404623189783134 0.60593220338983
0.192173562920092 -0.400164131407554 0.60593220338983
0.181994770644411 -0.40583070906365 0.60593220338983
0.171262307028865 -0.404911060624538 0.60593220338983
0.163530156649201 -0.403481595503965 0.60593220338983
0.142478015579413 -0.408630920156 0.60593220338983
0.142873817616713 -0.413118697569806 0.60593220338983
0.128556461404696 -0.415410052642586 0.60593220338983
0.114423800483618 -0.416016682845091 0.60593220338983
0.102150576860897 -0.412154755603863 0.60593220338983
0.0995010026308803 -0.412207322608345 0.60593220338983
0.0859223794488091 -0.420089615563115 0.60593220338983
0.0609554922740072 -0.425161356637022 0.60593220338983
0.0540910338204215 -0.420712924768292 0.60593220338983
0.0442998766045452 -0.42123463414286 0.60593220338983
0.0295509093455542 -0.430531344267411 0.60593220338983
0.025119743145046 -0.422734526693988 0.60593220338983
0.00366930079081551 -0.434159828685502 0.60593220338983
-0.00327438362500716 -0.42990410287642 0.60593220338983
-0.0202830410823974 -0.431313089716405 0.60593220338983
-0.0297799901736455 -0.431787987708721 0.60593220338983
-0.0508742067618393 -0.441201698597981 0.60593220338983
-0.0564420807367111 -0.437471983160762 0.60593220338983
-0.0701561878128166 -0.44104885556055 0.60593220338983
-0.0884829673921696 -0.438943130708816 0.60593220338983
-0.0912353621746583 -0.448585323512154 0.60593220338983
-0.105177483963569 -0.447616296651281 0.60593220338983
-0.130494637322311 -0.447292278923983 0.60593220338983
-0.145394383428713 -0.448571795799659 0.60593220338983
-0.149308087102004 -0.447152113873394 0.60593220338983
-0.16680179283224 -0.450239242358685 0.60593220338983
-0.183252435959873 -0.461276793709559 0.60593220338983
-0.187316964063951 -0.456160648591775 0.60593220338983
-0.217283034948474 -0.459599040691633 0.60593220338983
-0.22472335278533 -0.463131546012412 0.60593220338983
-0.228425590720028 -0.460851512166308 0.60593220338983
-0.256007688922568 -0.464428892253491 0.60593220338983
-0.271041274986525 -0.472923814387439 0.60593220338983
-0.285129015923121 -0.46837645406192 0.60593220338983
-0.298340652000102 -0.472639169252032 0.60593220338983
-0.310983722638707 -0.472562742887856 0.60593220338983
-0.314386418072631 -0.477545461611989 0.60593220338983
-0.347260020802386 -0.476953463429582 0.60593220338983
-0.351515458767506 -0.476670528876183 0.60593220338983
-0.374972281307481 -0.489342192656995 0.60593220338983
-0.38514728475699 -0.480445926907155 0.60593220338983
-0.39811352872294 -0.491404363676952 0.60593220338983
-0.421741212985992 -0.484820789129445 0.60593220338983
-0.445524135783564 -0.491957763532673 0.60593220338983
-0.452004372748007 -0.494644500205894 0.60593220338983
0.5 -0.349884391201726 0.495614953302229
0.5 -0.35386038597249 0.504586468144815
0.5 -0.351281562341887 0.508326773703291
0.5 -0.353222783674142 0.512279796554502
0.5 -0.345494108499429 0.52585656936525
0.5 -0.348130984206228 0.532977067305098
0.5 -0.349257637276685 0.535549160982892
0.5 -0.34764865266587 0.55200243499772
0.5 -0.351774120847405 0.563248994323991
0.5 -0.34682679168615 0.573499114629284
0.5 -0.350069130725782 0.569576511390747
0.5 -0.351775279631608 0.585773178778283
0.497176576145043 -0.3489754138085 0.591101694915254
0.5 -0.350366648259662 0.602962371671313
0.494956780608944 -0.346486443985825 0.60593220338983
0.493679909148875 -0.353290698222517 0.60593220338983
0.479212646071338 -0.356162248787123 0.60593220338983
0.472613056034416 -0.356509525679035 0.60593220338983
0.466466221466301 -0.350945186237627 0.60593220338983
0.456064665801461 -0.353954829838058 0.60593220338983
0.444018164835889 -0.355779035127094 0.60593220338983
0.439749737727648 -0.356066970514552 0.60593220338983
0.425843694209438 -0.357244535568641 0.60593220338983
0.420936169673494 -0.364131955859648 0.60593220338983
0.409027998371034 -0.360103591273016 0.60593220338983
0.394380996250397 -0.362928455457504 0.60593220338983
0.384344313153976 -0.364904823198501 0.60593220338983
0.377265505561008 -0.363714309577731 0.60593220338983
0.365359737396787 -0.364219986167621 0.60593220338983
0.36201673068608 -0.366352551881901 0.60593220338983
0.347373283342325 -0.36921839327683 0.60593220338983
0.334748288194273 -0.376027748113712 0.60593220338983
0.326223622368141 -0.377494857795206 0.60593220338983
0.315845534699625 -0.372055799975934 0.60593220338983
0.310197944826326 -0.376530941064398 0.60593220338983
0.304511337540527 -0.377805994518601 0.60593220338983
0.297298064393387 -0.376339366014483 0.60593220338983
0.281952318521661 -0.384154817518988 0.60593220338983
0.266603090548087 -0.386455748444067 0.60593220338983
0.25761634486159 -0.380264803268258 0.60593220338983
0.255330468339065 -0.382465554018342 0.60593220338983
0.241144874086358 -0.389283532806016 0.60593220338983
0.228333208346206 -0.387390318184963 0.60593220338983
0.222454904193413 -0.393505000112923 0.60593220338983
0.207661829028776 -0.389585779439813 0.60593220338983
0.203509692417214 -0.387680873334658 0.60593220338983
0.181188771350048 -0.39283297616608 0.60593220338983
0.169604784033814 -0.390936878960258 0.60593220338983
0.158588958729282 -0.395628731595218 0.60593220338983
0.156723677375359 -0.400996354365635 0.60593220338983
0.139242659838989 -0.400790545017608 0.60593220338983
0.132550073339251 -0.403410411240359 0.60593220338983
0.113940566056762 -0.405731416451657 0.60593220338983
0.104401158621199 -0.401385261372941 0.60593220338983
0.0874917650967363 -0.405956643132064 0.60593220338983
0.0782538576904757 -0.410414075412512 0.60593220338983
0.0650941086156261 -0.405592219647888 0.60593220338983
0.0521760882051619 -0.41075726299569 0.60593220338983
