ply
format ascii 1.0
element vertex 867
property float x
property float y
property float z
end_header
0.0868528779623692 0.220430107526882 0.135926145622416
0.0869517429967885 0.220430107526882 0.141765696997074
0.0924431147860521 0.220430107526882 0.157127108770017
0.0985442087536704 0.220430107526882 0.147988287904715
0.0952523845442469 0.213570369717591 0.161290322580645
0.105211176194421 0.212378622151041 0.161290322580645
0.121887584514449 0.195232324248846 0.155913978494624
0.116315370236366 0.202530603203028 0.161290322580646
0.133968038061736 0.190319797358886 0.155913978494624
0.142459258221979 0.185147112381987 0.155913978494624
0.150049485396327 0.165979334182153 0.155913978494624
0.151660398990374 0.166524039284432 0.155913978494624
0.166527877959354 0.154136075848159 0.155913978494624
0.17913425658863 0.151397192431342 0.155913978494623
0.180584278741461 0.148195382338856 0.155913978494624
0.18671420134049 0.141819726999579 0.155913978494624
0.204270684513972 0.133834325803939 0.155913978494624
0.044676005314562 0.258064516129032 0.352164447498786
0.0503729866110769 0.258064516129032 0.356477952116409
0.0556214662618564 0.258064516129032 0.365801937263532
0.0564755327338825 0.258064516129032 0.369662220832479
0.0550516534782388 0.255464050028917 0.381720430107527
0.0635300777353099 0.244057282751218 0.379032258064516
0.0715726718633143 0.237124293744784 0.379032258064516
0.0761456339028008 0.231379898926575 0.379032258064516
0.0815871724095433 0.229314241780438 0.379032258064516
0.102853424631412 0.213635184339933 0.379032258064516
0.100561180649009 0.211078484042858 0.379032258064516
0.112683353354395 0.203914525216352 0.379032258064516
0.129417014406301 0.196566448087381 0.379032258064516
0.127948050308021 0.195078980085965 0.379032258064516
0.137542744549513 0.188710406038722 0.379032258064516
0.144584472065377 0.172280986494376 0.379032258064516
0.148289571450869 0.170030779749546 0.379032258064516
0.1711527417781 0.162420367072827 0.379032258064517
0.179991597783297 0.155391115868181 0.379032258064516
0.183867206467804 0.150015304610564 0.379032258064516
0.187199302114883 0.138842604451515 0.379032258064516
0.193789759677525 0.137104689984999 0.379032258064516
0.202482701468772 0.123058211209263 0.379032258064517
0.21209954514042 0.112962975343359 0.379032258064516
0.233307964326201 0.106515692816627 0.379032258064517
0.238819479862323 0.0936527838770807 0.379032258064516
0.249793523891116 0.0848400269852859 0.379032258064516
0.253829743965006 0.0822525839036228 0.379032258064516
0.269053053352125 0.0748284106107475 0.379032258064517
0.268649206950214 0.0635661411234437 0.379032258064516
0.283427163525982 0.0602061135376664 0.379032258064516
0.294731850154315 0.0508633052813934 0.379032258064516
0.298805555218321 0.048607636494195 0.379032258064516
0.312479439114319 0.032388898616543 0.379032258064516
0.321431912168054 0.0285118319974201 0.379032258064516
0.322758948711661 0.0243201978263678 0.379032258064516
0.348382664773647 0.00624453074456473 0.379032258064516
0.347873514362998 0.00854546185144529 0.379032258064516
0.358983667443608 -0.0086391656693819 0.379032258064516
0.370861660053913 -0.0199792303528613 0.379032258064516
0.377782209758744 -0.0313521895294275 0.379032258064516
0.391916722446381 -0.0269189683224907 0.379032258064516
0.408644403825704 -0.0525236963782375 0.379032258064516
0.414959790047893 -0.0551475321961282 0.379032258064516
0.424700405388205 -0.0650093627747193 0.379032258064516
0.430933777117508 -0.0655337902317673 0.379032258064516
0.443495098735712 -0.0829895490752425 0.379032258064516
0.453748041026134 -0.0919341294968801 0.379032258064516
0.475195811794955 -0.107986137767638 0.379032258064516
0.473193409130348 -0.110916936202599 0.379032258064516
0.489247311827957 -0.11428473473555 0.379370019227061
0.111127187634087 0.220430107526882 0.138391679462336
0.113665966998624 0.220430107526882 0.144278745426816
0.109740107623119 0.220430107526882 0.160959318091766
0.114167230083023 0.218880708423866 0.161290322580645
0.124134437790472 0.212571154855161 0.161290322580645
0.127708650889426 0.205789221735831 0.161290322580645
0.139254614625913 0.193251063746197 0.155913978494624
0.141752808584353 0.192307753585102 0.155913978494624
0.152178963622298 0.184680151803749 0.155913978494624
0.15962786521022 0.174650767024465 0.155913978494623
0.176764676118957 0.169568338346806 0.155913978494624
0.181904548438479 0.158519148899392 0.155913978494624
0.189594809718204 0.147679220173625 0.155913978494624
0.197741288053124 0.147774385785652 0.155913978494624
0.198929629577996 0.139277730339967 0.155913978494624
0.217828315555878 0.131575989912465 0.155913978494624
0.221241480827549 0.131253941965085 0.155913978494623
0.0583863993418103 0.258064516129032 0.3580854699826
0.0615490352392008 0.258064516129032 0.367627587228743
0.0648276276061098 0.258064516129032 0.374573238617555
0.0699510294216189 0.250543811328051 0.381720430107527
0.0836548916284342 0.242128944900715 0.379032258064517
0.0856544452442695 0.237805322138735 0.379032258064516
0.102093000716231 0.22750808510897 0.379032258064516
0.097486332264684 0.232920944789837 0.379032258064516
0.114632063701298 0.221284435708184 0.379032258064516
0.115970062870097 0.209347285674863 0.379032258064516
0.128495608148318 0.203619265644676 0.379032258064516
0.138345699920258 0.205105044606171 0.379032258064516
0.145220586742527 0.184140692733123 0.379032258064516
0.154241535912716 0.184637855151065 0.379032258064516
0.1613770332811 0.179597318319358 0.379032258064516
0.174809509721645 0.163358314081172 0.379032258064516
0.183548025742429 0.16385649799483 0.379032258064516
0.186012401872334 0.156020796443053 0.379032258064517
0.198928528021265 0.147018386283897 0.379032258064516
0.213463750798964 0.138388077344725 0.379032258064516
0.21363578999962 0.129887566857992 0.379032258064517
0.228766807854115 0.125383561736905 0.379032258064516
0.23542843123953 0.115097847860951 0.379032258064516
0.23747828364256 0.116006741860911 0.379032258064516
0.25354945386866 0.102886992030387 0.379032258064516
0.266014522646825 0.0852163890774328 0.379032258064516
0.276074022420836 0.0780355474507951 0.379032258064516
0.279349779471716 0.0763268852725016 0.379032258064516
0.285771109453341 0.0699313104602404 0.379032258064516
0.29714013967314 0.0637029426645644 0.379032258064516
0.30598442206821 0.0536621484709627 0.379032258064517
0.316984928179982 0.0430498741890407 0.379032258064516
0.331364855342046 0.0333635528654299 0.379032258064516
0.34906961079109 0.0232238027060739 0.379032258064516
0.343614561847033 0.0236952256745168 0.379032258064516
0.368508942361958 0.00610946093624384 0.379032258064517
0.37058475660914 -0.00308124618359202 0.379032258064516
0.379087364241696 -0.00451734622822414 0.379032258064516
0.391779948343207 -0.0206195480129299 0.379032258064516
0.401208439601273 -0.0245489906042524 0.379032258064516
0.414425112981136 -0.0388731030626012 0.379032258064517
0.423295519383722 -0.0525865172281626 0.379032258064516
0.437800149594795 -0.0596709049753943 0.379032258064516
0.454144065385829 -0.0677396840864089 0.379032258064516
0.447506609186566 -0.0648231724452492 0.379032258064517
0.469237425551666 -0.0874727742584522 0.379032258064516
0.475399667163015 -0.0896325458959889 0.379032258064516
0.489247311827957 -0.105620581896713 0.379165262018533
0.122465683631876 0.220430107526882 0.129194352160101
0.120861783038827 0.220430107526882 0.135930898506073
0.120242295711699 0.220430107526882 0.152631357920201
0.124397276570513 0.220430107526882 0.15445510961616
0.125176639713261 0.212949600737705 0.161290322580645
0.135170401769011 0.210919473482418 0.161290322580645
0.143022569971199 0.208597344467382 0.161290322580646
0.145169992364025 0.203491735102045 0.161290322580645
0.161357947450899 0.187426142570149 0.155913978494624
0.169354722700325 0.181413364501118 0.155913978494624
0.182775800103119 0.173645652678526 0.155913978494624
0.186569482711239 0.164237592629512 0.155913978494624
0.196647080941731 0.1629635955158 0.155913978494623
0.202252494186862 0.156985720170924 0.155913978494624
0.215330784255664 0.141351376867604 0.155913978494624
0.221250507308696 0.141430676590524 0.155913978494624
0.224980582797253 0.131682801907367 0.155913978494624
0.0856343212443328 0.258064516129032 0.345143840035383
0.084447122581677 0.258064516129032 0.351816518502223
0.0876085020508479 0.258064516129032 0.364454126038262
0.0823772419758882 0.258064516129032 0.372774387730575
0.089206087779943 0.257726062084378 0.381720430107527
0.0933892132119228 0.251479707041431 0.381720430107527
0.10267171228803 0.239363595102767 0.379032258064516
0.106637960728171 0.238754097686032 0.379032258064516
0.119444096274315 0.226713898610499 0.379032258064516
0.127975247186256 0.217001342040338 0.379032258064516
0.13296296860486 0.216155203048587 0.379032258064516
0.144887579028139 0.205881186694782 0.379032258064516
0.157200564110903 0.195668757840275 0.379032258064516
0.161229835753378 0.190509304022262 0.379032258064516
0.16841200437639 0.182380636502261 0.379032258064516
0.181888601547253 0.176813357605747 0.379032258064516
0.192167885351135 0.171413802890393 0.379032258064516
0.196374058730851 0.163886495003197 0.379032258064516
0.19687637832156 0.158420926891017 0.379032258064516
0.209956522971409 0.141178131357421 0.379032258064516
0.223414585336483 0.134953669795284 0.379032258064516
0.228692885584263 0.135346948307604 0.379032258064516
0.241374777776018 0.123395792421454 0.379032258064516
0.250986113845843 0.119281124472189 0.379032258064516
0.257628749410065 0.11421858240115 0.379032258064516
0.277282015580891 0.0964651861126509 0.379032258064516
0.279935751992591 0.0868913621074748 0.379032258064516
0.280792715010446 0.0844662499994568 0.379032258064516
0.290841204702258 0.0803743521740178 0.379032258064516
0.31378988568894 0.0610548919175309 0.379032258064516
0.313770301847383 0.0615547847167492 0.379032258064516
0.328037865399401 0.0416509025935789 0.379032258064516
0.336296664472253 0.0375952872734186 0.379032258064516
0.347581969318614 0.0273110392496285 0.379032258064516
0.36037248432681 0.0220203790489795 0.379032258064517
0.365292772691949 0.00795329452857736 0.379032258064517
0.377684074252194 0.00516989849583881 0.379032258064516
0.387976609967937 -0.00304922976779662 0.379032258064516
0.397514267140814 -0.00851770602561855 0.379032258064516
0.4085254118858 -0.0189924943804796 0.379032258064517
0.421742654763513 -0.030944171309498 0.379032258064516
0.430947543361426 -0.034017941004442 0.379032258064516
0.445104393743089 -0.0533007766862819 0.379032258064516
0.448511757205884 -0.050494254672502 0.379032258064516
0.458565357462518 -0.0654951902136564 0.379032258064516
0.476142113427839 -0.0813978064063527 0.379032258064516
0.483977744046079 -0.0839969449424927 0.379032258064516
0.494696674610015 -0.0914477673058881 0.381720430107527
0.136653086887298 0.220430107526882 0.132435549879179
0.136824865329894 0.220430107526882 0.142291401517556
0.143497700283548 0.220430107526882 0.150582504837723
0.141614327541311 0.220430107526882 0.156033063682197
0.156350341404417 0.210297410871942 0.161290322580645
0.151800735370511 0.209695463328797 0.161290322580645
0.161201536158648 0.202347607908536 0.161290322580645
0.173891050278578 0.185296800931143 0.155913978494623
0.189154007626236 0.180029597950257 0.155913978494624
0.195146651040166 0.175787608551922 0.155913978494624
0.198829948115615 0.173183669846548 0.155913978494624
0.211641362357534 0.156403507856577 0.155913978494624
0.224311531429221 0.146710615495795 0.155913978494624
0.225860944024118 0.153958971602748 0.155913978494624
0.237405281100784 0.136794657475208 0.155913978494624
0.0917674031193765 0.258064516129032 0.343418037516238
0.0937361073227235 0.258064516129032 0.348181598541733
0.0950187614000716 0.258064516129032 0.360226199494688
0.100885090168773 0.258064516129032 0.356735814671367
0.0918176166163108 0.258064516129032 0.380630228817503
0.100474271385502 0.256308118924496 0.381720430107527
0.0987343789197148 0.248098989891619 0.381720430107527
0.112359373819332 0.239922977113709 0.379032258064517
0.122134616071863 0.228849348333299 0.379032258064516
0.136451276094453 0.224713746029751 0.379032258064516
0.136798813959789 0.216443947237303 0.379032258064516
0.150808147357575 0.21488826154221 0.379032258064516
0.152332426397767 0.212374362750958 0.379032258064517
0.172122351002071 0.200908174523664 0.379032258064516
0.177785933938876 0.190651634982687 0.379032258064516
0.180897217683385 0.183081551243983 0.379032258064516
0.195035688022514 0.171648375893394 0.379032258064516
0.196454505742366 0.170906100759197 0.379032258064516
0.216144496920651 0.155951090747477 0.379032258064516
0.21937048524858 0.149524917139928 0.379032258064516
0.23098081608569 0.142825240223835 0.379032258064517
0.237841534582484 0.138635884165473 0.379032258064516
0.249487770245597 0.123227640018216 0.379032258064516
0.264979398979866 0.117125041164059 0.379032258064516
0.264291438316462 0.11353050796892 0.379032258064516
0.271627210238532 0.104148662842939 0.379032258064516
0.283117048934815 0.101476694079883 0.379032258064516
0.296027814336019 0.0945798658687037 0.379032258064516
0.307670778218636 0.0832620393013602 0.379032258064516
0.311579236463757 0.0750852093912892 0.379032258064516
0.317653780239783 0.0661973699071532 0.379032258064516
0.332287838691856 0.0549554445592814 0.379032258064516
0.348956155005535 0.0463090288910989 0.379032258064516
0.35232320956354 0.0417264089673801 0.379032258064516
0.360776640073936 0.0281890328827336 0.379032258064517
0.372722469461296 0.0160573185605669 0.379032258064516
0.384913893897352 0.0182411259798109 0.379032258064516
0.390865717927819 0.000931355405048256 0.379032258064517
0.409131428276889 0.000412767072204488 0.379032258064516
0.417580852127531 -0.00926831965336711 0.379032258064516
0.425440729120183 -0.0260327347871958 0.379032258064516
0.442865025117769 -0.0287092525102503 0.379032258064516
0.44495962674639 -0.0434533904253468 0.379032258064516
0.46561890536337 -0.0486106166109402 0.379032258064516
0.477131281227086 -0.0607681248245819 0.379032258064516
0.479206914221356 -0.0629498582277718 0.379032258064516
0.489247311827957 -0.0780664443885917 0.379171217312891
0.154364928707096 0.220430107526882 0.129704010622247
0.162194319605816 0.220430107526882 0.142794158298599
0.148811143243308 0.220430107526882 0.161158979026588
0.160597096316332 0.220430107526882 0.160209061073296
0.160383667142669 0.215985174434 0.161290322580645
0.174717330977269 0.206600309868627 0.161290322580645
0.193907848907676 0.192692880268674 0.155913978494623
0.197096726194771 0.183580645419173 0.155913978494624
0.203366853061702 0.177203370054933 0.155913978494624
0.214889273735051 0.169910387871649 0.155913978494624
0.224949506958307 0.165507507347461 0.155913978494623
0.233928147527712 0.159541483917608 0.155913978494624
0.23754479753936 0.1529510213291 0.155913978494624
0.250852302557257 0.143662943089534 0.155913978494624
0.251525609115411 0.145253758556563 0.155913978494623
0.256292195173711 0.134252263816571 0.155913978494624
0.108628700415508 0.258064516129032 0.341556039841958
0.102211962794009 0.258064516129032 0.36101031104908
0.110213364855372 0.258064516129032 0.363484376030895
0.117992227175427 0.258064516129032 0.369964113591399
0.112642483543865 0.25115678729377 0.381720430107527
0.119873582180201 0.253394077768262 0.381720430107527
0.133026815432836 0.239392161901186 0.379032258064516
0.13885386937929 0.236163355509088 0.379032258064516
0.151147619580804 0.221483879166848 0.379032258064516
0.153446279971387 0.217079812700825 0.379032258064516
0.166706820715948 0.21400654422074 0.379032258064516
0.169974458977809 0.204670888185244 0.379032258064516
0.187281458055618 0.19492348668444 0.379032258064516
0.189211412602557 0.196840572475334 0.379032258064517
0.197353571764 0.185406745293401 0.379032258064516
0.215419751120666 0.167726045647998 0.379032258064516
0.225031031715322 0.163037504780401 0.379032258064516
0.229051810646129 0.155111020423801 0.379032258064516
0.229830483705084 0.151919325073028 0.379032258064516
0.237763701897684 0.148349481386171 0.379032258064516
0.250172831456425 0.135157651515249 0.379032258064516
0.267268978480692 0.132947847179275 0.379032258064516
0.280612539710811 0.120920121492212 0.379032258064517
0.28246826350301 0.12232812187623 0.379032258064516
0.289243718830678 0.107525081331505 0.379032258064516
0.305029283375014 0.0890282551677209 0.379032258064516
0.306944328007442 0.0904362620178763 0.379032258064516
0.321399379306717 0.0786407028940751 0.379032258064516
0.333734513526289 0.0681968227529028 0.379032258064517
0.336868034858061 0.0724686898362935 0.379032258064516
0.354503081549785 0.0500666631211263 0.379032258064517
0.363487851342325 0.0548557902994494 0.379032258064517
0.363202928203259 0.0398393632722972 0.379032258064516
0.389307296004469 0.0268279805822749 0.379032258064516
0.399511596029288 0.0257671142905339 0.379032258064516
0.409060571112911 0.0133403515405828 0.379032258064516
0.407667012075155 0.00231736888723304 0.379032258064516
0.427437362998457 -0.0108441604389045 0.379032258064516
0.431321498380601 -0.0179517279289662 0.379032258064517
0.439602437467656 -0.0144525624322676 0.379032258064516
0.45537517960284 -0.0277009029558065 0.379032258064516
0.47091681062203 -0.0381469500446825 0.379032258064516
0.476608619968163 -0.0577351403679462 0.379032258064516
0.481845185441164 -0.0537082831093405 0.379032258064516
0.499813489546473 -0.0603598852993354 0.381720430107527
0.17122602387417 0.220430107526882 0.129203471383531
0.165713931613247 0.220430107526882 0.14796124107178
0.168519769944961 0.220430107526882 0.155538620088798
0.178441960824197 0.214811474475802 0.161290322580645
0.177048005607857 0.216897261345369 0.161290322580645
0.184717722269263 0.212286834548128 0.161290322580645
0.204928829461852 0.19345477072115 0.155913978494624
0.214393528388491 0.19210503265069 0.155913978494624
0.214231641303126 0.184476847467388 0.155913978494624
0.23059464876534 0.168913667963065 0.155913978494624
0.237588964454661 0.167817929999333 0.155913978494624
0.244746068899691 0.157923037208628 0.155913978494624
0.251322260056758 0.157297672639655 0.155913978494624
0.259945252635444 0.141938496956152 0.155913978494623
0.273941886048235 0.135081828938625 0.155913978494624
0.269365935524009 0.138680439848936 0.155913978494624
0.12220233969893 0.258064516129032 0.347587810956065
0.128525494275817 0.258064516129032 0.352923113413222
0.125235039226514 0.258064516129032 0.369444620323662
0.125026850557608 0.258064516129032 0.372950490927547
0.125709345483586 0.255639963562155 0.381720430107527
0.134517921454222 0.248760360479321 0.381720430107527
0.148702004519284 0.237583177434141 0.379032258064517
0.160680868966514 0.233329683420416 0.379032258064516
0.167120905843565 0.22678319431945 0.379032258064516
0.177768359028806 0.219984542551007 0.379032258064517
0.181665261737188 0.212013202105047 0.379032258064516
0.195197950697562 0.200556136141713 0.379032258064516
0.195990338261927 0.196956302860732 0.379032258064516
0.21511582028819 0.191591359120977 0.379032258064516
0.222215924858675 0.177587791232848 0.379032258064516
0.221544791529736 0.171974242013749 0.379032258064516
0.232292228294336 0.161372913980685 0.379032258064516
0.242134103018207 0.163899807937774 0.379032258064516
0.255722798099881 0.155305023020958 0.379032258064516
0.267054061759677 0.139607564420057 0.379032258064516
0.266454982470627 0.135904870075588 0.379032258064516
0.275380739325703 0.127051699032968 0.379032258064516
0.289835344817096 0.12735906768299 0.379032258064516
0.299212210163659 0.114310488506316 0.379032258064516
0.315708663018216 0.105364535014851 0.379032258064516
0.325981736892748 0.098700837347258 0.379032258064516
0.337695134005529 0.0798781367811625 0.379032258064516
0.331721348059495 0.0847209082684702 0.379032258064516
0.343100656297227 0.0729650195882669 0.379032258064516
0.353828484886437 0.0633341344120508 0.379032258064516
0.364238019580593 0.0544148086485225 0.379032258064516
0.384717033547825 0.0412538367697577 0.379032258064516
0.395586366579216 0.040740591303946 0.379032258064516
0.395073958348551 0.0331546348806111 0.379032258064516
0.414703724419389 0.0276953025515704 0.379032258064516
0.428020397480851 0.00850125346900482 0.379032258064517
0.430951332177352 0.0112998520086513 0.379032258064516
0.445953811223335 -0.00831224812095501 0.379032258064516
0.458307947226072 -0.0176470011789125 0.379032258064516
0.468501145394815 -0.0261944900487708 0.379032258064516
0.482108061693372 -0.0341061444753014 0.379032258064516
0.489247311827957 -0.0366438605271352 0.379497649419244
0.494406802179963 -0.046598351853869 0.381720430107527
0.189868639137451 0.220430107526882 0.143408540929483
0.181066915565572 0.220430107526882 0.155089854488725
0.183144612256538 0.218621104189398 0.161290322580645
0.195934425597364 0.211042068503588 0.161290322580645
0.199796249868776 0.207187789813321 0.161290322580645
0.218294259677461 0.190910068416377 0.155913978494624
0.231306711304557 0.181256408734564 0.155913978494624
0.23481370454383 0.182676876065593 0.155913978494624
0.248313512312915 0.173293285700622 0.155913978494624
0.255368361726405 0.171144052132077 0.155913978494624
0.261533913155227 0.165442581492853 0.155913978494624
0.273113598629102 0.146446608746117 0.155913978494624
0.275804390699886 0.147959960673145 0.155913978494624
0.284273050796336 0.14722846928811 0.155913978494623
0.287900277648719 0.140428145855754 0.155913978494624
0.303044101697755 0.129206743251913 0.155913978494624
0.143680823361044 0.258064516129032 0.354486742606265
0.137839805217965 0.258064516129032 0.36772416945084
0.145031637541306 0.258064516129032 0.368362365423644
0.150309449863573 0.250220931333005 0.381720430107527
0.159158244346844 0.242043510148317 0.379032258064516
0.15356838216415 0.245232838456245 0.379032258064516
0.169857820039928 0.230877123202704 0.379032258064516
0.172855683342676 0.22726198082466 0.379032258064516
0.189172085107454 0.224918054857005 0.379032258064516
0.194052547965884 0.213347804238697 0.379032258064516
0.201629997915968 0.209110150108271 0.379032258064516
0.220649928461171 0.191617369345465 0.379032258064517
0.225967091349412 0.186958164054474 0.379032258064516
0.229345424750221 0.188683845040564 0.379032258064516
0.244853335072768 0.17500841190228 0.379032258064516
0.253947364179377 0.164702620979564 0.379032258064516
0.257816428713544 0.157270237726396 0.379032258064517
0.272382773296143 0.148945527686338 0.379032258064516
0.280362470877759 0.141055817198705 0.379032258064516
0.284493147909494 0.14119779268664 0.379032258064516
0.296106810035423 0.127720673465807 0.379032258064516
0.307871887461858 0.115255979339792 0.379032258064516
0.311218814616415 0.118245046317701 0.379032258064516
0.329107693514032 0.104652062220371 0.379032258064516
0.342553924300337 0.0918173165346824 0.379032258064516
0.345532213818456 0.0903814903378924 0.379032258064516
0.35480073343922 0.0816728702980103 0.379032258064516
0.366746419579358 0.071466912727086 0.379032258064516
0.373963627489266 0.0706574790790677 0.379032258064516
0.38712591993307 0.0577338608936969 0.379032258064516
0.400405352677523 0.0506503220543453 0.379032258064516
0.413646834681164 0.0303230779765123 0.379032258064516
0.423563619803459 0.0242971660555537 0.379032258064516
0.430688535933158 0.0147718204419068 0.379032258064516
0.439889511412872 0.0122844009044079 0.379032258064516
0.452888092736866 0.00961311122587795 0.379032258064516
0.460973495417812 -0.0149954860308334 0.379032258064516
0.473236778287733 -0.0182430998022654 0.379032258064517
0.486047830257887 -0.0259020425879017 0.379032258064516
0.491613521254917 -0.0291320483209675 0.381720430107527
0.194953365846716 0.220430107526882 0.144514416364277
0.201170491916881 0.220430107526882 0.150639154598757
0.20358534763145 0.220430107526882 0.160464738024079
0.209805790927416 0.211730170476094 0.161290322580645
0.220182038179728 0.206867947680475 0.161290322580646
0.228538325894738 0.20201060521706 0.161290322580645
0.240793492013149 0.19204497782392 0.155913978494624
0.245876662490199 0.178576715458601 0.155913978494624
0.256431932787094 0.175616920896888 0.155913978494623
0.268664667766141 0.169746209242189 0.155913978494624
0.278010407865486 0.153196908218312 0.155913978494624
0.28436871188905 0.154239546081875 0.155913978494624
0.28854923313877 0.148627291959022 0.155913978494623
0.307233032547566 0.140364937526972 0.155913978494624
0.308092649271772 0.133049807605144 0.155913978494624
0.155969409743966 0.258064516129032 0.344468958978729
0.163935057855168 0.258064516129032 0.351497885716938
0.164110184145946 0.258064516129032 0.361368729605437
0.157686844151638 0.258064516129032 0.36955627765601
0.160218023914786 0.253473634738361 0.381720430107527
0.16404996895133 0.254477274287682 0.381720430107527
0.182275501090531 0.236412326994574 0.379032258064517
0.182467903169958 0.237661611932168 0.379032258064516
0.193093832521281 0.227505651596227 0.379032258064516
0.20333998332889 0.217084121600735 0.379032258064516
0.21512134655933 0.212768304142292 0.379032258064516
0.217013217186496 0.207037169501986 0.379032258064516
0.227798129485009 0.200214201270651 0.379032258064516
0.238429570321212 0.189648395955605 0.379032258064516
0.247603262695928 0.188047397920073 0.379032258064516
0.257648102323309 0.177477228076381 0.379032258064516
0.265966717399691 0.167520292469821 0.379032258064516
0.273440635595652 0.159433797699941 0.379032258064517
0.288812392328666 0.145747370360744 0.379032258064516
0.298147141458577 0.147072442790324 0.379032258064516
0.307615806126934 0.130843833943806 0.379032258064516
0.317195003441139 0.124640717807422 0.379032258064516
0.326340030770554 0.111096173108701 0.379032258064516
0.332644704309888 0.111563149320339 0.379032258064516
0.340185113475939 0.107094923431688 0.379032258064517
0.354046892318973 0.0956012934501706 0.379032258064516
0.369152185963297 0.089817689014819 0.379032258064516
0.369523137670313 0.0799977334664727 0.379032258064516
0.383900906629058 0.0675527178076217 0.379032258064516
0.387248301918356 0.0602854873168214 0.379032258064516
0.40688282074764 0.0563304701128471 0.379032258064516
0.413572469352839 0.0444677294903105 0.379032258064516
0.423466244400077 0.0371241193734195 0.379032258064516
0.436904505952021 0.0201450517920899 0.379032258064516
0.448311037452499 0.0237840309810657 0.379032258064516
0.458845097169852 0.013563219696197 0.379032258064516
0.467541339398877 0.000549320059386619 0.379032258064516
0.487542943955796 -0.0138886648863994 0.379032258064516
0.489247311827957 -0.0235815470724467 0.381483656025583
0.217895051338422 0.220430107526882 0.135189796034147
0.211353516253676 0.220430107526882 0.152687565143589
0.218458637395917 0.220430107526882 0.147891373031437
0.225268463072436 0.220430107526882 0.158866630387751
0.218975834951419 0.220430107526882 0.160210555126539
0.241090312364689 0.205758974396342 0.161290322580646
0.251580806890156 0.193061138231651 0.155913978494624
0.255524252522896 0.195328005405753 0.155913978494624
0.265080433751626 0.185233078369376 0.155913978494624
0.273174357965632 0.178311224757305 0.155913978494624
0.282680506819267 0.167821041220467 0.155913978494624
0.291941768191424 0.162841758540849 0.155913978494624
0.301953131817884 0.157469718525332 0.155913978494624
0.309877164684467 0.146803652500337 0.155913978494624
0.313742516541609 0.141678422275979 0.155913978494624
0.335459251989865 0.129932581786868 0.155913978494624
0.169847510105323 0.258064516129032 0.349316558288106
0.175340223142979 0.258064516129032 0.351016478603386
0.162814112082804 0.258064516129032 0.374648336755891
0.170878448125966 0.258064516129032 0.375127474645675
0.176872406764698 0.258064516129032 0.377384072002042
0.179630740506492 0.247540145643025 0.381720430107527
0.196118961615746 0.24181148505141 0.379032258064516
0.20275983606574 0.235749108139151 0.379032258064516
0.210029664300533 0.224811704330249 0.379032258064516
0.224244480527876 0.213097819164972 0.379032258064516
0.229120158063245 0.208971768348579 0.379032258064516
0.243426137714443 0.197332776790558 0.379032258064516
0.250586279843194 0.190354861598983 0.379032258064516
0.253832866133946 0.193298136514087 0.379032258064516
0.266419830256941 0.179629640754377 0.379032258064516
0.274006127598689 0.17903200125122 0.379032258064516
0.284459176230389 0.171189576697518 0.379032258064516
0.2896033670377 0.155318498249296 0.379032258064516
0.305448522940992 0.152187498642947 0.379032258064517
0.314900683687443 0.137402558265773 0.379032258064516
0.313111964244853 0.138479430869988 0.379032258064516
0.33358718649938 0.128476786295472 0.379032258064516
0.348063296027246 0.114827621539473 0.379032258064516
0.348898246188925 0.111839525945064 0.379032258064517
0.36287159847762 0.105334572950129 0.379032258064516
0.372862164147648 0.0972221455067018 0.379032258064516
0.382391921619154 0.0856057890636741 0.379032258064516
0.397763527363882 0.073909271931685 0.379032258064517
0.406834844435202 0.0743480756234858 0.379032258064516
0.413652414467981 0.0580310483596269 0.379032258064516
0.434535234286526 0.0516912805187806 0.379032258064516
0.433202348874821 0.0472772194064409 0.379032258064517
0.451181648329368 0.0351281051664333 0.379032258064516
0.460162219084727 0.030614386631621 0.379032258064516
0.459481945098968 0.0174939558062753 0.379032258064516
0.472959073803448 0.0155543217777303 0.379032258064516
0.49272608217051 0.00357238367668708 0.381720430107527
0.495336010956917 -0.0025207558922362 0.381720430107527
0.236250623317012 0.220430107526882 0.130748182989574
0.238773056872332 0.220430107526882 0.132924852800984
0.228728767111392 0.220430107526882 0.154659951638117
0.23191484895949 0.220430107526882 0.159509689824477
0.240916810762703 0.215841909915229 0.161290322580645
0.255556802173298 0.202613290961983 0.161290322580645
0.265048663646558 0.197942684362233 0.155913978494624
0.27639526177037 0.192625656282524 0.155913978494624
0.281696874562855 0.186545379671209 0.155913978494624
0.291960688092377 0.171647969241988 0.155913978494624
0.289182624227354 0.166877084445476 0.155913978494624
0.302879534486427 0.164925356776135 0.155913978494624
0.317424399158696 0.157143791032141 0.155913978494624
0.319492157114513 0.152078352250671 0.155913978494624
0.33717504963631 0.134092670939596 0.155913978494624
0.182793834619278 0.258064516129032 0.342105514900717
0.188188291346762 0.258064516129032 0.346620973703372
0.18274311645897 0.258064516129032 0.358687697745543
0.188709402386678 0.258064516129032 0.366352352643187
0.189043951969359 0.258064516129032 0.381307219416909
0.189480176926824 0.253891311838672 0.381720430107527
0.203225596129392 0.253032316422558 0.381720430107527
0.211297285854724 0.234709751055922 0.379032258064516
0.218903431201916 0.232174207545635 0.379032258064516
0.233371304836175 0.217924872571688 0.379032258064517
0.239863697385653 0.220529742573555 0.379032258064517
0.245665474638196 0.211553154423681 0.379032258064516
0.255349699427877 0.202228084631407 0.379032258064516
0.266363557734869 0.190235002392296 0.379032258064516
0.269481902958749 0.185431092351535 0.379032258064516
0.280980619346971 0.180962246584045 0.379032258064516
0.292472553759764 0.179321864204075 0.379032258064516
0.303341017043447 0.160637296362674 0.379032258064517
0.310076523044876 0.160548406225439 0.379032258064516
0.324106869097081 0.147221395101726 0.379032258064516
0.32964539047124 0.142591856268746 0.379032258064516
0.343298631840193 0.13011676567891 0.379032258064516
0.346680197002043 0.128985686901666 0.379032258064517
0.367821198841866 0.11419707628499 0.379032258064516
0.373172756028898 0.103708780449938 0.379032258064516
0.37271402896391 0.0996635383222422 0.379032258064516
0.392613244337868 0.0865350379985863 0.379032258064516
0.401017830134148 0.0879773496467903 0.379032258064517
0.41869620671864 0.0706337572600149 0.379032258064516
0.416405941060022 0.069425619183704 0.379032258064516
0.428061099261917 0.0561569589120606 0.379032258064516
0.447107042726433 0.0540633002250539 0.379032258064517
0.44721560863465 0.0469789527108983 0.379032258064516
0.457769410751714 0.0342382959487245 0.379032258064516
0.474047692051879 0.0278386585895437 0.379032258064516
0.485310680182501 0.0186672959486055 0.379032258064516
0.496307917950899 0.00911532906335594 0.381720430107527
0.248376835496814 0.220430107526882 0.131509179228672
0.247958174520829 0.220430107526882 0.132113823092225
0.255439192850575 0.220430107526882 0.148495374649957
0.25898079701455 0.220430107526882 0.154564368390729
0.266363503728526 0.2153218251149 0.161290322580645
0.270579146100849 0.203062484958227 0.161290322580645
0.281456139045591 0.192738560704256 0.155913978494624
0.285005053557718 0.18722160998282 0.155913978494624
0.29559693769463 0.177623233736071 0.155913978494624
0.307159565130353 0.177914454105814 0.155913978494623
0.315779089711434 0.169297261086171 0.155913978494624
0.328590417895718 0.158430213867504 0.155913978494624
0.334612364438223 0.149416444103574 0.155913978494624
0.337235594646162 0.151694006789577 0.155913978494623
0.350417285076746 0.134522503361842 0.155913978494624
0.356060670908649 0.138615225544788 0.155913978494623
0.205237934743332 0.258064516129032 0.344324353835201
0.197997993388393 0.258064516129032 0.359307914232462
0.197798608558944 0.258064516129032 0.37625034802377
0.19777965169352 0.258064516129032 0.381670644695828
0.21053969347795 0.248540739964643 0.381720430107527
0.213231151928752 0.249413296430193 0.381720430107527
0.22596683475665 0.237941883521703 0.379032258064517
0.236259280989537 0.226784718511784 0.379032258064516
0.243570933455037 0.229383596890869 0.379032258064516
0.248098253550371 0.221168453861459 0.379032258064517
0.269481647652835 0.207644059802194 0.379032258064516
0.263657419532401 0.210332910925346 0.379032258064516
0.278432501843995 0.193645402710653 0.379032258064516
0.283785922334534 0.186098045130983 0.379032258064516
0.303942213784973 0.177121545050682 0.379032258064517
0.307081835495695 0.176990197959614 0.379032258064516
0.321160140657468 0.169037753706728 0.379032258064516
0.327386510784344 0.156251110090664 0.379032258064517
0.330382977777954 0.152413567203129 0.379032258064516
0.346901328115586 0.137092260056395 0.379032258064516
0.357605338069652 0.136908115827311 0.379032258064516
0.366936524768153 0.135297717971846 0.379032258064516
0.371593741600486 0.117276652230013 0.379032258064517
0.392260441357379 0.102860421561146 0.379032258064516
0.400852268388684 0.0997771541852082 0.379032258064516
0.405219907878811 0.0914413325399207 0.379032258064516
0.413157541550264 0.084996286827856 0.379032258064517
0.42852022359174 0.0786359816088803 0.379032258064516
0.435639996414038 0.0705699378107069 0.379032258064516
0.443471437839289 0.0603575532676695 0.379032258064516
0.461519589936115 0.0450057547516988 0.379032258064516
0.472538813280799 0.0431848520231078 0.379032258064516
0.472694540694855 0.0332930140319337 0.379032258064516
0.49275919689882 0.0336179563786005 0.381720430107527
0.264793855225424 0.220430107526882 0.14528814946341
0.266460104611771 0.220430107526882 0.141657750169204
0.261544008554059 0.218771097323815 0.161290322580646
0.274691166295708 0.220430107526882 0.159919136011776
0.284323349083751 0.204921806718036 0.161290322580645
0.290048212808182 0.195389331561015 0.155913978494624
0.297173922802569 0.1887391223032 0.155913978494624
0.319152266155769 0.183707048126388 0.155913978494624
0.325626583290112 0.180257922752436 0.155913978494623
0.326288623952195 0.169163501689463 0.155913978494624
0.333546353526778 0.16215030296961 0.155913978494624
0.346502664106727 0.162304003071142 0.155913978494624
0.35379155050427 0.148169597382855 0.155913978494624
0.35752688172043 0.141972033903958 0.159733122488398
0.21083806173881 0.258064516129032 0.353940339274021
0.221768046862772 0.258064516129032 0.357116932984888
0.222906138051559 0.258064516129032 0.361854883059905
0.225550809433643 0.258064516129032 0.3711331694349
0.222192537386473 0.250614427968281 0.381720430107527
0.232728901257977 0.252430707872671 0.381720430107527
0.242874743684555 0.24230036176749 0.379032258064516
0.246849961656854 0.230415620464532 0.379032258064516
0.255780742245804 0.22204384831217 0.379032258064516
0.275551299453923 0.213395868431436 0.379032258064516
0.283983808653978 0.211132978750932 0.379032258064516
0.289991723309063 0.205518245150346 0.379032258064517
0.294068209907307 0.197524588673657 0.379032258064516
0.305415049346042 0.181362367578058 0.379032258064516
0.323436446539304 0.174052634321519 0.379032258064516
0.323477952055999 0.174557914160902 0.379032258064516
0.343558164250691 0.157260865131428 0.379032258064516
0.339771770769606 0.158473439703556 0.379032258064516
0.356580776494835 0.148936950309079 0.379032258064516
0.372925187690502 0.135745519890396 0.379032258064516
0.373955217177704 0.135817114170012 0.379032258064516
0.38436234002669 0.131028423722796 0.379032258064516
0.401443837521274 0.115188825080588 0.379032258064516
0.405183965356645 0.110983621294845 0.379032258064516
0.412977012295235 0.104411323164956 0.379032258064516
0.429086734068675 0.0943925383032486 0.379032258064516
0.435909472533652 0.0875022159517218 0.379032258064516
0.448137776910731 0.0750563730028109 0.379032258064516
0.454649945393945 0.066991568563104 0.379032258064516
0.47203560447315 0.0621648274018112 0.379032258064516
0.473833609891766 0.0529004584496779 0.379032258064516
0.489247311827957 0.0389786299755329 0.380504689057
0.279750070802271 0.220430107526882 0.130383545336526
0.28073730122422 0.220430107526882 0.131777038379861
0.278765338151313 0.220430107526882 0.142468599506778
0.2871695918841 0.220430107526882 0.142988971175152
0.281142523853256 0.216994814944178 0.161290322580645
0.290443032803857 0.217046490610604 0.161290322580645
0.302407271842725 0.205000244886009 0.161290322580645
0.301833384392935 0.196496697447653 0.155913978494624
0.318773606162116 0.185802323216137 0.155913978494624
0.326931565484083 0.180640468631816 0.155913978494624
0.342178088275971 0.172388658088818 0.155913978494624
0.339777087359845 0.168428892867299 0.155913978494624
0.353032236985884 0.164976825121275 0.155913978494624
0.35752688172043 0.156778967992069 0.15918817037745
0.362266918836228 0.151936541536328 0.161290322580645
0.23493589170855 0.258064516129032 0.343992063777327
0.240317131884052 0.258064516129032 0.351166690217156
0.230371124907893 0.258064516129032 0.373182007298981
0.227406915476831 0.258064516129032 0.378308237707689
0.233048334599634 0.254504040222832 0.381720430107527
0.23875739426386 0.251288404955187 0.381720430107527
0.262324194148731 0.240627150571272 0.379032258064516
0.267032146119298 0.23424039933915 0.379032258064516
0.268825895965276 0.225518979401555 0.379032258064516
0.282364836846822 0.218361392393554 0.379032258064516
0.294548727218178 0.20828174172031 0.379032258064516
0.302305269499501 0.20124084198659 0.379032258064516
0.310280604799485 0.197249674284802 0.379032258064516
0.314321560283433 0.192028689971724 0.379032258064516
0.326521445793545 0.181739364244257 0.379032258064516
0.336725053095203 0.1739552396493 0.379032258064516
0.351604664750783 0.158794768265074 0.379032258064516
0.362375951905681 0.150589405901632 0.379032258064516
0.366446184650859 0.155896075209502 0.379032258064516
0.379991406915785 0.144217718104268 0.379032258064516
0.389552175713708 0.134644815811137 0.379032258064516
0.401400822325656 0.127447130216869 0.379032258064516
0.410351420699415 0.113993685763118 0.379032258064517
0.427354421251141 0.104815621802704 0.379032258064516
0.424800989827579 0.100045024959394 0.379032258064516
0.445250402697321 0.0895233226148119 0.379032258064516
0.4559933038606 0.0852177975200863 0.379032258064516
0.462695544147746 0.0770337828790398 0.379032258064516
0.480508732846137 0.0642037764295409 0.379032258064517
0.481817341858364 0.0633195840517731 0.379032258064516
0.344086021505377 0.188707491871617 0.00800800670262195
0.292231397442626 0.220430107526882 0.146157557199416
0.288587475539169 0.220430107526882 0.156018633921711
0.300902608930507 0.220430107526882 0.151262179521333
0.304777809745691 0.212725852847885 0.161290322580645
0.315605362803156 0.207257487944027 0.161290322580646
0.325036694455685 0.206752157835346 0.161290322580645
0.334029477373197 0.18462651051638 0.155913978494624
0.343299241557714 0.179096396460038 0.155913978494624
0.356671358779847 0.176133192959131 0.155913978494624
0.344086021505376 0.190193231893443 0.184393220448261
0.363924176396321 0.159548619248152 0.161290322580645
0.24002157535364 0.258064516129032 0.344584742457701
0.244163472540048 0.258064516129032 0.361624200800016
0.25223893171294 0.258064516129032 0.36678754633357
0.259368682879287 0.258064516129032 0.371636799275395
0.251678016172494 0.258064516129032 0.376853695445358
0.265284056291767 0.241412049898979 0.379032258064516
0.270303670283605 0.240784686939054 0.379032258064516
0.279872542137647 0.234851467064611 0.379032258064516
0.294467330516891 0.221612825869546 0.379032258064517
0.296385628142523 0.218813481973793 0.379032258064516
0.312850263226078 0.21163727196713 0.379032258064516
0.320155137328953 0.20693073143552 0.379032258064516
0.336564706875336 0.197787336789644 0.379032258064517
0.335873379337405 0.182765676276232 0.379032258064516
0.353471024916774 0.180000286321357 0.379032258064516
0.361251695712099 0.170085992282895 0.379032258064516
0.363519694137612 0.167242435803702 0.379032258064516
0.375670049562114 0.159345167816855 0.379032258064516
0.395154353711491 0.145585605898435 0.379032258064516
0.403226758964445 0.141438083301509 0.379032258064517
0.416928173274721 0.128924360384708 0.379032258064516
0.422725468215236 0.119837369821092 0.379032258064516
0.432437173090431 0.111489238620855 0.379032258064517
0.43810536849993 0.106162287860542 0.379032258064516
0.451099748794996 0.0936892315009771 0.379032258064516
0.460627537666735 0.0890673403879856 0.379032258064516
0.47961589314038 0.0794765335044675 0.379032258064516
0.483329542741602 0.0786244395651566 0.379032258064516
0.491360199823806 0.0652939138533157 0.381720430107527
0.499481533180061 0.0610492842773912 0.381720430107527
0.344086021505376 0.197420147559623 0.0124161258391384
0.344086021505376 0.197587532272998 0.0122790365600202
0.344086021505376 0.190314996574088 0.021266599274068
0.344086021505376 0.196425835435216 0.0359862061841694
0.344086021505376 0.190455246264837 0.0502613714028317
0.344086021505376 0.195617109598269 0.0592552415761168
0.344086021505376 0.195115015804665 0.0634511534478832
0.344086021505377 0.192965455898278 0.0795146245055278
0.313312921922906 0.220430107526882 0.130492155655942
0.318577380205839 0.220430107526882 0.133642241750323
0.315092452719429 0.220430107526882 0.146733278965372
0.310439254522577 0.220430107526882 0.15851003955381
0.328393430720367 0.211701390199322 0.161290322580646
0.336334034504385 0.205563909480599 0.161290322580645
0.344086021505376 0.196107053342876 0.15985019390765
0.344086021505376 0.19620167539008 0.16335374683932
0.344086021505376 0.203361128950372 0.172603070575053
0.344086021505376 0.197730525435597 0.178214091610557
0.344086021505376 0.193721337613846 0.194641092199062
0.344086021505376 0.203705065755743 0.21150268446904
0.344086021505377 0.196659695868422 0.218597176161192
0.344086021505376 0.198170707833156 0.234230289668615
0.344086021505377 0.194179491333208 0.234992726785198
0.344086021505376 0.201265072964221 0.250046957136706
0.262745897446008 0.258064516129032 0.353125602540043
0.268768561138477 0.258064516129032 0.348923076784161
0.262574477944157 0.258064516129032 0.364309673478857
0.263818295167339 0.258064516129032 0.376514268063499
0.271661856318212 0.257783948009564 0.381720430107527
0.279565884064595 0.24805459175211 0.381720430107527
0.284252080935988 0.242595826511703 0.379032258064516
0.297680977994595 0.229745733530901 0.379032258064517
0.306170013048934 0.222980021822283 0.379032258064516
0.317417958661711 0.215720855786972 0.379032258064516
0.336843224314299 0.206106292925317 0.379032258064516
0.339804888361996 0.196520991443094 0.379032258064516
0.346756672816613 0.199625048352905 0.379032258064516
0.358508925459792 0.19467386176051 0.379032258064516
0.364629806078479 0.185370794483975 0.379032258064516
0.3733730285022 0.175792356834946 0.379032258064516
0.380397954798641 0.170976006155003 0.379032258064516
0.396927302717484 0.149361531512006 0.379032258064516
0.40369054083756 0.152656633027844 0.379032258064516
0.417672707130343 0.13647985545895 0.379032258064516
0.427109162597417 0.133429070934856 0.379032258064516
0.437364299540221 0.126641128605429 0.379032258064516
0.449344271552082 0.121400224372065 0.379032258064516
0.458907720165582 0.104967272689476 0.379032258064516
0.475683056680553 0.100161326860435 0.379032258064516
0.482047966107852 0.0818267201905994 0.379032258064516
0.489247311827957 0.0837459521865064 0.380217486457476
0.498216846895993 0.0733418499430598 0.381720430107527
0.344086021505376 0.214930069109444 0.00570924260423825
0.344086021505376 0.209450813591757 0.0158076659481013
0.344086021505377 0.210424821087368 0.0245157061949989
0.344086021505376 0.212682855012137 0.0387133914823435
0.344086021505376 0.214142756317507 0.0563416524871296
0.344086021505376 0.213575974898797 0.0567053505465638
0.344086021505376 0.2115121786288 0.0660784753475926
0.344086021505376 0.214947616873428 0.0862829590366838
0.344086021505376 0.21166181861916 0.0897978817262987
0.344086021505376 0.213521982836046 0.103558934756472
0.344086021505376 0.21123619660136 0.114355539594627
0.326625019377553 0.220430107526882 0.143775231102786
0.330857841550056 0.220430107526882 0.150425518662318
0.327754358077502 0.220430107526882 0.159880341493943
0.337326484055646 0.212114547624043 0.161290322580645
0.344086021505376 0.213148372674744 0.162071574623842
0.344086021505376 0.214524296452851 0.177084865053424
0.344086021505376 0.209454559811185 0.180655354529441
0.344086021505376 0.207179097046833 0.185808562846743
0.344086021505376 0.205939176447133 0.204263413475277
0.344086021505376 0.213732747200367 0.224122280704537
0.344086021505376 0.206616498174662 0.225895761354175
0.344086021505376 0.211099744905023 0.236067419630922
0.344086021505376 0.207932883026288 0.242654003795531
0.344086021505376 0.211502426089189 0.261417025815856
0.344086021505376 0.206964636744644 0.260721653337683
0.28573511773206 0.258064516129032 0.344073840773203
0.28011262751655 0.258064516129032 0.35435286616884
0.284133840375506 0.258064516129032 0.362811966717869
0.281152522605388 0.258064516129032 0.377897811382186
0.286442914450771 0.252614073481658 0.381720430107527
0.297692800153881 0.244373231419927 0.379032258064516
0.3061853117548 0.237818684720586 0.379032258064516
0.322052772524954 0.225390465981729 0.379032258064516
0.327713028784657 0.219712379732884 0.379032258064516
0.338582464668706 0.210810918108457 0.379032258064516
