ply
format ascii 1.0
element vertex 841
property float x
property float y
property float z
end_header
-0.208572335910282 -0.250306338210088 0.381720430107527
-0.216885995960922 -0.230867505030039 0.379032258064516
-0.209787048741028 -0.229287952978156 0.379032258064517
-0.213185097213389 -0.208777578245325 0.379032258064516
-0.217538883540555 -0.198857030827453 0.379032258064516
-0.213953319922377 -0.19477063510576 0.379032258064517
-0.212023383753126 -0.182866413575565 0.379032258064516
-0.220169268837565 -0.175520614742916 0.379032258064516
-0.221789505941483 -0.158106154270304 0.379032258064516
-0.220569693647936 -0.153745180245076 0.379032258064516
-0.219090500636798 -0.146580851744993 0.379032258064517
-0.220556869906079 -0.127786388172515 0.379032258064516
-0.219846301377219 -0.117580708981409 0.379032258064516
-0.220662685158279 -0.11527847994412 0.379032258064516
-0.221563581335593 -0.104754406387738 0.379032258064517
-0.225218555506404 -0.0952346252125634 0.379032258064516
-0.223866781148441 -0.078254965603875 0.379032258064516
-0.229007792631342 -0.0702815433797386 0.379032258064516
-0.226053409327433 -0.0552798461714729 0.379032258064516
-0.228848319304726 -0.0457550718762899 0.379032258064517
-0.224709434475142 -0.0414497907472786 0.379032258064516
-0.227175121208023 -0.0212603046705231 0.379032258064516
-0.229474191311439 -0.00704231388603213 0.379032258064516
-0.227308618921489 -0.00368283244554264 0.379032258064517
-0.230612905266723 0.00366454453084727 0.379032258064516
-0.231851700951467 0.0218500327640935 0.379032258064516
-0.236836500340651 0.0350913281682888 0.379032258064516
-0.232917761599242 0.0467738155432551 0.379032258064516
-0.238164943334918 0.0579652063545014 0.379032258064516
-0.239115189104131 0.0699705034500721 0.379032258064516
-0.236575577044781 0.0891058165839159 0.379032258064516
-0.236550187543271 0.0981918552151985 0.379032258064516
-0.241373900439134 0.101330960389489 0.379032258064516
-0.234489350465973 0.123082946858506 0.379032258064516
-0.235241933213079 0.123715308124095 0.379032258064516
-0.238432774614365 0.135593685692322 0.379032258064516
-0.244984798833292 0.148732284769352 0.379032258064516
-0.239538764450525 0.170246902029252 0.379032258064516
-0.248214829832435 0.184707546830769 0.379032258064516
-0.241829867561148 0.204194528339483 0.379032258064516
-0.241819329459613 0.212704279492062 0.379032258064516
-0.244110142604722 0.223363481168617 0.379032258064516
-0.249476982920735 0.229271933959233 0.379032258064516
-0.253181608345627 0.242507648043709 0.379032258064516
-0.208170871105933 -0.162263089147031 0.155913978494624
-0.204080942748113 -0.15982212244671 0.155913978494624
-0.21341618217138 -0.153110961960971 0.155913978494623
-0.214301665311822 -0.140707178467492 0.155913978494624
-0.212319513155968 -0.123050825765324 0.155913978494624
-0.207300717597357 -0.122033484456596 0.155913978494624
-0.212747646279732 -0.102643517714637 0.155913978494624
-0.211854495430632 -0.096583739094775 0.155913978494624
-0.209141677691362 -0.0824340618412975 0.155913978494624
-0.210001128189117 -0.079581085527025 0.155913978494624
-0.214630135108752 -0.0734510611428055 0.155913978494624
-0.199073543762568 -0.258064516129032 0.356107069131778
-0.200176001526673 -0.258064516129032 0.364309574517783
-0.202452927537161 -0.258064516129032 0.37605758305638
-0.197793929936356 -0.258064516129033 0.375357329265507
-0.204529746819913 -0.248548698336584 0.381720430107527
-0.201366807175197 -0.239219104002011 0.379032258064516
-0.204093530962144 -0.228532594508387 0.379032258064516
-0.205087243120794 -0.212327020083562 0.379032258064516
-0.207285435088601 -0.212618685364786 0.379032258064516
-0.20727294497454 -0.197134343286106 0.379032258064516
-0.202398306900972 -0.191572237195683 0.379032258064516
-0.207860285157388 -0.181913666684889 0.379032258064516
-0.207304024586489 -0.176423211279633 0.379032258064516
-0.212219627422094 -0.156674968934004 0.379032258064516
-0.209445424333961 -0.148266727889731 0.379032258064516
-0.21373002048803 -0.144293433179368 0.379032258064516
-0.211250242275089 -0.1277558109901 0.379032258064516
-0.209824894345104 -0.11620588813501 0.379032258064516
-0.20758568039136 -0.106938118508343 0.379032258064516
-0.215466580953272 -0.0950782923412934 0.379032258064516
-0.211801631455718 -0.0900827073499845 0.379032258064517
-0.216841516269063 -0.0828353766873975 0.379032258064517
-0.21567271365481 -0.0632977435720528 0.379032258064516
-0.216920070670243 -0.0533530474455915 0.379032258064516
-0.221000557559416 -0.0401075747086988 0.379032258064516
-0.222438660965694 -0.0339294539716941 0.379032258064517
-0.223060389281389 -0.0304948271533546 0.379032258064516
-0.223170871455434 -0.00148298524854656 0.379032258064516
-0.220756983681016 0.0026756035589312 0.379032258064516
-0.225084900795708 0.0100761158474322 0.379032258064516
-0.222676112197608 0.0167721164553846 0.379032258064516
-0.222802301800091 0.034627852586236 0.379032258064516
-0.228339046784779 0.0555051414428203 0.379032258064516
-0.229152619212732 0.0556271947000501 0.379032258064516
-0.221436597356472 0.0657717065568527 0.379032258064516
-0.225812201827167 0.0866072930335797 0.379032258064516
-0.231544941258811 0.0962680380336606 0.379032258064516
-0.232464677433722 0.112887246945962 0.379032258064516
-0.224928698853104 0.120756037578294 0.379032258064516
-0.226630843428156 0.135515985610907 0.379032258064517
-0.230614097386201 0.151774000772414 0.379032258064516
-0.231134392702089 0.159073680757097 0.379032258064516
-0.23593700055104 0.170552697302627 0.379032258064516
-0.230274289568258 0.187465351615043 0.379032258064516
-0.231733102184815 0.190901148435318 0.379032258064517
-0.231327186697261 0.209741568308315 0.379032258064516
-0.236916562325641 0.234381791385139 0.379032258064517
-0.23812077520732 0.237508630468919 0.379032258064516
-0.238900932256566 0.25004164458197 0.381720430107527
-0.198730729285262 -0.161895262609804 0.155913978494624
-0.196466860502511 -0.156633718804642 0.155913978494624
-0.196997091092208 -0.15375679891615 0.155913978494624
-0.202359796524294 -0.137245589579654 0.155913978494624
-0.200253614506932 -0.124503015913771 0.155913978494623
-0.203214000123743 -0.118561197135147 0.155913978494624
-0.204401947375262 -0.113311580815944 0.155913978494624
-0.198670890237835 -0.0925865785952628 0.155913978494624
-0.206379911625472 -0.0903109804120355 0.155913978494624
-0.209007222156265 -0.0768250533904063 0.155913978494624
-0.191972600761752 -0.258064516129032 0.344226835643731
-0.192559716588008 -0.258064516129032 0.348542142697899
-0.189797423560343 -0.258064516129032 0.359470899382036
-0.193901433249171 -0.258064516129032 0.370193702571727
-0.187987736183428 -0.25428490272186 0.381720430107527
-0.189381083471713 -0.250932400824167 0.381720430107527
-0.190787012315975 -0.235682656372224 0.379032258064516
-0.192016844198196 -0.234732827743144 0.379032258064516
-0.196182283658009 -0.216926188865085 0.379032258064517
-0.198015606596191 -0.215198317723157 0.379032258064516
-0.198007676022859 -0.203037481243963 0.379032258064517
-0.20039425624606 -0.185935742802056 0.379032258064516
-0.201102686103729 -0.178744936029659 0.379032258064516
-0.198103628094929 -0.16953629328201 0.379032258064516
-0.195948814229818 -0.160542058664054 0.379032258064516
-0.198957266855014 -0.153541725518785 0.379032258064516
-0.20024854895819 -0.14133923081136 0.379032258064516
-0.204716232006376 -0.136035671339751 0.379032258064516
-0.202278067545694 -0.11841519859062 0.379032258064516
-0.205350814856439 -0.112508777651721 0.379032258064516
-0.207317422432477 -0.0953862424791571 0.379032258064516
-0.204976407138032 -0.0869935046255314 0.379032258064516
-0.206948295133686 -0.0843719153889742 0.379032258064516
-0.201838084363183 -0.0659725977501043 0.379032258064516
-0.206711660720069 -0.0610640800203387 0.379032258064516
-0.210799704645941 -0.0403970132359304 0.379032258064516
-0.20993334393903 -0.0342186003664407 0.379032258064516
-0.207614689208771 -0.027183516078059 0.379032258064516
-0.212533113847212 -0.00688476064946589 0.379032258064516
-0.213459059402749 0.00329978838098721 0.379032258064516
-0.208846944152211 0.0175728065670131 0.379032258064516
-0.208110997174854 0.0166741221766354 0.379032258064516
-0.208799708649195 0.0373625129099056 0.379032258064517
-0.216163394956874 0.0511019656066653 0.379032258064516
-0.218950054429792 0.0523489534700564 0.379032258064516
-0.211654164987394 0.0723269771617418 0.379032258064517
-0.21543951025113 0.082031552286165 0.379032258064516
-0.218571641104726 0.0923889438194124 0.379032258064516
-0.221997726531881 0.0976364617741394 0.379032258064516
-0.221736527017556 0.123100468669955 0.379032258064516
-0.217062706329148 0.131245049227331 0.379032258064517
-0.22182521381289 0.155164440178454 0.379032258064516
-0.223844632386226 0.152658987274446 0.379032258064516
-0.218349091134935 0.167169943772801 0.379032258064516
-0.221776038585658 0.177538489593182 0.379032258064516
-0.226904901958398 0.201724458789911 0.379032258064516
-0.226591779594654 0.206640141921052 0.379032258064516
-0.227800009271483 0.22514336033778 0.379032258064516
-0.232024487785314 0.241518867296086 0.379032258064516
-0.226133947408771 0.248046541830481 0.381720430107527
-0.184978550066237 -0.163772484417767 0.155913978494624
-0.187800829263123 -0.150430831069369 0.155913978494624
-0.186170509607515 -0.153762096985002 0.155913978494624
-0.1908315573613 -0.139019542793936 0.155913978494624
-0.189335065176155 -0.119321374231972 0.155913978494624
-0.191900074669457 -0.115339057322436 0.155913978494624
-0.190664720620928 -0.100552999947147 0.155913978494624
-0.197346619209055 -0.102029980911296 0.155913978494624
-0.190462134859657 -0.0861527179749786 0.155913978494624
-0.197991089809554 -0.0752258352149056 0.155913978494624
-0.193025733838317 -0.067364847635967 0.155913978494624
-0.18494210374472 -0.258064516129032 0.350804927187036
-0.185558374654351 -0.258064516129032 0.362569577771575
-0.179767446845378 -0.258064516129032 0.369265006407568
-0.186164570030244 -0.257273675649974 0.381720430107527
-0.18139201121323 -0.251576078422425 0.381720430107527
-0.179510833424103 -0.235423703258615 0.379032258064516
-0.187869957400593 -0.232184466243057 0.379032258064516
-0.185385521747376 -0.221242531957636 0.379032258064516
-0.187702923395431 -0.207930673986968 0.379032258064516
-0.186676486728304 -0.202806959434333 0.379032258064516
-0.190629552407184 -0.197886456262383 0.379032258064516
-0.190567306163409 -0.179135484427711 0.379032258064516
-0.187975164114776 -0.170945472736511 0.379032258064516
-0.193682984843007 -0.16015266250398 0.379032258064516
-0.190560883736755 -0.146650932624455 0.379032258064516
-0.192923880078998 -0.140642695186531 0.379032258064516
-0.19081581635765 -0.137235578491936 0.379032258064516
-0.193844525853938 -0.123769195250805 0.379032258064516
-0.194212120233633 -0.114591218565407 0.379032258064516
-0.188811585603645 -0.0903650349394075 0.379032258064517
-0.192257088482705 -0.0828758284086667 0.379032258064516
-0.191429168808149 -0.0770732859856242 0.379032258064516
-0.198794542519938 -0.0626215946946717 0.379032258064516
-0.201497627884975 -0.0481555820623394 0.379032258064516
-0.197278520793343 -0.0386815207949589 0.379032258064516
-0.200688379153024 -0.0324361819554156 0.379032258064517
-0.198913593791491 -0.0237116746921724 0.379032258064517
-0.196312989006329 -0.0194011187898631 0.379032258064516
-0.196588724321749 0.00718856923945961 0.379032258064516
-0.196495063190261 0.00768286980029226 0.379032258064516
-0.2031963850763 0.0250142919661849 0.379032258064516
-0.207591183018086 0.0358233133153883 0.379032258064516
-0.202573456615135 0.0521756504312564 0.379032258064516
-0.201895289287695 0.0621180926661502 0.379032258064517
-0.20734697072262 0.0673549186824124 0.379032258064516
-0.207699603782294 0.0791023846594398 0.379032258064516
-0.206514147562495 0.101886785846186 0.379032258064517
-0.206241191799649 0.10788507988144 0.379032258064516
-0.208142910372833 0.120039714036632 0.379032258064516
-0.204184093057407 0.133398730142176 0.379032258064516
-0.209078666846382 0.141711122616604 0.379032258064516
-0.208001475847863 0.160080552661947 0.379032258064517
-0.212918630224349 0.164268426128732 0.379032258064516
-0.213951063230399 0.186006714301255 0.379032258064516
-0.210309751743894 0.191244416024382 0.379032258064516
-0.2189391103926 0.217166921966213 0.379032258064516
-0.21978158682053 0.224376615561363 0.379032258064516
-0.215986116257344 0.241690839800432 0.379032258064516
-0.213214349747477 0.24731182795699 0.380273967924016
-0.180376976190878 -0.16861876477675 0.155913978494624
-0.177772892167036 -0.156439672089469 0.155913978494624
-0.182104028325828 -0.141813960745634 0.155913978494624
-0.177817622039431 -0.139830581050344 0.155913978494624
-0.182204175805398 -0.126873666108848 0.155913978494624
-0.183424237685163 -0.114850976905036 0.155913978494624
-0.187025661899491 -0.106442055644714 0.155913978494624
-0.180846611048608 -0.0979884703003632 0.155913978494624
-0.183865927499495 -0.096002648500538 0.155913978494624
-0.186084647194314 -0.0854596275251998 0.155913978494624
-0.188113634207044 -0.0734938584035468 0.155913978494624
-0.175207909600381 -0.258064516129033 0.35479637999391
-0.177982494690316 -0.258064516129032 0.360392800408751
-0.171766009040118 -0.258064516129033 0.365896580328842
-0.171825824291381 -0.258064516129032 0.375291255085254
-0.17277861330933 -0.252789977115034 0.381720430107527
-0.172036002819752 -0.242486764289077 0.379032258064516
-0.172035122896557 -0.226474410360051 0.379032258064517
-0.176930136885946 -0.227834137782359 0.379032258064517
-0.172759190193318 -0.211859207586784 0.379032258064516
-0.180211191350931 -0.195869503007301 0.379032258064516
-0.181231201966876 -0.192010873443512 0.379032258064516
-0.183131845511847 -0.184473846387152 0.379032258064516
-0.178378374676403 -0.165431767230348 0.379032258064516
-0.181659144415897 -0.167427251228579 0.379032258064516
-0.183922510368938 -0.147229470488044 0.379032258064516
-0.183639380830207 -0.146738698515848 0.379032258064516
-0.179669016495065 -0.12834619440965 0.379032258064516
-0.17883191892913 -0.119334754517017 0.379032258064516
-0.182123397976525 -0.104986240806715 0.379032258064516
-0.180723548386801 -0.102947542987574 0.379032258064516
-0.187216406816647 -0.0883985934397094 0.379032258064516
-0.187836936609234 -0.0703199138946732 0.379032258064516
-0.184397455610226 -0.0639918542036211 0.379032258064516
-0.185978531694277 -0.0551445601033746 0.379032258064516
-0.185337488546033 -0.0407594334790964 0.379032258064516
-0.189234325318219 -0.0334724537211941 0.379032258064516
-0.184825020629022 -0.0241890590477917 0.379032258064516
-0.187626951833118 -0.00781587931410656 0.379032258064516
-0.187201621953647 -0.00432660773983673 0.379032258064516
-0.195264942261554 0.0144710839657339 0.379032258064516
-0.194998456803306 0.0241142563748801 0.379032258064516
-0.188475171080084 0.0344653826204983 0.379032258064516
-0.191736404850905 0.037036678150704 0.379032258064516
-0.196339008865244 0.0604316516513084 0.379032258064517
-0.194381309172248 0.0676340766010538 0.379032258064516
-0.194059320680663 0.0750794662913059 0.379032258064516
-0.193731415692079 0.0971524187470769 0.379032258064516
-0.201357991604654 0.104963931206934 0.379032258064516
-0.198819319503491 0.121496325715811 0.379032258064516
-0.202800212633979 0.12899390118014 0.379032258064516
-0.201074489018851 0.152132130437045 0.379032258064517
-0.205118061030529 0.157194029873987 0.379032258064516
-0.19861493960695 0.167501374260574 0.379032258064516
-0.202737269514741 0.180441124943396 0.379032258064516
-0.205106728862142 0.189956047236352 0.379032258064516
-0.200393770302505 0.203397128449487 0.379032258064516
-0.201844345051415 0.230167702886716 0.379032258064516
-0.203637095577146 0.234356014961862 0.379032258064516
-0.203190014685258 0.247311827956989 0.379574666982371
-0.167471234874167 -0.170580556640845 0.155913978494623
-0.171648189530362 -0.159623727197661 0.155913978494624
-0.17460267043011 -0.153924226492844 0.155913978494623
-0.171148888932334 -0.132817722875812 0.155913978494623
-0.174188329132869 -0.123941699040912 0.155913978494624
-0.174308388982644 -0.123735124733775 0.155913978494624
-0.173343618403035 -0.113732804960236 0.155913978494624
-0.176725882770042 -0.0989568190750288 0.155913978494623
-0.172163719363565 -0.0878680803099251 0.155913978494624
-0.17522967911386 -0.0803066374522061 0.155913978494624
-0.17757691340748 -0.0722133326874164 0.155913978494624
-0.161935556649992 -0.258064516129032 0.353511758411309
-0.169149405456674 -0.258064516129032 0.356615117399714
-0.164483059610641 -0.258064516129032 0.362939787028185
-0.161580932693709 -0.258064516129032 0.379518356441693
-0.16624275010908 -0.248308274090665 0.381720430107527
-0.162516140268206 -0.239564150171704 0.379032258064516
-0.166322110848787 -0.229890037152151 0.379032258064516
-0.164822855186018 -0.225174241780854 0.379032258064516
-0.165738805300064 -0.209190369358761 0.379032258064516
-0.168275058824918 -0.205125712502687 0.379032258064516
-0.168986657653477 -0.192314466773073 0.379032258064516
-0.165912398307611 -0.184346793880347 0.379032258064516
-0.171846065361093 -0.16533704041564 0.379032258064516
-0.174766169141306 -0.161625595591363 0.379032258064517
-0.169630364559996 -0.151303062226654 0.379032258064516
-0.171868086576664 -0.141406302952928 0.379032258064516
-0.174154957864002 -0.131146036936354 0.379032258064516
-0.168118452075327 -0.120893429739813 0.379032258064516
-0.175800714006898 -0.103310680155758 0.379032258064516
-0.175094827222874 -0.104833050260945 0.379032258064516
-0.173913460947307 -0.0868896684305794 0.379032258064516
-0.179500179977115 -0.0803998389007842 0.379032258064516
-0.175657374203331 -0.0650200207646373 0.379032258064516
-0.172371448780154 -0.0522374310981623 0.379032258064516
-0.182129770238488 -0.0454889321722201 0.379032258064516
-0.182072035579975 -0.0346992685342421 0.379032258064516
-0.183226753684067 -0.020978482065748 0.379032258064516
-0.176254038407862 -0.0121845340854284 0.379032258064516
-0.177910449578647 0.00219599655876236 0.379032258064517
-0.184446770130406 0.00954654043322299 0.379032258064516
-0.181249056293051 0.017373132417388 0.379032258064516
-0.183141485326702 0.0399844811941498 0.379032258064517
-0.18217138108889 0.0549202683889894 0.379032258064516
-0.180599516791578 0.0538654396779667 0.379032258064516
-0.183971030622682 0.0650840125114046 0.379032258064516
-0.180714984094949 0.0804720764433936 0.379032258064516
-0.18139358765993 0.0866782583644661 0.379032258064516
-0.188177503890103 0.11072134172446 0.379032258064516
-0.185871316469264 0.113419168577161 0.379032258064516
-0.183231526449771 0.136396112351677 0.379032258064516
-0.18494137526144 0.142740908697031 0.379032258064516
-0.194074537322878 0.157569675831221 0.379032258064516
-0.185985732958828 0.171528583122195 0.379032258064516
-0.187249696856995 0.188435364323797 0.379032258064516
-0.19264148161782 0.193097721190129 0.379032258064516
-0.195431691357393 0.203886728283631 0.379032258064516
-0.1988530315037 0.22705149244947 0.379032258064516
-0.195527061953134 0.242611931453312 0.379032258064516
-0.199964040702479 0.25212020703572 0.381720430107527
-0.158464722525305 -0.169068803198413 0.155913978494624
-0.159844448568388 -0.158646406143996 0.155913978494624
-0.164051276095321 -0.144049336993374 0.155913978494624
-0.16694100556702 -0.141230921256825 0.155913978494624
-0.166568568466599 -0.129413819638071 0.155913978494624
-0.167819080145216 -0.112522625371495 0.155913978494624
-0.168431725188548 -0.0985661105212446 0.155913978494624
-0.168470571062766 -0.10318251415477 0.155913978494624
-0.16769282835599 -0.0838757263185578 0.155913978494624
-0.164859727385215 -0.0738704074243184 0.155913978494624
-0.163056788282723 -0.0776424012753494 0.155913978494624
-0.157514822895983 -0.258064516129032 0.354231385395015
-0.15595946551117 -0.258064516129032 0.364776345753955
-0.15708352675859 -0.258064516129032 0.363512172940783
-0.154792786282794 -0.258064516129032 0.375665485758595
-0.15992366247177 -0.253517537437818 0.381720430107527
-0.159258473059415 -0.243858686943642 0.379032258064516
-0.158214003759697 -0.231616972268196 0.379032258064516
-0.153037358394177 -0.217840010332703 0.379032258064516
-0.154421347424982 -0.204261691290559 0.379032258064517
-0.162425074243538 -0.20412572955885 0.379032258064516
-0.160927091391227 -0.192732953297697 0.379032258064516
-0.163506991527301 -0.181888383012153 0.379032258064516
-0.157503629905641 -0.170031777213982 0.379032258064516
-0.159090980250406 -0.166594122538238 0.379032258064517
-0.165721941277584 -0.155605711851746 0.379032258064516
-0.162961820704636 -0.144737797537614 0.379032258064516
-0.16644582520755 -0.133101998941297 0.379032258064516
-0.163228035755128 -0.123219860023261 0.379032258064516
-0.158802232289982 -0.114571593281879 0.379032258064517
-0.162248269267353 -0.0983128166342885 0.379032258064516
-0.159982657898237 -0.091326083292698 0.379032258064517
-0.164794394856847 -0.0745480658239288 0.379032258064516
-0.166451700153583 -0.061173121538678 0.379032258064517
-0.166563708359083 -0.0589647382823528 0.379032258064517
-0.165743112501516 -0.0475670228387975 0.379032258064517
-0.1638256370877 -0.0401307080308017 0.379032258064516
-0.173051843136902 -0.0243332169382242 0.379032258064516
-0.169272786244701 -0.017447679560927 0.379032258064516
-0.172679882332233 -0.000731682701970934 0.379032258064516
-0.167523394377579 0.0161840302411577 0.379032258064517
-0.173264439334286 0.0258787362942893 0.379032258064516
-0.174789795234131 0.0363674528834346 0.379032258064517
-0.167632366036878 0.0395544314014539 0.379032258064516
-0.175229941180534 0.0552348859249537 0.379032258064516
-0.17243726818659 0.0701203188789104 0.379032258064516
-0.170886983382933 0.0887992109810023 0.379032258064516
-0.172190189285524 0.0925880382650051 0.379032258064516
-0.177079398431811 0.106630200515369 0.379032258064516
-0.182260456950709 0.120888606856804 0.379032258064516
-0.176488083461121 0.132783761379978 0.379032258064516
-0.177459103867113 0.147596096276691 0.379032258064516
-0.18255063484321 0.158654178424047 0.379032258064516
-0.181554440360688 0.178862074475315 0.379032258064516
-0.176054379451369 0.191692424011534 0.379032258064516
-0.177100371533982 0.201182122224494 0.379032258064516
-0.184893443393087 0.201728326073105 0.379032258064516
-0.188404001516589 0.230503142907122 0.379032258064516
-0.181927376512696 0.236228033055744 0.379032258064517
-0.186555174467971 0.251320718898095 0.381720430107527
-0.146295263282715 -0.172102889000228 0.155913978494624
-0.152416804465965 -0.159708811978814 0.155913978494624
-0.148219558744067 -0.143343853700914 0.155913978494624
-0.157705010226016 -0.130203559276928 0.155913978494624
-0.149437970294756 -0.128547810557105 0.155913978494624
-0.149884056253837 -0.114030049670105 0.155913978494624
-0.150634858418628 -0.112886972583975 0.155913978494624
-0.157404552738821 -0.0960211918716565 0.155913978494624
-0.152384271073503 -0.0890113424393549 0.155913978494623
-0.159863880771401 -0.0788512067377734 0.155913978494624
-0.152420311149129 -0.069191549160164 0.155913978494624
-0.149504862946158 -0.258064516129032 0.345750173802866
-0.147822566926533 -0.258064516129033 0.356154803678931
-0.142879078155543 -0.258064516129032 0.368584256413336
-0.146573474814015 -0.258064516129032 0.38041112888327
-0.151010944182331 -0.251628960586047 0.381720430107527
-0.150693080758784 -0.233037378885553 0.379032258064516
-0.149921607642162 -0.231643668559743 0.379032258064516
-0.151011606513528 -0.21662507224703 0.379032258064516
-0.152392108491131 -0.212028182479188 0.379032258064516
-0.152818135017063 -0.200690625679842 0.379032258064516
-0.151650316523982 -0.193148679097723 0.379032258064516
-0.14954234896219 -0.176186228765892 0.379032258064517
-0.154316752306447 -0.177385556884185 0.379032258064516
-0.147558849202541 -0.164736068552798 0.379032258064516
-0.152874247076862 -0.152582014812755 0.379032258064516
-0.156618768093226 -0.137147149803332 0.379032258064516
-0.151193544596913 -0.13170976388987 0.379032258064516
-0.151700356483787 -0.12537221120529 0.379032258064516
-0.149761858150936 -0.111915331114506 0.379032258064516
-0.158472214187691 -0.101922352899996 0.379032258064516
-0.160216404647621 -0.0915540497420466 0.379032258064516
-0.158364951962219 -0.0832618175012411 0.379032258064516
-0.159816322509953 -0.0660828568837211 0.379032258064516
-0.156447982940047 -0.0617153756851624 0.379032258064516
-0.156807653162565 -0.0485357061076857 0.379032258064516
-0.160502103823321 -0.0313836860947523 0.379032258064516
-0.158128642927181 -0.0230777427040022 0.379032258064516
-0.157885649379465 -0.00668086338316494 0.379032258064516
-0.159523888055042 -0.0083055693464625 0.379032258064516
-0.160104744898311 0.0109161183419656 0.379032258064516
-0.163612349190518 0.0222952625773266 0.379032258064516
-0.163912101455834 0.0338310972590244 0.379032258064516
-0.162231135950868 0.0438471777933564 0.379032258064516
-0.167754931024053 0.0571910322578791 0.379032258064516
-0.16387459488746 0.0743784149259904 0.379032258064516
-0.164230173447763 0.0842469996413812 0.379032258064516
-0.160044334708675 0.0928972137681567 0.379032258064516
-0.165627881541094 0.106651213335323 0.379032258064516
-0.164722489812247 0.115989465489009 0.379032258064516
-0.168522606952941 0.138573875973001 0.379032258064516
-0.164493244259988 0.144123159954381 0.379032258064516
-0.173643213339307 0.166498307507662 0.379032258064517
-0.167803408017724 0.171996144612653 0.379032258064516
-0.165005774424074 0.186733309762408 0.379032258064516
-0.165571084086804 0.196265680993192 0.379032258064516
-0.175084245622896 0.205056875113575 0.379032258064516
-0.168967011680254 0.223666224201056 0.379032258064516
-0.168116189134936 0.232857219653148 0.379032258064516
-0.173931526717786 0.248479730262794 0.381720430107527
-0.138356384133574 -0.168561877025382 0.155913978494624
-0.145489364603829 -0.160645885988727 0.155913978494624
-0.145611669836496 -0.146297451789131 0.155913978494624
-0.143319677230792 -0.139358663381589 0.155913978494624
-0.147366169919705 -0.124473196700053 0.155913978494624
-0.148083795841981 -0.109172193094955 0.155913978494624
-0.141710941065788 -0.116834458767573 0.155913978494624
-0.149438445488967 -0.101512237484888 0.155913978494624
-0.143391438052035 -0.0846801078234815 0.155913978494624
-0.148254185599405 -0.0789047679351357 0.155913978494624
-0.140184009183564 -0.258064516129032 0.344885890736332
-0.133044528775111 -0.258064516129033 0.351683845251633
-0.141462521711514 -0.258064516129032 0.35565384651112
-0.138600409640393 -0.258064516129032 0.37580175531107
-0.137046753857293 -0.257256739340444 0.381720430107527
-0.141417032653998 -0.254146983306675 0.381720430107527
-0.135600005593646 -0.242254849710405 0.379032258064516
-0.142836527026766 -0.234883622018995 0.379032258064517
-0.139438486074551 -0.222689367165671 0.379032258064516
-0.136587333888233 -0.209965483534477 0.379032258064516
-0.142084580028354 -0.198556706527516 0.379032258064516
-0.140616299429602 -0.193647945804778 0.379032258064516
-0.136594195135372 -0.185621771726758 0.379032258064516
-0.140063894143345 -0.171662908956198 0.379032258064516
-0.137226072904459 -0.159035075622864 0.379032258064516
-0.142785081955449 -0.152349824726372 0.379032258064516
-0.144840011865374 -0.138428941244156 0.379032258064516
-0.141663983647288 -0.130090653447419 0.379032258064516
-0.140976890531398 -0.118505118885542 0.379032258064516
-0.141746414194946 -0.1022217372717 0.379032258064516
-0.147348971481468 -0.0923809389006199 0.379032258064516
-0.148196680100349 -0.0845974990992785 0.379032258064516
-0.142405778525529 -0.0746758415494759 0.379032258064516
-0.151687326096822 -0.0662002270767986 0.379032258064516
-0.142715650239915 -0.0461107074812032 0.379032258064516
-0.152198161098344 -0.0412697040165092 0.379032258064516
-0.148584211549408 -0.0368447778285331 0.379032258064516
-0.150294832114039 -0.0138256053091646 0.379032258064516
-0.146629590871372 -0.0133834310820041 0.379032258064516
-0.151129517171425 -0.0011802572049387 0.379032258064516
-0.154283568346137 0.0160458934988369 0.379032258064516
-0.147494912361039 0.0319619997937212 0.379032258064516
-0.149279637426776 0.0380303924756814 0.379032258064516
-0.153074563374772 0.0494171848929947 0.379032258064516
-0.154195205824964 0.0670855343254478 0.379032258064516
-0.152487614842266 0.0660325097393745 0.379032258064516
-0.153641645104383 0.0795977566445037 0.379032258064516
-0.156256027829538 0.0965090342543594 0.379032258064516
-0.159801729029779 0.107779844641867 0.379032258064516
-0.151168382642275 0.125654393397207 0.379032258064516
-0.159129491380664 0.132946299941437 0.379032258064516
-0.154672390975124 0.144039032107766 0.379032258064516
-0.157041849523618 0.163099233031001 0.379032258064516
-0.158887406587294 0.173742633559665 0.379032258064516
-0.155323278705425 0.185611987045251 0.379032258064516
-0.161216045530563 0.196662864897946 0.379032258064516
-0.164817400542941 0.206622691677808 0.379032258064516
-0.157988200053005 0.215992385396535 0.379032258064517
-0.156663088799972 0.22926707558449 0.379032258064516
-0.161156536664773 0.249342659622083 0.381720430107527
-0.130601734370532 -0.167343510196271 0.155913978494624
-0.129598355165471 -0.154083388135987 0.155913978494624
-0.132866316793043 -0.14514439500457 0.155913978494623
-0.129092378033617 -0.142452295182195 0.155913978494624
-0.130298639855737 -0.127126303340812 0.155913978494624
-0.130154204644007 -0.118655249928951 0.155913978494624
-0.134564093310698 -0.111831616750776 0.155913978494624
-0.135611825802993 -0.101000099626018 0.155913978494623
-0.134732512833222 -0.089946601350282 0.155913978494624
-0.134332206726239 -0.0706479183003064 0.155913978494624
-0.129130278582137 -0.258064516129032 0.347575854731875
-0.131566197545259 -0.258064516129032 0.344817316247016
-0.128418213245809 -0.258064516129032 0.357647592948597
-0.128421208750249 -0.258064516129032 0.375327279193727
-0.123945254309764 -0.258064516129032 0.380951063619463
-0.128217358229253 -0.251683427285141 0.381720430107527
-0.124468086273825 -0.236874293149317 0.379032258064516
-0.129375834099854 -0.23667923533297 0.379032258064516
-0.133673630088184 -0.215475478110378 0.379032258064516
-0.126886853693021 -0.209785256302364 0.379032258064516
-0.128934720131122 -0.194387221534471 0.379032258064516
-0.134640100248212 -0.186897015500817 0.379032258064516
-0.135551922998579 -0.187164379789246 0.379032258064516
-0.134800434481703 -0.17518791620988 0.379032258064516
-0.127690845552013 -0.163183817497165 0.379032258064517
-0.131565742562073 -0.151073814674482 0.379032258064516
-0.131966359323549 -0.141366499752203 0.379032258064516
-0.130453603214776 -0.131253123535264 0.379032258064516
-0.132785688162858 -0.119933494218292 0.379032258064516
-0.13503653768425 -0.109489113137294 0.379032258064516
-0.138367713954099 -0.10749152483531 0.379032258064516
-0.136412220168719 -0.0968379499961809 0.379032258064516
-0.133641804004862 -0.0720571967096053 0.379032258064516
-0.1324179943625 -0.0707674496838096 0.379032258064516
-0.132810579946955 -0.0496528958917802 0.379032258064516
-0.135619023579455 -0.0524769978155078 0.379032258064516
-0.142834611408275 -0.0404175820269948 0.379032258064516
-0.14195554904107 -0.0224325394850748 0.379032258064517
-0.137998125781332 -0.0117672840955038 0.379032258064516
-0.138541866665699 -0.00305552709752083 0.379032258064516
-0.140395247535838 0.00597810612346453 0.379032258064516
-0.142975743508914 0.0190427308552068 0.379032258064516
-0.144944432064866 0.0360789303635119 0.379032258064516
-0.14336210358404 0.0450118769083285 0.379032258064516
-0.142401010680945 0.0557457750928173 0.379032258064516
-0.140668062447969 0.0805819925945029 0.379032258064516
-0.147767288731363 0.0815431363201289 0.379032258064516
-0.148820244846523 0.103582221413874 0.379032258064516
-0.145523182768035 0.103688095593088 0.379032258064516
-0.149594483055883 0.122487745102593 0.379032258064516
-0.149027475220304 0.137972987718443 0.379032258064516
-0.14423196058104 0.140311486810457 0.379032258064516
-0.147732465421143 0.150291804870877 0.379032258064516
-0.151671263447455 0.174266240108822 0.379032258064516
-0.150329713594493 0.184152392291687 0.379032258064516
-0.144122851777137 0.192988514279128 0.379032258064516
-0.149671088722138 0.21099830743778 0.379032258064516
-0.148885195838046 0.216698384954006 0.379032258064516
-0.14822458027648 0.235015089029204 0.379032258064516
-0.146298960226349 0.24237776363606 0.379032258064516
-0.12166074237712 -0.168998314631059 0.155913978494624
-0.124204182456609 -0.158712606872405 0.155913978494624
-0.119089098903392 -0.151574232315009 0.155913978494624
-0.125128217215084 -0.129313472161375 0.155913978494624
-0.126353503559906 -0.127027139609446 0.155913978494624
-0.12305039056863 -0.113063478983048 0.155913978494623
-0.125280299578508 -0.104578476857744 0.155913978494624
-0.128551591399768 -0.102654390493943 0.155913978494624
-0.121378086462665 -0.0843064038217852 0.155913978494623
-0.126384398200181 -0.08201435761785 0.155913978494624
-0.131319698372152 -0.067133838003273 0.155913978494624
-0.122239442076597 -0.258064516129032 0.348243058931142
-0.116277906821601 -0.258064516129032 0.364604849895875
-0.116264237522099 -0.258064516129032 0.370587090135883
-0.120971594517847 -0.258064516129032 0.372469167223992
-0.116561432557588 -0.247682226198515 0.381720430107527
-0.116366591552953 -0.23688690235389 0.379032258064516
-0.123432650246722 -0.226015305400251 0.379032258064517
-0.121121014157681 -0.224131011180449 0.379032258064516
-0.124931052196528 -0.213041918099823 0.379032258064516
-0.122850663495015 -0.200874866003841 0.379032258064516
-0.122521924400236 -0.195835209615491 0.379032258064516
-0.12449492532714 -0.180547372236393 0.379032258064516
-0.124705460745009 -0.17495308773583 0.379032258064516
-0.124833055526896 -0.158301113659732 0.379032258064517
-0.120032772456771 -0.150525513929626 0.379032258064516
-0.12823579785861 -0.142760208644771 0.379032258064516
-0.12034738956298 -0.133780297374863 0.379032258064516
-0.125364685189702 -0.124118452677467 0.379032258064517
-0.12441565128916 -0.110947869437431 0.379032258064517
-0.128510182916905 -0.0948535053349511 0.379032258064516
-0.128367873002501 -0.0874976651455275 0.379032258064517
-0.124202519615785 -0.0798590669882753 0.379032258064516
-0.123531258100673 -0.0682325268485013 0.379032258064516
-0.128158125984002 -0.0596924940248456 0.379032258064517
-0.13038902244599 -0.0428246970313951 0.379032258064516
-0.131422660208808 -0.0312925819887912 0.379032258064516
-0.128057919848403 -0.0149442036656332 0.379032258064516
-0.12755363872006 -0.00623857622650802 0.379032258064516
-0.126334312754298 -0.00118399085131266 0.379032258064516
-0.127967242377988 0.00957387124208685 0.379032258064516
-0.12652533582147 0.0253859795073488 0.379032258064516
-0.133595761422753 0.0410266493798873 0.379032258064516
-0.135939147324067 0.0465628323282192 0.379032258064516
-0.136989237102803 0.0562841307405698 0.379032258064516
-0.13440025378591 0.0612026666964622 0.379032258064517
-0.134279641501902 0.0918629820117244 0.379032258064516
-0.139214147796135 0.0948045608837753 0.379032258064516
-0.135773397137882 0.103023296458453 0.379032258064516
-0.138496837844203 0.12029011458999 0.379032258064516
-0.136602901387874 0.126654669792413 0.379032258064516
-0.137790493135709 0.146828184346032 0.379032258064516
-0.139554525607165 0.162098629850411 0.379032258064516
-0.141714168578697 0.169373894546988 0.379032258064517
-0.139681985741438 0.183061601968433 0.379032258064517
-0.134856415505721 0.201187559727228 0.379032258064516
-0.136474729578647 0.215507801436579 0.379032258064517
-0.142066853626003 0.219265859178846 0.379032258064516
-0.140169573006315 0.241087446246746 0.379032258064517
-0.138452790335081 0.251568219986587 0.381720430107527
-0.113873883198939 -0.163596472972647 0.155913978494624
-0.114253804351198 -0.158900314482461 0.155913978494624
-0.115625004674586 -0.154878192602728 0.155913978494624
-0.113312493848906 -0.140607527206477 0.155913978494624
-0.113070917117043 -0.125618464355953 0.155913978494624
-0.111702814652126 -0.117115160145188 0.155913978494624
-0.11945892165249 -0.100958411825854 0.155913978494623
-0.116351338923207 -0.103412583547432 0.155913978494624
-0.121133770155724 -0.0907937527113139 0.155913978494624
-0.115046943095845 -0.0743998561261861 0.155913978494624
-0.117430710004174 -0.0746486139819323 0.155913978494624
-0.111293066849998 -0.258064516129032 0.34557521971092
-0.113573841057158 -0.258064516129032 0.359101383246247
-0.105808263444653 -0.258064516129032 0.366392284439049
-0.113789674448532 -0.255450432957676 0.381720430107527
-0.106283898408785 -0.252139035358509 0.381720430107527
-0.112710278608137 -0.238374510504631 0.379032258064516
-0.106365013215849 -0.228594098882878 0.379032258064516
-0.108517546651879 -0.226281222340613 0.379032258064516
-0.110492826799229 -0.207454654233716 0.379032258064516
-0.11040232264856 -0.207502291441763 0.379032258064516
-0.116637776923805 -0.191262498401603 0.379032258064516
-0.111222762554161 -0.176651345750152 0.379032258064516
-0.113372430681953 -0.175595951240963 0.379032258064516
-0.110912274327679 -0.164128201165305 0.379032258064516
-0.115676592456531 -0.155249301135426 0.379032258064516
-0.114542958932746 -0.143278878138925 0.379032258064516
-0.110450651430409 -0.122343360513964 0.379032258064516
-0.111660278438243 -0.120881229370715 0.379032258064516
-0.119800971300053 -0.116123758696396 0.379032258064516
-0.115227806702172 -0.08895091158986 0.379032258064516
-0.116820911028273 -0.0866917351153987 0.379032258064516
-0.112842574844786 -0.0832265837777108 0.379032258064516
-0.115852119483962 -0.0686462011524664 0.379032258064517
-0.121029584920978 -0.0618386283449253 0.379032258064516
-0.114879341216649 -0.0465636493142519 0.379032258064517
-0.114281582255369 -0.0322481293817648 0.379032258064516
-0.114504777522255 -0.0143773670232835 0.379032258064516
-0.123660594235315 -0.00964226383420478 0.379032258064517
-0.119846856994669 -0.00548373281949263 0.379032258064516
-0.119079674597997 0.0123802169577288 0.379032258064516
-0.122301220932191 0.0245874710491811 0.379032258064516
-0.122293119583835 0.0346778920254213 0.379032258064516
-0.11736094322526 0.0411695451440272 0.379032258064516
-0.117941722935422 0.0606416512354148 0.379032258064516
-0.121241294541449 0.0733035161999279 0.379032258064516
-0.119034777941121 0.0849533972885088 0.379032258064516
-0.120050452697482 0.103242382611558 0.379032258064516
-0.127604903439724 0.112328834003968 0.379032258064516
-0.122546850159944 0.121176889042702 0.379032258064516
-0.130435111771843 0.133161364059038 0.379032258064516
-0.129452214496518 0.147122531769615 0.379032258064517
-0.131415504575884 0.15179049992247 0.379032258064517
-0.124675084173415 0.172365938242345 0.379032258064516
-0.125473829495246 0.186597513876471 0.379032258064516
-0.126574733276377 0.205953540515955 0.379032258064516
-0.125648875158784 0.213908643405968 0.379032258064516
-0.13179633409897 0.216984623174725 0.379032258064516
-0.130964870564968 0.235713852034552 0.379032258064517
-0.124736862846436 0.246183197265589 0.379032258064516
-0.0992500111745657 -0.17008294734336 0.155913978494623
-0.107204303721266 -0.155337241652952 0.155913978494624
-0.103716632480815 -0.149469583651701 0.155913978494624
-0.101757467813075 -0.139645576585113 0.155913978494624
-0.102070049469687 -0.127090681217555 0.155913978494624
-0.101491229899898 -0.117858489366502 0.155913978494624
-0.103370539595197 -0.108080309364126 0.155913978494624
-0.104141467455336 -0.0968173750256135 0.155913978494623
-0.106587982580004 -0.0892772162157651 0.155913978494624
-0.108608447666318 -0.0868229791337173 0.155913978494624
-0.106827745022988 -0.0694466689583382 0.155913978494624
-0.096181907037802 -0.258064516129032 0.352879964878907
-0.104614844867082 -0.258064516129032 0.362724802682177
-0.0981036920531308 -0.258064516129032 0.36541228579422
-0.0982365786382957 -0.258064516129032 0.378621820689603
-0.0999953679992539 -0.244307129055917 0.379032258064516
-0.101331370149961 -0.239058749062579 0.379032258064516
-0.102824120444205 -0.223806424798935 0.379032258064516
-0.104792476916156 -0.220663178710252 0.379032258064516
-0.103704199127251 -0.212447225963287 0.379032258064517
-0.106904214300482 -0.196291269020464 0.379032258064516
-0.0999895177153907 -0.191018621576085 0.379032258064516
-0.1017485811157 -0.175637788988202 0.379032258064516
-0.0995169096162325 -0.178091011851806 0.379032258064516
-0.107067106769221 -0.16033654047394 0.379032258064517
-0.100804901552024 -0.153465027589398 0.379032258064516
-0.104853801200091 -0.133268370809725 0.379032258064516
-0.106639533017045 -0.130905417998027 0.379032258064516
-0.110175514332014 -0.114703278490484 0.379032258064516
-0.107916121114765 -0.113736548472583 0.379032258064517
-0.107227658048423 -0.0960835651769491 0.379032258064516
-0.110008774961056 -0.0823199825693418 0.379032258064516
-0.110063368293145 -0.0679340666486068 0.379032258064516
-0.106185029586916 -0.0648094478058955 0.379032258064516
-0.1091034092854 -0.0523042409015655 0.379032258064516
-0.105128077073984 -0.0445285211314897 0.379032258064517
-0.108437079242042 -0.0269928304875211 0.379032258064516
-0.113003126961583 -0.0163723367975722 0.379032258064516
-0.105115287991592 -0.0101436761216092 0.379032258064516
-0.107879464310767 0.00257210380319894 0.379032258064516
-0.11424147419347 0.00952246911902651 0.379032258064516
-0.114482859011455 0.0344251864840443 0.379032258064516
-0.114379265514338 0.0326222426183904 0.379032258064516
-0.109588197383072 0.0485165292750035 0.379032258064516
-0.116892351077729 0.0637985584778236 0.379032258064516
-0.108690838738999 0.0716762227104561 0.379032258064516
-0.117132732641396 0.0794740574170869 0.379032258064516
-0.115905049959564 0.101188758022743 0.379032258064516
-0.111438357779054 0.105064288557067 0.379032258064517
-0.111758759239302 0.127059191565504 0.379032258064516
-0.115069326910302 0.131403152264841 0.379032258064516
-0.111839436454754 0.144115494604763 0.379032258064517
-0.118287522070256 0.157274917742978 0.379032258064516
-0.114920594250575 0.166482189038252 0.379032258064516
-0.115637365537011 0.186356963538292 0.379032258064516
-0.121048455758733 0.19373335720286 0.379032258064516
-0.112874060111562 0.210935671439888 0.379032258064516
-0.113993648644881 0.222943449018446 0.379032258064516
-0.116440448824474 0.235381664205915 0.379032258064516
-0.120871106885424 0.247311827956989 0.380202390619031
-0.0979348248584078 -0.162051484363649 0.155913978494624
-0.0937115426147931 -0.150057501281779 0.155913978494624
-0.0966189938705913 -0.147527343346803 0.155913978494624
-0.0922517277649464 -0.136206597822023 0.155913978494624
-0.0979404625086855 -0.13034256313236 0.155913978494624
-0.0989139491888634 -0.114337648785717 0.155913978494624
-0.0927375342450055 -0.101258330628427 0.155913978494623
-0.0951060625927166 -0.093844240771746 0.155913978494624
-0.0930352709344643 -0.0853659194134626 0.155913978494624
-0.0963195226658265 -0.0717659830639552 0.155913978494623
-0.100239770038134 -0.0719945947749924 0.155913978494624
-0.0876408436095594 -0.258064516129032 0.34783899475851
-0.0958350099776737 -0.258064516129032 0.353354738044458
-0.0895052518790376 -0.258064516129032 0.367138783304389
-0.0921615481690125 -0.258064516129032 0.379105727428758
-0.0881992428902991 -0.258064516129033 0.380314414780241
-0.092927744994071 -0.234133690456652 0.379032258064517
-0.0911494187444585 -0.239585009998663 0.379032258064516
-0.0901062240365896 -0.215472873546379 0.379032258064516
-0.0957478979382385 -0.215962544690063 0.379032258064516
-0.0898875054630105 -0.206188157217231 0.379032258064517
-0.0918235867944004 -0.191892553117136 0.379032258064516
-0.0937619242917466 -0.186834455774471 0.379032258064516
-0.0958583175786102 -0.170397193712414 0.379032258064516
-0.0978631495500605 -0.157325484439073 0.379032258064516
-0.0953729053853692 -0.146554042380975 0.379032258064516
-0.0913069918976883 -0.140188196775638 0.379032258064516
-0.0980316326721116 -0.129621245868974 0.379032258064516
-0.0980296144446875 -0.112857721700571 0.379032258064516
-0.0931630128315258 -0.108480668476984 0.379032258064516
-0.0949646143536021 -0.094685257257563 0.379032258064516
-0.0934267209216676 -0.0907905149718532 0.379032258064517
-0.0955787719141946 -0.0802959104809225 0.379032258064516
-0.0990511461257072 -0.0645085086551472 0.379032258064516
-0.101710169994958 -0.0593674891515584 0.379032258064516
-0.0960699359523127 -0.0443180590863031 0.379032258064516
-0.0995919737509362 -0.0357542716175202 0.379032258064516
-0.0982156322719302 -0.0217844863259014 0.379032258064516
-0.100512093980266 -0.0119253222883064 0.379032258064516
-0.0965484891681195 -0.00315266927566778 0.379032258064516
-0.101334086202659 0.0142067013970224 0.379032258064516
-0.0974214134432418 0.0260214366411207 0.379032258064516
-0.105770563958494 0.0353691842442658 0.379032258064517
-0.0968310426728186 0.0493722658056154 0.379032258064516
-0.100751228174117 0.060715995623055 0.379032258064516
-0.0980588510475134 0.068071144147882 0.379032258064516
-0.0989770838404328 0.087531906002387 0.379032258064516
-0.0987052891440574 0.0943744645034766 0.379032258064516
-0.099662905359825 0.101011868651854 0.379032258064516
-0.0990042576557147 0.125794440530446 0.379032258064516
-0.107168611459643 0.130669779838636 0.379032258064516
-0.100535722426394 0.144686119826964 0.379032258064516
-0.106881437220115 0.154315487791527 0.379032258064516
-0.103793634059489 0.172210653064007 0.379032258064517
-0.104672579969574 0.180711858933388 0.379032258064516
-0.107230987187843 0.191174200818523 0.379032258064516
-0.104856004246632 0.204231760606977 0.379032258064516
-0.109978815597833 0.222847267284303 0.379032258064516
-0.111894305656779 0.235934233885401 0.379032258064516
-0.111400127670147 0.251014138528831 0.381720430107527
-0.112544192687815 0.254121708584466 0.381720430107527
-0.0868241737488518 -0.163926932867358 0.155913978494624
-0.0807375991914998 -0.147515576560741 0.155913978494624
-0.0848717698310842 -0.143817323379108 0.155913978494624
-0.0857159502517267 -0.139965444144902 0.155913978494624
-0.0824650906641312 -0.119243416305496 0.155913978494624
-0.0857575128525762 -0.113767192829893 0.155913978494624
-0.0911120288505513 -0.113578739725813 0.155913978494624
-0.0901351259303973 -0.0956977397850136 0.155913978494624
-0.086322692643115 -0.092922267397644 0.155913978494624
-0.0921089854882376 -0.0757006701263287 0.155913978494624
-0.0800147480829844 -0.258064516129032 0.346749740230213
-0.0815331993318957 -0.258064516129032 0.34537718116845
-0.0803814284383246 -0.258064516129033 0.361159041678657
-0.0812462399678693 -0.258064516129032 0.370033929445574
-0.0791596444996876 -0.258064516129032 0.380857187985394
-0.0859687670315984 -0.250246783772017 0.381720430107527
