ply
format ascii 1.0
element vertex 857
property float x
property float y
property float z
end_header
0.388288347245071 -0.314928171235442 0.330483887651205
0.39690237656986 -0.31484937808659 0.330483887651205
0.404748536513737 -0.311091942367495 0.330483887651205
0.412478483602921 -0.298719348882727 0.330483887651205
0.425264896219996 -0.287048167100555 0.330483887651205
0.437626536185318 -0.287696673161948 0.330483887651205
0.440909259127582 -0.280530615983042 0.330483887651205
0.457058145418413 -0.270730275510947 0.330483887651204
0.461540254479759 -0.267378307865979 0.330483887651205
0.480037852705255 -0.25563521817241 0.330483887651205
0.480051965475609 -0.245655851070607 0.330483887651205
0.492006967442976 -0.248622171994134 0.330483887651205
0.498818482924607 -0.23662254279598 0.330483887651205
0.446315602799093 -0.264432063377609 0.00235191145238947
0.444157758654682 -0.26677529551918 0.0263597107364691
0.443658156643286 -0.263090771851857 0.0319181959693288
0.443386239758784 -0.261638174933604 0.0349434960133435
0.441674127738296 -0.271072605191714 0.0539921570791688
0.440567647332253 -0.26448047263894 0.0663026659585275
0.442485906333285 -0.260664036130017 0.0776288394606219
0.44464791357628 -0.260727424321536 0.0834724748662512
0.44528222772977 -0.264077289406938 0.0858390956493508
0.446544141382976 -0.267144244728402 0.103779327073866
0.446098330653804 -0.266362329423289 0.108001477638717
0.423058747742012 -0.277379103986106 0.151663095359339
0.431940297944052 -0.277379103986106 0.153050457708599
0.434493389007014 -0.277379103986106 0.15923425435786
0.419058955195935 -0.274975689548367 0.178200371138795
0.426355889712066 -0.274595400329102 0.181866162754877
0.434689200284957 -0.274595400329102 0.185519308940995
0.429872329517571 -0.274595400329102 0.208045464393028
0.423284463064023 -0.274595400329102 0.214641393337076
0.42700912939323 -0.274595400329102 0.230915113255659
0.425399918911189 -0.274595400329102 0.239207410016369
0.367534273625239 -0.316674641655897 0.312238153419439
0.37129016018249 -0.316674641655897 0.320318751095772
0.375215973506859 -0.316674641655897 0.3159769533471
0.379574676652196 -0.314585745110454 0.330483887651205
0.395371968510924 -0.298208585715396 0.330483887651205
0.393301979198874 -0.302724959348188 0.330483887651205
0.396283031980564 -0.293428341582906 0.330483887651205
0.419381946534471 -0.286681832032338 0.330483887651205
0.422699426784161 -0.270474443147759 0.330483887651205
0.427335466027089 -0.269766979406713 0.330483887651205
0.447777963307545 -0.25957065691286 0.330483887651205
0.451512919506333 -0.251750107840517 0.330483887651205
0.467801081616422 -0.2468897815393 0.330483887651205
0.472985966018721 -0.242286590810884 0.330483887651205
0.484238087672243 -0.235874818974622 0.330483887651205
0.496112918315776 -0.231569875102285 0.330483887651205
0.397638085925479 -0.277379103986106 0.148277447826637
0.403045641604765 -0.277379103986106 0.157023429435427
0.413587035431792 -0.277379103986106 0.161300489909666
0.412788188626964 -0.277379103986106 0.176228642143821
0.410977571203657 -0.277379103986106 0.175964503667115
0.412452867203628 -0.274595400329102 0.194885423650986
0.406028148637411 -0.274595400329102 0.208781037001204
0.405413413888145 -0.274595400329102 0.216477886253715
0.413593486522441 -0.274595400329102 0.218559982929201
0.419190080476618 -0.274595400329102 0.232254003930937
0.343980431309296 -0.316674641655897 0.312133269778007
0.348211141625615 -0.316674641655897 0.321970150226401
0.355967976605499 -0.316674641655897 0.327366490736436
0.365887369197376 -0.306066802748153 0.330483887651205
0.375092432878305 -0.298427206025817 0.330483887651205
0.373737643502946 -0.303402612694983 0.330483887651205
0.394574120954479 -0.289006323359448 0.330483887651205
0.390161518298082 -0.284998665421077 0.330483887651205
0.40390519109551 -0.279652876313285 0.330483887651205
0.423572253443587 -0.267815044340946 0.330483887651205
0.419435031463338 -0.266971599548684 0.330483887651205
0.4436532866226 -0.258126184248067 0.330483887651205
0.456749442137841 -0.246109152560758 0.330483887651205
0.461567274993215 -0.241638266360912 0.330483887651205
0.472766268007176 -0.232793206074253 0.330483887651205
0.473221537230282 -0.226529877388397 0.330483887651204
0.495921075284893 -0.212357372574994 0.330483887651205
0.490028648142718 -0.212465264277673 0.330483887651205
0.390308971986082 -0.277379103986106 0.138458571335564
0.391987589966196 -0.277379103986106 0.147387916040372
0.39199909437294 -0.277379103986106 0.156871666958836
0.389840873726419 -0.277379103986106 0.163917255711785
0.392852237338832 -0.275503965618696 0.178200371138795
0.395723417823061 -0.274595400329102 0.182216044854423
0.396210779833135 -0.274595400329102 0.186413210338978
0.406113582537722 -0.274595400329102 0.192599424016212
0.386969663009347 -0.274595400329102 0.219535749611385
0.391033190794493 -0.274595400329102 0.221432942014498
0.397951421064764 -0.274595400329102 0.231409917728534
0.334820955200748 -0.316695620403208 0.312033758761764
0.333096260268965 -0.316674641655897 0.319783852147632
0.333871973778482 -0.316674641655897 0.32871442816893
0.349161298463864 -0.312307224876157 0.330483887651205
0.355589646937382 -0.307563717193843 0.330483887651205
0.367828794797511 -0.295043376855944 0.330483887651205
0.363528520851299 -0.290106000979913 0.330483887651205
0.387839287345741 -0.276727364747262 0.330483887651205
0.390695293196419 -0.281279300723094 0.330483887651205
0.396362297028099 -0.273756637298121 0.330483887651205
0.415030241475143 -0.255756131570402 0.330483887651205
0.42157803281261 -0.257388713601336 0.330483887651205
0.434503801575688 -0.250847408810751 0.330483887651205
0.434761999397628 -0.247058649994405 0.330483887651205
0.455891670424307 -0.227999186586451 0.330483887651205
0.458876027676804 -0.226981717869522 0.330483887651205
0.474903403286897 -0.213766235209107 0.330483887651205
0.489521874361961 -0.211331382585525 0.330483887651205
0.486729092351769 -0.203853061686262 0.330483887651205
0.369057235099473 -0.277379103986106 0.154632608729801
0.371834566462136 -0.277379103986106 0.155442289643872
0.369336105263235 -0.277379103986106 0.168595233640418
0.379329103639753 -0.277379103986106 0.171744595184055
0.376905284420521 -0.274595400329102 0.182460520760496
0.377623018894966 -0.274595400329102 0.196194943525106
0.372215916141351 -0.274595400329102 0.201159102352617
0.378527475506919 -0.274595400329102 0.211585595475791
0.370267033662772 -0.274595400329102 0.226337970189062
0.384062444372718 -0.274595400329102 0.232639668651117
0.381664940189556 -0.274595400329102 0.242999151399417
0.316486054614746 -0.316674641655897 0.320592616109839
0.324399776850098 -0.316674641655897 0.324392982600119
0.33471499814596 -0.304278573838325 0.330483887651205
0.338895111836172 -0.30319351189879 0.330483887651205
0.347043148788667 -0.290120261672109 0.330483887651205
0.357350506004553 -0.290245367411975 0.330483887651205
0.363103422026229 -0.278705869392131 0.330483887651205
0.370238525205024 -0.277089306397485 0.330483887651205
0.379730667281033 -0.270078153305343 0.330483887651205
0.396329170992625 -0.258611101501606 0.330483887651205
0.394434218460636 -0.254495274313229 0.330483887651205
0.415370715796361 -0.252975769406456 0.330483887651205
0.421893911450407 -0.242610646787817 0.330483887651205
0.439661715553995 -0.225383957258971 0.330483887651205
0.441437823782406 -0.219709833605708 0.330483887651205
0.447770763643991 -0.225976357143495 0.330483887651205
0.466698657990091 -0.202411110841519 0.330483887651205
0.477101861683217 -0.204253811636569 0.330483887651205
0.486904137451115 -0.198917202299072 0.330483887651204
0.489085640769871 -0.189714822375792 0.330483887651205
0.352150506999678 -0.277379103986106 0.145006982294096
0.34857955007581 -0.277379103986106 0.166115880814488
0.356829345506034 -0.277379103986106 0.173621740265813
0.363007683106044 -0.277379103986106 0.176754546283225
0.355589897055895 -0.281069129763994 0.196821805934869
0.346668771474739 -0.281069129763994 0.2109126734315
0.347241019035824 -0.281069129763994 0.225167260343043
0.350937068748317 -0.281069129763994 0.223942811570912
0.347494396852597 -0.281069129763994 0.237223585857391
0.346573231359056 -0.281069129763994 0.252139576937741
0.347537926748528 -0.281069129763994 0.251633476374469
0.311585100615616 -0.316674641655897 0.316671410382542
0.314344874717234 -0.316674641655897 0.326081491674517
0.31177011165469 -0.310130403904018 0.330483887651205
0.318548155936775 -0.300475322218333 0.330483887651204
0.329078158674767 -0.290578181148035 0.330483887651205
0.341142735775487 -0.291525024311815 0.330483887651205
0.3477437762589 -0.284447023895033 0.330483887651204
0.36086603989781 -0.271342105630118 0.330483887651205
0.359010377819309 -0.27411818534423 0.330483887651205
0.378737235072417 -0.261180117730558 0.330483887651205
0.392714019531776 -0.253864610169239 0.330483887651205
0.4031775826975 -0.241054895301353 0.330483887651205
0.400939465457524 -0.24168431182599 0.330483887651205
0.412995108135107 -0.232944275661405 0.330483887651204
0.420169148992523 -0.228273609185886 0.330483887651205
0.433094666648056 -0.220141738354193 0.330483887651205
0.44349818356159 -0.208630213688162 0.330483887651205
0.45693847578752 -0.196621719124197 0.330483887651205
0.462268025488948 -0.19970883890201 0.330483887651205
0.476396198556555 -0.194313200315289 0.330483887651205
0.48864610723329 -0.185883555980136 0.330483887651204
0.496241915252108 -0.179223215772145 0.330483887651205
0.334380289582775 -0.277379103986106 0.150165161612233
0.33885471117632 -0.277379103986106 0.154364389542002
0.332441220898055 -0.277379103986106 0.177421753800627
0.328439491666645 -0.281069129763994 0.192202076623669
0.329048897945313 -0.281069129763994 0.205300164314244
0.334579422929704 -0.281069129763994 0.204626985410222
0.333417948314665 -0.281069129763994 0.2209761983049
0.330454457624387 -0.281069129763994 0.226738119765684
0.342865772698861 -0.281069129763994 0.231692365281341
0.329640554449927 -0.281069129763994 0.253182085126837
0.343321123085594 -0.281069129763994 0.249627467695765
0.283349800383224 -0.316674641655897 0.32339527581763
0.294520579866418 -0.316674641655897 0.321371671813489
0.300681863321685 -0.310505321032759 0.330483887651204
0.29781847219464 -0.307757587249696 0.330483887651204
0.313342366851148 -0.295635064432298 0.330483887651204
0.319697537024147 -0.296700913902002 0.330483887651205
0.338350481538534 -0.281489448250903 0.330483887651205
0.344860377219183 -0.27165533368388 0.330483887651205
0.353812050530485 -0.265653056630657 0.330483887651205
0.358875396415209 -0.265300165805785 0.330483887651205
0.373852017762202 -0.253705943215453 0.330483887651205
0.378696546166651 -0.25046040492567 0.330483887651204
0.385216826592935 -0.242964689809009 0.330483887651205
0.394863790742481 -0.235339655297557 0.330483887651204
0.41072831339978 -0.219545795281963 0.330483887651205
0.418731944035879 -0.220026322012461 0.330483887651205
0.419100474218848 -0.211007577290797 0.330483887651205
0.439894965432598 -0.207227468382762 0.330483887651205
0.453560863010023 -0.188297973235731 0.330483887651205
0.453279886328226 -0.191168232878604 0.330483887651205
0.462997980196046 -0.178754921596608 0.330483887651205
0.482562410357581 -0.17466734908056 0.330483887651205
0.490627680941807 -0.163574127139576 0.330483887651204
0.324945515259043 -0.277379103986106 0.140688498907462
0.323702606654318 -0.277379103986106 0.168904197369999
0.321793660404887 -0.277379103986106 0.177686141486266
0.32407534462172 -0.277379103986106 0.177517359544349
0.309469392152545 -0.281069129763994 0.202909056767612
0.323605406722324 -0.281069129763994 0.205655790222906
0.323834916302186 -0.281069129763994 0.208586159188126
0.324761269097746 -0.281069129763994 0.220580214966407
0.325105492864908 -0.281069129763994 0.233799594850884
0.320068057818607 -0.281069129763994 0.245871707290396
0.312150320677324 -0.281069129763994 0.257640916170816
0.270899604027305 -0.316674641655897 0.320264073151936
0.268958317498865 -0.316674641655897 0.328037152406924
0.276874508255089 -0.306827619678952 0.330483887651205
0.287609481299428 -0.304727193895309 0.330483887651205
0.297709974012784 -0.298120619727688 0.330483887651205
0.30116069552762 -0.293481919901385 0.330483887651205
0.322461560738169 -0.282973368825126 0.330483887651205
0.327097175228469 -0.276345637313976 0.330483887651204
0.340468216347629 -0.265790977234972 0.330483887651205
0.349617373118272 -0.263927119028281 0.330483887651205
0.354550749772274 -0.26093564659599 0.330483887651205
0.353150520988266 -0.24740746258633 0.330483887651205
0.378014880861343 -0.236028674452874 0.330483887651205
0.381243193200517 -0.232083729041395 0.330483887651204
0.389429740025235 -0.221682842890792 0.330483887651205
0.401711229724487 -0.214816344365691 0.330483887651205
0.408675978072871 -0.212247918427006 0.330483887651205
0.417552353506767 -0.203238804671188 0.330483887651205
0.421221959812542 -0.203987194633723 0.330483887651205
0.434175658277373 -0.194342508015045 0.330483887651205
0.447238760562896 -0.186216423890088 0.330483887651205
0.451684330819318 -0.176062782504186 0.330483887651204
0.470195090076635 -0.166363899053379 0.330483887651205
0.481061297615723 -0.154272012456506 0.330483887651205
0.490243328902724 -0.151733049179125 0.330483887651205
0.30656993614825 -0.277379103986106 0.14708131632331
0.298038861048337 -0.277379103986106 0.162494008902727
0.295290192193262 -0.277379103986106 0.163372440018502
0.307403383977685 -0.277379103986106 0.169444778486229
0.308779516458328 -0.276423843159089 0.178200371138795
0.293613825344445 -0.281069129763994 0.203733245632824
0.303771587636314 -0.281069129763994 0.21213193411207
0.29919653242863 -0.281069129763994 0.219674778422064
0.301615886216784 -0.281069129763994 0.219818841805388
0.294189185188895 -0.281069129763994 0.240407035452001
0.299274048469173 -0.281069129763994 0.246008131812332
0.310288623801791 -0.281069129763994 0.247610853681687
0.249518647274093 -0.316674641655897 0.316396158780629
0.258944008010479 -0.316674641655897 0.324386456496848
0.256988793146333 -0.315939035389569 0.330483887651205
0.27622925064635 -0.305572450597434 0.330483887651205
0.279578720771427 -0.303096510396871 0.330483887651205
0.28715613396102 -0.293204650371682 0.330483887651205
0.306332927783073 -0.276112748758284 0.330483887651205
0.312453977380777 -0.279618166007004 0.330483887651205
0.315520709170432 -0.271254990892632 0.330483887651205
0.323209872229325 -0.264046510315427 0.330483887651205
0.336525762017244 -0.251391077631954 0.330483887651205
0.341628173678515 -0.25461974058907 0.330483887651205
0.353875655970623 -0.240064996252035 0.330483887651205
0.371768298594496 -0.229584494606239 0.330483887651205
0.376621564148572 -0.227019403734093 0.330483887651204
0.384489701110196 -0.21437655556368 0.330483887651205
0.39008254873039 -0.20994744900821 0.330483887651205
0.400751357072165 -0.204432429578237 0.330483887651205
0.421339038076634 -0.194642146211867 0.330483887651205
0.421690473250563 -0.191743364478384 0.330483887651205
0.431222155148673 -0.178517715021739 0.330483887651205
0.442760739532764 -0.169925931785477 0.330483887651205
0.454183342896068 -0.159467473749734 0.330483887651205
0.468232577769673 -0.158818982328807 0.330483887651205
0.466279359417802 -0.155744617084481 0.330483887651205
0.488971026448084 -0.137087053093777 0.330483887651205
0.48889355665088 -0.133171317689704 0.330483887651205
0.498923111946588 -0.122219439531911 0.330483887651205
0.295428498963404 -0.277379103986106 0.151152935615116
0.287235176984359 -0.277379103986106 0.166285457277963
0.297524743459164 -0.277379103986106 0.166154677493998
0.294076692389563 -0.277379103986106 0.177063540709133
0.285264352485114 -0.280220094408825 0.200953091312213
0.286287000242738 -0.281069129763994 0.206919862664934
0.288301351253334 -0.281069129763994 0.210814449831103
0.284016929915311 -0.278499490884088 0.23344409620331
0.294428939830411 -0.281069129763994 0.234847241446493
0.287538418693854 -0.281069129763994 0.24913548160399
0.236067020759081 -0.316674641655897 0.32076022952366
0.23212782885915 -0.316674641655897 0.325240869662137
0.237462368598039 -0.316674641655897 0.327940816360846
0.253733755963746 -0.304045758411932 0.330483887651205
0.254031177090759 -0.30130035913749 0.330483887651204
0.261971821070129 -0.297475914341212 0.330483887651205
0.275748531992826 -0.288881586404861 0.330483887651205
0.27979518156469 -0.281070735538998 0.330483887651205
0.28529409274598 -0.27992641834644 0.330483887651205
0.303621624513292 -0.264032059023595 0.330483887651205
0.311814795634943 -0.259659732386668 0.330483887651205
0.315781047066814 -0.254551854484913 0.330483887651205
0.321775166822377 -0.253406352039901 0.330483887651205
0.334443923942798 -0.237231721789331 0.330483887651205
0.354209642984586 -0.233971310354633 0.330483887651205
0.363800976433732 -0.226483394844531 0.330483887651205
0.364601658323809 -0.219388546478364 0.330483887651205
0.375042517882693 -0.21695320505857 0.330483887651205
0.381833149430524 -0.206340411641714 0.330483887651205
0.388134122237803 -0.20404407579864 0.330483887651205
0.399212638189095 -0.187240909962358 0.330483887651205
0.416304222709308 -0.176146956034784 0.330483887651205
0.433632621631169 -0.167764278452213 0.330483887651205
0.428719920933921 -0.17093454352407 0.330483887651205
0.44975995673154 -0.160223706926392 0.330483887651205
0.463431487754647 -0.151080209852082 0.330483887651205
0.46780252721377 -0.138819207339083 0.330483887651205
0.467267569954321 -0.132880140491465 0.330483887651205
0.490501865765949 -0.126482934098206 0.330483887651205
0.495408654886936 -0.120659321978949 0.330483887651205
0.272953414010954 -0.277379103986106 0.141461475350923
0.274078979354523 -0.277379103986106 0.145082307131305
0.273413968013287 -0.277379103986106 0.16696211471288
0.26669536185906 -0.277379103986106 0.177488655805402
0.27732163827032 -0.27663048896773 0.178200371138795
0.28508590685396 -0.270306630274633 0.178200371138795
0.269055492077274 -0.274595400329102 0.203673209679065
0.269883212018413 -0.274595400329102 0.21852139725095
0.271816174298748 -0.274595400329102 0.219476259090054
0.283185411077001 -0.277352554570191 0.231670691187896
0.280207602586016 -0.273245183171266 0.231613277149551
0.271395822125565 -0.274595400329102 0.247359242340686
0.219049512108524 -0.316674641655897 0.325492743198264
0.220124427287481 -0.314155970340714 0.330483887651205
0.229205446443251 -0.311800308069125 0.330483887651205
0.238802074760535 -0.310063322045761 0.330483887651205
0.255282808903625 -0.29834269781775 0.330483887651205
0.254648086623242 -0.292780075968312 0.330483887651205
0.263644338445737 -0.284603369465973 0.330483887651205
0.270832372691881 -0.273600705031348 0.330483887651205
0.281745756741073 -0.275532967359807 0.330483887651205
0.291689985908482 -0.26226014019312 0.330483887651205
0.30575249518123 -0.252246968872504 0.330483887651205
0.305783397083593 -0.248756659652936 0.330483887651205
0.320007801737542 -0.244811211012579 0.330483887651205
0.335746145036542 -0.233777424768451 0.330483887651205
0.347846215786214 -0.220222362699238 0.330483887651205
0.352993076835558 -0.215999725877522 0.330483887651205
0.353310870466983 -0.210825937652536 0.330483887651205
0.374171007867653 -0.209054358162102 0.330483887651205
0.373783084896876 -0.203583430887257 0.330483887651205
0.379829921127418 -0.197262899872443 0.330483887651205
0.398537238215729 -0.177295718731866 0.330483887651205
0.405948665356176 -0.17983370806847 0.330483887651204
0.423574129884778 -0.161869471513447 0.330483887651205
0.433911675295703 -0.157572313797427 0.330483887651205
0.439743278132271 -0.144196490158324 0.330483887651205
0.454539632441066 -0.140824588585496 0.330483887651205
0.456138702930508 -0.136786952228594 0.330483887651204
0.465458497467765 -0.126536327041994 0.330483887651204
0.469684388424046 -0.11989622873757 0.330483887651205
0.488007590876378 -0.108078049348145 0.330483887651205
0.248816842605103 -0.277379103986106 0.147463809636919
0.258322916014426 -0.277379103986106 0.159008274768498
0.254855014785255 -0.277379103986106 0.168421179402485
0.259906755111392 -0.277379103986106 0.163027689832502
0.262247908865345 -0.276520459665847 0.178200371138795
0.252246398627055 -0.274595400329102 0.192441898119032
0.265109195154453 -0.274595400329102 0.197320190098592
0.2580328166969 -0.274595400329102 0.212510049909033
0.271387838346731 -0.274595400329102 0.215092877304117
0.253697286108053 -0.274595400329102 0.236301484553602
0.265223928660263 -0.274595400329102 0.23424809122376
0.263109065656601 -0.274595400329102 0.244651296578659
0.203875107114698 -0.316674641655897 0.325372772652874
0.207971124341385 -0.316674641655897 0.325333603843346
0.214347716336143 -0.312757992310147 0.330483887651205
0.220352964845145 -0.303332812358625 0.330483887651205
0.235640872245338 -0.301238197437268 0.330483887651205
0.23971564873173 -0.289942226543698 0.330483887651205
0.249593031721523 -0.283660450600387 0.330483887651205
0.261461098907592 -0.275742272999706 0.330483887651204
0.267221280512697 -0.269409476120453 0.330483887651205
0.276645623858918 -0.257825872938107 0.330483887651205
0.282928488045245 -0.255101146779757 0.330483887651205
0.290878385795068 -0.251984360291228 0.330483887651204
0.313092005838543 -0.240480554461526 0.330483887651205
0.31432634427933 -0.240634968105895 0.330483887651205
0.325229087875337 -0.22764632801698 0.330483887651205
0.331412490420709 -0.224603984801814 0.330483887651205
0.347632077281295 -0.207969508044679 0.330483887651205
0.357348717518815 -0.206282732444854 0.330483887651205
0.365634705852832 -0.198549040729782 0.330483887651204
0.36660378669222 -0.186288258522994 0.330483887651205
0.377031978426535 -0.182253471729542 0.330483887651205
0.395660138454001 -0.173584024913979 0.330483887651204
0.392800399558686 -0.173174720578975 0.330483887651205
0.406077793107984 -0.15856949337486 0.330483887651205
0.412336851032458 -0.158880426964177 0.330483887651205
0.422496161139107 -0.143937832007123 0.330483887651205
0.44336314440761 -0.130420550768906 0.330483887651205
0.447862701777736 -0.130664173369808 0.330483887651205
0.456827497448657 -0.118040246241648 0.330483887651205
0.477654429349337 -0.106787194755558 0.330483887651205
0.48136133668505 -0.106174936573011 0.330483887651205
0.487249615672267 -0.101795843833489 0.330483887651205
0.244167682197852 -0.277379103986106 0.145237374838664
0.250931649052741 -0.277379103986106 0.143927524853353
0.242106336112012 -0.277379103986106 0.172298586897319
0.242702245161472 -0.276794801083359 0.178200371138795
0.253719925578106 -0.274851894121183 0.178200371138795
0.246718687897308 -0.274595400329102 0.186847180231514
0.244259982688615 -0.274595400329102 0.206137846960343
0.24836997603774 -0.274595400329102 0.207892998323821
0.242684057619995 -0.274595400329102 0.221415956805884
0.245627100435074 -0.274595400329102 0.219630355488656
0.251963215716922 -0.274595400329102 0.239303380777249
0.247910059453577 -0.274595400329102 0.247303170677314
0.196532025609435 -0.316674641655897 0.321365836636676
0.189454040957074 -0.310881284855224 0.330483887651205
0.194787546365998 -0.306243680571964 0.330483887651205
0.205241982936431 -0.304336461512201 0.330483887651204
0.217624446801712 -0.292326435603855 0.330483887651205
0.221593026777166 -0.291908086344122 0.330483887651205
0.234141454001805 -0.28181513114258 0.330483887651205
0.244584757429023 -0.278708065160265 0.330483887651205
0.25614682785828 -0.266565095027276 0.330483887651205
0.260919521849719 -0.257425556755121 0.330483887651205
0.268985399048064 -0.252902502114725 0.330483887651205
0.273519993734597 -0.248210800503967 0.330483887651205
0.285805759725327 -0.238353933020584 0.330483887651205
0.296409902645538 -0.235940278135196 0.330483887651205
0.299571709738805 -0.226401851842349 0.330483887651205
0.316381257483934 -0.220168403911749 0.330483887651205
0.324709869595023 -0.217933353052768 0.330483887651205
0.340988773164734 -0.202111851841785 0.330483887651205
0.341574904817492 -0.19045625094284 0.330483887651205
0.352660480938566 -0.187690048157759 0.330483887651205
0.361916113330031 -0.18416009833637 0.330483887651205
0.372977966732819 -0.17604969360652 0.330483887651205
0.381716779016269 -0.1607954264069 0.330483887651205
0.386933172346606 -0.158734790028757 0.330483887651205
0.401652125059605 -0.155809680124737 0.330483887651205
0.419693969267808 -0.137379224386419 0.330483887651205
0.422923902509777 -0.133353797967388 0.330483887651205
0.437240014279958 -0.128479250216346 0.330483887651205
0.438625739395504 -0.11688104434346 0.330483887651204
0.449975251188137 -0.110501573902153 0.330483887651205
0.465631876515959 -0.101357876566001 0.330483887651205
0.465565116687419 -0.10068403729933 0.330483887651205
0.491439670819725 -0.0881775888420468 0.330483887651204
0.48893680967108 -0.0840389343589504 0.330483887651204
0.224099993809188 -0.277379103986106 0.156319005125254
0.228413094357109 -0.277379103986106 0.154347190969872
0.222789952717962 -0.277379103986106 0.164676131702624
0.230175941242192 -0.277379103986106 0.174974253813144
0.228141123300685 -0.275346960200202 0.178200371138795
0.234584161198892 -0.274595400329102 0.188718648008462
0.236548140717555 -0.274595400329102 0.193736189451855
0.231703918368735 -0.274595400329102 0.204278779059814
0.232898013413885 -0.274595400329102 0.214398927902506
0.23664672557317 -0.274595400329102 0.222026317027805
0.231587518080239 -0.274595400329102 0.239386705925822
0.230362060426882 -0.274595400329102 0.243615161399461
0.171846957370343 -0.316674641655897 0.330227112534731
0.17432328177338 -0.315802545188239 0.330483887651205
0.184386434350976 -0.30644605161812 0.330483887651205
0.193930087275278 -0.307714759510387 0.330483887651204
0.200796212776996 -0.298242502787985 0.330483887651205
0.209329961230294 -0.289537591117129 0.330483887651205
0.218349352394831 -0.275341493666851 0.330483887651205
0.229737164188243 -0.267756099104996 0.330483887651204
0.229549254604444 -0.27082282334027 0.330483887651205
0.239516250275882 -0.26151135848953 0.330483887651205
0.257422434345945 -0.250553541806551 0.330483887651205
0.263586724311181 -0.249216150552893 0.330483887651205
0.277589384815461 -0.24182708598029 0.330483887651204
0.278335058862864 -0.233593393448617 0.330483887651205
0.288232410875288 -0.225989837587118 0.330483887651205
0.300361037716171 -0.218072202940562 0.330483887651205
0.311442427297672 -0.216674548821011 0.330483887651205
0.322342046079828 -0.199790983394058 0.330483887651205
0.320576107265078 -0.200357252006451 0.330483887651205
0.340768596678916 -0.18602000804667 0.330483887651205
0.346453123189276 -0.186414024918921 0.330483887651205
0.354445074697281 -0.176965983705704 0.330483887651205
0.371117821180999 -0.163471063625399 0.330483887651205
0.379597347557331 -0.156571955223498 0.330483887651205
0.391335108883257 -0.150755835384786 0.330483887651205
0.397043921965445 -0.139793754279591 0.330483887651205
0.409374593784594 -0.134116757831331 0.330483887651204
0.416288443327436 -0.133773764759437 0.330483887651205
0.427445114182103 -0.120551534840415 0.330483887651205
0.438267868645578 -0.106171465155149 0.330483887651205
0.444870165835169 -0.107031369191215 0.330483887651205
0.456429384624601 -0.0979870458302118 0.330483887651204
0.474206369272287 -0.0905513426200577 0.330483887651205
0.477453646020482 -0.0857772965238806 0.330483887651205
0.488669185739735 -0.0708232794320632 0.330483887651205
0.212382232899161 -0.277379103986106 0.150835734080279
0.21009021013034 -0.277379103986106 0.150588159218901
0.209295726961274 -0.277379103986106 0.166385427445194
0.209507865354495 -0.274595400329102 0.180899257193804
0.207788117176533 -0.274595400329102 0.184994584982237
0.212977605321855 -0.274595400329102 0.188897449660468
0.214127436187734 -0.274595400329102 0.191048544157434
0.218047032786646 -0.274595400329102 0.210573316539698
0.212047932316684 -0.274595400329102 0.226335484599084
0.208744815067591 -0.274595400329102 0.231983489857388
0.151562695325917 -0.316674641655897 0.313492584410201
0.157014826324444 -0.316674641655897 0.314242335915487
0.158978920014921 -0.316674641655897 0.329344138281846
0.163785749263447 -0.310232927033052 0.330483887651205
0.175344520255671 -0.309242556625235 0.330483887651205
0.175174219437323 -0.307217136798303 0.330483887651205
0.184725662272587 -0.292678657294415 0.330483887651205
0.200569766323 -0.287453836748906 0.330483887651205
0.198118871520356 -0.289836409255032 0.330483887651205
0.21261479519353 -0.276717040620969 0.330483887651205
0.219566847768691 -0.268734999428865 0.330483887651205
0.230105169796427 -0.254548270144172 0.330483887651205
0.234047911356146 -0.255289365176326 0.330483887651204
0.24402116492993 -0.253031821758463 0.330483887651205
0.254641008880075 -0.242725468030649 0.330483887651205
0.262316128422135 -0.228362693478923 0.330483887651205
0.276366129531122 -0.220638598260411 0.330483887651205
0.287101329703896 -0.224218380711303 0.330483887651204
0.292236195729355 -0.210640047806652 0.330483887651205
0.308172853226674 -0.198999423408093 0.330483887651205
0.31060590420021 -0.191260913225981 0.330483887651205
0.323818105724763 -0.190939555735874 0.330483887651205
0.33427279302275 -0.181620759550196 0.330483887651204
0.331071726973119 -0.177445300690855 0.330483887651205
0.349259484485984 -0.162111528925006 0.330483887651205
0.353996649298288 -0.162964373896391 0.330483887651205
0.363056691533408 -0.149681031180423 0.330483887651205
0.380378798163633 -0.143522112636562 0.330483887651204
0.39573605029801 -0.135783927760619 0.330483887651205
0.397796426324966 -0.121902158222784 0.330483887651205
0.405829495525047 -0.117747195427745 0.330483887651205
0.419305868666263 -0.110237695031491 0.330483887651205
0.422207835737423 -0.111156702556424 0.330483887651205
0.440868319050984 -0.0953888559030838 0.330483887651205
0.453913814281635 -0.0815421990744268 0.330483887651205
0.46689433751777 -0.071718744352011 0.330483887651205
0.467297608761931 -0.0701027918253528 0.330483887651205
0.483384380411686 -0.0601407733092733 0.330483887651205
0.493890871227943 -0.0540359316787926 0.330483887651205
0.192486669897781 -0.277379103986106 0.137732482765944
0.197439504161621 -0.277379103986106 0.145725762626277
0.198367004333229 -0.277379103986106 0.151536663985872
0.197833126943607 -0.277379103986106 0.162047462121446
0.190301891674283 -0.274235974141887 0.178663040018179
0.191211124743864 -0.271624123853773 0.182025126279323
0.203229965305135 -0.272692239389605 0.190194364676573
0.201880144667314 -0.271643625776522 0.199618688481278
0.202948306092954 -0.272473431293278 0.205396593931228
0.198144330275303 -0.268741443280825 0.221159812785142
0.200032930580372 -0.270208610054008 0.224848842238196
0.197824218894023 -0.268492763461664 0.236674178393559
0.204812866803803 -0.273921922810619 0.244700870490063
0.142641646487591 -0.316674641655897 0.327523999678281
0.154848738790044 -0.316674641655897 0.325591780182832
0.161574507860448 -0.310416797159855 0.330483887651205
0.165075842656847 -0.305874373724457 0.330483887651204
0.175049414886309 -0.297583863128535 0.330483887651205
0.174045315579156 -0.289970643788354 0.330483887651205
0.19525109522071 -0.279477022594448 0.330483887651204
0.195018648412153 -0.276518820540117 0.330483887651205
0.211477019969388 -0.266651756126211 0.330483887651205
0.214852007625837 -0.25825577065817 0.330483887651205
0.221365229071607 -0.256041886775519 0.330483887651205
0.230614175717888 -0.246899675831076 0.330483887651204
0.234454025306366 -0.242192158364546 0.330483887651205
0.252598730351304 -0.236334453104489 0.330483887651205
0.259573636993234 -0.227450330268152 0.330483887651205
0.273708108960551 -0.214862098260994 0.330483887651205
0.282290483844293 -0.209916769029004 0.330483887651205
0.287538645358302 -0.206340608076105 0.330483887651205
0.285199892712764 -0.198139748176272 0.330483887651205
0.301334528806348 -0.186045815043056 0.330483887651205
0.310685947798561 -0.189024688292358 0.330483887651205
0.321559698751888 -0.178658592410787 0.330483887651204
0.333042586516847 -0.173097323229835 0.330483887651205
0.343966770842414 -0.159729465209143 0.330483887651205
0.350008416881868 -0.149439791576103 0.330483887651204
0.360264423698963 -0.142277171222535 0.330483887651205
0.370888642211554 -0.142293157986551 0.330483887651205
0.371795998283831 -0.135799948688504 0.330483887651205
0.393968434841188 -0.123149490980478 0.330483887651205
0.401365319087179 -0.113212612072779 0.330483887651205
0.410923873560469 -0.110087034151405 0.330483887651204
0.420027673290225 -0.093295539746606 0.330483887651205
0.429782454434565 -0.0921589072652139 0.330483887651205
0.437368722471977 -0.0843097643992291 0.330483887651204
0.450558128479476 -0.0649495777029326 0.330483887651205
0.468527805718655 -0.0606280610843111 0.330483887651204
0.473206323655173 -0.0509613425731464 0.330483887651205
0.482041142300566 -0.0494234291598963 0.330483887651205
0.491704238013179 -0.0466437428873613 0.330483887651204
0.181417149854029 -0.277379103986106 0.144279444607926
0.170126360614483 -0.277379103986106 0.160191339907137
0.182712749274123 -0.277379103986106 0.162779083018935
0.181239492595455 -0.275927327235485 0.178200371138795
0.183438168322662 -0.270782450880597 0.183108564006351
0.190125439764516 -0.266729046230203 0.188326281173359
0.194990063260051 -0.266291038213059 0.191339844051105
0.195755876523616 -0.266885963339222 0.198760938177188
0.194289880160692 -0.265747098144974 0.200445917369404
0.193024761739609 -0.264764285790993 0.223144898126738
0.197154346925492 -0.26797237071796 0.223418298479635
0.193983639796966 -0.265509194081812 0.229272840507476
0.133855546370458 -0.316674641655897 0.326639521439566
0.129078375353318 -0.314193170704635 0.330483887651205
0.131618383084891 -0.316099715191047 0.330483887651205
0.14772038068888 -0.303002167718669 0.330483887651205
0.15925344615815 -0.294730900606241 0.330483887651205
0.160149639921701 -0.296508501831161 0.330483887651205
0.170220133495148 -0.281752787435536 0.330483887651205
0.18214196616164 -0.274620531378971 0.330483887651205
0.185200477010333 -0.266842360648628 0.330483887651205
0.195372498518346 -0.266070421046748 0.330483887651205
0.205436614497483 -0.251151831466538 0.330483887651205
0.214358370882294 -0.249636185631163 0.330483887651205
0.224453240945421 -0.235193950738768 0.330483887651205
0.229195786925502 -0.235599804686346 0.330483887651205
0.245979668869448 -0.226636217002173 0.330483887651204
0.249176402888494 -0.224200841679276 0.330483887651205
0.261030668877434 -0.214628172427753 0.330483887651205
0.268854690383045 -0.205683761505932 0.330483887651205
0.278958936231464 -0.19992612598603 0.330483887651204
0.282878453583119 -0.18566293489285 0.330483887651205
0.300031472009219 -0.180176432430651 0.330483887651205
0.305421070811086 -0.179788882299481 0.330483887651205
0.312126518178551 -0.172054242375979 0.330483887651205
0.327408368652162 -0.162644777046172 0.330483887651205
0.337841886233734 -0.152797105514841 0.330483887651205
0.349140734823923 -0.136084493096302 0.330483887651205
0.346766080997266 -0.14178620866302 0.330483887651204
0.358018894081835 -0.127369705690455 0.330483887651205
0.372912181057737 -0.121656933061138 0.330483887651204
0.385189821003615 -0.112820803297943 0.330483887651205
0.384581270054925 -0.112957535791133 0.330483887651205
0.412027945616816 -0.0890247892297154 0.330483887651205
0.417683657220721 -0.0907514034345062 0.330483887651205
0.42707731713552 -0.0838401374301984 0.330483887651205
0.441076178949938 -0.0707374703267575 0.330483887651205
0.437640796134075 -0.0623847449423262 0.330483887651205
0.452954754061486 -0.0562500466464434 0.330483887651205
0.462380868237929 -0.0533263107243697 0.330483887651205
0.478699168629775 -0.0402837329565699 0.330483887651205
0.484092206473415 -0.0315936532112112 0.330483887651205
0.164036039437449 -0.277379103986106 0.141711237473622
0.165249584469078 -0.277379103986106 0.148486038720699
0.167621505305766 -0.277379103986106 0.155576332095343
0.166138266011086 -0.277379103986106 0.171926183270962
0.170157716330888 -0.277276437819416 0.178200371138795
0.174235936159106 -0.27401737855623 0.178944425677468
0.173493212942108 -0.271215271472839 0.182551418685527
0.17737557326176 -0.266694561605199 0.188370671268945
0.181344819003149 -0.264179497223581 0.191608170539793
0.185859769096104 -0.258264228520419 0.205490093522381
0.186381587755256 -0.258964282781062 0.211990619076397
0.187687645326496 -0.260716445436341 0.213992070507216
0.105314048913128 -0.316674641655897 0.318903114128147
0.105012095345011 -0.316674641655897 0.328722646597846
0.116074163422913 -0.311605036023998 0.330483887651205
0.12660937380464 -0.308901436910651 0.330483887651205
0.131923900854623 -0.300151068527699 0.330483887651205
0.146982683657777 -0.296808769843512 0.330483887651205
0.149693709859244 -0.28880329618046 0.330483887651205
0.153316553505405 -0.285599224551108 0.330483887651204
0.168974676585636 -0.274878445397046 0.330483887651204
0.180366306444147 -0.262017247732063 0.330483887651205
0.177694908174708 -0.263383820560928 0.330483887651205
0.190694738726663 -0.258103130297232 0.330483887651205
0.201568655351997 -0.244010644843893 0.330483887651205
0.208219228540133 -0.23651531221398 0.330483887651205
0.215738166844058 -0.240772110802101 0.330483887651205
0.23322364589202 -0.222365551860624 0.330483887651205
0.234843622688718 -0.217395625437617 0.330483887651204
0.243783153311997 -0.215802615104624 0.330483887651205
0.248761752498095 -0.201113900315282 0.330483887651205
0.257173143466627 -0.200383777070632 0.330483887651205
0.274755019680248 -0.18916993480264 0.330483887651205
0.279948903578105 -0.180912301657451 0.330483887651205
0.291890061362177 -0.173891601736424 0.330483887651205
0.29875028626704 -0.165062180440631 0.330483887651205
0.301108449916218 -0.163727014554621 0.330483887651205
0.312502243555943 -0.155017056713793 0.330483887651205
0.322379158160162 -0.14795450834361 0.330483887651205
0.33217648707946 -0.133726373611043 0.330483887651204
0.353640019909288 -0.131416392021809 0.330483887651205
0.349495413272127 -0.125878963441989 0.330483887651205
0.361363839935754 -0.120004057999856 0.330483887651205
0.37542326057554 -0.105061927443021 0.330483887651205
0.384200393732567 -0.099966549573543 0.330483887651205
0.38629254155917 -0.0968839824744838 0.330483887651205
0.403442678933377 -0.0814842931715561 0.330483887651205
0.411464259489713 -0.079150654315847 0.330483887651205
0.417272728633448 -0.0659730988803326 0.330483887651205
0.434293396080674 -0.053624559348982 0.330483887651205
0.447970500204663 -0.0473365888035103 0.330483887651205
0.459808510568394 -0.035108136851352 0.330483887651205
0.470404544828725 -0.0284731318181893 0.330483887651205
0.485847134561655 -0.0219166665316632 0.330483887651205
0.483855465354826 -0.0200389644893147 0.330483887651205
0.492194999017194 -0.0051168431108378 0.330483887651204
0.144464539990205 -0.277379103986106 0.139303686938945
0.140462650090433 -0.277379103986106 0.145723999155924
0.146356613246768 -0.277379103986106 0.151428431274726
0.14612507020008 -0.277379103986106 0.157330683692348
0.149953412834532 -0.277379103986106 0.160204811165391
0.153624382836652 -0.277379103986106 0.173277325386286
0.158491835734097 -0.27031787511561 0.183706585954176
0.153874643554445 -0.269577260833236 0.184659936578792
0.160579103707013 -0.26484566738951 0.190750647590393
0.165789997160163 -0.264344641208209 0.191395590085104
0.167099871313209 -0.256584523221574 0.199272446177732
0.179242736233639 -0.2509015505974 0.20547482347624
0.179786683883763 -0.251371286523587 0.203158379506791
0.180836299888465 -0.251524912169149 0.211078123615994
0.097375463991327 -0.316674641655897 0.325009485651295
0.100140726888406 -0.315544113453405 0.330483887651205
0.107787621400487 -0.303747149354167 0.330483887651205
0.120832879511267 -0.304574267896143 0.330483887651205
0.12075548415933 -0.299118005655136 0.330483887651204
0.137168297853572 -0.288049249772391 0.330483887651205
0.145199597671869 -0.277593966586052 0.330483887651205
0.153394573357188 -0.268025470957142 0.330483887651204
0.162325499633696 -0.264181455654682 0.330483887651204
0.163020201670445 -0.263546021387996 0.330483887651205
0.175587136519104 -0.252945682295239 0.330483887651205
0.190293355251616 -0.240843394533905 0.330483887651205
0.191643386580701 -0.242931460705249 0.330483887651204
0.204178637724413 -0.233851280072242 0.330483887651205
0.209466991569221 -0.22761177038726 0.330483887651204
0.224248095779753 -0.216899056640603 0.330483887651205
0.223830735393316 -0.210080918937876 0.330483887651205
0.231714267877857 -0.200319188941564 0.330483887651205
0.249516899053996 -0.192711924218356 0.330483887651205
0.260478968039669 -0.185785152670632 0.330483887651205
0.26497251200747 -0.177912159151323 0.330483887651205
0.270972689376164 -0.179713431489538 0.330483887651205
0.280078640345679 -0.164181431503849 0.330483887651205
0.296010882071378 -0.15986789145298 0.330483887651205
0.301879222420967 -0.1560436210632 0.330483887651205
0.314125833825549 -0.138889365042573 0.330483887651205
0.31478695088003 -0.140525124053391 0.330483887651205
0.336100834595529 -0.128202951821722 0.330483887651205
0.339350538345392 -0.122424838212118 0.330483887651205
0.355307072869327 -0.116167395662107 0.330483887651205
0.358216213245483 -0.107629483770171 0.330483887651205
0.365565511852955 -0.0985341125581357 0.330483887651205
0.378171146315369 -0.085203182489273 0.330483887651204
0.390678003252892 -0.0877177947783242 0.330483887651205
0.403850705270194 -0.0714491585920512 0.330483887651205
0.411331506764792 -0.0582843492443116 0.330483887651205
0.421826378720902 -0.059207029948785 0.330483887651205
0.423984934617022 -0.0480350524927033 0.330483887651205
0.431247299382704 -0.0445482801195653 0.330483887651205
0.450011140508403 -0.0343508740711549 0.330483887651205
0.464589352783604 -0.0249814650680109 0.330483887651205
0.473186424209708 -0.0220781766784794 0.330483887651205
0.480316326762301 -0.000328888721820536 0.330483887651205
0.487612391875128 -0.00252114446795454 0.330483887651205
0.12457861130565 -0.277379103986106 0.150619275794131
0.127732002850896 -0.277379103986106 0.154198609001568
0.125257480955296 -0.277379103986106 0.165689886397006
0.130556272255155 -0.277379103986106 0.171443163577032
0.139068602152124 -0.276277284395568 0.178200371138795
0.144734284802991 -0.273347065546 0.179807281474608
0.150355912078496 -0.269694998376432 0.184508379738723
0.146399105989273 -0.263747887182759 0.192163757586655
0.151282450079235 -0.264351623244022 0.191386602507682
0.15492508751066 -0.256204310975967 0.199555855415201
0.162735149222888 -0.256259566311457 0.199514668229153
0.163990710947762 -0.2509015505974 0.213287494789466
0.166766779154342 -0.2509015505974 0.212245820080385
0.0867536366993609 -0.316674641655897 0.324627572034986
0.0826421117027053 -0.314196695048383 0.330483887651205
0.0954896016112047 -0.311000580987059 0.330483887651205
0.105211506455644 -0.306338151762989 0.330483887651205
0.115756245171862 -0.291259605810961 0.330483887651205
0.123115439289851 -0.286694982563453 0.330483887651205
0.13069685543899 -0.279936380875939 0.330483887651205
0.127397489676042 -0.280377557451968 0.330483887651205
0.137237526428098 -0.269320391774398 0.330483887651205
0.1591738272865 -0.253623352518844 0.330483887651204
0.159096074085819 -0.250080038498072 0.330483887651205
0.170214395473874 -0.252358270179667 0.330483887651204
0.1847049918319 -0.239241008410225 0.330483887651205
0.190573772872809 -0.231789769339458 0.330483887651205
0.192361462079773 -0.225057087836548 0.330483887651205
0.196253706073325 -0.221272274089569 0.330483887651205
0.207148882064192 -0.214843780572385 0.330483887651205
0.22056078397865 -0.209184089194694 0.330483887651204
0.233841244710689 -0.193047969630056 0.330483887651205
0.2413056199965 -0.194749997762887 0.330483887651204
0.248658701950747 -0.18471323268511 0.330483887651205
0.250991512425923 -0.179954101814403 0.330483887651205
0.272647024893359 -0.167414947116573 0.330483887651204
0.274612576727414 -0.16406112758633 0.330483887651205
0.284709003718078 -0.158853876299761 0.330483887651205
0.290012802170999 -0.149410020184301 0.330483887651204
0.296944093429188 -0.141119573194735 0.330483887651205
0.310384141560559 -0.134348325005829 0.330483887651205
0.328255232999416 -0.121555041556646 0.330483887651205
0.330428116304341 -0.108387081726179 0.330483887651205
0.339069451434976 -0.106848842676062 0.330483887651205
0.358643119327346 -0.0925232192593781 0.330483887651205
0.364469449347864 -0.0882093397423172 0.330483887651204
0.37690891633446 -0.0748509906246175 0.330483887651205
0.381315797232722 -0.0720355407796098 0.330483887651205
0.391691375853567 -0.0723055260194495 0.330483887651205
0.40651963076363 -0.0612154147848704 0.330483887651205
0.414246484627697 -0.0536690504225044 0.330483887651205
0.42939218607131 -0.0356633779444248 0.330483887651205
0.42407209781308 -0.0366527852577081 0.330483887651205
0.436874840076409 -0.0244228889334267 0.330483887651205
0.448472726940777 -0.0192703408016963 0.330483887651205
0.45666668842916 -0.00377769120053508 0.330483887651205
0.470109969160213 0.00552396738553557 0.330483887651205
0.484293741296035 0.0130379676762484 0.330483887651205
0.497136317773738 0.0195518148022213 0.330483887651205
0.497885004853825 0.0282212920272576 0.330483887651205
0.118707141356566 -0.277379103986106 0.140467424698505
0.120337379618002 -0.277379103986106 0.152559732267816
0.112390688873202 -0.277379103986106 0.170938008859038
0.120300633995096 -0.277379103986106 0.173352912904273
0.119371721954754 -0.276317609630914 0.178200371138795
0.123818372294513 -0.269891315218574 0.184255672238297
0.130421748441486 -0.26497454726868 0.190584747855225
0.132439718734953 -0.267143338509691 0.187792986295277
0.144629403730818 -0.262266704904105 0.195036962454072
0.142481360930171 -0.258087735439567 0.198151955627053
0.1399089894151 -0.251046680709412 0.203400339852193
0.157056086704129 -0.251893691401275 0.202768980244283
0.0685553281672663 -0.316674641655897 0.319716067545535
0.0687913976488634 -0.316674641655897 0.324395565755566
0.0765689476906824 -0.313320492335623 0.330483887651205
0.0813678034272883 -0.304369198518288 0.330483887651205
0.0841225059898481 -0.298927771531531 0.330483887651205
0.095271881001306 -0.291977376467285 0.330483887651205
0.100263703055218 -0.295839291030441 0.330483887651204
0.11647723306477 -0.276964988995259 0.330483887651204
0.121109314980821 -0.268696813359668 0.330483887651205
0.128342995866835 -0.269580050082944 0.330483887651205
0.137925380214145 -0.258883172412994 0.330483887651205
0.14465242478361 -0.254091519945437 0.330483887651205
0.160178697631705 -0.244304566857175 0.330483887651205
0.170327014096522 -0.239660902754879 0.330483887651205
0.169086850862058 -0.233629792067507 0.330483887651205
0.172424515104388 -0.230802394485346 0.330483887651205
0.186486013044669 -0.21843025028983 0.330483887651205
