ply
format ascii 1.0
element vertex 879
property float x
property float y
property float z
end_header
0.464691004760417 0.342736039349925 0.313953488372093
0.465624320831182 0.355461349585582 0.313953488372093
0.467975102841026 0.367386412983133 0.313953488372093
0.470402821455485 0.392263373051882 0.313953488372093
0.474799200291272 0.397671296558147 0.313953488372093
0.475931965577543 0.416504094574144 0.313953488372093
0.476086783960779 0.422379586148436 0.313953488372093
0.478608337204676 0.436724470154882 0.313953488372093
0.485520005648892 0.460036254915101 0.313953488372093
0.481895522036824 0.476726852136566 0.313953488372093
0.487640646388885 0.483965162678787 0.313953488372093
0.493419630374207 0.495041954712028 0.313953488372093
0.382214826082647 -0.326493685659366 0.313953488372093
0.384664961363687 -0.315544477678974 0.313953488372093
0.385469786231705 -0.302983043947078 0.313953488372093
0.386281775492003 -0.300904899194429 0.313953488372093
0.388830313694499 -0.291327455855548 0.313953488372093
0.393359770328615 -0.275130781284392 0.313953488372093
0.388631695192612 -0.268737754455854 0.313953488372093
0.396324005025371 -0.253340260866955 0.313953488372093
0.396161767633347 -0.250660381640732 0.313953488372093
0.393406046208129 -0.241808258333616 0.313953488372093
0.394027140236309 -0.230356690167228 0.313953488372093
0.398269526423337 -0.220104150385197 0.313953488372093
0.394980102302026 -0.211285951708835 0.313953488372093
0.400277917730102 -0.196417745615556 0.313953488372093
0.403716311645639 -0.191847353243862 0.313953488372093
0.400485021999931 -0.17998970405692 0.313953488372093
0.401569986973684 -0.167493443079867 0.313953488372093
0.411648356612379 -0.16148642693317 0.313953488372093
0.404152264534336 -0.15328764971968 0.313953488372093
0.412377581249445 -0.141195040773726 0.313953488372093
0.414998458665096 -0.128541994182046 0.313953488372093
0.415888286331517 -0.128731072925041 0.313953488372093
0.416697408886703 -0.113643646907104 0.313953488372093
0.416166004865369 -0.099741977298554 0.313953488372093
0.418712176916968 -0.0920877339871522 0.313953488372093
0.420163026266451 -0.0814410734093205 0.313953488372093
0.42470734410651 -0.0731357785502682 0.313953488372093
0.424651508401548 -0.0633671084887738 0.313953488372093
0.421885102529406 -0.0496690637792796 0.313953488372093
0.423214475594659 -0.0351019688411544 0.313953488372093
0.42873144326021 -0.0279001960866982 0.313953488372093
0.43062088284882 -0.0160479960380372 0.313953488372093
0.426847929223551 -0.00459361945611705 0.313953488372093
0.436338066777105 0.0080323112451255 0.313953488372093
0.427878004438643 0.0152922898688924 0.313953488372093
0.43877168394721 0.0263362964186736 0.313953488372093
0.432010080924026 0.0428398806446535 0.313953488372093
0.438951832326709 0.0551136677111042 0.313953488372093
0.442217591914457 0.0676474870453665 0.313953488372093
0.436956866939856 0.0705352589905321 0.313953488372093
0.440870412756016 0.0837970136512014 0.313953488372093
0.444811204565483 0.0937816043277944 0.313953488372093
0.447777702883945 0.105608456308161 0.313953488372093
0.447298065567249 0.120509966354769 0.313953488372093
0.453203515500717 0.13787560923611 0.313953488372093
0.45262663114115 0.141889967359066 0.313953488372093
0.458097406230458 0.160727361154378 0.313953488372093
0.455892712544471 0.178383399401076 0.313953488372093
0.454481173914573 0.18326610682014 0.313953488372093
0.453922811816635 0.19806193695239 0.313953488372093
0.455269960742169 0.205734679006576 0.313953488372093
0.465056540186737 0.218515134011048 0.313953488372093
0.460823660553993 0.243572305572905 0.313953488372093
0.465479156746426 0.259662290832096 0.313953488372093
0.466262573701639 0.260068415614984 0.313953488372093
0.469233274328702 0.275514390561272 0.313953488372093
0.475413210073208 0.285498271899919 0.313953488372093
0.469221864387167 0.305263647376589 0.313953488372093
0.478682288034553 0.316411524709266 0.313953488372093
0.477080941161834 0.330887703091642 0.313953488372093
0.481328153422533 0.338268421520313 0.313953488372093
0.485807052078861 0.361124502157741 0.313953488372093
0.481082187737675 0.36704251901835 0.313953488372093
0.48741044748446 0.379693847824652 0.313953488372093
0.489325926294266 0.392476901461588 0.313953488372093
0.48613907427977 0.423606285148566 0.313953488372093
0.493134169064676 0.424818370327202 0.313953488372093
0.489882884694641 0.435039629251269 0.313953488372093
0.492161701095783 0.452201360111174 0.313953488372093
0.499009424930497 0.468188067110131 0.313953488372093
0.389052105726559 -0.319843448428661 0.313953488372093
0.389699774575023 -0.311347417672566 0.313953488372093
0.399604573427527 -0.302327664161007 0.313953488372093
0.40135105282768 -0.293241908386198 0.313953488372093
0.401663580673818 -0.289084793944959 0.313953488372093
0.400446855862088 -0.275096833169421 0.313953488372093
0.39932651213917 -0.267369546401024 0.313953488372093
0.402717310767491 -0.264933631317402 0.313953488372093
0.407873675739363 -0.246940450020387 0.313953488372093
0.403980855337895 -0.239950358706275 0.313953488372093
0.410137527151642 -0.23016458970972 0.313953488372093
0.405041439365239 -0.218052579260175 0.313953488372093
0.410742184307644 -0.211642233197219 0.313953488372093
0.410057066468926 -0.205718291448747 0.313953488372093
0.415557244451646 -0.191656623794941 0.313953488372093
0.411092186968968 -0.182564199857458 0.313953488372093
0.41157675137494 -0.17515950489225 0.313953488372093
0.415628844602922 -0.1559464069006 0.313953488372093
0.418851867825833 -0.153670857611527 0.313953488372093
0.421164561052902 -0.143581512609618 0.313953488372093
0.419249523648933 -0.138041070667896 0.313953488372093
0.427158998617793 -0.123000376059041 0.313953488372093
0.427289169003718 -0.119144332465105 0.313953488372093
0.426757617028021 -0.103435682103939 0.313953488372093
0.422773481950979 -0.0915674508635513 0.313953488372093
0.431573273187374 -0.0739644179984768 0.313953488372093
0.434277998343161 -0.0743697175763235 0.313953488372093
0.434433870206036 -0.0612281208719715 0.313953488372093
0.436051676314965 -0.0519666484504183 0.313953488372093
0.433403648399948 -0.0319709783918272 0.313953488372093
0.432460543911162 -0.0216255126941704 0.313953488372093
0.441912689612829 -0.00687661213602544 0.313953488372093
0.443617086159293 -0.00903755868163267 0.313953488372093
0.445600559964456 0.0127144529092647 0.313953488372093
0.441723385906429 0.0188293442723045 0.313953488372093
0.441177239537926 0.0290400279088379 0.313953488372093
0.441547610886758 0.042830336679083 0.313953488372093
0.44815419111241 0.0461708892079654 0.313953488372093
0.453724873088051 0.0587626885338774 0.313953488372093
0.448333022688522 0.0802034002760238 0.313953488372093
0.456468215745734 0.0920394512147513 0.313953488372093
0.456430689290945 0.0922196719473417 0.313953488372093
0.453690009128222 0.109474271129815 0.313953488372093
0.456483819754525 0.115037630591282 0.313953488372093
0.457524918409117 0.139856664090907 0.313953488372093
0.465770172955943 0.145031319960219 0.313953488372093
0.459257871148709 0.169413528815088 0.313953488372093
0.467134214660938 0.17507488312001 0.313953488372093
0.471699304765422 0.188763798865824 0.313953488372093
0.473568594548428 0.195379756281344 0.313953488372093
0.466654397203584 0.200729329223242 0.313953488372093
0.474055044705267 0.226902897165905 0.313953488372093
0.476157634907302 0.242007973350597 0.313953488372093
0.479650095807286 0.249544156152869 0.313953488372093
0.48054246491195 0.265817606166384 0.313953488372093
0.485628875050279 0.279615863447043 0.313953488372093
0.477837444108118 0.285115398435456 0.313953488372093
0.489108623236438 0.295164534255196 0.313953488372093
0.481850329677005 0.323434584200427 0.313953488372093
0.494438612151738 0.334156075211856 0.313953488372093
0.494845173651948 0.3464738714375 0.313953488372093
0.488660041216271 0.353480656420912 0.313953488372093
0.496162627427257 0.36887660005695 0.313953488372093
0.497934019925517 0.386816182138355 0.313953488372093
0.497191365724566 0.391132754057764 0.313953488372093
0.495376101131262 0.408950742221015 0.313953488372093
0.399977165504237 -0.31573924675541 0.313953488372093
0.400076335507261 -0.314419819859557 0.313953488372093
0.407075314241431 -0.305359930414521 0.313953488372093
0.40875196880334 -0.29813777291382 0.313953488372093
0.407087047761325 -0.282728502210702 0.313953488372093
0.409259486969531 -0.277433989541668 0.313953488372093
0.411497551035935 -0.273424148549148 0.313953488372093
0.407537852494955 -0.261708261770615 0.313953488372093
0.417103672045193 -0.24493910046602 0.313953488372093
0.417814857697695 -0.240209918210329 0.313953488372093
0.414053854802554 -0.228422599808452 0.313953488372093
0.412121252148075 -0.227601211303193 0.313953488372093
0.415717970148768 -0.212049319079516 0.313953488372093
0.4213332535397 -0.203157691156594 0.313953488372093
0.422225284356787 -0.193233177299058 0.313953488372093
0.419094477650995 -0.181224476165102 0.313953488372093
0.422956899144074 -0.169080996728882 0.313953488372093
0.421551566173803 -0.154972236216168 0.313953488372093
0.425598634521676 -0.15275340165768 0.313953488372093
0.431760532595114 -0.144662284544402 0.313953488372093
0.427124639122234 -0.126590052119472 0.313953488372093
0.434987612144567 -0.119859974062891 0.313953488372093
0.437394586638481 -0.115333188409188 0.313953488372093
0.433402453513729 -0.104487776471672 0.313953488372093
0.441109311474118 -0.083066470084036 0.313953488372093
0.4421435654415 -0.0838212358547683 0.313953488372093
0.438655937871596 -0.0627676561586447 0.313953488372093
0.44196739969346 -0.0598490629124248 0.313953488372093
0.442341197253339 -0.0545976857017093 0.313953488372093
0.441267994630948 -0.0364220168935818 0.313953488372093
0.449397294956726 -0.0220654267136328 0.313953488372093
0.446088321435169 -0.00611709163542073 0.313953488372093
0.446513187596144 -0.0084280895819585 0.313953488372093
0.451936477133027 0.00502145119503744 0.313953488372093
0.448862863433176 0.0181718353413689 0.313953488372093
0.457955660494166 0.0307046759930501 0.313953488372093
0.451198318906466 0.039869173325069 0.313953488372093
0.459604572837872 0.051566460036754 0.313953488372093
0.462222182238229 0.0621310273982682 0.313953488372093
0.461835295482115 0.0778653151337121 0.313953488372093
0.466686216027883 0.0872271082721669 0.313953488372093
0.460261879005681 0.100134007408868 0.313953488372093
0.467733502125322 0.100775348286981 0.313953488372093
0.466633869004941 0.120108186038114 0.313953488372093
0.466129763166462 0.132062663235932 0.313953488372093
0.475034039022345 0.145923121574232 0.313953488372093
0.471993964237724 0.162314859088172 0.313953488372093
0.471393411057806 0.166000609155615 0.313953488372093
0.481734024351272 0.187516713258639 0.313953488372093
0.482860154827553 0.195050040933916 0.313953488372093
0.483517120219255 0.216432390530525 0.313953488372093
0.483145706728692 0.220159405992314 0.313953488372093
0.481432818111872 0.232951476661561 0.313953488372093
0.48633675461996 0.244069982743892 0.313953488372093
0.493401317358652 0.265037547584412 0.313953488372093
0.493844012511215 0.268043942346001 0.313953488372093
0.488776286314861 0.284766650193183 0.313953488372093
0.495946842006399 0.308616030432723 0.313953488372093
0.499757503381154 0.332409176558387 0.313953488372093
0.499059350555314 0.345170276168738 0.313953488372093
0.406837044912749 -0.326097566549626 0.313953488372093
0.41448362610628 -0.313181385547957 0.313953488372093
0.416699847408542 -0.298819432129711 0.313953488372093
0.415803938497354 -0.303228644389139 0.313953488372093
0.417609713071811 -0.279897412213435 0.313953488372093
0.417816181135214 -0.277498552262764 0.313953488372093
0.417950711776209 -0.273783165256541 0.313953488372093
0.419413060033682 -0.254015319922302 0.313953488372093
0.41795271809925 -0.245899850214046 0.313953488372093
0.422367200538103 -0.235412496346625 0.313953488372093
0.425505307929271 -0.231163246392744 0.313953488372093
0.421542395960452 -0.220209912395413 0.313953488372093
0.429661193678012 -0.212060399867565 0.313953488372093
0.432247753715809 -0.196627738521204 0.313953488372093
0.431883119203079 -0.188230032197001 0.313953488372093
0.436602104848901 -0.178332404598828 0.313953488372093
0.431193894977922 -0.169757601379273 0.313953488372093
0.438314057781073 -0.167835036412259 0.313953488372093
0.438541415250149 -0.152589583837592 0.313953488372093
0.440401445892969 -0.139448691978607 0.313953488372093
0.443754167743087 -0.132918091031339 0.313953488372093
0.442849232417465 -0.124758338558523 0.313953488372093
0.446121016132231 -0.107342291349031 0.313953488372093
0.439576241961733 -0.106101063479628 0.313953488372093
0.446479492254428 -0.0856488911374985 0.313953488372093
0.45249995506452 -0.0789044202641767 0.313953488372093
0.446022561375793 -0.0770066562204436 0.313953488372093
0.454803068471742 -0.0560859946776637 0.313953488372093
0.454537940611822 -0.0467615202185748 0.313953488372093
0.455484328163992 -0.0431500645018967 0.313953488372093
0.458167147356171 -0.0207942056831356 0.313953488372093
0.454182192180553 -0.011561642829405 0.313953488372093
0.460182264483527 -0.00294166957930287 0.313953488372093
0.460594505301587 0.00883390454614939 0.313953488372093
0.461878575873192 0.0251216796855324 0.313953488372093
0.460549593940078 0.0318260723025639 0.313953488372093
0.464049771445059 0.0373246937153112 0.313953488372093
0.468892798078495 0.0426821330299862 0.313953488372093
0.472334602457343 0.063463588239582 0.313953488372093
0.466672399624546 0.0698872452636906 0.313953488372093
0.477376498336153 0.0945851942554154 0.313953488372093
0.480053865136556 0.0984773289998543 0.313953488372093
0.479767706860618 0.107358185281657 0.313953488372093
0.478763603019679 0.119284125389156 0.313953488372093
0.478881373530686 0.13141959032 0.313953488372093
0.485396490626546 0.146298626252701 0.313953488372093
0.481759144769438 0.161874790754045 0.313953488372093
0.491807251761976 0.176954487247922 0.313953488372093
0.489308566879195 0.184593925445491 0.313953488372093
0.489120686412391 0.207284985303663 0.313953488372093
0.491728255168969 0.210583985032712 0.313953488372093
0.490663462486605 0.218726652104014 0.313953488372093
0.418830400012634 -0.320304042222491 0.313953488372093
0.418953762369409 -0.320703885250438 0.313953488372093
0.424537480004175 -0.304905945152644 0.313953488372093
0.424811489629619 -0.292664839236819 0.313953488372093
0.425256441727273 -0.287357885452832 0.313953488372093
0.422196842826684 -0.277036723554259 0.313953488372093
0.429914427329704 -0.272644469551497 0.313953488372093
0.430572376260331 -0.265782587469599 0.313953488372093
0.427807671607858 -0.25639587053397 0.313953488372093
0.436706913238554 -0.24505981788919 0.313953488372093
0.435030218000366 -0.231158086695677 0.313953488372093
0.437732032581575 -0.224265607723992 0.313953488372093
0.436112764702307 -0.206841835303737 0.313953488372093
0.438965397479322 -0.204081961244654 0.313953488372093
0.439874941159858 -0.197514218461658 0.313953488372093
0.437836503288351 -0.1799806506023 0.313953488372093
0.441944850273193 -0.175132476396867 0.313953488372093
0.445678278790592 -0.164093954108261 0.313953488372093
0.440834049537416 -0.157311700245267 0.313953488372093
0.44754415953747 -0.142941507295123 0.313953488372093
0.446396576365559 -0.132461487926904 0.313953488372093
0.454040311316594 -0.120710318520921 0.313953488372093
0.450684767169566 -0.109193054508351 0.313953488372093
0.456781623851218 -0.107120815365161 0.313953488372093
0.459615022222054 -0.0936427611713875 0.313953488372093
0.454347418285892 -0.0785982251119115 0.313953488372093
0.454803434004394 -0.060907094444054 0.313953488372093
0.463032189499414 -0.05385782971808 0.313953488372093
0.464930894726878 -0.0522059791360062 0.313953488372093
0.460655194055121 -0.0352235111882783 0.313953488372093
0.470583569951165 -0.0302378415877209 0.313953488372093
0.464725752294868 -0.00929560220151168 0.313953488372093
0.469982121197132 -0.00253319952416302 0.313953488372093
0.467782699838481 0.0135292137162746 0.313953488372093
0.474334842443465 0.0220719913193301 0.313953488372093
0.471572833081419 0.0294733293475132 0.313953488372093
0.480055783813705 0.0419606649409667 0.313953488372093
0.476322249703656 0.0601220026226588 0.313953488372093
0.482401643778578 0.0717751314480452 0.313953488372093
0.484451364372847 0.0744305404600211 0.313953488372093
0.48612870949988 0.0888923371104151 0.313953488372093
0.4815116102105 0.0915938573364244 0.313953488372093
0.482056154906315 0.109451619669155 0.313953488372093
0.490221755978371 0.126811503659402 0.313953488372093
0.494919608054519 0.136529915284522 0.313953488372093
0.497900104745567 0.154370666486868 0.313953488372093
0.491829845195367 0.156731149334253 0.313953488372093
0.496286880054082 0.177845769616182 0.313953488372093
0.496174023377105 0.187318075693695 0.313953488372093
0.432521523116199 -0.32175838428686 0.313953488372093
0.432037348584548 -0.31598259234121 0.313953488372093
0.431196133987153 -0.310980530796007 0.313953488372093
0.430501618484093 -0.290328924983088 0.313953488372093
0.433216176539075 -0.288875104114563 0.313953488372093
0.43534321803526 -0.27657584523664 0.313953488372093
0.43667888944268 -0.269954232557138 0.313953488372093
0.435884682590538 -0.250874290684473 0.313953488372093
0.43783680331515 -0.248482780927826 0.313953488372093
0.442554848249441 -0.246773033634053 0.313953488372093
0.445145245793895 -0.231307295246595 0.313953488372093
0.440314628248252 -0.222139458719454 0.313953488372093
0.449068498894637 -0.212002756813112 0.313953488372093
0.44947069126903 -0.205186260754534 0.313953488372093
0.450448343186868 -0.196943547235903 0.313953488372093
0.45019034757463 -0.182167916965352 0.313953488372093
0.455361307791885 -0.174193801657435 0.313953488372093
0.455877817358216 -0.158992750371691 0.313953488372093
0.452407628501333 -0.155994760178466 0.313953488372093
0.458259029739368 -0.150882532485581 0.313953488372093
0.457200090607081 -0.133883883568686 0.313953488372093
0.46075424032928 -0.121711940650279 0.313953488372093
0.45911015368023 -0.118602745453353 0.313953488372093
0.462551086658134 -0.101588371242864 0.313953488372093
0.467806225910896 -0.0844509922229266 0.313953488372093
0.467338893210594 -0.0809741316628715 0.313953488372093
0.464506094224596 -0.0678634434929044 0.313953488372093
0.473218274774303 -0.059894813034486 0.313953488372093
0.468692172363297 -0.0533255034734058 0.313953488372093
0.471857245165947 -0.0368723369699527 0.313953488372093
0.474201537059689 -0.0344565613583949 0.313953488372093
0.479980133164998 -0.00615670727234935 0.313953488372093
0.484756040235925 -0.000232262349626178 0.313953488372093
0.479882731472289 0.00425444732603361 0.313953488372093
0.477334833602858 0.0109896673224114 0.313953488372093
0.483106987473224 0.0334563333950725 0.313953488372093
0.485977967834333 0.0358323599480864 0.313953488372093
0.485124519372399 0.0446777557680806 0.313953488372093
0.493031438193914 0.0663771516170395 0.313953488372093
0.494990445236244 0.0715324113721938 0.313953488372093
0.499786014152464 0.0905059287172072 0.313953488372093
0.493999626440472 0.0953330955347907 0.313953488372093
0.437796265708485 -0.330626885974508 0.313953488372093
0.441831429701344 -0.310691045237834 0.313953488372093
0.43623248075364 -0.305129944365103 0.313953488372093
0.445670942691357 -0.293762901903761 0.313953488372093
0.444759436831515 -0.283660778413542 0.313953488372093
0.442733797923424 -0.283947635348782 0.313953488372093
0.448923376666215 -0.274736650430062 0.313953488372093
0.450129376271958 -0.260715232402905 0.313953488372093
0.451795159614499 -0.245023620329197 0.313953488372093
0.452019277984636 -0.238908423240842 0.313953488372093
0.452482099000465 -0.232135679127162 0.313953488372093
0.45609214361902 -0.220961888266938 0.313953488372093
0.457290413292252 -0.206461547374422 0.313953488372093
0.456331650087041 -0.203436096935431 0.313953488372093
0.462726523222073 -0.188779786677854 0.313953488372093
0.46190517987114 -0.190185835356189 0.313953488372093
0.461101870198194 -0.169810743344503 0.313953488372093
0.461037759896966 -0.16094255923771 0.313953488372093
0.465603710510979 -0.155073216159731 0.313953488372093
0.463395195282156 -0.134288715805638 0.313953488372093
0.470877897141775 -0.123685702749735 0.313953488372093
0.46783094895786 -0.120826239793726 0.313953488372093
0.470408107255343 -0.113460771086081 0.313953488372093
0.469997741320963 -0.106489572639288 0.313953488372093
0.479973911446064 -0.082615241046029 0.313953488372093
0.472999610203664 -0.0769064509355076 0.313953488372093
0.481262425989506 -0.0736442106472045 0.313953488372093
0.475009357070363 -0.0625495448595632 0.313953488372093
0.485042624981425 -0.0557690293208713 0.313953488372093
0.479013514796358 -0.040737224721311 0.313953488372093
0.490715032734528 -0.0251883499494899 0.313953488372093
0.490299505337307 -0.0195201243098055 0.313953488372093
0.492663466531225 0.00126037737181199 0.313953488372093
0.492280713347812 0.00310203004508257 0.313953488372093
0.488863336316762 0.0220271263049923 0.313953488372093
0.490270161137034 0.0297867176413371 0.313953488372093
0.497092486678537 0.0404910412873924 0.313953488372093
0.499496131422843 0.051833052271395 0.313953488372093
0.497889609431379 0.0631227919553342 0.313953488372093
0.444314484094668 -0.324863364216501 0.313953488372093
0.451731691704565 -0.310143274792875 0.313953488372093
0.451947403149221 -0.304291673325502 0.313953488372093
0.448071621208161 -0.293165864056787 0.313953488372093
0.449209100846497 -0.282314672155629 0.313953488372093
0.4521352509321 -0.275782327050527 0.313953488372093
0.452772944929363 -0.271969278249758 0.313953488372093
0.453613275226138 -0.258995343584522 0.313953488372093
0.457409755708229 -0.251056663496797 0.313953488372093
0.460889837302306 -0.23990099647957 0.313953488372093
0.458191856837299 -0.234234997588318 0.313953488372093
0.459700594088785 -0.224986427445848 0.313953488372093
0.460197157184587 -0.213966981909553 0.313953488372093
0.463656254389632 -0.205670628109239 0.313953488372093
0.464790281845506 -0.185768814279308 0.313953488372093
0.469253449257407 -0.188258562818816 0.313953488372093
0.474087587515426 -0.17042139020019 0.313953488372093
0.474407414363007 -0.16310032753284 0.313953488372093
0.472769527296181 -0.149922957929951 0.313953488372093
0.473636976458843 -0.14931702159572 0.313953488372093
0.482414134591637 -0.124414799583664 0.313953488372093
0.484843239772933 -0.120040775124782 0.313953488372093
0.481161656598929 -0.103497643617493 0.313953488372093
0.480270708361557 -0.0963487834901652 0.313953488372093
0.482473417464417 -0.0903299364721853 0.313953488372093
0.490727488034485 -0.081052861570383 0.313953488372093
0.49020894720637 -0.0755902561113526 0.313953488372093
0.49513117002833 -0.0562726638801143 0.313953488372093
0.492939476873023 -0.047508959687394 0.313953488372093
0.493037369241426 -0.0386139647067141 0.313953488372093
0.497238888838942 -0.0290130490065008 0.313953488372093
0.495077412029393 -0.00229275400725717 0.313953488372093
0.459340616018035 -0.324200819533088 0.313953488372093
0.456367762185219 -0.31512517243498 0.313953488372093
0.455186537558964 -0.310028588474163 0.313953488372093
0.456520627545972 -0.289929259866012 0.313953488372093
0.463969387063244 -0.292686868181135 0.313953488372093
0.458114455278042 -0.284400615450565 0.313953488372093
0.467469268082914 -0.273637901059051 0.313953488372093
0.468592714861419 -0.268069399517511 0.313953488372093
0.466089482914161 -0.251659588392017 0.313953488372093
0.471446487733329 -0.234500038761052 0.313953488372093
0.474446389388275 -0.228296018158816 0.313953488372093
0.4734373252762 -0.219304517440239 0.313953488372093
0.476368869511382 -0.21739018461308 0.313953488372093
0.480416053490679 -0.200363030804575 0.313953488372093
0.477895616895909 -0.195533556402835 0.313953488372093
0.481167444901313 -0.185158132739288 0.313953488372093
0.476633785292298 -0.167226837744919 0.313953488372093
0.481549494488529 -0.161796858109747 0.313953488372093
0.480744474010783 -0.15100220014223 0.313953488372093
0.488157416293142 -0.144732822454054 0.313953488372093
0.490095161633144 -0.129225133191329 0.313953488372093
0.48893732350191 -0.115125366223447 0.313953488372093
0.494773633980754 -0.108253869757538 0.313953488372093
0.492319204377191 -0.102565199499234 0.313953488372093
0.494708952256131 -0.0984518376449819 0.313953488372093
0.493960333589768 -0.0661452237841118 0.313953488372093
0.467212391572326 -0.325524166725708 0.313953488372093
0.463605496917998 -0.313748912019228 0.313953488372093
0.465508027180417 -0.305219192317852 0.313953488372093
0.472327096083067 -0.296611333422974 0.313953488372093
0.473428217271097 -0.284657612974006 0.313953488372093
0.471838326254471 -0.272931143123393 0.313953488372093
0.474263605228156 -0.264604062593384 0.313953488372093
0.478166919013675 -0.266046676966442 0.313953488372093
0.476378718598223 -0.253267674292689 0.313953488372093
0.477796188458784 -0.239076024518655 0.313953488372093
0.481537817854395 -0.231851568571391 0.313953488372093
0.483539004190685 -0.218287254310747 0.313953488372093
0.48653684329474 -0.219050278460872 0.313953488372093
0.481262895076182 -0.199887858066215 0.313953488372093
0.487896398714215 -0.188178016748471 0.313953488372093
0.484245957717748 -0.175723480338574 0.313953488372093
0.491487642986595 -0.171694974868633 0.313953488372093
0.495681943899482 -0.157480333136509 0.313953488372093
0.497913326114846 -0.15305689029773 0.313953488372093
0.490250251127614 -0.142512699392259 0.313953488372093
0.498786144702341 -0.13514189826056 0.313953488372093
0.497896428064794 -0.110382452801847 0.313953488372093
0.473707548537581 -0.327626349957247 0.313953488372093
0.470974835971394 -0.306776066991177 0.313953488372093
0.472373045861906 -0.304952629572265 0.313953488372093
0.481613380001193 -0.294960433532719 0.313953488372093
0.479173908718247 -0.288050739608348 0.313953488372093
0.478220272425647 -0.282803723766397 0.313953488372093
0.484171090894231 -0.264157081484413 0.313953488372093
0.484880759495889 -0.258546612784868 0.313953488372093
0.485551991666856 -0.241302540505572 0.313953488372093
0.488473600065816 -0.238660876567942 0.313953488372093
0.490080336697355 -0.231635878531041 0.313953488372093
0.493792891744772 -0.220161950948502 0.313953488372093
0.491852302003808 -0.218391882407991 0.313953488372093
0.49300736975505 -0.203630867478594 0.313953488372093
0.49437790398892 -0.188255167584332 0.313953488372093
0.498013044485748 -0.188834124196776 0.313953488372093
0.496608267675832 -0.178122970580869 0.313953488372093
0.485265011117666 -0.315388779562191 0.313953488372093
0.484042952584439 -0.311002429391306 0.313953488372093
0.487351783784111 -0.305870467271265 0.313953488372093
0.487948817366937 -0.288425717810385 0.313953488372093
0.490108743237003 -0.289825575544361 0.313953488372093
0.493485675892175 -0.28022204771027 0.313953488372093
0.496058054606796 -0.272736215485615 0.313953488372093
0.495868734575445 -0.266340954022553 0.313953488372093
0.491649511254838 -0.248769874839083 0.313953488372093
0.49540624730953 -0.24455300120687 0.313953488372093
0.5 -0.231694937019676 0.313953488372093
0.497982919729292 -0.207425622675882 0.313953488372093
0.492178771339688 -0.322419283036832 0.313953488372093
0.495993468541527 -0.316652663188127 0.313953488372093
0.494205859358985 -0.306735723248418 0.313953488372093
0.4996711711797 -0.288784535234379 0.313953488372093
0.498052460296948 -0.282024318726891 0.313953488372093
0.499551555803863 -0.273637797046545 0.313953488372093
0.499310678883892 -0.306493117722599 0.313953488372093
0.5 0.49573141961013 0.166986213507224
0.5 0.481788722587379 0.159422667219707
0.499221189520611 0.485198875610321 0.174418604651162
0.498144216554104 0.495970867210678 0.174418604651163
0.498002477847611 0.486517737906826 0.313953488372093
0.498299410592321 0.48831906295767 0.313953488372093
0.5 0.462851746757347 0.159650380261225
0.5 0.474485874686933 0.14922133435339
0.498788951825942 0.462835326498069 0.174418604651162
0.491941301181436 0.472540851728733 0.174418604651163
0.494226589735407 0.484249845888214 0.174418604651163
0.478261773108791 0.498293209767103 0.174418604651163
0.496597115612396 0.475843097943274 0.313953488372093
0.483132935174651 0.493839028028577 0.313953488372093
0.484823332144849 0.495529314421292 0.313953488372093
0.5 0.449565586146329 0.141955021643748
0.5 0.456077587102364 0.144091328199048
0.5 0.457078575938616 0.157377676921745
0.5 0.449481684662366 0.167825470963826
0.492375825200876 0.460779704447867 0.174418604651163
0.493582275554605 0.465273110335805 0.174418604651162
0.487279161760102 0.47668608679255 0.174418604651162
0.473898214102077 0.488811437754258 0.174418604651163
0.469350416090593 0.495591899414392 0.174418604651163
0.498409319833527 0.450191243382934 0.313953488372093
0.493151104478096 0.457207260709137 0.313953488372093
0.491542603236288 0.466541942320791 0.313953488372093
0.48227407253625 0.477187886618766 0.313953488372093
0.476333020033705 0.489845860550918 0.313953488372093
0.467885464240032 0.497668982896047 0.313953488372093
0.5 0.430277045281183 0.149515600428567
0.5 0.438763317655258 0.146522928716116
0.5 0.426945375566243 0.171771757631794
0.5 0.441444772808101 0.166020365147631
0.497564829776916 0.439748502113522 0.174418604651162
0.492193587108512 0.446605652597709 0.174418604651163
0.486210982213901 0.457351878506468 0.174418604651163
0.477780209785758 0.470324432719952 0.174418604651162
0.469894391112888 0.480109461470388 0.174418604651162
0.461767143925821 0.49004353704878 0.174418604651163
0.461417524426828 0.495506271444248 0.174418604651163
0.5 0.435061741229065 0.312098339981682
0.49315725033316 0.43775179355127 0.313953488372093
0.485385640035006 0.452052778550641 0.313953488372093
0.488549551211518 0.458961434301491 0.313953488372093
0.483047444512666 0.464534797787984 0.313953488372093
0.471693997010631 0.478894332813573 0.313953488372093
0.464755431876752 0.488582718311357 0.313953488372093
0.5 0.403477744245164 0.153909637385887
0.5 0.425958692401755 0.149171033492086
0.5 0.415975604633741 0.165883351783111
0.5 0.417405354250954 0.170375404762062
0.494484325797386 0.42558394070707 0.174418604651163
0.48473574474165 0.441970954123039 0.174418604651163
0.47763340940928 0.453443181674268 0.174418604651163
0.474603725571619 0.44525329282279 0.174418604651163
0.465777134285726 0.464634433778968 0.174418604651163
0.467455197543791 0.470636354954329 0.174418604651163
0.457351510856874 0.474213913073242 0.174418604651163
0.456106816270352 0.491618745879709 0.174418604651163
0.448941877165812 0.499331707039119 0.174418604651163
0.493847498044538 0.415617142155917 0.313953488372093
0.494987051104435 0.432320874289281 0.313953488372093
0.491873084537181 0.439249410950128 0.313953488372093
0.480021620318401 0.444895018979095 0.313953488372093
0.469364837578403 0.460967662455538 0.313953488372093
0.47582429415551 0.457602779130054 0.313953488372093
0.465474638070217 0.465683038099575 0.313953488372093
0.457188162815414 0.484506705116007 0.313953488372093
0.448795673955453 0.499322182024134 0.313953488372093
0.5 0.391190027634097 0.140907178510496
0.5 0.387006764107545 0.155196843570535
0.5 0.389176512028595 0.162872138493962
0.498817963466387 0.390674696780319 0.174418604651163
0.494425415288489 0.3965162717132 0.174418604651163
0.486540889644916 0.413253020149257 0.174418604651163
0.48542404618702 0.426197518525039 0.174418604651163
0.481315234080909 0.429805327358768 0.174418604651163
0.467905537045549 0.444573349184946 0.174418604651163
0.474262527163255 0.444569575749348 0.174418604651163
0.462997967643135 0.45200948303083 0.174418604651163
0.456259339590881 0.464888237155083 0.174418604651163
0.449479382317615 0.477558552759888 0.174418604651163
0.45111050939209 0.477542975863122 0.174418604651162
0.438486866851825 0.485805692826618 0.174418604651163
0.499268621474735 0.391630489356594 0.313953488372093
0.5 0.399327763295191 0.310204818355566
0.491613942668435 0.41406509556458 0.313953488372093
0.485615280031824 0.412837756869736 0.313953488372093
0.479253140862669 0.427054876039407 0.313953488372093
0.470869122557359 0.434908675946706 0.313953488372093
0.467502100340745 0.444793130553926 0.313953488372093
0.458826954552961 0.463308915366932 0.313953488372093
0.459829640875164 0.466819905024967 0.313953488372093
0.452342963375054 0.472019545552045 0.313953488372093
0.441896723137523 0.489359019613503 0.313953488372093
0.440213251644664 0.492195832174136 0.313953488372093
0.5 0.370553465632643 0.146289986328775
0.5 0.372613429145102 0.153976741164533
0.5 0.380060337503389 0.152631468375807
0.5 0.372753667045027 0.170344038005503
0.5 0.378249013718469 0.173158657956105
0.494829736587513 0.381265884053397 0.174418604651163
0.493388003433227 0.398417774977825 0.174418604651162
0.487050234191689 0.405171015159338 0.174418604651163
0.4748310131162 0.413257717417788 0.174418604651163
0.468879546158902 0.425206531679695 0.174418604651163
0.462461433354572 0.434536163594288 0.174418604651163
0.465288660970324 0.44059571226074 0.174418604651163
0.453253282269542 0.450650876176137 0.174418604651163
0.451183490455101 0.461005341869984 0.174418604651162
0.439528260096573 0.470922950898692 0.174418604651162
0.435009671334709 0.481313445347996 0.174418604651163
0.430383441346111 0.491170613803394 0.174418604651163
0.428439612728583 0.490317637838522 0.174418604651162
0.420044315245623 0.497077419538998 0.174418604651163
0.5 0.384321060679334 0.313805999842978
0.493563668066959 0.393922292612822 0.313953488372093
0.480481201597225 0.407749385163624 0.313953488372093
0.475826770502207 0.407718127803683 0.313953488372093
0.472107692205917 0.420344478592478 0.313953488372093
0.473266846368511 0.424966477984519 0.313953488372093
0.457211561571427 0.440562795513794 0.313953488372093
0.451265388681889 0.448719014121934 0.313953488372093
0.447679604914528 0.457444120763864 0.313953488372093
0.444113881135409 0.467861830334336 0.313953488372093
0.430551330024621 0.480927911928328 0.313953488372093
0.430068326916486 0.487629672010429 0.313953488372093
0.5 0.35910008291301 0.149138154919406
0.5 0.368543456108499 0.150210566350005
0.5 0.358180006135328 0.173923691850699
0.496914107772379 0.364095790400098 0.174418604651163
0.498606130626155 0.365735477810875 0.174418604651163
0.490252342424275 0.372618547061177 0.174418604651163
0.486734985422128 0.387765328036993 0.174418604651162
0.480476086262146 0.398883131791174 0.174418604651163
0.470488475201202 0.402973729787885 0.174418604651163
0.46186256571773 0.412987861514127 0.174418604651163
0.456272008194836 0.420724729021389 0.174418604651163
0.453875518726903 0.435995854183864 0.174418604651163
0.452235213562368 0.439012651683692 0.174418604651163
0.444535212805169 0.450525508185204 0.174418604651163
0.436167903074719 0.456689511961307 0.174418604651163
0.429758679864429 0.475028116582917 0.174418604651163
0.423934788960426 0.476870948831346 0.174418604651163
0.419935757578293 0.493922239059955 0.174418604651163
0.5 0.361890188030851 0.313134165578948
0.493402363028179 0.376613212601594 0.313953488372093
0.489369166643444 0.38017234588729 0.313953488372093
0.482920248507275 0.389968968477948 0.313953488372093
0.479004676561365 0.398153676585536 0.313953488372093
0.463511784576068 0.414574183008164 0.313953488372093
0.457324108065678 0.429346221660511 0.313953488372093
0.452879101312111 0.436948666617682 0.313953488372093
0.443503404571764 0.444479944693333 0.313953488372093
0.445231603798212 0.450249696791256 0.313953488372093
0.431436780546408 0.459265330607445 0.313953488372093
0.426120183035058 0.465852927340185 0.313953488372093
0.421772158731858 0.481764762343667 0.313953488372093
0.422448656960818 0.491147954304757 0.313953488372093
0.5 0.342054895821432 0.14165345321234
0.5 0.349276373141241 0.144611005210158
0.5 0.35108896983949 0.158642009016692
0.5 0.344946366752315 0.168746125337551
0.5 0.347858542379024 0.171258394259269
0.491998604863095 0.360755736094355 0.174418604651163
0.485284948542403 0.363165256148192 0.174418604651163
0.483267355645006 0.375087580396901 0.174418604651163
0.47652466631414 0.388584436778642 0.174418604651163
0.469032959533334 0.381869050960263 0.174418604651163
0.465109798923186 0.391345631049093 0.174418604651163
0.454382703411623 0.405695673846253 0.174418604651163
0.454433409517377 0.412536341587561 0.174418604651163
0.45309301409301 0.425097515369259 0.174418604651162
0.437927733078828 0.440309954635042 0.174418604651163
0.435538443593524 0.446492492628505 0.174418604651163
0.428309880912553 0.456369388987161 0.174418604651162
0.420675749102034 0.459988710568678 0.174418604651163
0.499474552964274 0.340575596615511 0.313953488372093
0.493484101503168 0.352483724550173 0.313953488372093
0.488722809000539 0.369990578775446 0.313953488372093
0.48488450596829 0.367592859425877 0.313953488372093
0.478312061735687 0.373889610660027 0.313953488372093
0.469416293209104 0.39089610687326 0.313953488372093
0.466503541451005 0.397967877589367 0.313953488372093
0.462147852063912 0.407901243777133 0.313953488372093
0.458228477369861 0.413552976561771 0.313953488372093
0.450667752685118 0.41839759749027 0.313953488372093
0.444051209800917 0.43519595473746 0.313953488372093
0.439871655125632 0.441356074280174 0.313953488372093
0.428159155880196 0.451268170577027 0.313953488372093
0.420473275946192 0.460439618523869 0.313953488372093
0.419029920566398 0.476717933823096 0.313953488372093
0.408097657688724 0.486485703665994 0.313953488372093
0.407884598116699 0.487442952255112 0.313953488372093
0.5 0.32392955341658 0.147739877952883
0.5 0.331442042941648 0.149120729200365
0.5 0.332491353612667 0.168478405246881
0.5 0.330259887388765 0.172286727220017
0.489814647423042 0.344665291745531 0.174418604651163
0.488735128225553 0.35287745579716 0.174418604651163
0.476364056286967 0.357041840910867 0.174418604651163
0.46915881170086 0.369196954460648 0.174418604651163
0.471388739411118 0.374135605620859 0.174418604651163
0.463379743482705 0.377623567816599 0.174418604651163
0.457867681279167 0.395518448987098 0.174418604651163
0.450402018733832 0.3986095952929 0.174418604651163
0.450743943240676 0.410401536843565 0.174418604651163
0.438745418150697 0.422701691393097 0.174418604651163
0.4340503653517 0.43097899376462 0.174418604651163
0.426041166974553 0.430147773914313 0.174418604651163
0.422581134897467 0.445073257822416 0.174418604651163
0.420515510002 0.44781177938983 0.174418604651163
0.495401565355163 0.328067777977274 0.313953488372093
0.491741965879654 0.346625476651154 0.313953488372093
0.479640847990178 0.358325901511261 0.313953488372093
0.47573320733002 0.364436957264186 0.313953488372093
0.47039566714105 0.369555385490886 0.313953488372093
0.460862801830584 0.383193174031674 0.313953488372093
0.453667850772824 0.394301388698622 0.313953488372093
0.447868805176774 0.407302551804849 0.313953488372093
0.446267093027107 0.412499065058155 0.313953488372093
0.447070230194201 0.411639135187245 0.313953488372093
0.431354131684581 0.430982277120201 0.313953488372093
0.433884464656958 0.429885746734645 0.313953488372093
0.417241487655564 0.447290821611696 0.313953488372093
0.410552473248223 0.458833306090468 0.313953488372093
0.415334695948781 0.458956729784868 0.313953488372093
0.39874053806589 0.478915931080836 0.313953488372093
0.395780632407461 0.487224021656649 0.313953488372093
0.5 0.313344066560358 0.139545681771562
0.5 0.307953988518862 0.155627003634718
0.5 0.307106713011954 0.166578979352803
0.5 0.3183889700269 0.169653911082564
0.496120399553337 0.314814705117758 0.174418604651163
0.484223888049523 0.333233679387218 0.174418604651163
0.484806290165664 0.337470558112509 0.174418604651163
0.482263675435242 0.336927418716459 0.174418604651163
0.473664620996576 0.343310464851574 0.174418604651163
0.473699895509105 0.351276134264102 0.174418604651162
0.462207950326573 0.37095039052611 0.174418604651163
0.455040377450544 0.373210516677341 0.174418604651162
0.456102353312496 0.379669274918987 0.174418604651162
0.441708101167317 0.391409091321993 0.174418604651163
0.435260797660407 0.405454574734532 0.174418604651163
0.437983801866206 0.40853469940153 0.174418604651163
0.428914562367765 0.424248942808848 0.174418604651163
0.5 0.306243263990268 0.312412805095113
0.498482318893828 0.317198623584631 0.313953488372093
0.495284434210217 0.322819266625365 0.313953488372093
0.48681972906628 0.33191495034484 0.313953488372093
0.481823621376943 0.340047458770354 0.313953488372093
0.471854252726612 0.345551933007498 0.313953488372093
0.472458276254201 0.349530550874788 0.313953488372093
0.464905402114802 0.363922919332742 0.313953488372093
0.455450033956042 0.368775751397209 0.313953488372093
0.44733797536078 0.382185340824654 0.313953488372093
0.45113988136684 0.385166580950442 0.313953488372093
0.437728383255697 0.398010041997167 0.313953488372093
0.435452692112979 0.409773473206578 0.313953488372093
0.43240518894583 0.41222426902104 0.313953488372093
0.422588168048847 0.435196878688908 0.313953488372093
0.413287565313748 0.433945213504603 0.313953488372093
0.404845438699145 0.442714799980914 0.313953488372093
0.397795662971196 0.460234156740771 0.313953488372093
0.394617855928782 0.470777659982023 0.313953488372093
0.392837375271686 0.482961432678065 0.313953488372093
0.385775976512947 0.487332121679781 0.313953488372093
0.372190699133812 0.499664466465778 0.313953488372093
0.5 0.298221013635624 0.141383874270588
0.5 0.299292603382704 0.146409938413298
0.5 0.300128242288163 0.154444889204693
0.5 0.296786798587275 0.169876570881349
0.497940403139889 0.301046991438543 0.174418604651163
0.489797186015371 0.307415715630075 0.174418604651163
0.485543981599698 0.318231117559236 0.174418604651163
0.480341302068241 0.320879036628165 0.174418604651163
0.47653033532485 0.338714447179049 0.174418604651163
0.467043702271615 0.342493223302321 0.174418604651162
0.464655889145311 0.348986428689478 0.174418604651163
0.450793697351103 0.365404275320308 0.174418604651163
0.447737936775267 0.370043626652294 0.174418604651163
0.447967792978042 0.376650340581641 0.174418604651163
0.43734400845753 0.388586987694108 0.174418604651163
0.435114858315348 0.391083830675686 0.174418604651163
0.424791754828614 0.400612686529958 0.174418604651162
0.5 0.299820573322681 0.310175548921855
0.5 0.301269300976236 0.309027105903673
0.487500436386956 0.304622519494325 0.313953488372093
0.485750828727114 0.314415919958714 0.313953488372093
0.48039500466408 0.323556518241843 0.313953488372093
0.476672860175777 0.339135995764391 0.313953488372093
0.46250544516593 0.346591202546343 0.313953488372093
0.461066911523751 0.348407756090627 0.313953488372093
0.454364739831172 0.359965379696674 0.313953488372093
0.453473587989925 0.367617134834961 0.313953488372093
0.445191792716577 0.376139568411933 0.313953488372093
0.439667113640268 0.380151658007855 0.313953488372093
0.427302778110376 0.397316761582389 0.313953488372093
0.430270415438776 0.403211060188503 0.313953488372093
0.41940288837483 0.413299340925174 0.313953488372093
0.406217329159164 0.424900825516922 0.313953488372093
0.406562562158924 0.430764027060002 0.313953488372093
0.398583588221257 0.440436021017703 0.313953488372093
0.400267339563868 0.452704934260799 0.313953488372093
0.388391301039511 0.45798819006722 0.313953488372093
0.386887897908089 0.472005004507788 0.313953488372093
0.371419887818865 0.478914197728224 0.313953488372093
0.370266614779377 0.492828195413331 0.313953488372093
0.361799710957754 0.497400287792034 0.313953488372093
0.5 0.280214868856571 0.143419140864166
0.5 0.270234412803275 0.165701827918575
0.498836153021609 0.275309895377217 0.174418604651163
0.498606247077485 0.276862317216343 0.174418604651163
0.488048224448144 0.293271349038771 0.174418604651163
0.487586066160484 0.295725305052026 0.174418604651163
0.483459254861275 0.302789030852136 0.174418604651163
0.476349881454022 0.317335932910493 0.174418604651163
0.473391791964029 0.319990213259248 0.174418604651163
0.46610876629176 0.32514115260277 0.174418604651163
0.460011654260939 0.336351225088334 0.174418604651163
0.455061247838895 0.345705478713005 0.174418604651163
0.449954878486839 0.361042647933987 0.174418604651163
0.438276526197144 0.362514659076338 0.174418604651163
0.443096885327721 0.366922523958776 0.174418604651163
0.429709289103555 0.383836581211549 0.174418604651163
0.426567015177925 0.384578013956941 0.174418604651163
0.419554486418171 0.40005658280037 0.174418604651162
0.495474657277678 0.274304814137517 0.313953488372093
0.495619608130854 0.288942600822614 0.313953488372093
0.48618474428698 0.303258903825767 0.313953488372093
0.474064153410953 0.306892298965073 0.313953488372093
0.480393422893361 0.315561934440961 0.313953488372093
0.462971779133175 0.325830368325521 0.313953488372093
0.461959249557624 0.332119021438027 0.313953488372093
0.460038948166121 0.342030832461444 0.313953488372093
0.449092815720492 0.345591781427198 0.313953488372093
0.443800043362395 0.365049731957607 0.313953488372093
0.437555983182679 0.371945487814891 0.313953488372093
0.42402692935814 0.383485627254468 0.313953488372093
0.424291791717673 0.391455114363388 0.313953488372093
0.416423135877742 0.402966356571124 0.313953488372093
0.418424675699676 0.398805584692047 0.313953488372093
0.408825198737104 0.410306760598155 0.313953488372093
0.399248889297587 0.425905481574614 0.313953488372093
0.39931584588619 0.43569381236959 0.313953488372093
0.382064588020042 0.449651074466525 0.313953488372093
0.382812554508092 0.460522291713707 0.313953488372093
0.377830265710536 0.460478881640846 0.313953488372093
0.364471988323916 0.465902283136843 0.313953488372093
0.361080772644766 0.481651956695551 0.313953488372093
0.34923621957668 0.494976207445709 0.313953488372093
0.5 0.258711205723041 0.15507301793011
0.5 0.26647359554868 0.165410280986828
0.497308823429971 0.270001064470658 0.174418604651163
0.492821565779207 0.276741533457991 0.174418604651163
0.485358944163292 0.287026527084879 0.174418604651163
0.483818468565685 0.288692872166272 0.174418604651163
0.477457155527123 0.297496771895938 0.174418604651163
0.474400222709482 0.304862845120881 0.174418604651163
0.459214873808156 0.309873211489046 0.174418604651163
0.460325293522818 0.314434359003827 0.174418604651163
0.450144901132391 0.334132491845838 0.174418604651162
0.44361152382588 0.341530605846475 0.174418604651163
0.436008465128528 0.348180549981859 0.174418604651163
0.434255908501857 0.351158824750005 0.174418604651162
0.428887333512458 0.360379778531001 0.174418604651163
0.423485232195793 0.372929479664811 0.174418604651163
0.422364946593864 0.376908584022533 0.174418604651163
0.494201895613798 0.270040924607337 0.313953488372093
0.492609590468648 0.275374886905087 0.313953488372093
0.479755570394796 0.284535375072596 0.313953488372093
0.480700841155951 0.293158200469344 0.313953488372093
