ply
format ascii 1.0
element vertex 857
property float x
property float y
property float z
end_header
-0.239555098406645 -0.151336800673057 0.366666666666666
-0.237142097626296 -0.14662191488089 0.366666666666666
-0.240864689380945 -0.122943326492488 0.366666666666666
-0.243198162335305 -0.120649727574697 0.366666666666667
-0.241734064958427 -0.107147189398493 0.366666666666666
-0.246316179561223 -0.0914784995984604 0.366666666666666
-0.238237925216177 -0.0869618247474623 0.366666666666666
-0.244474045493326 -0.0750649298987338 0.366666666666666
-0.241804183722916 -0.0649804745997582 0.366666666666666
-0.241490617240497 -0.0507828925228981 0.366666666666667
-0.242747105078876 -0.04307412201572 0.366666666666666
-0.244717804323529 -0.0282673634973856 0.366666666666666
-0.249337082144141 -0.01543933266904 0.366666666666666
-0.246319774613772 -0.0113549426379705 0.366666666666666
-0.250125963664609 0.00107858796623493 0.366666666666667
-0.248654851021901 0.0158970345668284 0.366666666666666
-0.252155360950516 0.0236381197462852 0.366666666666666
-0.255855839102451 0.0419994103070769 0.366666666666666
-0.251150173270013 0.0548031314774261 0.366666666666666
-0.252735652842735 0.07157026260832 0.366666666666666
-0.25803197508494 0.0666266601715877 0.366666666666666
-0.259800715627261 0.0893115536286466 0.366666666666666
-0.262047092978324 0.103901311954244 0.366666666666666
-0.261989476022507 0.108761155027768 0.366666666666666
-0.258131461291885 0.12894971908431 0.366666666666666
-0.257092615110854 0.12662783884042 0.366666666666666
-0.265484082365182 0.1424724895113 0.366666666666667
-0.259602490175818 0.160558252757057 0.366666666666666
-0.264624920451042 0.173655073967498 0.366666666666666
-0.266445716264537 0.181639139470079 0.366666666666666
-0.269788982043043 0.199684310494457 0.366666666666666
-0.262321866822737 0.209562380852262 0.366666666666666
-0.26909727774216 0.22841396328607 0.366666666666666
-0.269517192960104 0.23870433642114 0.366666666666666
-0.222610259745711 -0.25 0.31778412275129
-0.220894951803466 -0.249999999999999 0.32399201219431
-0.217497412675119 -0.25 0.327630948683492
-0.220696384999994 -0.25 0.336980251189075
-0.218455122784924 -0.25 0.356506889977652
-0.216265105314384 -0.25 0.357181695842397
-0.222116076654243 -0.242398190954832 0.366666666666666
-0.222250847174981 -0.241944699886767 0.366666666666666
-0.219859204630716 -0.225794293149248 0.366666666666666
-0.222315802993048 -0.219994930626714 0.366666666666666
-0.226791545333171 -0.211724598606319 0.366666666666666
-0.220660877043987 -0.197691119499449 0.366666666666666
-0.221825045710132 -0.179816689622085 0.366666666666666
-0.226247726618811 -0.176767452781994 0.366666666666666
-0.229639711841082 -0.16639895064857 0.366666666666666
-0.226726704001192 -0.155838428814723 0.366666666666666
-0.225863494157963 -0.146597338743066 0.366666666666666
-0.228306861521279 -0.130735996851378 0.366666666666666
-0.233985560924205 -0.122353977795391 0.366666666666666
-0.228569759124063 -0.119309736933838 0.366666666666666
-0.235157930989866 -0.111241090541239 0.366666666666667
-0.237060669139057 -0.0970239806005632 0.366666666666666
-0.230643509869483 -0.0791265965863276 0.366666666666666
-0.238138800110684 -0.0660238049755909 0.366666666666666
-0.230797882567143 -0.0731445341259487 0.366666666666666
-0.231835793079122 -0.0461952896804769 0.366666666666666
-0.238964847769125 -0.0425146084502623 0.366666666666666
-0.241029135659964 -0.0353023398632349 0.366666666666666
-0.236659792921192 -0.0269323300245899 0.366666666666666
-0.239765373493575 -0.0106906449503116 0.366666666666666
-0.237947648230542 0.0027544570844637 0.366666666666666
-0.237848566002641 0.0182155600747901 0.366666666666666
-0.245347971927732 0.0278323144737616 0.366666666666666
-0.24589589968432 0.0419598344080439 0.366666666666666
-0.239593592801427 0.0529158080947778 0.366666666666667
-0.240180183142435 0.0646394658486942 0.366666666666666
-0.241071808256862 0.076013691813595 0.366666666666666
-0.247838475916369 0.0903792075732413 0.366666666666667
-0.249854491491866 0.103046358666795 0.366666666666666
-0.246360718186717 0.109851307185515 0.366666666666666
-0.252548182807585 0.115689091088047 0.366666666666667
-0.245317179196426 0.129512289939731 0.366666666666666
-0.254786812999391 0.147763688911398 0.366666666666666
-0.256326017289798 0.16193827464785 0.366666666666666
-0.249470299678058 0.175048441552232 0.366666666666666
-0.260240020928037 0.193981664156127 0.366666666666666
-0.2506967742945 0.19229719897632 0.366666666666666
-0.259149322345444 0.212434302068572 0.366666666666666
-0.255417617580474 0.230071142934314 0.366666666666666
-0.257154801405845 0.245577418791332 0.366666666666666
-0.208620832185766 -0.25 0.318524101697199
-0.212211281870156 -0.25 0.320869293706315
-0.213770940598078 -0.249999999999999 0.336871470292361
-0.214736386099253 -0.25 0.347907358795728
-0.209550340295185 -0.249999999999999 0.353175534417847
-0.208282533106762 -0.25 0.359414862674178
-0.211093684361868 -0.244155140508505 0.366666666666666
-0.216021019719768 -0.246842021113398 0.366666666666666
-0.208492467476955 -0.220293623939384 0.366666666666666
-0.209914498655929 -0.215339313614458 0.366666666666667
-0.212189148787429 -0.210734485619053 0.366666666666667
-0.215142437436276 -0.191915797826904 0.366666666666666
-0.215542340912568 -0.188615744993824 0.366666666666666
-0.212280839886673 -0.182578006039931 0.366666666666666
-0.220917470650329 -0.175107826098555 0.366666666666666
-0.222666665591538 -0.152503745106384 0.366666666666666
-0.219495417880149 -0.144642242943007 0.366666666666666
-0.21567405291994 -0.132734590603887 0.366666666666666
-0.220483992491507 -0.122353001378048 0.366666666666666
-0.219726952580176 -0.117046696440634 0.366666666666666
-0.22533424885086 -0.103334466159924 0.366666666666666
-0.217839831838644 -0.0973476881697165 0.366666666666666
-0.22103554986148 -0.0805658133244321 0.366666666666666
-0.227049213470554 -0.0769959484862293 0.366666666666666
-0.222057111370405 -0.0613232672362119 0.366666666666666
-0.228841639067423 -0.0507279774080127 0.366666666666666
-0.230409884178492 -0.0375024517871565 0.366666666666666
-0.229701670024832 -0.0309634676969074 0.366666666666666
-0.226623420924772 -0.0230181362084322 0.366666666666666
-0.234112112393317 -0.01025436427591 0.366666666666666
-0.233111427069209 0.00899530460372232 0.366666666666666
-0.231703305597722 0.0220279953670406 0.366666666666667
-0.229915785802783 0.0323180595809032 0.366666666666666
-0.232054985804653 0.0392413643447581 0.366666666666666
-0.231116849762523 0.0501477100909567 0.366666666666666
-0.233808634514363 0.0661027912950466 0.366666666666666
-0.240761093341774 0.0824651718516741 0.366666666666666
-0.2345356530258 0.0867129201867927 0.366666666666666
-0.2327251944615 0.0883245225307153 0.366666666666666
-0.24179343873697 0.103696932275094 0.366666666666667
-0.235604263413905 0.121288704168859 0.366666666666666
-0.24374021552251 0.135373803107685 0.366666666666666
-0.240383409611376 0.151380920185005 0.366666666666666
-0.241620167766517 0.156561348841983 0.366666666666667
-0.247249129357208 0.170092091867326 0.366666666666667
-0.244997037161752 0.177516841404117 0.366666666666666
-0.248338289802837 0.189237819503546 0.366666666666666
-0.242356202273576 0.206783332385103 0.366666666666666
-0.248224638379785 0.22132403468613 0.366666666666666
-0.252548529076999 0.243409799720241 0.366666666666667
-0.253889714134869 0.248106680892429 0.366666666666666
-0.200668133789939 -0.249999999999999 0.319053308686521
-0.199537331807413 -0.25 0.328949893524042
-0.198244802024197 -0.25 0.345828707205087
-0.20416539798943 -0.25 0.357447656586252
-0.202907412006952 -0.249999999999999 0.360754331340319
-0.204760949191718 -0.246806106975446 0.366666666666666
-0.204668379637592 -0.242612978332804 0.366666666666667
-0.200541910672725 -0.220432921908785 0.366666666666666
-0.2056645158912 -0.225500774082609 0.366666666666666
-0.203166643436497 -0.201739514949876 0.366666666666667
-0.201928144895374 -0.192846090943273 0.366666666666666
-0.20669482986885 -0.186351304416695 0.366666666666666
-0.205865195745083 -0.170742824877631 0.366666666666666
-0.204908119862636 -0.167468334215472 0.366666666666666
-0.209602948590437 -0.162057393668262 0.366666666666667
-0.212604082596077 -0.146510214885168 0.366666666666666
-0.214090862523109 -0.132787344434749 0.366666666666666
-0.210346889814808 -0.13004948942629 0.366666666666666
-0.206846587540286 -0.118396275969778 0.366666666666666
-0.20950423370699 -0.107225026937347 0.366666666666666
-0.210222226265867 -0.0974887335641181 0.366666666666666
-0.211871491546428 -0.0940047318929903 0.366666666666666
-0.218103194012502 -0.0754739500371397 0.366666666666666
-0.219710818301355 -0.0616006683571854 0.366666666666666
-0.21365121083054 -0.0551231550466826 0.366666666666666
-0.212450771150624 -0.0431584526269155 0.366666666666666
-0.217209251022344 -0.0247259655057658 0.366666666666666
-0.218032522896749 -0.0123680035579361 0.366666666666666
-0.221351894641545 -0.000598817360963861 0.366666666666666
-0.220712645337693 0.000112605655069649 0.366666666666666
-0.223119309344118 0.019874837643321 0.366666666666666
-0.224057986991157 0.0288114934397953 0.366666666666666
-0.222420832222743 0.0297091783734926 0.366666666666666
-0.222562559640829 0.042892976773205 0.366666666666666
-0.228105420133845 0.0553393644219355 0.366666666666666
-0.226152032618357 0.0719869147260307 0.366666666666666
-0.226031882230853 0.0907631114527241 0.366666666666666
-0.225204433039915 0.0984100844928536 0.366666666666666
-0.228150723331677 0.105086185692323 0.366666666666666
-0.230437591639669 0.116155148712181 0.366666666666666
-0.225318779340325 0.137960222021147 0.366666666666666
-0.234428648083701 0.144816608828987 0.366666666666666
-0.227015537304734 0.154570217490485 0.366666666666666
-0.235191966006811 0.179513152757121 0.366666666666666
-0.237328948924649 0.191340466344241 0.366666666666666
-0.233109213811491 0.201884938828412 0.366666666666667
-0.240104435891038 0.207547654792079 0.366666666666666
-0.237530680364292 0.229876402354542 0.366666666666666
-0.241499071879752 0.228685955126038 0.366666666666666
-0.235191260106506 0.244727635068853 0.366666666666666
-0.195679658379351 -0.249999999999999 0.321123054676111
-0.194392726023935 -0.249999999999999 0.332469234105419
-0.194672847606268 -0.25 0.336509266565079
-0.190104584647914 -0.25 0.353836886628318
-0.194035389278848 -0.25 0.361111409434203
-0.193750878335043 -0.249201386348887 0.366666666666667
-0.190484284992762 -0.24232651059548 0.366666666666666
-0.190688162720689 -0.224648495027233 0.366666666666667
-0.194975613343327 -0.220527413722074 0.366666666666667
-0.197082778685192 -0.212696281025592 0.366666666666666
-0.198776038233746 -0.194027746077305 0.366666666666667
-0.194884987633787 -0.187184365046956 0.366666666666666
-0.199682536522521 -0.177765739697754 0.366666666666666
-0.202583887046046 -0.164411140029012 0.366666666666667
-0.196569904729923 -0.165417671777079 0.366666666666666
-0.202289397617834 -0.146514056269316 0.366666666666667
-0.201292536059195 -0.143061426275153 0.366666666666666
-0.203891173072475 -0.121037727551869 0.366666666666666
-0.199133133164878 -0.115106370419733 0.366666666666667
-0.207241317820952 -0.101170742949386 0.366666666666666
-0.202623403557239 -0.0908948250822604 0.366666666666666
-0.205561997667102 -0.0799448495589847 0.366666666666667
-0.200116865783987 -0.0799246539895718 0.366666666666666
-0.205776303938567 -0.0650426735737743 0.366666666666666
-0.207693884359467 -0.049315505273165 0.366666666666667
-0.21086594514749 -0.0418232278807125 0.366666666666666
-0.210787606699402 -0.0377207675983637 0.366666666666666
-0.205605889296279 -0.0201421702585195 0.366666666666666
-0.206379934271837 -0.00262155889901842 0.366666666666666
-0.206360363688475 -0.00377219445676063 0.366666666666666
-0.208717508422338 0.0247793458721644 0.366666666666666
-0.210227568113297 0.0265148817674551 0.366666666666666
-0.208907059492472 0.0415162910027693 0.366666666666666
-0.214088216069267 0.0496388827145075 0.366666666666666
-0.21288309766647 0.0605405310625932 0.366666666666666
-0.21398100905347 0.0747470802123135 0.366666666666666
-0.216654634567086 0.0943862807675822 0.366666666666666
-0.213748156705812 0.0973208912810264 0.366666666666666
-0.213878077486224 0.104762092605365 0.366666666666666
-0.220051672068785 0.13142517746592 0.366666666666666
-0.217235837342959 0.136249272279984 0.366666666666666
-0.221298693461665 0.148322124390739 0.366666666666666
-0.218673307499559 0.159356990789354 0.366666666666666
-0.219624839253097 0.170356919121006 0.366666666666666
-0.217844139962046 0.187212795942767 0.366666666666666
-0.222976036871564 0.199883861366914 0.366666666666666
-0.225211661769173 0.220975473780309 0.366666666666666
-0.227674612976486 0.226204309216861 0.366666666666666
-0.226811672511944 0.238877015830802 0.366666666666666
-0.231330701082643 0.24823169905338 0.366666666666667
-0.18348044106687 -0.25 0.317983869675515
-0.183507172988761 -0.25 0.328603253914758
-0.180875321289046 -0.249999999999999 0.343724223394182
-0.182383292052786 -0.25 0.350132817820383
-0.182568264535004 -0.249999999999999 0.357656063345785
-0.181327913481271 -0.25 0.362830503032763
-0.183721344179757 -0.242665314408291 0.366666666666666
-0.182070212372033 -0.222102530053979 0.366666666666666
-0.184088696873508 -0.214568531825683 0.366666666666667
-0.183118840896139 -0.209653445749212 0.366666666666667
-0.190223254188816 -0.191713373768593 0.366666666666666
-0.187584975389749 -0.181651786753291 0.366666666666666
-0.190075686828595 -0.18060155571006 0.366666666666666
-0.186252533272712 -0.164965115345805 0.366666666666666
-0.186613511371728 -0.155335973970997 0.366666666666667
-0.194535762700145 -0.139482827485418 0.366666666666666
-0.186940857335172 -0.147473560901822 0.366666666666666
-0.187619523862469 -0.12855359116446 0.366666666666666
-0.191942697607748 -0.112314333149966 0.366666666666666
-0.191609487525789 -0.0996404572790642 0.366666666666667
-0.191981924087684 -0.0922233144246559 0.366666666666666
-0.196127027774873 -0.0857238771816813 0.366666666666666
-0.199724824976571 -0.0781395803978099 0.366666666666667
-0.196099295446769 -0.0663846079569685 0.366666666666666
-0.20090230301916 -0.0544631009975106 0.366666666666666
-0.194455695737691 -0.0422895760995748 0.366666666666666
-0.196047326463055 -0.0328853379929442 0.366666666666666
-0.200268850863078 -0.0224388372498041 0.366666666666666
-0.196272763239739 -0.00925561420459768 0.366666666666666
-0.196900850301577 0.00241875801650433 0.366666666666666
-0.197183787774569 0.0154141048044727 0.366666666666666
-0.20089334685202 0.0292297775965919 0.366666666666666
-0.20224440148102 0.0377717529233017 0.366666666666666
-0.200053772533369 0.0581188999226356 0.366666666666666
-0.204802693964565 0.0649302712432942 0.366666666666667
-0.205857781321335 0.0782335957685896 0.366666666666666
-0.202235755538379 0.0852185244387271 0.366666666666666
-0.205344643417689 0.0994555692773787 0.366666666666666
-0.205843492091469 0.117967255168322 0.366666666666666
-0.206195577098965 0.12093614786711 0.366666666666666
-0.208598263072539 0.125545190052926 0.366666666666666
-0.213102796538553 0.150163136375016 0.366666666666666
-0.212138856386132 0.168609824544278 0.366666666666666
-0.2139455234352 0.178023449365641 0.366666666666666
-0.215062899989221 0.184345698082189 0.366666666666666
-0.213739234834867 0.200191159309352 0.366666666666666
-0.213210212051213 0.210977616939353 0.366666666666666
-0.215265887676399 0.221198371548344 0.366666666666666
-0.211282051656768 0.237354180380728 0.366666666666666
-0.215240237316665 0.245946974415171 0.366666666666666
-0.170647394543874 -0.25 0.317767879533948
-0.174270598004343 -0.249999999999999 0.320179888091491
-0.170289504891166 -0.25 0.333613707084636
-0.178097858785219 -0.25 0.341292419025055
-0.171258731157754 -0.249999999999999 0.344368550231388
-0.17195431140591 -0.25 0.357138661297871
-0.172421967615393 -0.24612934127219 0.366666666666666
-0.179328666978511 -0.245031324992703 0.366666666666666
-0.175734607755778 -0.225119521049257 0.366666666666666
-0.172578486255906 -0.218567367191631 0.366666666666666
-0.177083574000134 -0.208011225545901 0.366666666666666
-0.179618686626192 -0.195849779764853 0.366666666666666
-0.174216674859323 -0.195328405853704 0.366666666666666
-0.175780799267842 -0.176791996798184 0.366666666666666
-0.180191482101492 -0.177512714761922 0.366666666666666
-0.179137372711952 -0.163848911896663 0.366666666666667
-0.178258634576302 -0.151113132722581 0.366666666666666
-0.185645383871024 -0.144367685946433 0.366666666666666
-0.181054848325965 -0.123477980450399 0.366666666666666
-0.187357353683132 -0.119122609662839 0.366666666666666
-0.178254665403019 -0.106404089381835 0.366666666666666
-0.180369023635274 -0.101130678508442 0.366666666666666
-0.184653793850174 -0.0942837838931096 0.366666666666666
-0.184334397413775 -0.0722247829266734 0.366666666666666
-0.187917883298993 -0.0653864432447406 0.366666666666666
-0.19120572272744 -0.0480039480722847 0.366666666666666
-0.188355635198343 -0.0390441096650353 0.366666666666666
-0.183290781875522 -0.0372262761758358 0.366666666666666
-0.19151557694838 -0.0242439359170803 0.366666666666666
-0.188731688977567 -0.0105555999889599 0.366666666666666
-0.188958475647313 -0.000628502257952192 0.366666666666666
-0.18583232133227 0.0124170665739218 0.366666666666666
-0.191994947552446 0.0214529733413674 0.366666666666666
-0.189484763661206 0.0426895807303058 0.366666666666667
-0.192033671316704 0.0434814699210905 0.366666666666666
-0.195826442171249 0.0598657570559457 0.366666666666666
-0.192353812557338 0.0766984104757993 0.366666666666667
-0.199556076492268 0.0756769984070617 0.366666666666666
-0.193960277418593 0.0988658074008036 0.366666666666666
-0.197214353755526 0.110828159669189 0.366666666666666
-0.197866756401043 0.11807800082769 0.366666666666666
-0.195345791517512 0.137090812737319 0.366666666666667
-0.19476514541469 0.149990463667618 0.366666666666666
-0.200449186249834 0.162491253576677 0.366666666666666
-0.200729432143664 0.174765412863393 0.366666666666667
-0.205608673645986 0.185704250078758 0.366666666666666
-0.207966332033379 0.2030884955442 0.366666666666666
-0.201294384441132 0.208346171975402 0.366666666666666
-0.199130518508605 0.230427428610328 0.366666666666666
-0.203711867325079 0.245998175919234 0.366666666666666
-0.161163959387246 -0.25 0.322682933164611
-0.16875015338838 -0.249999999999999 0.330174634401711
-0.167137237147825 -0.25 0.338644293217271
-0.164971252540078 -0.25 0.353197155173053
-0.165820390337592 -0.249224408685961 0.366666666666666
-0.162711730992138 -0.24390822417375 0.366666666666667
-0.165564174916266 -0.230915300977571 0.366666666666666
-0.169168596580935 -0.226623065740264 0.366666666666666
-0.168514537674666 -0.218616944495829 0.366666666666666
-0.168771170490713 -0.206837845866033 0.366666666666666
-0.166906698835427 -0.201624397906816 0.366666666666666
-0.17224943482059 -0.187339767067763 0.366666666666666
-0.169496771334616 -0.180071231380423 0.366666666666666
-0.165466755919138 -0.164622274410703 0.366666666666666
-0.166012912563527 -0.159341705501737 0.366666666666666
-0.170273122101595 -0.149859504360822 0.366666666666666
-0.174501414659051 -0.137203826099867 0.366666666666666
-0.169232159868135 -0.127885005202457 0.366666666666666
-0.174448355660605 -0.119263218489317 0.366666666666666
-0.177690087047337 -0.103711612252413 0.366666666666666
-0.175585725663003 -0.0963014412856598 0.366666666666666
-0.177261643431086 -0.0878998507176068 0.366666666666666
-0.176102121888059 -0.0775965958296766 0.366666666666666
-0.173492134479023 -0.0633732043848356 0.366666666666666
-0.178005319443893 -0.051282805156019 0.366666666666666
-0.17444374204592 -0.0442498059440338 0.366666666666666
-0.177121032024678 -0.0266821150591337 0.366666666666666
-0.18347126887388 -0.024438444257232 0.366666666666666
-0.179474682567157 -0.000766699731653691 0.366666666666666
-0.179794292284361 0.00653004502171341 0.366666666666666
-0.180345378859409 0.0143395009583907 0.366666666666666
-0.18346634720606 0.0228034388922586 0.366666666666666
-0.187154204417199 0.0386546704447926 0.366666666666667
-0.18300063722667 0.0428994968970506 0.366666666666666
-0.183625688996106 0.0650706109755922 0.366666666666667
-0.187664758020583 0.07550902220251 0.366666666666666
-0.187827294223966 0.0822917185380117 0.366666666666666
-0.188588271930551 0.0919092528337125 0.366666666666666
-0.190519160879417 0.115310615302793 0.366666666666666
-0.185474942622388 0.129654087736177 0.366666666666666
-0.183554560069306 0.142386024795617 0.366666666666666
-0.186300620262699 0.153146869678954 0.366666666666666
-0.189320302469937 0.161363405373017 0.366666666666666
-0.195141970117163 0.182832921729369 0.366666666666666
-0.190062877638491 0.182588504845329 0.366666666666666
-0.191001161244103 0.18832946976526 0.366666666666666
-0.190401514333117 0.206113020556004 0.366666666666666
-0.196070789392622 0.231156974348703 0.366666666666666
-0.193243363007186 0.245097751437423 0.366666666666667
-0.197214946061223 0.244178968194961 0.366666666666666
-0.157062423361598 -0.25 0.325911131829344
-0.151172193706388 -0.25 0.330673001229305
-0.156623126708377 -0.25 0.343647729204233
-0.157772118783056 -0.25 0.353995145226137
-0.154849497492287 -0.249999999999999 0.361869030181281
-0.154862972818601 -0.245274458679942 0.366666666666666
-0.160305559930744 -0.236609951545567 0.366666666666666
-0.155461799155615 -0.2250197394715 0.366666666666666
-0.154798017266035 -0.222057357800107 0.366666666666666
-0.156422475031612 -0.215509059165163 0.366666666666666
-0.156014200102131 -0.194358432142951 0.366666666666666
-0.154859749244143 -0.190608620389117 0.366666666666666
-0.161628158664594 -0.179840623014115 0.366666666666666
-0.15879668100496 -0.167520278897732 0.366666666666666
-0.165603747410325 -0.154614075343945 0.366666666666666
-0.160896840942323 -0.144385237528937 0.366666666666666
-0.164468905631936 -0.141697647554278 0.366666666666666
-0.164017455362615 -0.123936508135052 0.366666666666667
-0.160250285874404 -0.114628825068602 0.366666666666666
-0.161980091166575 -0.10663247127606 0.366666666666666
-0.167936399004092 -0.0944203215445361 0.366666666666667
-0.163988976397943 -0.0829709164325744 0.366666666666667
-0.164209560085789 -0.0750967813540289 0.366666666666666
-0.166765480159953 -0.0695282665627729 0.366666666666666
-0.167037847652773 -0.0573827709403613 0.366666666666666
-0.170735496706337 -0.0411731626111 0.366666666666667
-0.168146368305084 -0.0261711231653524 0.366666666666666
-0.164179550271052 -0.0110896498764246 0.366666666666666
-0.174283785176092 -0.0167939452094691 0.366666666666666
-0.170068900436991 0.0045809551261722 0.366666666666666
-0.171744838825096 0.0189897409946792 0.366666666666666
-0.167548470702655 0.0263278129918785 0.366666666666666
-0.173885671981487 0.0342989007187929 0.366666666666666
-0.177424598869054 0.0501974335928471 0.366666666666666
-0.174326394893254 0.0605841997362464 0.366666666666666
-0.169884884526123 0.0718037967902866 0.366666666666666
-0.176885759892824 0.0859815791742047 0.366666666666666
-0.177012147871172 0.104232157948233 0.366666666666666
-0.174967118931671 0.111166396706362 0.366666666666666
-0.172491893188878 0.12640341957773 0.366666666666666
-0.180164260384976 0.12744301988839 0.366666666666667
-0.181716003463808 0.150405069057988 0.366666666666666
-0.180489328224867 0.164321416684479 0.366666666666666
-0.17510861484474 0.179350937602656 0.366666666666666
-0.180984052958179 0.185580686440823 0.366666666666666
-0.182995584562769 0.202654558616586 0.366666666666666
-0.17940092980631 0.21136942727707 0.366666666666666
-0.187372496971784 0.224069580892971 0.366666666666666
-0.183864665750216 0.239156533648167 0.366666666666666
-0.147993528240485 -0.25 0.32407772932962
-0.148980340733912 -0.25 0.336054093827731
-0.146811436046183 -0.249999999999999 0.341064672924044
-0.146281914605818 -0.25 0.349320579906273
-0.143771182600383 -0.25 0.358847387658267
-0.143769795503923 -0.247894865373387 0.366666666666666
-0.148733314535841 -0.240546498188298 0.366666666666666
-0.151758706893115 -0.225824246825157 0.366666666666666
-0.149509773944051 -0.223736792636907 0.366666666666666
-0.149722202369372 -0.208557492892586 0.366666666666666
-0.153832773221104 -0.203631549649581 0.366666666666666
-0.152205464629155 -0.185310927980378 0.366666666666666
-0.147362149952623 -0.184533206986788 0.366666666666666
-0.150338327777212 -0.167842660148109 0.366666666666666
-0.152721268751268 -0.158843767618436 0.366666666666666
-0.15664917484735 -0.143761577716183 0.366666666666666
-0.152567152259461 -0.141340656775285 0.366666666666666
-0.154685937311712 -0.119960556617617 0.366666666666666
-0.153011325994085 -0.121814390770865 0.366666666666666
-0.153835335732668 -0.101158338783093 0.366666666666667
-0.156838568667216 -0.103014426337486 0.366666666666666
-0.152999593829744 -0.0868721639865186 0.366666666666666
-0.155647130406498 -0.0770695083419116 0.366666666666666
-0.156080921265991 -0.067300836451063 0.366666666666666
-0.158307632194333 -0.0535712029044272 0.366666666666666
-0.160872000713564 -0.0355413994405793 0.366666666666666
-0.15583292806015 -0.0315995993905529 0.366666666666666
-0.160066445656279 -0.0274520338135456 0.366666666666666
-0.161293550098415 -0.00260379460588462 0.366666666666666
-0.159379446450673 0.00149319288570015 0.366666666666666
-0.161904304281545 0.013605896726215 0.366666666666667
-0.164746898981325 0.0276493755847389 0.366666666666666
-0.165936237107638 0.0306359715077522 0.366666666666666
-0.164443973231928 0.0487155440005129 0.366666666666666
-0.162050725639773 0.0607726484760878 0.366666666666666
-0.167069651576127 0.0696250364593173 0.366666666666666
-0.167265544360337 0.0875879895197077 0.366666666666666
-0.167975871943371 0.098090117983167 0.366666666666666
-0.168295513156148 0.102922142740169 0.366666666666666
-0.167175112011361 0.125249388769937 0.366666666666666
-0.168531033929213 0.138718028598428 0.366666666666667
-0.170262813924991 0.149602814178455 0.366666666666667
-0.171543125144093 0.162570449773372 0.366666666666667
-0.168910183176159 0.181327098805451 0.366666666666666
-0.173445856697435 0.189816540780767 0.366666666666666
-0.170368197463632 0.202797999997753 0.366666666666666
-0.168465292907662 0.216612147754232 0.366666666666667
-0.167702639631913 0.223070204522387 0.366666666666666
-0.169384352725856 0.235506364470448 0.366666666666666
-0.1341194561208 -0.25 0.327298419516108
-0.141429876371566 -0.25 0.331951538734658
-0.138372404172389 -0.25 0.345257211919114
-0.138644141874807 -0.249999999999999 0.355135263391072
-0.133788503282643 -0.25 0.364713038271726
-0.136047611567499 -0.249451689210761 0.366666666666666
-0.13844412093012 -0.243474761118147 0.366666666666666
-0.13495693648649 -0.223365993074908 0.366666666666667
-0.13975645833694 -0.221693576229886 0.366666666666666
-0.135840886985793 -0.211664793962456 0.366666666666666
-0.143476792169739 -0.206925840430537 0.366666666666666
-0.143288890824843 -0.192142294206463 0.366666666666666
-0.136463075950473 -0.172899667740031 0.366666666666666
-0.137448486426224 -0.174496019516443 0.366666666666666
-0.13920722988756 -0.159755381085084 0.366666666666666
-0.138146197055964 -0.147703860505193 0.366666666666666
-0.143934083721209 -0.137915570804017 0.366666666666666
-0.145759799240519 -0.127183758234715 0.366666666666666
-0.145335288881309 -0.120550908583204 0.366666666666666
-0.144609742714173 -0.103629517412635 0.366666666666666
-0.148453276927827 -0.1057463741724 0.366666666666666
-0.146898497637515 -0.0831401507388742 0.366666666666666
-0.143883708599065 -0.0712903190388076 0.366666666666666
-0.151583166638692 -0.065556310824075 0.366666666666666
-0.152143665208334 -0.051036854583607 0.366666666666667
-0.150386785686106 -0.0433054667968738 0.366666666666666
-0.150522882133261 -0.0242710935969346 0.366666666666666
-0.146477569826739 -0.0218031339700703 0.366666666666666
-0.146844770002472 -0.010186069499535 0.366666666666666
-0.152771303274297 -0.00232602966085845 0.366666666666667
-0.154657694418497 0.0158310692903518 0.366666666666666
-0.155747046879467 0.0275030726225256 0.366666666666666
-0.156340029894037 0.0357610286446016 0.366666666666666
-0.156006850489001 0.0525787083273937 0.366666666666666
-0.152731328150256 0.0583130577698221 0.366666666666666
-0.150876981362001 0.0765702983096934 0.366666666666666
-0.152283445445905 0.0862006217717826 0.366666666666666
-0.156888525615596 0.0979802088100979 0.366666666666666
-0.156907408015479 0.103545854243831 0.366666666666666
-0.155685140088143 0.122887607157116 0.366666666666666
-0.158262789501709 0.134428021164325 0.366666666666666
-0.161964802311276 0.1497247562934 0.366666666666666
-0.152746701354926 0.160428064462602 0.366666666666666
-0.155699321122383 0.178784825780993 0.366666666666666
-0.159957488795635 0.186634066799696 0.366666666666666
-0.162223133666207 0.194556036680055 0.366666666666666
-0.162288347912744 0.208716003383721 0.366666666666666
-0.164231207170908 0.224744681324505 0.366666666666666
-0.161984473641086 0.238635840561455 0.366666666666666
-0.125838915269448 -0.25 0.318713747476011
-0.132543411709974 -0.25 0.323156714522054
-0.13251556679698 -0.25 0.328584251580719
-0.124141249258411 -0.25 0.335488271988197
-0.126315355663503 -0.25 0.355823087266591
-0.12958232037189 -0.25 0.356037497475462
-0.125489946438375 -0.24381582376624 0.366666666666666
-0.128457133776879 -0.233786147315882 0.366666666666666
-0.134023803808621 -0.225783408563234 0.366666666666666
-0.130544160718833 -0.210473766912149 0.366666666666666
-0.127097150537192 -0.201317131567928 0.366666666666666
-0.129964504478531 -0.198770562573269 0.366666666666666
-0.129182564624574 -0.187563965718137 0.366666666666666
-0.12980166884689 -0.178325219066027 0.366666666666666
-0.131789785809503 -0.1677035174486 0.366666666666666
-0.136952369485766 -0.15911071861493 0.366666666666667
-0.133352680948513 -0.147139575004053 0.366666666666666
-0.136016031533522 -0.134249517639519 0.366666666666666
-0.130546002018423 -0.121938699314671 0.366666666666666
-0.132442801614847 -0.12212009700998 0.366666666666667
-0.135591973581529 -0.106332994734677 0.366666666666667
-0.134511117039294 -0.092948170765317 0.366666666666666
-0.139119099189002 -0.086188979377633 0.366666666666666
-0.135871509880346 -0.0719792422083485 0.366666666666666
-0.140295201419986 -0.0578561726126689 0.366666666666666
-0.139250715845204 -0.051606253029197 0.366666666666666
-0.140184257901774 -0.0436507101396473 0.366666666666666
-0.137862841298221 -0.0283381018817317 0.366666666666667
-0.136307250280107 -0.0224545946719714 0.366666666666666
-0.138191585337282 0.000941580169763966 0.366666666666666
-0.141357864044117 0.00562469663867185 0.366666666666667
-0.140341960104224 0.00550957272423848 0.366666666666666
-0.138994645516361 0.0210448704252608 0.366666666666666
-0.138577516189429 0.0443423903242806 0.366666666666666
-0.137397921559788 0.051399553510146 0.366666666666666
-0.138417982894075 0.0705406570915656 0.366666666666666
-0.143284501516306 0.0724319914928119 0.366666666666666
-0.14094256538156 0.0951654201226277 0.366666666666666
-0.145694209234369 0.0966298713240795 0.366666666666666
-0.143126588771654 0.106521232021621 0.366666666666666
-0.148950915142701 0.121220938188652 0.366666666666666
-0.149986831552067 0.14050733912303 0.366666666666666
-0.149085005539962 0.141131660654292 0.366666666666666
-0.146077786556833 0.160867681229286 0.366666666666666
-0.151774362364453 0.17163276429018 0.366666666666666
-0.148881013146546 0.192546671165347 0.366666666666666
-0.150496500194209 0.202415667270955 0.366666666666666
-0.145978583627436 0.204200069044787 0.366666666666666
-0.155176871402907 0.222496655794884 0.366666666666666
-0.150867255598614 0.24394180423112 0.366666666666667
-0.150315670398962 0.249191817598485 0.366666666666666
-0.122712745599282 -0.249999999999999 0.32422873021472
-0.123473283200658 -0.25 0.329743628887424
-0.117565707705394 -0.25 0.346408791781453
-0.123323285031919 -0.25 0.346217908787445
-0.123405949114923 -0.25 0.356361051193933
-0.12392610630436 -0.244395621741176 0.366666666666666
-0.119496644135899 -0.240759628648253 0.366666666666666
-0.120363123664973 -0.221265117307345 0.366666666666666
-0.117436415464648 -0.226947188311773 0.366666666666666
-0.121066591965654 -0.204509816977946 0.366666666666666
-0.122829082288783 -0.193480110900597 0.366666666666666
-0.124825547739882 -0.192219408979362 0.366666666666666
-0.122668695472693 -0.177690168211819 0.366666666666666
-0.117969052676252 -0.170682902838017 0.366666666666666
-0.126046436944588 -0.160892310657463 0.366666666666666
-0.121962421814508 -0.145489036958295 0.366666666666666
-0.125863359292817 -0.139566588374848 0.366666666666666
-0.124491300645714 -0.127638828053325 0.366666666666666
-0.125354578624758 -0.116954409470002 0.366666666666666
-0.123145660409103 -0.0990801381696976 0.366666666666666
-0.123144293903011 -0.0908552152175254 0.366666666666666
-0.125674271254094 -0.0851722479525285 0.366666666666666
-0.130300104868931 -0.0770208336485626 0.366666666666667
-0.127302555954296 -0.0652337457838173 0.366666666666667
-0.123837695450246 -0.0522751307564748 0.366666666666666
-0.12793831428629 -0.0361287447708962 0.366666666666666
-0.130401171716567 -0.0285841772325717 0.366666666666666
-0.126167965432485 -0.0155677888649282 0.366666666666666
-0.12815338026935 -0.00193685657150342 0.366666666666666
-0.129358627396803 -0.00285024602683757 0.366666666666666
-0.127231837868252 0.0179714506563079 0.366666666666666
-0.128067533455678 0.0275263983219512 0.366666666666666
-0.136868559622979 0.0408753668587734 0.366666666666666
-0.134419211859895 0.0545920457630797 0.366666666666667
-0.133746052894863 0.0724384634059872 0.366666666666666
-0.134542846563158 0.0699043807513646 0.366666666666666
-0.13760571079589 0.0924629061694381 0.366666666666666
-0.134731866767873 0.103625647118249 0.366666666666666
-0.136816057900255 0.105837938746597 0.366666666666666
-0.137665515488806 0.120202577838928 0.366666666666666
-0.133506272964685 0.135381327324856 0.366666666666666
-0.137783162950934 0.145069920152852 0.366666666666666
-0.141866177934418 0.153288094589157 0.366666666666666
-0.140834556015123 0.171059388675987 0.366666666666666
-0.140522637134031 0.184141131325802 0.366666666666667
-0.133294194562044 0.190717819878817 0.366666666666666
-0.140476132831076 0.213111605084047 0.366666666666666
-0.140821461439143 0.231802541653083 0.366666666666666
-0.135688182236783 0.234734870875997 0.366666666666666
-0.111759936884819 -0.25 0.320967506360476
-0.105681612988496 -0.25 0.338086761031455
-0.11342339761222 -0.249999999999999 0.340691810179417
-0.109775180820755 -0.25 0.354253900813426
-0.108821211583165 -0.249999999999999 0.360099341758959
-0.110644605772762 -0.247103957356919 0.366666666666666
-0.110942702537545 -0.229218622619499 0.366666666666666
-0.112649807017692 -0.22688218806649 0.366666666666666
-0.111550255060439 -0.220706458114394 0.366666666666666
-0.109654809684309 -0.215651237385901 0.366666666666666
-0.115050188780416 -0.193267202516508 0.366666666666666
-0.111529983582673 -0.188621816297355 0.366666666666666
-0.116807954503339 -0.171217420746862 0.366666666666666
-0.114966217924978 -0.173290256430888 0.366666666666667
-0.116764963068703 -0.158617640970262 0.366666666666666
-0.109270037140376 -0.148833710952584 0.366666666666666
-0.113670939292686 -0.139760289505732 0.366666666666666
-0.113264209102241 -0.126832289616958 0.366666666666666
-0.118559816891381 -0.112500718454921 0.366666666666667
-0.116238644634192 -0.111923722335576 0.366666666666666
-0.11315976538392 -0.0929153731912141 0.366666666666666
-0.116259408526411 -0.0784663087520931 0.366666666666666
-0.113746036212868 -0.0794016565907796 0.366666666666666
-0.120642475567189 -0.0593631483057833 0.366666666666666
-0.121934705671829 -0.0597727049463567 0.366666666666667
-0.114224693191824 -0.0406599545152885 0.366666666666666
-0.120880122309204 -0.0324560867735472 0.366666666666666
-0.115203128985268 -0.012717905925081 0.366666666666666
-0.114590010223692 -0.0135028543497379 0.366666666666666
-0.124196214270804 0.00593676991431692 0.366666666666666
-0.119302048221995 0.0162636951555715 0.366666666666666
-0.119098258430152 0.0221707152763196 0.366666666666666
-0.125388487853719 0.0367791584568748 0.366666666666666
-0.121865287898059 0.0482460443202699 0.366666666666666
-0.12716702417413 0.0522645351916653 0.366666666666666
-0.118212426434126 0.0803332994875258 0.366666666666666
-0.127148369148966 0.0821795844681889 0.366666666666666
-0.129152286829438 0.105430065190417 0.366666666666666
-0.129299116969042 0.107746109928079 0.366666666666666
-0.125814963866964 0.12241972725679 0.366666666666667
-0.129612648495408 0.145550158323912 0.366666666666666
-0.128788552859924 0.146550230360246 0.366666666666666
-0.121386669631245 0.160456278678531 0.366666666666666
-0.122419789678279 0.177554086454667 0.366666666666666
-0.12939343712203 0.183856585513925 0.366666666666666
-0.131291267656318 0.194651554917141 0.366666666666666
-0.123458703785653 0.217157989528949 0.366666666666666
-0.127709617150872 0.22151754176673 0.366666666666667
-0.127622941017677 0.237131867532392 0.366666666666666
-0.134160818944028 0.247888838329143 0.366666666666666
-0.0964856492135601 -0.25 0.321502085059059
-0.102218410088671 -0.249999999999999 0.322295281787698
-0.100811288616803 -0.25 0.330859372595411
-0.101201562069938 -0.25 0.342023799120756
-0.096652648038679 -0.25 0.351259164886737
-0.0997633738632544 -0.25 0.362985364876517
-0.103746691961887 -0.244861699097092 0.366666666666666
-0.0976810695612793 -0.233552465279109 0.366666666666666
-0.106145502173684 -0.22906857760409 0.366666666666666
-0.105252170112465 -0.223825188437433 0.366666666666666
-0.103127697534517 -0.213208078597322 0.366666666666667
-0.106330355900662 -0.196138556342877 0.366666666666666
-0.0997261026080518 -0.183277023473919 0.366666666666666
-0.101362533116239 -0.178456812124551 0.366666666666666
-0.105781802530394 -0.169890395023437 0.366666666666666
-0.100640410135175 -0.153172601793348 0.366666666666667
-0.108006510102354 -0.1426219375434 0.366666666666666
-0.105192697398295 -0.129484846971787 0.366666666666666
-0.106862862984072 -0.129747872628463 0.366666666666666
-0.103255854475888 -0.118547114771176 0.366666666666666
-0.104650559798158 -0.104566862189375 0.366666666666666
-0.111011998251629 -0.100178286920748 0.366666666666666
-0.107048150713416 -0.0826737031313145 0.366666666666666
-0.106903174880021 -0.0802430193591738 0.366666666666666
-0.107309820201664 -0.0620685394146685 0.366666666666666
-0.104838735168715 -0.044290604593997 0.366666666666666
-0.110204453239662 -0.0351626825671073 0.366666666666667
-0.104209921790535 -0.0241638596620256 0.366666666666666
-0.11203526560831 -0.0238175202156257 0.366666666666666
-0.109470409476939 -0.00490926129239039 0.366666666666666
-0.111916181306366 0.00772209859811465 0.366666666666667
-0.10894112381079 0.0237108204936703 0.366666666666666
-0.106866534552622 0.0268821994586023 0.366666666666666
-0.112892463456011 0.0388447121476012 0.366666666666666
-0.110100057443666 0.0459898571299315 0.366666666666666
-0.109692014076096 0.0638642967963847 0.366666666666666
-0.116091351519563 0.0694742260807774 0.366666666666666
-0.11747340779971 0.0897023344029181 0.366666666666666
-0.109766411121832 0.0908138287583564 0.366666666666666
-0.116063892168042 0.117163315929032 0.366666666666666
-0.110518894984532 0.120997509853068 0.366666666666667
-0.115352891078422 0.140338111664525 0.366666666666666
-0.117992459098726 0.142050325002165 0.366666666666666
-0.114222549461764 0.157618005391567 0.366666666666666
-0.121226688695472 0.176441004132794 0.366666666666666
-0.114185877146856 0.187146942780305 0.366666666666666
-0.11441640548693 0.19871944228228 0.366666666666667
-0.112596589416653 0.217186581130477 0.366666666666666
-0.115262179744339 0.215762608255749 0.366666666666666
-0.122978188002109 0.238520688946388 0.366666666666666
-0.119477445882475 0.247049001839811 0.366666666666666
-0.0896456051714664 -0.249999999999999 0.328758032255845
-0.0955338260195705 -0.25 0.341800333758668
-0.0905558765249005 -0.25 0.349255623413374
-0.0935023642569275 -0.25 0.36321367149784
-0.0883393619412233 -0.248632981666458 0.366666666666666
-0.0874846364886575 -0.237362563058917 0.366666666666666
-0.0879870674547924 -0.232997472863101 0.366666666666666
-0.0949030678687513 -0.216291034568058 0.366666666666666
-0.0941037803023274 -0.203893192077582 0.366666666666666
-0.0955293283140742 -0.19133274701753 0.366666666666666
-0.09550087629942 -0.188629319872404 0.366666666666666
-0.0966636793138329 -0.181293973438702 0.366666666666666
-0.0911476681607216 -0.177168302523265 0.366666666666666
-0.0951877381911948 -0.166159685479747 0.366666666666666
-0.0954133884789529 -0.143420652478933 0.366666666666666
-0.092863111130397 -0.14129803439009 0.366666666666666
-0.0917826849244093 -0.124079541143197 0.366666666666666
-0.0956876142760367 -0.11289809217492 0.366666666666666
-0.0990558883432888 -0.103020974382841 0.366666666666667
-0.0921430012419522 -0.0969326051516926 0.366666666666666
-0.0956731885594058 -0.0811288867915532 0.366666666666666
-0.0961797411094168 -0.0662933331604439 0.366666666666666
-0.0983107065284239 -0.0608030027369089 0.366666666666666
-0.101370014389747 -0.047450090255426 0.366666666666667
-0.0983781417081952 -0.0370602737460679 0.366666666666666
-0.0944023730139439 -0.026707463162779 0.366666666666666
-0.0955884859048233 -0.0173072946869707 0.366666666666666
-0.0960772792882423 -0.0116762086786695 0.366666666666667
-0.0957157285671508 0.00239237283034424 0.366666666666666
-0.0986394510758889 0.0203315278756128 0.366666666666667
-0.105114668168371 0.0258430638907292 0.366666666666666
-0.101330876849579 0.0416024519775586 0.366666666666666
-0.0972013380230221 0.053441037347977 0.366666666666666
-0.102274226016305 0.0603553276897714 0.366666666666667
-0.0991484635871874 0.0790458287197506 0.366666666666666
-0.0995801192440448 0.0779880985469043 0.366666666666666
-0.106490505043773 0.0948972770829237 0.366666666666666
-0.101346264352511 0.114299894506777 0.366666666666666
-0.102383309967584 0.119175049829967 0.366666666666666
-0.103210934143553 0.127595298532771 0.366666666666666
-0.1013570849739 0.142748248638728 0.366666666666666
-0.104247052230835 0.155901559578281 0.366666666666666
-0.109884441605618 0.171709701205084 0.366666666666667
-0.104516344097088 0.178742910860709 0.366666666666666
-0.105241981585785 0.196249284355899 0.366666666666666
-0.110344733467294 0.221721643930398 0.366666666666666
-0.107356383926582 0.223602305053446 0.366666666666666
-0.107601195913598 0.243281562578465 0.366666666666666
-0.104529360652187 0.249911009245745 0.366666666666666
-0.0817857145051186 -0.25 0.320062999692325
-0.0797040250706822 -0.25 0.333060104603643
-0.0855216329258816 -0.25 0.340400550389431
-0.0804125014659986 -0.25 0.353398403787142
-0.0868998653713647 -0.25 0.361142114337981
-0.0871911985281501 -0.246583038752733 0.366666666666666
-0.0830146149094146 -0.235221440452007 0.366666666666666
-0.0865390163336554 -0.222141854817703 0.366666666666666
-0.0865352992863939 -0.225299037013972 0.366666666666666
-0.0844516226619536 -0.202461943862281 0.366666666666666
-0.0838685277893076 -0.200247567499099 0.366666666666666
-0.087083015536112 -0.191898805300191 0.366666666666666
-0.083359060724642 -0.173778477412133 0.366666666666666
-0.0809759202918313 -0.170277677205758 0.366666666666667
-0.0862636354804022 -0.154158202677747 0.366666666666666
-0.0837924401074926 -0.14726623412252 0.366666666666666
-0.0827374823026168 -0.139122022599906 0.366666666666666
-0.0868278686512919 -0.13424638886454 0.366666666666666
-0.0906719389691053 -0.11443098065142 0.366666666666667
-0.0861925204380527 -0.101681707839944 0.366666666666666
-0.083240125770208 -0.101539618156493 0.366666666666667
-0.0915859892873479 -0.0942915951141595 0.366666666666666
-0.0882299948309214 -0.0735914365656736 0.366666666666666
-0.0881269515302791 -0.0707663115317003 0.366666666666666
-0.0890621097254209 -0.0545916374080825 0.366666666666666
-0.0900907767341717 -0.0459935398591054 0.366666666666666
-0.0848937777723421 -0.0267724406675987 0.366666666666666
-0.0875447579802668 -0.0174672712045988 0.366666666666666
-0.0896448839239835 -0.011960089286556 0.366666666666666
-0.0862902456647836 0.00151351777790465 0.366666666666666
-0.0896767146774464 0.0147332353101133 0.366666666666666
-0.0920055079537134 0.025743126613578 0.366666666666667
-0.0888983211927974 0.0362455674428798 0.366666666666666
-0.0891490019934591 0.0511852349222667 0.366666666666666
-0.0929866429745277 0.0544693235941723 0.366666666666666
-0.0966697264355332 0.0701009957735439 0.366666666666666
-0.0976063616610063 0.0863863560871465 0.366666666666666
-0.093983951131484 0.0985371442272218 0.366666666666666
-0.0961390139620604 0.107070735198201 0.366666666666667
-0.0969080957803867 0.125799663732261 0.366666666666666
-0.0956825601514873 0.129191904281093 0.366666666666666
-0.0949143445882422 0.15022793455449 0.366666666666666
-0.0990569772298907 0.151987839333207 0.366666666666667
-0.098628302863716 0.172406197366937 0.366666666666666
-0.098242981967922 0.187526336405665 0.366666666666666
-0.0977486380806773 0.197211455749958 0.366666666666666
-0.0961887921247146 0.212092246755144 0.366666666666666
-0.099503142511695 0.233474267672152 0.366666666666666
-0.0970978490555067 0.241930251884855 0.366666666666667
-0.0933427344485787 0.247390352746328 0.366666666666666
-0.0719797017595049 -0.25 0.317450201046899
-0.0704581055987197 -0.25 0.3184329912031
-0.0738764327938059 -0.25 0.334066781303917
-0.0753005970063891 -0.25 0.333585567668254
-0.0775737649538358 -0.25 0.347434487792561
-0.0706672277109747 -0.25 0.356333772149534
-0.0699046979677748 -0.244316442354738 0.366666666666666
-0.0708580279996348 -0.234808614156372 0.366666666666667
-0.0752266642792233 -0.224020937221832 0.366666666666666
-0.0788103618184323 -0.221663675745305 0.366666666666666
-0.0720831736975213 -0.212432404103507 0.366666666666666
-0.0725215595217004 -0.20006457870639 0.366666666666666
-0.0743212744691758 -0.181715875662512 0.366666666666666
-0.0714729335664969 -0.178658289016623 0.366666666666666
-0.0761079180281446 -0.16953268613123 0.366666666666666
-0.0710801103973054 -0.159482202605896 0.366666666666666
-0.0791391888751983 -0.149125183594718 0.366666666666666
-0.0782111092042034 -0.136417276383015 0.366666666666666
-0.0786300491451889 -0.128172561543112 0.366666666666666
-0.0787183105451565 -0.110039187441919 0.366666666666666
-0.0768934932446769 -0.110905992723186 0.366666666666666
-0.0808749974433502 -0.0859756609520703 0.366666666666666
-0.0794662292671387 -0.0907267370459343 0.366666666666667
-0.0752346149585528 -0.0726696384368959 0.366666666666667
-0.08139295711072 -0.0653145696734595 0.366666666666666
