ply
format ascii 1.0
element vertex 845
property float x
property float y
property float z
end_header
0.20814292550643 -0.156736508696451 0.379032258064516
0.198086630695363 -0.151803606173466 0.379032258064517
0.193890066572783 -0.144152481434851 0.379032258064516
0.186179162748408 -0.136493648849774 0.379032258064516
0.176400186463866 -0.123119132286771 0.379032258064516
0.174640238004168 -0.124159966114769 0.379032258064517
0.172340053865192 -0.117377109033492 0.379032258064516
0.161981250475385 -0.114314331648753 0.379032258064517
0.149481558343507 -0.101982641298081 0.379032258064516
0.150619507535449 -0.0948091950333625 0.379032258064516
0.138284199686144 -0.0848574568369275 0.379032258064516
0.132060694667827 -0.0788835126188495 0.379032258064516
0.128334048121843 -0.0744891356781815 0.379032258064516
0.116840641129019 -0.0693304402681356 0.379032258064517
0.112313342387543 -0.0618873774540523 0.379032258064516
0.1030998885358 -0.0529431153230437 0.379032258064516
0.0972653703544618 -0.0430093226865977 0.379032258064516
0.0850048507293441 -0.0341489502300387 0.379032258064516
0.083498357687813 -0.0295591026621272 0.379032258064516
0.0687963736172947 -0.0128555510360861 0.379032258064516
0.0682964297482651 -0.0105407701914553 0.379032258064516
0.0629787319659787 -0.00354225921940944 0.379032258064516
0.048253832677132 0.00797245992995068 0.379032258064517
0.0373480588044143 0.0106070494722414 0.379032258064516
0.0342496907508612 0.0255213441708879 0.379032258064517
0.0296598150960059 0.0295485441075706 0.379032258064517
0.0201848374388756 0.0373347942020685 0.379032258064517
0.0101268588987748 0.0456111434274662 0.379032258064516
-0.000977810818766614 0.0541755577863053 0.379032258064517
-0.0141751677943831 0.0675351480841772 0.379032258064516
-0.0086530498177882 0.0671815644669043 0.379032258064516
-0.023501488803192 0.0757678770393391 0.379032258064516
-0.02604837798295 0.0817644181263439 0.379032258064516
-0.0416157489267771 0.100790756396995 0.379032258064516
-0.0438572373407446 0.100812194771109 0.379032258064516
-0.0608313999355482 0.113002383560489 0.379032258064516
-0.0604423951344972 0.125624122627385 0.379032258064516
-0.0729916072210982 0.137903145777417 0.379032258064516
-0.0809656503712234 0.143099802745694 0.379032258064516
-0.0897243293745648 0.153775534801097 0.379032258064516
-0.100708551061852 0.159105682285358 0.379032258064516
-0.108126763233189 0.16429614512621 0.379032258064516
-0.11922661348567 0.172725391527124 0.379032258064516
-0.131145116574487 0.189899393919208 0.379032258064516
-0.141521907671812 0.202099966688998 0.379032258064516
-0.14454365512295 0.209292051424835 0.379032258064516
-0.148161087301958 0.210964725726006 0.379032258064516
-0.163182140755252 0.227426838500178 0.379032258064516
-0.182540635093839 0.245324743503474 0.379032258064516
-0.17817188474828 0.244254590907346 0.379032258064516
-0.190015473122568 0.254291559300961 0.381720430107527
0.294220223877431 -0.253101957646453 0.381720430107527
0.29029809276309 -0.250395270983272 0.381720430107527
0.279297392466977 -0.239179517999606 0.379032258064516
0.280931905134025 -0.240253837763797 0.379032258064516
0.268150642477716 -0.232454354224973 0.379032258064516
0.261794324444063 -0.225690096469175 0.379032258064516
0.252378218283556 -0.214021564596389 0.379032258064516
0.252550469878955 -0.214430020809413 0.379032258064516
0.237075382338563 -0.201781410422016 0.379032258064516
0.237576059996474 -0.196595668101486 0.379032258064516
0.231993408621709 -0.189777831564073 0.379032258064516
0.219646194670395 -0.181261866173408 0.379032258064516
0.213694740687264 -0.175091522431424 0.379032258064516
0.210430383533481 -0.175553356813541 0.379032258064516
0.204246933135961 -0.166511512624626 0.379032258064516
0.195873418806645 -0.15712050219163 0.379032258064516
0.191476919135866 -0.146463339963227 0.379032258064516
0.187449067310234 -0.140413225337585 0.379032258064517
0.171627049710002 -0.129587027255911 0.379032258064516
0.176276054789802 -0.128064014838855 0.379032258064516
0.156126808160533 -0.121809652294189 0.379032258064516
0.161810046122109 -0.116580504366318 0.379032258064516
0.144210460052954 -0.103536849948864 0.379032258064516
0.13650642854089 -0.0972685432510194 0.379032258064516
0.131753178000777 -0.0965680041046822 0.379032258064516
0.127345992933977 -0.0865642240192887 0.379032258064516
0.122460466449402 -0.0802837759312961 0.379032258064516
0.115380505643899 -0.0750203446793182 0.379032258064516
0.104823625710562 -0.069304389382546 0.379032258064516
0.100349424037917 -0.0626048376736357 0.379032258064516
0.0930178477861338 -0.0445372490164931 0.379032258064516
0.0818430072176813 -0.041963692182145 0.379032258064516
0.0746203632980609 -0.0361269738188796 0.379032258064517
0.0635401564009378 -0.0259986701342053 0.379032258064517
0.0560118313172253 -0.0129127460742288 0.379032258064516
0.0579518240832577 -0.0133256867670281 0.379032258064516
0.046531636594203 -0.00349312125760281 0.379032258064516
0.0318678244535894 0.00677575555146467 0.379032258064516
0.0266223267578456 0.00979688262439746 0.379032258064516
0.0250664355917355 0.0193791427696548 0.379032258064516
0.0179597220285809 0.0281948520984946 0.379032258064516
-0.00333667443193988 0.0443145905395219 0.379032258064516
-0.000629439796247183 0.0470472865513656 0.379032258064516
-0.00936100917887694 0.0508639198575922 0.379032258064517
-0.0220066048922338 0.0647456559525392 0.379032258064516
-0.0333061833316708 0.0716240896741581 0.379032258064516
-0.032102670614447 0.0746459881930292 0.379032258064517
-0.0436009145741063 0.090976575303893 0.379032258064517
-0.0520411765466842 0.0913882080405945 0.379032258064517
-0.0665574165771828 0.110476898289823 0.379032258064516
-0.0746865315410979 0.114836325531033 0.379032258064516
-0.0812549206865591 0.124146248233673 0.379032258064517
-0.0834791819203071 0.135654807215443 0.379032258064516
-0.105556021969221 0.144226680476005 0.379032258064517
-0.104905144611492 0.15235885519391 0.379032258064516
-0.111366791276084 0.156921170317105 0.379032258064517
-0.122939682323718 0.172490614385259 0.379032258064516
-0.128978331976186 0.182054252931114 0.379032258064516
-0.141178104730892 0.190697903026006 0.379032258064516
-0.159774229521417 0.199761159223991 0.379032258064516
-0.16197954567577 0.20105133436872 0.379032258064516
-0.181742761157952 0.218726183302813 0.379032258064516
-0.17929343062498 0.221533143222677 0.379032258064516
-0.196561438472878 0.2401693999017 0.379032258064516
-0.200912805089756 0.247311827956989 0.380709122541008
0.282844416394474 -0.258064516129032 0.371702727935498
0.282602022043991 -0.254880612723409 0.381720430107527
0.281409378135893 -0.253984193493976 0.381720430107527
0.269683874353132 -0.241200537062576 0.379032258064516
0.263767479189154 -0.238220123315643 0.379032258064516
0.252423015040811 -0.230132729381587 0.379032258064516
0.253369659336873 -0.228267848118215 0.379032258064516
0.240039489107027 -0.219654591681538 0.379032258064516
0.234156508516468 -0.215420287373605 0.379032258064516
0.235469225222002 -0.207512358302852 0.379032258064516
0.223832716497695 -0.196326846646074 0.379032258064517
0.217951895602259 -0.189534921148306 0.379032258064516
0.21450477653698 -0.185673055299449 0.379032258064517
0.205328037944806 -0.179189452168699 0.379032258064516
0.199331498255875 -0.171653017743614 0.379032258064516
0.189375097571388 -0.164983090914937 0.379032258064516
0.182289885075609 -0.150033509069621 0.379032258064516
0.176412108238061 -0.149624850371222 0.379032258064516
0.16422094593748 -0.143556864997318 0.379032258064516
0.166886888318411 -0.141656292777711 0.379032258064516
0.152035372523463 -0.124640077814926 0.379032258064516
0.1440816245039 -0.116871397352047 0.379032258064517
0.138747322782533 -0.112636910232169 0.379032258064516
0.132535344886894 -0.109871788106718 0.379032258064516
0.129278162178814 -0.10307539229504 0.379032258064516
0.116135903802856 -0.0914319979518289 0.379032258064516
0.11656448649373 -0.0893287596915381 0.379032258064517
0.105354592284689 -0.0752324745480305 0.379032258064516
0.0984849743808641 -0.0689134304255767 0.379032258064517
0.0889086832625973 -0.0636840024042826 0.379032258064516
0.082832868089892 -0.0569315296448932 0.379032258064516
0.069587619501561 -0.0509242068782382 0.379032258064517
0.0749365217720337 -0.0402296399838042 0.379032258064516
0.0627075540545708 -0.0315151841089521 0.379032258064516
0.059511606695419 -0.0274967975833993 0.379032258064516
0.0397024980361021 -0.0167722301684237 0.379032258064516
0.033146124575364 -0.00832896166983967 0.379032258064516
0.0281032251188584 0.00170503362645284 0.379032258064516
0.0266204510815259 0.00381803684083675 0.379032258064516
0.0160600500477475 0.00848811189417904 0.379032258064516
0.00179935071070421 0.0259110682052825 0.379032258064516
-0.00879510674285846 0.0281311551518088 0.379032258064516
-0.0144597774550827 0.044471824838898 0.379032258064516
-0.0147621142970512 0.0488547143108429 0.379032258064517
-0.029480551946614 0.0531744323332256 0.379032258064516
-0.0367892237668343 0.0597157053631688 0.379032258064516
-0.0450535677287377 0.0805844651060963 0.379032258064516
-0.0457005871541922 0.0799046685493294 0.379032258064516
-0.0632842910953801 0.0846836069340961 0.379032258064516
-0.0753197284636274 0.0990120973219917 0.379032258064516
-0.0752138506880133 0.0998152390013733 0.379032258064517
-0.083811946811354 0.110226513338938 0.379032258064516
-0.0959323648155318 0.125009302557178 0.379032258064516
-0.108022493523704 0.139089973326281 0.379032258064516
-0.112692204845549 0.145253022417411 0.379032258064516
-0.122396890339604 0.156046596053078 0.379032258064516
-0.128051618547855 0.157838162631634 0.379032258064516
-0.141580450132706 0.171393284039686 0.379032258064516
-0.148148383476488 0.172628007926972 0.379032258064516
-0.165533150827613 0.196813717110766 0.379032258064516
-0.162666479903943 0.192829559066194 0.379032258064516
-0.186124364556003 0.216127337740764 0.379032258064516
-0.182455601910428 0.214713441407204 0.379032258064516
-0.198584400488791 0.237021785427833 0.379032258064516
-0.21562466814629 0.240252035884016 0.379032258064516
-0.213783726207452 0.247311827956989 0.379914931429617
-0.222784705812547 0.254014408335249 0.381720430107527
0.272664580963756 -0.258064516129032 0.364712989838995
0.26529292632867 -0.258064516129032 0.363913796940038
0.267577043981416 -0.253724565975321 0.381720430107527
0.268038874188488 -0.255911275428405 0.381720430107527
0.253311006038394 -0.237591336469607 0.379032258064516
0.247573603812932 -0.23813973415732 0.379032258064516
0.242677261030917 -0.229978655218101 0.379032258064516
0.229898955109595 -0.219789533166027 0.379032258064516
0.229653143827873 -0.224255419481925 0.379032258064516
0.226240343301445 -0.209845564747509 0.379032258064516
0.209949326869066 -0.200816850872677 0.379032258064516
0.213754014718416 -0.196954147903125 0.379032258064516
0.209000952645514 -0.197533419659192 0.379032258064517
0.197468597286226 -0.181117821144418 0.379032258064516
0.184130056447231 -0.179275994099923 0.379032258064517
0.187019589833385 -0.170731184896417 0.379032258064516
0.174904854029533 -0.162416771439894 0.379032258064516
0.174324380363111 -0.161286979296632 0.379032258064516
0.155737632357798 -0.149281711632378 0.379032258064516
0.15373632126014 -0.144785828201469 0.379032258064516
0.151773462470195 -0.13979256169165 0.379032258064516
0.14335207863135 -0.123194129854903 0.379032258064516
0.130071080026578 -0.119304904567736 0.379032258064516
0.122917836361982 -0.111239569913967 0.379032258064516
0.121792488790921 -0.104465550135257 0.379032258064516
0.118663137952051 -0.105771530240618 0.379032258064517
0.109117962960106 -0.0970174006851323 0.379032258064516
0.105186757486791 -0.0835421278663805 0.379032258064516
0.0920043427471465 -0.0773883544422119 0.379032258064516
0.0794757651107793 -0.0708143661650207 0.379032258064516
0.0757808446420144 -0.064939535331449 0.379032258064516
0.0652380480118319 -0.051616097735689 0.379032258064516
0.0578988520874135 -0.0467261124652082 0.379032258064516
0.0477494094172552 -0.0373484366110851 0.379032258064516
0.0492114116647256 -0.031198472423771 0.379032258064516
0.0441898730214318 -0.0236302899628976 0.379032258064516
0.0348091166847059 -0.014053971936515 0.379032258064516
0.0199052655125485 -0.00302076407319437 0.379032258064516
0.0172125765773397 -0.00181020408405389 0.379032258064516
-0.000414989439895254 0.0110216095556672 0.379032258064516
0.00514173041267723 0.0142457541741703 0.379032258064516
-0.00935096339380988 0.0238204221329602 0.379032258064516
-0.018277536360603 0.0337744783191806 0.379032258064516
-0.0223993964964539 0.0379674575919787 0.379032258064516
-0.0341556024518716 0.0476528631058237 0.379032258064516
-0.040515521669052 0.0547710161939032 0.379032258064516
-0.0476870235615181 0.0682801692708458 0.379032258064516
-0.0633051428508725 0.0775752724734708 0.379032258064516
-0.0606433089313743 0.0763731924318728 0.379032258064517
-0.0780788201338673 0.0904659726058732 0.379032258064516
-0.0873463467098623 0.100188688862409 0.379032258064516
-0.0931115807420067 0.114796523927036 0.379032258064517
-0.106973521085932 0.125664768184488 0.379032258064517
-0.115488200888512 0.126929093803539 0.379032258064516
-0.118577379741448 0.138764637902398 0.379032258064517
-0.130950620961088 0.145969158891672 0.379032258064516
-0.148521572598618 0.158689373023932 0.379032258064517
-0.152907354234432 0.163206162549342 0.379032258064516
-0.157746804572036 0.167670805330715 0.379032258064516
-0.16470568666671 0.181583964304042 0.379032258064516
-0.179520173974414 0.189643914486305 0.379032258064516
-0.188198552299517 0.198809197410762 0.379032258064516
-0.20458538796888 0.214722256854421 0.379032258064517
-0.208682756894819 0.224698727224519 0.379032258064516
-0.223269452026988 0.237169040543477 0.379032258064516
-0.233186678324079 0.244456429735508 0.379032258064516
-0.235021626241865 0.249564084966858 0.381720430107527
0.257785497336436 -0.258064516129032 0.346483504748888
0.263739439532261 -0.258064516129032 0.371383404814594
0.254062784680353 -0.258064516129032 0.373608537459099
0.257922394133232 -0.257923285451263 0.381720430107527
0.2500156955561 -0.249487306231404 0.381720430107527
0.247646757700831 -0.240327858881468 0.379032258064516
0.232217036541446 -0.233974545046958 0.379032258064516
0.228183852117834 -0.232305112672279 0.379032258064516
0.220831292827343 -0.224444408668501 0.379032258064517
0.219322078210721 -0.223147077699905 0.379032258064516
0.208224176420746 -0.210232923265556 0.379032258064516
0.204345012630426 -0.203898079902836 0.379032258064516
0.19832557588042 -0.196816920109521 0.379032258064516
0.187789297907709 -0.193326823491805 0.379032258064516
0.181267023686941 -0.179034878498308 0.379032258064517
0.175315055723132 -0.170451016675777 0.379032258064516
0.17314549626387 -0.167487726603805 0.379032258064516
0.164564431954164 -0.164245064959729 0.379032258064516
0.162591554470352 -0.157635283786178 0.379032258064516
0.152274678595674 -0.148095718860559 0.379032258064516
0.141570772182657 -0.146767783613742 0.379032258064516
0.136142640493505 -0.138852102931985 0.379032258064516
0.131347178503642 -0.134611169678349 0.379032258064516
0.125009666427177 -0.121946167801986 0.379032258064516
0.121709607378976 -0.120705876867839 0.379032258064516
0.113711033183106 -0.112246593023081 0.379032258064516
0.0984203130630683 -0.103378735747458 0.379032258064516
0.0864693065813518 -0.0887669569807282 0.379032258064517
0.0787289507201965 -0.0833744171537364 0.379032258064517
0.0776339421062628 -0.0839218139999388 0.379032258064516
0.0682914768029032 -0.0700455220946761 0.379032258064516
0.059575800990451 -0.063334011382259 0.379032258064516
0.0530301863461147 -0.0520891894253671 0.379032258064516
0.0505502106849161 -0.0473017104605797 0.379032258064516
0.0408788169179286 -0.039783961218721 0.379032258064516
0.0286040692293107 -0.0320130713690972 0.379032258064516
0.0256591477268864 -0.0212153403760737 0.379032258064516
0.0117837115565815 -0.0200991935431422 0.379032258064516
0.00933735115723519 -0.00820651701776247 0.379032258064516
-0.00492394594516901 0.00700634099622879 0.379032258064516
-0.00830135133861073 0.0100598378945271 0.379032258064516
-0.0189480992857955 0.0222357306114082 0.379032258064516
-0.0233858776973743 0.0242197550897528 0.379032258064516
-0.0361992304733896 0.0411661001978915 0.379032258064516
-0.0458666697255166 0.0453527501260045 0.379032258064516
-0.043228609758792 0.0461129060258846 0.379032258064516
-0.0631120814044313 0.0577548810274633 0.379032258064516
-0.0659178968578702 0.0739519085786673 0.379032258064516
-0.0788392348231122 0.0819891305717964 0.379032258064517
-0.0843523402995896 0.0851350467908721 0.379032258064516
-0.0930026237090223 0.0914052772527293 0.379032258064516
-0.0993386152858236 0.10352995622554 0.379032258064516
-0.112282832413834 0.113710298812704 0.379032258064516
-0.114383529025461 0.114137893970578 0.379032258064516
-0.136457225568832 0.137015401249489 0.379032258064516
-0.131300539474758 0.136119011551133 0.379032258064516
-0.147531228959489 0.146698345960929 0.379032258064516
-0.160864372512556 0.164176436755805 0.379032258064516
-0.167692645412465 0.163519051879516 0.379032258064516
-0.176939261131234 0.176342939397183 0.379032258064516
-0.192852871583217 0.189892356098618 0.379032258064517
-0.196955960009236 0.189914977445802 0.379032258064516
-0.19736210597353 0.200587075299702 0.379032258064516
-0.215726951277715 0.217786334172532 0.379032258064516
-0.219076687746565 0.225907614230785 0.379032258064516
-0.232407682745946 0.237249096526825 0.379032258064516
-0.239572002441654 0.24571664402547 0.379032258064517
-0.252224849131785 0.250030734988413 0.381720430107527
0.25180607482293 -0.258064516129032 0.351775612310957
0.240939038909071 -0.258064516129032 0.348396341362417
0.247073563782597 -0.258064516129032 0.370769304488488
0.250793063994903 -0.258064516129032 0.380731779390625
0.248701665132992 -0.256101930227956 0.381720430107527
0.237996017442139 -0.24828026035948 0.381720430107527
0.232143958760313 -0.240571469494389 0.379032258064517
0.226793119621173 -0.236241890385677 0.379032258064516
0.221087154969241 -0.230915966891229 0.379032258064517
0.211517022513289 -0.218288548646761 0.379032258064516
0.203488831748908 -0.217306419864642 0.379032258064516
0.198901801334627 -0.204471980661062 0.379032258064516
0.188711218607032 -0.205572263864328 0.379032258064517
0.188869905380649 -0.201764964487529 0.379032258064516
0.178446423958043 -0.193694323104234 0.379032258064516
0.16913724197805 -0.180178113873171 0.379032258064516
0.163625905986318 -0.171225954724276 0.379032258064516
0.161891155221345 -0.168904086276268 0.379032258064516
0.148507991993158 -0.157252313380287 0.379032258064516
0.140816278062411 -0.1621567147721 0.379032258064516
0.140153144605311 -0.1519811753337 0.379032258064516
0.125457959804845 -0.139092903310162 0.379032258064516
0.118946303441305 -0.128254781221005 0.379032258064516
0.112521419713306 -0.131111402993306 0.379032258064516
0.110304599987691 -0.123502834390608 0.379032258064516
0.106005685608206 -0.111685388420355 0.379032258064516
0.09366894193865 -0.105875934486816 0.379032258064516
0.0826746331414364 -0.0976609538557964 0.379032258064516
0.076062705413237 -0.094132553763655 0.379032258064516
0.0781056944952211 -0.0889020095443998 0.379032258064517
0.0576745673101163 -0.0809097788185615 0.379032258064516
0.0581117060980073 -0.0695268139792572 0.379032258064516
0.0463010318151256 -0.0590496209790727 0.379032258064516
0.0410141641060595 -0.0493931553430692 0.379032258064516
0.0289537884738858 -0.0449311481153351 0.379032258064516
0.0257189443736814 -0.0399400727821734 0.379032258064516
0.0171311445420387 -0.0293031537302788 0.379032258064517
0.00308273850217381 -0.0155764312367059 0.379032258064516
0.00691149274974246 -0.0194957978422808 0.379032258064516
-0.010053603989886 -0.00762309503802398 0.379032258064516
-0.0169221390234855 0.00863964274638762 0.379032258064516
-0.0318575283046872 0.012536496679614 0.379032258064516
-0.0325080166412904 0.0141977176853744 0.379032258064516
-0.0481104892027632 0.0335465240099663 0.379032258064516
-0.0522077898691214 0.0320752903808307 0.379032258064516
-0.0583679818557802 0.0480418815789937 0.379032258064516
-0.0692532019918428 0.0526743543824244 0.379032258064516
-0.0814483670855946 0.066104803962982 0.379032258064516
-0.0868764979337529 0.0713767297090183 0.379032258064516
-0.0949139913025829 0.0745840663135438 0.379032258064516
-0.105771117676073 0.0849214769465303 0.379032258064516
-0.106178969011083 0.0932898228696453 0.379032258064516
-0.123634200317299 0.108959178910325 0.379032258064516
-0.123618324521296 0.107608395792501 0.379032258064516
-0.129145174565306 0.120568273228871 0.379032258064516
-0.144491241953367 0.134433150756378 0.379032258064516
-0.159863175402569 0.139649790154493 0.379032258064516
-0.170467585431789 0.146911342344328 0.379032258064516
-0.174967130779747 0.167797700801439 0.379032258064516
-0.181842208681082 0.175575062129108 0.379032258064516
-0.200047844368511 0.182064221143381 0.379032258064516
-0.207207291200848 0.184129346667637 0.379032258064516
-0.214053788824286 0.196936326606938 0.379032258064516
-0.226139274710066 0.205318290704462 0.379032258064516
-0.232934427311876 0.213859742362863 0.379032258064516
-0.239375725997477 0.21836995062413 0.379032258064516
-0.256498312156899 0.239112602517483 0.379032258064516
-0.26495593531187 0.248630984932114 0.381720430107527
-0.269814746862085 0.253945970785592 0.381720430107527
0.233137937249222 -0.258064516129032 0.342108351857201
0.230993696635486 -0.258064516129032 0.34822814316591
0.228080442454118 -0.258064516129032 0.349429768952681
0.235669686467168 -0.258064516129032 0.371380725770315
0.232066023241067 -0.258064516129032 0.368094925065016
0.228692766226905 -0.251028582072803 0.381720430107527
0.223928144202282 -0.248145111306147 0.381720430107527
0.215046950162652 -0.244114841999774 0.379032258064517
0.216000486905796 -0.243054345328091 0.379032258064517
0.202770966410429 -0.236210495869639 0.379032258064516
0.193204360691171 -0.225223667911369 0.379032258064516
0.190664644599612 -0.218355845870807 0.379032258064517
0.18302446832967 -0.21448623406385 0.379032258064516
0.180072486188986 -0.21018161191516 0.379032258064516
0.177670168117171 -0.200399506628405 0.379032258064517
0.162222992794775 -0.187591149493184 0.379032258064516
0.158158906354139 -0.17856433802362 0.379032258064516
0.146838417248834 -0.178249463407221 0.379032258064516
0.146301343091582 -0.167913963318188 0.379032258064516
0.137244110108337 -0.160738518839295 0.379032258064516
0.12501792328928 -0.153959356980941 0.379032258064516
0.122522565109107 -0.145429375988603 0.379032258064516
0.110916989721298 -0.139983807992481 0.379032258064516
0.101395860662238 -0.134902906142684 0.379032258064516
0.10083081919144 -0.128396621413186 0.379032258064516
0.0951877263294949 -0.121928966982091 0.379032258064516
0.0789344777848944 -0.106879776130418 0.379032258064516
0.0796662392688453 -0.107959102894843 0.379032258064516
0.0693626216681136 -0.101087575403633 0.379032258064517
0.0614087223521863 -0.0947184233654466 0.379032258064516
0.0598666108538172 -0.0869439343037529 0.379032258064516
0.0538633651756821 -0.0766900148999416 0.379032258064516
0.0437119565311265 -0.0652337968525296 0.379032258064516
0.033422543059454 -0.0595771547447304 0.379032258064517
0.0272143949886889 -0.0525268974188846 0.379032258064516
0.014835212444162 -0.0445377967148877 0.379032258064516
0.00717377795820942 -0.0296349217731217 0.379032258064516
4.12134525724923e-005 -0.0227084259592438 0.379032258064516
-0.00686323000806242 -0.0191234745562193 0.379032258064516
-0.0113369722960167 -0.0155298765100353 0.379032258064516
-0.0229888924568439 -0.00461093837833851 0.379032258064516
-0.0342786059247738 0.000309984515330544 0.379032258064516
-0.0395493347809455 0.0118600322477403 0.379032258064516
-0.0515933357662208 0.0170921708517747 0.379032258064517
-0.0575689698987499 0.0223879554456025 0.379032258064516
-0.0599307951474686 0.0303667386174713 0.379032258064516
-0.0742453578388629 0.0410521817248027 0.379032258064516
-0.0846083216474657 0.0532154630292078 0.379032258064516
-0.0946347301392895 0.0693284236695737 0.379032258064516
-0.0936006900534036 0.0664642426238458 0.379032258064516
-0.112822380848122 0.0842552797455726 0.379032258064516
-0.116993096548635 0.0866956594444507 0.379032258064516
-0.130826364249506 0.102669957778816 0.379032258064516
-0.129931962612853 0.104092731880649 0.379032258064516
-0.144333629543598 0.110835659011911 0.379032258064516
-0.156593216897633 0.126152902615106 0.379032258064517
-0.163695379070485 0.126309598257439 0.379032258064516
-0.1719824325254 0.144315785109914 0.379032258064516
-0.180486149932948 0.142909990796212 0.379032258064516
-0.188373835771884 0.158001523006981 0.379032258064517
-0.194825685688821 0.166515208995128 0.379032258064516
-0.210561547498476 0.180900850667151 0.379032258064516
-0.218794522968387 0.180767031350203 0.379032258064516
-0.233800571533173 0.19688303062859 0.379032258064516
-0.247051260138134 0.210978719554383 0.379032258064516
-0.251775991910516 0.221991996818075 0.379032258064516
-0.256408850226925 0.229001878959276 0.379032258064516
-0.274575253753312 0.241224135150746 0.379032258064516
-0.27173106839894 0.240804684950843 0.379032258064516
-0.291387831421566 0.252094489244979 0.381720430107527
0.0960456932549379 -0.139876443590969 0.155913978494624
0.0945422757851706 -0.128861977196251 0.155913978494623
0.221787343738538 -0.258064516129032 0.352454955063111
0.223711169830548 -0.258064516129032 0.354578258524061
0.219209857954509 -0.258064516129032 0.363517745947169
0.2196436302771 -0.258064516129032 0.363481913752192
0.215846143050227 -0.258064516129032 0.380621588442999
0.213269566990135 -0.247880179310423 0.381720430107527
0.210792967807835 -0.244806864627877 0.379032258064516
0.200918293389275 -0.231924722562132 0.379032258064516
0.19068982803399 -0.227381532635214 0.379032258064516
0.183634757107515 -0.224154563450604 0.379032258064516
0.180500372685801 -0.216075109587157 0.379032258064516
0.170864286153887 -0.214273115161007 0.379032258064516
0.166744795373519 -0.202134772740753 0.379032258064516
0.156869709596755 -0.197603256849058 0.379032258064516
0.15146843038525 -0.190010842709835 0.379032258064516
0.137874215809941 -0.176865477464153 0.379032258064516
0.140621931882051 -0.172810650973902 0.379032258064517
0.130083649846921 -0.171216591864562 0.379032258064516
0.11753435971655 -0.156785505626356 0.379032258064516
0.110521175233852 -0.156142886637986 0.379032258064516
0.105647266656586 -0.15154030379813 0.379032258064516
0.0998986133809288 -0.147118118430714 0.379032258064516
0.0995387389653477 -0.13551977732503 0.379032258064516
0.0847798496891911 -0.126047325585941 0.379032258064516
0.0723346529393897 -0.119427792811251 0.379032258064516
0.0691913392914641 -0.109903858957996 0.379032258064517
0.0669194945415613 -0.102769190469105 0.379032258064516
0.0533820042138787 -0.0945325356933772 0.379032258064516
0.0470836408739293 -0.0838582917054556 0.379032258064516
0.0381511747867026 -0.0797992529021139 0.379032258064516
0.0370888148213373 -0.073898579942393 0.379032258064516
0.0243672104626499 -0.0661474874311786 0.379032258064516
0.0162636799049285 -0.056566876346414 0.379032258064516
0.0155991370668582 -0.0478912892195936 0.379032258064516
-0.00117254265486574 -0.0447921413155196 0.379032258064516
0.000608835623136031 -0.0416491297216681 0.379032258064516
-0.0146570164440989 -0.0268684139076301 0.379032258064516
-0.0252280664738781 -0.0225360470946309 0.379032258064516
-0.0322171314622474 -0.0147473159363813 0.379032258064516
-0.0376174473304418 0.0036368033500603 0.379032258064516
-0.0458795465639681 0.00187238485973388 0.379032258064516
-0.0551997562149614 0.00934704305138439 0.379032258064516
-0.0662778591565536 0.0248007162521857 0.379032258064516
-0.0663769979082266 0.0296734855392638 0.379032258064516
-0.0773006113158719 0.0293035746591093 0.379032258064516
-0.0919236714677127 0.0460747578310492 0.379032258064516
-0.0944909007558851 0.0499672615756658 0.379032258064517
-0.106064885291749 0.0591450663607367 0.379032258064516
-0.112477866532379 0.0734424976901928 0.379032258064516
-0.122969989432811 0.0741414596967083 0.379032258064516
-0.137817674585419 0.0887936854220751 0.379032258064516
-0.150610310132302 0.0987627042234655 0.379032258064516
-0.149674719953552 0.100252833001908 0.379032258064516
-0.153600885564822 0.111282918382202 0.379032258064516
-0.171403368833419 0.122874720220913 0.379032258064517
-0.183751539712537 0.136301639146091 0.379032258064516
-0.189046165074236 0.147085602702502 0.379032258064517
-0.190521696694495 0.154006338939698 0.379032258064516
-0.20519285826319 0.157736714897745 0.379032258064516
-0.217271460519316 0.175280950343468 0.379032258064516
-0.229100303210922 0.185349988532839 0.379032258064516
-0.234771796014146 0.184651100106475 0.379032258064516
-0.250242476571728 0.194457790026253 0.379032258064516
-0.259437990792447 0.213497344215184 0.379032258064516
-0.266013715362187 0.224526146847773 0.379032258064516
-0.272096255406434 0.227215304775773 0.379032258064517
-0.294373744120989 0.240237202966764 0.379032258064516
-0.297020431520135 0.250638423027214 0.381720430107527
-0.300781027002225 0.254632422845507 0.381720430107527
0.0934697455283401 -0.14380776508582 0.155913978494624
0.0813555039318359 -0.134624004167017 0.155913978494624
0.0800181652758877 -0.13598818568946 0.155913978494624
0.0671539631029024 -0.128258109315037 0.155913978494624
0.205108539552582 -0.258064516129032 0.35319166120247
0.213075507728593 -0.258064516129032 0.369330413377729
0.204840849365096 -0.258064516129032 0.366744283264497
0.205221849611639 -0.25565929561834 0.381720430107527
0.200973198197538 -0.245250736835002 0.379032258064516
0.189107676284291 -0.240023005521262 0.379032258064517
0.187908274447191 -0.24344095669862 0.379032258064516
0.180196379376313 -0.224300121237132 0.379032258064516
0.171176408359813 -0.222042982501598 0.379032258064516
0.162686143327459 -0.213267277632824 0.379032258064516
0.158199492638085 -0.205417842118998 0.379032258064517
0.153006733707371 -0.201111877905302 0.379032258064517
0.142877197040106 -0.190483163634777 0.379032258064517
0.140223992840995 -0.187825307217943 0.379032258064517
0.123549907541798 -0.17872467613323 0.379032258064516
0.129602672260897 -0.176973623864736 0.379032258064516
0.109654524771747 -0.166360137487065 0.379032258064516
0.110402288376861 -0.162148269153137 0.379032258064516
0.106158544538401 -0.160547820568055 0.379032258064516
0.101018080649213 -0.146431402639521 0.379032258064516
0.0863483432821682 -0.137107343466587 0.379032258064516
0.0775427387309237 -0.129366568110985 0.379032258064516
0.0719359522017668 -0.119891484427334 0.379032258064517
0.0636402799946573 -0.123703661299301 0.379032258064516
0.0583101077015012 -0.118689931706297 0.379032258064516
0.0506523930224414 -0.105019641338423 0.379032258064516
0.0378544948920779 -0.0978770931024949 0.379032258064517
0.0409455776640814 -0.0941074643923164 0.379032258064516
0.0239872170647972 -0.0769143386014938 0.379032258064516
0.0166339964439746 -0.0687257150934079 0.379032258064516
0.0152306202804699 -0.0655534353316031 0.379032258064516
0.00345677376685069 -0.0579036045507194 0.379032258064516
-0.00582586653466929 -0.053719482156034 0.379032258064517
-0.0107272572616821 -0.0428190619331636 0.379032258064516
-0.0180207531083224 -0.0350906480151835 0.379032258064516
-0.0268624006744641 -0.0300157557678784 0.379032258064516
-0.0364050792455154 -0.0164396978371207 0.379032258064516
-0.0503171782508853 -0.0125952086776571 0.379032258064516
-0.0472746759040161 -0.0102962238825981 0.379032258064516
-0.0647260801506608 0.00925824485109437 0.379032258064516
-0.0687773298070831 0.0115783577150499 0.379032258064516
-0.0819727071787447 0.0254996970969833 0.379032258064516
-0.0854190602694188 0.0272312857240643 0.379032258064516
-0.101528550102704 0.0400059424057355 0.379032258064517
-0.105818625341792 0.0509030708837573 0.379032258064516
-0.112617832452988 0.0521182020278482 0.379032258064516
-0.120025124889469 0.0671563536247975 0.379032258064516
-0.129272265112551 0.070059807613038 0.379032258064516
-0.145973517550049 0.089658875131258 0.379032258064516
-0.148633555038407 0.091535178464549 0.379032258064516
-0.162409792144067 0.103097293795479 0.379032258064516
-0.168927416862344 0.111225767487648 0.379032258064516
-0.182123821572431 0.11849830692349 0.379032258064516
-0.185853621915589 0.130375623873842 0.379032258064516
-0.19380817347709 0.129299387412768 0.379032258064516
-0.204541813227382 0.147779279466262 0.379032258064516
-0.213186933220817 0.155440051575778 0.379032258064516
-0.226340690264407 0.157481535793622 0.379032258064516
-0.230004315768485 0.176992866057525 0.379032258064516
-0.245270296478594 0.180353899645555 0.379032258064517
-0.256312629123438 0.191641884591038 0.379032258064516
-0.256907172374233 0.196711166435029 0.379032258064517
-0.27379271986085 0.21648260792416 0.379032258064516
-0.286889163448573 0.22669972211327 0.379032258064516
-0.294399501996328 0.231913288771942 0.379032258064516
-0.3121590113007 0.237553154003626 0.379032258064517
-0.310648473225422 0.251768786846527 0.381720430107527
0.0815422955743772 -0.152239408715834 0.155913978494624
0.0728674427118355 -0.146458292104388 0.155913978494624
0.0699439059214516 -0.132184470005252 0.155913978494624
0.0604792559117444 -0.131884993107133 0.155913978494624
0.191134199961336 -0.258064516129032 0.344614207979626
0.192319515931106 -0.258064516129032 0.348585534966046
0.194020825250055 -0.258064516129032 0.372035972482186
0.191061524860973 -0.258064516129032 0.370517349448966
0.188218743136025 -0.258064516129032 0.381732887028743
0.192705551542699 -0.254911586416238 0.381720430107527
0.183592004038757 -0.248505932193977 0.381720430107527
0.17526546986045 -0.238785614481235 0.379032258064516
0.163826161977395 -0.229630960716716 0.379032258064517
0.159671514978199 -0.226276702344827 0.379032258064516
0.155755601397712 -0.220372025607629 0.379032258064516
0.137620808855915 -0.208287365616888 0.379032258064516
0.140953098928289 -0.2003746356186 0.379032258064516
0.130683733923026 -0.19869507982067 0.379032258064516
0.121738249884768 -0.188435642212122 0.379032258064516
0.115873731178858 -0.179417113968425 0.379032258064516
0.111994182718793 -0.178252406586009 0.379032258064517
0.103638823711875 -0.172233244100487 0.379032258064516
0.0939979637218793 -0.16305653052437 0.379032258064516
0.0841554591783709 -0.155748428131036 0.379032258064517
0.0835619869493059 -0.147262654743057 0.379032258064516
0.0720548159805325 -0.139960511111039 0.379032258064517
0.0685579017122493 -0.13195750835713 0.379032258064516
0.0555010832738271 -0.125987840927219 0.379032258064516
0.048030669380087 -0.115306146831165 0.379032258064516
0.043850235902435 -0.107136654390003 0.379032258064516
0.0298762957782134 -0.101522292746225 0.379032258064516
0.0312691354659715 -0.0920439766775029 0.379032258064516
0.0170599591296073 -0.0820505443132958 0.379032258064516
0.0103013341536894 -0.0822056833462674 0.379032258064516
-0.00141527556072685 -0.0702629006406015 0.379032258064516
0.00189971736086856 -0.0723942467640842 0.379032258064516
-0.0129348629041802 -0.0581906048181072 0.379032258064516
-0.0227888484102741 -0.0500644518517043 0.379032258064517
-0.0249190479997116 -0.0446101816620331 0.379032258064516
-0.0338245854539965 -0.032513147433741 0.379032258064516
-0.0420328096850897 -0.0340724588346254 0.379032258064516
-0.0505341009320985 -0.0139302457649727 0.379032258064516
-0.0541987928592008 -0.0104837295981502 0.379032258064517
-0.0673349261140632 -0.00107822046380468 0.379032258064516
-0.0819458807991891 0.00623263152912345 0.379032258064516
-0.0826943082113283 0.0143340147553117 0.379032258064516
-0.101459435890167 0.0226685806381816 0.379032258064516
-0.106733999751082 0.0321440068061684 0.379032258064516
-0.113373588670221 0.0378890936784944 0.379032258064516
-0.126264864531904 0.0554017057290961 0.379032258064516
-0.13613598277184 0.0558854181888827 0.379032258064516
-0.141170127805391 0.0666905843874122 0.379032258064517
-0.149873886745475 0.0717596782375934 0.379032258064516
-0.153272162390629 0.083712580769823 0.379032258064516
-0.171098685031669 0.0897138968278583 0.379032258064516
-0.175765429223893 0.10635719818022 0.379032258064516
-0.189510028565518 0.109096248808281 0.379032258064516
-0.194189172610796 0.112651133047138 0.379032258064516
-0.202174285315399 0.127090466193088 0.379032258064516
-0.213953981197939 0.142490119371146 0.379032258064516
-0.21966555706393 0.149713695053296 0.379032258064516
-0.230807373297796 0.148420548411786 0.379032258064516
-0.253226926145414 0.173366232589057 0.379032258064517
-0.249335284154737 0.179479141861999 0.379032258064516
-0.264320958469817 0.187547070801489 0.379032258064516
-0.277635301627527 0.195624185839456 0.379032258064516
-0.277000201079142 0.208752060363018 0.379032258064517
-0.297411916354693 0.214624496505032 0.379032258064516
-0.30600411756064 0.222201474584745 0.379032258064516
-0.310496821729548 0.229835872574274 0.379032258064516
-0.327491416683616 0.247220121733831 0.379032258064516
-0.327616879099651 0.252858256592124 0.381720430107527
-0.335117383470796 0.25681952507086 0.381720430107527
0.0740731308931873 -0.156707016339985 0.155913978494623
0.0684894830937725 -0.150618155769168 0.155913978494624
0.0645060226483918 -0.14787644876629 0.155913978494624
0.054373054738467 -0.144424696709209 0.155913978494624
0.0436811389694357 -0.129078756612082 0.155913978494624
0.177081261039029 -0.258064516129032 0.347839758253535
0.188308115221007 -0.258064516129032 0.364905550711971
0.188554782236983 -0.258064516129032 0.372630705212836
0.188957999959721 -0.258064516129032 0.373015311220485
0.176191191797045 -0.258064516129032 0.376439889764878
0.176490809302834 -0.245219846186121 0.379032258064516
0.164835668628572 -0.243879600355389 0.379032258064516
0.160959783109597 -0.239243051946341 0.379032258064516
0.155273821048081 -0.227024798744774 0.379032258064517
0.147293053158502 -0.218925722878449 0.379032258064516
0.138505854874267 -0.213716425370549 0.379032258064516
0.132324793112132 -0.211623955738506 0.379032258064516
0.122279487254044 -0.202966044292846 0.379032258064516
0.119251861365724 -0.1946417757782 0.379032258064516
0.107854441103482 -0.188143161770754 0.379032258064516
0.10126798226837 -0.179890824149739 0.379032258064516
0.0931759062863281 -0.170480836364581 0.379032258064517
0.095548693684752 -0.171420392165347 0.379032258064516
0.0788245912917374 -0.157063590549855 0.379032258064516
0.0754347754829635 -0.158385116792837 0.379032258064517
0.0647130626186737 -0.146730673456124 0.379032258064516
0.0572683479293429 -0.134560823276975 0.379032258064516
0.0500621437510984 -0.135135323632244 0.379032258064516
0.0419011747387639 -0.125557053928624 0.379032258064516
0.0349912437456707 -0.113248158270163 0.379032258064516
0.0313048019571609 -0.108928876478433 0.379032258064516
0.0166577236734446 -0.0949341273011386 0.379032258064516
0.0192544398576686 -0.0982274273588698 0.379032258064516
0.00969864308506668 -0.0894508544289639 0.379032258064516
-0.00823116169442364 -0.075649263973614 0.379032258064516
-0.0137852676872049 -0.0741100829258511 0.379032258064516
-0.0180934436799889 -0.0652514119162818 0.379032258064516
-0.0205319114734509 -0.0630021913984183 0.379032258064517
-0.028537837725629 -0.0575765596268332 0.379032258064516
-0.0465031471128273 -0.0420839486626596 0.379032258064516
-0.0456384774525992 -0.0337026469714477 0.379032258064516
-0.0618764122549677 -0.0282865480790173 0.379032258064516
-0.0622838199458493 -0.0242345374915744 0.379032258064516
-0.0797355206255038 -0.00654423831190176 0.379032258064516
-0.091700298824876 -0.00309387816445238 0.379032258064516
-0.0965320597603425 0.0101847629569705 0.379032258064516
-0.100083322650597 0.0179675929222271 0.379032258064516
-0.111337269240509 0.023987658463552 0.379032258064516
-0.125166901847629 0.0339139791960274 0.379032258064516
-0.136326218697262 0.0392758068584191 0.379032258064516
-0.139055282847785 0.044184391567868 0.379032258064516
-0.145192823397722 0.057530948064018 0.379032258064516
-0.153105531053143 0.0726638490206627 0.379032258064516
-0.16699732638408 0.0814144849538033 0.379032258064516
-0.167013138322138 0.0844785603255105 0.379032258064516
-0.192987454509047 0.100363596602222 0.379032258064516
-0.186876113826109 0.0956316624077354 0.379032258064516
-0.210291392350013 0.110872639631113 0.379032258064516
-0.217941342241303 0.122300892042045 0.379032258064516
-0.221144535250626 0.136372159336335 0.379032258064516
-0.230726517534471 0.143791742040965 0.379032258064516
-0.247386883610693 0.151507750558991 0.379032258064516
-0.257701436852301 0.156015068377316 0.379032258064516
-0.264070190622798 0.171097542232117 0.379032258064516
-0.271137886211144 0.174660776618922 0.379032258064516
-0.285179732398198 0.192884024206543 0.379032258064516
-0.296573885035988 0.194217964984567 0.379032258064516
-0.301420063860567 0.198701279730419 0.379032258064516
-0.31046112627403 0.219765556114641 0.379032258064516
-0.322283302005628 0.218376886935845 0.379032258064516
-0.341096238554788 0.245033928406329 0.379032258064516
-0.337458761085716 0.247311827956989 0.381123530456025
-0.359627454598989 0.251717689813404 0.381720430107527
0.0678019938164346 -0.163774150552638 0.155913978494624
0.0640906555934669 -0.153624336186052 0.155913978494623
0.0587781860001226 -0.15424904930217 0.155913978494624
0.0532535094766956 -0.141401944684473 0.155913978494624
0.0451939162596456 -0.142874782217676 0.155913978494624
0.170433577705549 -0.258064516129032 0.34153461678994
0.162823616149461 -0.258064516129032 0.347648274179985
0.173399544140841 -0.258064516129032 0.360556008278886
0.168282722993151 -0.258064516129032 0.366800112771729
0.169250733613196 -0.258064516129032 0.380120201486963
0.167080801340499 -0.256688760459427 0.381720430107527
0.159379532908072 -0.25070711816112 0.381720430107527
0.152106159042792 -0.23769276800487 0.379032258064516
0.150169543318869 -0.241478856779273 0.379032258064516
0.144026398315539 -0.234142987548685 0.379032258064516
0.133880518906376 -0.219474133391042 0.379032258064516
0.124048903166353 -0.211173205569189 0.379032258064516
0.11683035502376 -0.212821537399608 0.379032258064516
0.107867012046592 -0.202441301107352 0.379032258064516
0.111500792393687 -0.201967396677589 0.379032258064516
0.0934806775328378 -0.186568194667099 0.379032258064516
0.0892553470034134 -0.174970750404754 0.379032258064516
0.0833599245030186 -0.176901535507563 0.379032258064516
0.0769388443210884 -0.171770892255289 0.379032258064516
0.0659679907704702 -0.162880074283147 0.379032258064516
0.058572259287095 -0.157549897477962 0.379032258064516
0.053378361280136 -0.144449161159413 0.379032258064516
0.0473311762054205 -0.133375774585572 0.379032258064516
0.0370219744674571 -0.131754950759756 0.379032258064516
0.0347077152711539 -0.130452514970712 0.379032258064517
0.022498734350864 -0.117038727733211 0.379032258064516
0.00886805354387193 -0.10836340658819 0.379032258064516
0.00541420920623713 -0.105838980389539 0.379032258064516
-0.000214204900759691 -0.0927060642078787 0.379032258064516
-0.00721289272411751 -0.0895026140183661 0.379032258064516
-0.0146733098655318 -0.0851536730743214 0.379032258064517
-0.0194177095918877 -0.0728424087711723 0.379032258064517
-0.0388268311292583 -0.0630301287575842 0.379032258064516
-0.0487019255396869 -0.0571667225711268 0.379032258064516
-0.0430790275766529 -0.0522176338879253 0.379032258064516
-0.0574404582667338 -0.0412933725839925 0.379032258064516
-0.0621882580047056 -0.0302969107945105 0.379032258064516
-0.073065903378984 -0.0187457759088347 0.379032258064516
-0.081654040410202 -0.0182306682048703 0.379032258064516
-0.0968375340976165 -0.0111893278748782 0.379032258064516
-0.0998673722745701 -0.00106194118933168 0.379032258064516
-0.117081056551498 0.0134429005226326 0.379032258064516
-0.115536414465645 0.0207258021228544 0.379032258064516
-0.129086920793128 0.0199741992266451 0.379032258064516
-0.132418723654886 0.0342879233456399 0.379032258064516
-0.14414715340046 0.0401106977244721 0.379032258064516
-0.154435529691084 0.0519881506693104 0.379032258064516
-0.168275690678014 0.0545023988444291 0.379032258064516
-0.180391104620034 0.0708234600473119 0.379032258064516
-0.178567549920995 0.0747905727782023 0.379032258064516
-0.197734839664198 0.0842797799342844 0.379032258064516
-0.195228281232731 0.0863090693425595 0.379032258064516
-0.213504650858358 0.106747281977073 0.379032258064516
-0.227218301682095 0.119454787301625 0.379032258064516
-0.229609490704205 0.122120087086711 0.379032258064516
-0.235478877780151 0.13053329454048 0.379032258064516
-0.248926276609859 0.139208629713045 0.379032258064516
-0.259784419516809 0.146070772522171 0.379032258064516
-0.270154299407575 0.16059408302036 0.379032258064516
-0.277706209245799 0.164854414674664 0.379032258064516
-0.29318499435401 0.178687534390779 0.379032258064516
-0.30167587067301 0.187794808993354 0.379032258064516
-0.312343163461006 0.202090510401848 0.379032258064516
-0.321401212166649 0.209525880639556 0.379032258064516
-0.330973990104386 0.215110910780937 0.379032258064516
-0.338961387318606 0.231253967846195 0.379032258064516
-0.359254055780385 0.235765786158614 0.379032258064516
-0.368750275223705 0.247311827956989 0.381033047334454
0.0628428375198604 -0.173038148238895 0.155913978494624
0.052549628191911 -0.16140500844619 0.155913978494624
0.0437250607207186 -0.151761391881577 0.155913978494624
0.0439113143536854 -0.156906033466988 0.155913978494623
0.0426768323123464 -0.147429111770544 0.155913978494624
0.0305554759582589 -0.140770129278409 0.155913978494624
0.0274812161672449 -0.132147058492139 0.155913978494624
0.0121242024558566 -0.12833586372205 0.155913978494624
0.156246639174823 -0.258064516129032 0.350793476636694
0.153580601853106 -0.258064516129032 0.362169225654479
0.158906217662863 -0.258064516129032 0.373861663582012
0.15705091069393 -0.25572607698976 0.381720430107527
0.142041898658209 -0.244979216575556 0.379032258064516
0.139017375176941 -0.247418724460829 0.381720430107527
0.133072441220075 -0.22864114993963 0.379032258064516
0.128099636795656 -0.225746770024714 0.379032258064516
0.114718010251801 -0.221173559985176 0.379032258064516
0.111758008254215 -0.213847485659471 0.379032258064516
0.106099105184715 -0.208514521522851 0.379032258064516
0.0908803969637718 -0.20299640216847 0.379032258064516
0.093407392612493 -0.199023707573422 0.379032258064516
0.0804714386897088 -0.182862797542428 0.379032258064516
0.072952856192674 -0.178332921604849 0.379032258064516
0.0707398627839523 -0.169011002244355 0.379032258064516
0.0654977184953701 -0.172796020623823 0.379032258064517
0.0532891303503259 -0.158221571409312 0.379032258064516
0.0458688699501685 -0.150956778832934 0.379032258064516
