ply
format ascii 1.0
element vertex 848
property float x
property float y
property float z
end_header
-0.346871574961733 -0.487898037811957 0.229166666666667
-0.5 -0.238400379831401 0.17563442099183
-0.5 -0.251798299131859 0.181111664154966
-0.5 -0.238900440857623 0.196407506996136
-0.5 -0.235717645341358 0.204173235199986
-0.5 -0.238451219967494 0.209076691208939
-0.5 -0.241056057435181 0.223311143015718
-0.496429590492482 -0.243080266453634 0.229166666666667
-0.498551612077954 -0.249978668113621 0.229166666666667
-0.489255291855495 -0.255670124641811 0.229166666666667
-0.481662928109497 -0.273569010691785 0.229166666666667
-0.47895074421868 -0.277250902487116 0.229166666666667
-0.470516111900051 -0.286189682193903 0.229166666666667
-0.464305160104861 -0.286619194781236 0.229166666666667
-0.465149380151738 -0.301781132644684 0.229166666666667
-0.460489144786492 -0.304632616547821 0.229166666666666
-0.451561025291401 -0.323337346847559 0.229166666666667
-0.446240749944781 -0.320172590248786 0.229166666666666
-0.442074057575796 -0.333061244512576 0.229166666666667
-0.437413456709923 -0.341728750870789 0.229166666666667
-0.424708927479897 -0.354758914575153 0.229166666666667
-0.421474995536189 -0.358488477736542 0.229166666666667
-0.417211224653797 -0.371339770039716 0.229166666666667
-0.402312825329351 -0.379344812237068 0.229166666666667
-0.400130727488231 -0.386991491976098 0.229166666666667
-0.39118227694968 -0.398107633709056 0.229166666666667
-0.385919001798249 -0.411371352117205 0.229166666666667
-0.38255311371438 -0.418098290063128 0.229166666666667
-0.380507942110149 -0.416696681704173 0.229166666666667
-0.371677775987115 -0.433606189848195 0.229166666666667
-0.361076012564855 -0.442708113706554 0.229166666666667
-0.354816830545602 -0.452175658824885 0.229166666666667
-0.344867798410858 -0.46702191354642 0.229166666666667
-0.346453030095891 -0.464239236105429 0.229166666666666
-0.342438800604234 -0.484630321489828 0.229166666666667
-0.326956796765774 -0.498652275832268 0.229166666666667
-0.5 -0.230262386892049 0.188343059222033
-0.5 -0.226467497181238 0.199287633556197
-0.5 -0.222912636748586 0.212331670872475
-0.5 -0.23394585303247 0.202536613617205
-0.5 -0.233734640872264 0.218814752386449
-0.5 -0.231616263682045 0.225935467318047
-0.488484340986943 -0.237050831053536 0.229166666666667
-0.484827712711046 -0.244819400625643 0.229166666666667
-0.478407332464824 -0.257143996763612 0.229166666666666
-0.479293588202305 -0.262194928986464 0.229166666666667
-0.472328977913571 -0.267891469239555 0.229166666666667
-0.460457338819801 -0.279397800434257 0.229166666666667
-0.465451544571741 -0.286381021078576 0.229166666666667
-0.451281984892261 -0.298984350241 0.229166666666667
-0.446087895599275 -0.307963408930951 0.229166666666667
-0.441689271289826 -0.307707589896564 0.229166666666667
-0.434465288488032 -0.314385710238007 0.229166666666667
-0.437552222502196 -0.319553404062874 0.229166666666666
-0.429860394549452 -0.328920897152301 0.229166666666667
-0.414917965339515 -0.343790790502802 0.229166666666667
-0.415616972012201 -0.34899844808485 0.229166666666667
-0.41048937289894 -0.361927769119409 0.229166666666667
-0.401130544994785 -0.376547224517041 0.229166666666667
-0.390700387969536 -0.382819192034521 0.229166666666666
-0.387467667987645 -0.393633797491814 0.229166666666667
-0.37519897150598 -0.400478042219126 0.229166666666667
-0.374032277999578 -0.413926527161711 0.229166666666667
-0.376059949784772 -0.408156133618762 0.229166666666666
-0.363506632703608 -0.425736115028902 0.229166666666667
-0.355835867298805 -0.437636735518769 0.229166666666667
-0.349226689545909 -0.444853656592348 0.229166666666667
-0.349183882248575 -0.456371564441787 0.229166666666666
-0.33234313729362 -0.46274856690208 0.229166666666666
-0.335482005177714 -0.467122766036969 0.229166666666667
-0.323836472504744 -0.481844275117822 0.229166666666667
-0.315997749382654 -0.49033076682325 0.229166666666667
-0.5 -0.216261060807462 0.193273542145376
-0.5 -0.215932027197866 0.208114083972124
-0.5 -0.21365784482495 0.210021460606932
-0.5 -0.209598815216072 0.228988936898101
-0.499594366556094 -0.208215192291831 0.229166666666667
-0.499495860049933 -0.217220296695381 0.229166666666667
-0.492984451958489 -0.227434179589333 0.229166666666667
-0.482663655382074 -0.231306188849136 0.229166666666667
-0.474156375414609 -0.252103418860492 0.229166666666667
-0.469071263012377 -0.249375195075328 0.229166666666666
-0.462276350257752 -0.259579763399189 0.229166666666667
-0.463179725124328 -0.271751256666697 0.229166666666667
-0.451763273822894 -0.275768180976542 0.229166666666667
-0.446971809693995 -0.290466852009286 0.229166666666667
-0.439489977453096 -0.299209867552047 0.229166666666667
-0.434173817233462 -0.302168531931174 0.229166666666667
-0.429122838498616 -0.310317653805348 0.229166666666667
-0.423744926152068 -0.32320918310428 0.229166666666666
-0.416732702220069 -0.332703465441065 0.229166666666666
-0.417093292024143 -0.333145358699349 0.229166666666667
-0.399664779927638 -0.352348822066838 0.229166666666667
-0.400844503755835 -0.3619888940097 0.229166666666667
-0.393811819068808 -0.372332988389299 0.229166666666667
-0.391668194697578 -0.371606372144275 0.229166666666667
-0.380979213314334 -0.381097741730064 0.229166666666667
-0.38221744490735 -0.382611079227449 0.229166666666667
-0.37191338430283 -0.402408721944699 0.229166666666667
-0.360181446733107 -0.406978166075273 0.229166666666667
-0.351021413391181 -0.420923407306723 0.229166666666667
-0.356159771322343 -0.421631731497813 0.229166666666667
-0.334927580723389 -0.438576993772836 0.229166666666667
-0.334447369986628 -0.442526719762548 0.229166666666666
-0.332731700740767 -0.455729997585422 0.229166666666667
-0.326023572963179 -0.469293801796614 0.229166666666667
-0.310708007452459 -0.478473145229406 0.229166666666667
-0.305638533003053 -0.49051172525353 0.229166666666667
-0.296478804178055 -0.494717608203079 0.229166666666667
-0.5 -0.185564648367077 0.213926249141152
-0.5 -0.203957187833478 0.206978621013095
-0.5 -0.198877353337962 0.220766758176169
-0.499750837089255 -0.193337930030466 0.229166666666667
-0.490086238503516 -0.204473885229324 0.229166666666667
-0.48989150363205 -0.213184921878424 0.229166666666667
-0.48094734319555 -0.219597074888252 0.229166666666667
-0.476459931118701 -0.238953976703799 0.229166666666667
-0.469032318165305 -0.237690385477369 0.229166666666667
-0.464063281959275 -0.24547336010021 0.229166666666667
-0.456767279881362 -0.252990907230662 0.229166666666667
-0.457921708501479 -0.259792700161634 0.229166666666666
-0.441706470228306 -0.273065137897981 0.229166666666667
-0.439604727060311 -0.274703264659282 0.229166666666667
-0.43374946379882 -0.286869121665214 0.229166666666667
-0.435749002915444 -0.294344544808284 0.229166666666666
-0.42729265447311 -0.310177162710987 0.229166666666667
-0.419658150694961 -0.320310615113618 0.229166666666666
-0.410648329412011 -0.322660996842715 0.229166666666667
-0.406284082475923 -0.329900046866008 0.229166666666666
-0.401247073421611 -0.339440228494454 0.229166666666667
-0.394718725636441 -0.348793202581176 0.229166666666667
-0.386959304558584 -0.360239957811208 0.229166666666667
-0.380500693031045 -0.366438319761512 0.229166666666667
-0.378829085556446 -0.376668018668924 0.229166666666667
-0.3701532989514 -0.386888364377431 0.229166666666666
-0.363114022950524 -0.396076748539494 0.229166666666667
-0.357388213547573 -0.407239398684012 0.229166666666666
-0.351823114185384 -0.413364710716149 0.229166666666667
-0.343631282867454 -0.423364422898292 0.229166666666667
-0.334944477750297 -0.431845085533449 0.229166666666667
-0.326833002286613 -0.441954066735874 0.229166666666667
-0.327544699989315 -0.447622924702699 0.229166666666667
-0.321829263156504 -0.453529691181932 0.229166666666667
-0.308988969148448 -0.47149955372289 0.229166666666667
-0.300591468098842 -0.482589061836987 0.229166666666666
-0.294372933846284 -0.490498711852419 0.229166666666666
-0.5 -0.182092593137708 0.213571929255698
-0.5 -0.178457089144624 0.225196662894939
-0.491300872292272 -0.185389843069293 0.229166666666667
-0.490087386703751 -0.199949024679941 0.229166666666666
-0.491222099981722 -0.194200533151889 0.229166666666667
-0.481157397034805 -0.206715185547569 0.229166666666667
-0.470179971218446 -0.223780808763394 0.229166666666667
-0.466579605109267 -0.226112837031046 0.229166666666667
-0.461108049558342 -0.231116199118211 0.229166666666666
-0.459408347569996 -0.237630695013195 0.229166666666667
-0.45493605374475 -0.248199685907975 0.229166666666667
-0.443405675646198 -0.259894640795085 0.229166666666667
-0.444979126008088 -0.264064014028853 0.229166666666666
-0.43161908608034 -0.274576696347548 0.229166666666667
-0.428777032981497 -0.278654543325302 0.229166666666667
-0.42189534568379 -0.291667192951657 0.229166666666667
-0.421421525998255 -0.295077352338429 0.229166666666667
-0.413187607205105 -0.304200082645324 0.229166666666667
-0.398865228855096 -0.315046740134909 0.229166666666667
-0.398949314068469 -0.325360036683509 0.229166666666667
-0.386268455298973 -0.336518929436338 0.229166666666667
-0.393071198580268 -0.33754410379756 0.229166666666667
-0.378341179785398 -0.350897437800425 0.229166666666666
-0.372529111137948 -0.360897492776194 0.229166666666667
-0.372019546882817 -0.361724489532048 0.229166666666667
-0.356079901861866 -0.380963795938525 0.229166666666667
-0.348963167012327 -0.388367461612204 0.229166666666667
-0.346991665653605 -0.388724602971442 0.229166666666667
-0.343290705022334 -0.409132867617755 0.229166666666667
-0.333661210139514 -0.414735361218924 0.229166666666667
-0.329815520212686 -0.427115109961813 0.229166666666667
-0.324779761885953 -0.429739020614954 0.229166666666667
-0.31780878292626 -0.440771081061805 0.229166666666667
-0.306673501336571 -0.454369388967009 0.229166666666667
-0.295001390494178 -0.46916774067942 0.229166666666667
-0.295659743876183 -0.470967109311137 0.229166666666667
-0.283565437383026 -0.48541096971124 0.223958333333333
-0.280838814459356 -0.492162395705114 0.223958333333334
-0.5 -0.160468957168418 0.227401043217411
-0.49615181502925 -0.177374299825432 0.229166666666667
-0.489593145208281 -0.175113143431456 0.229166666666667
-0.482788659142399 -0.189587852510456 0.229166666666667
-0.477498989659282 -0.191688041053434 0.229166666666667
-0.473324993686204 -0.204871723393522 0.229166666666667
-0.470482146515779 -0.206488741249538 0.229166666666667
-0.456129104779895 -0.222215392028565 0.229166666666667
-0.455398278087172 -0.224650436189325 0.229166666666667
-0.454420087295962 -0.227321337277197 0.229166666666667
-0.447344868799976 -0.243482095672121 0.229166666666667
-0.4437592233557 -0.2491888156143 0.229166666666667
-0.433981815175802 -0.264596400966325 0.229166666666666
-0.424003881011496 -0.269542582016957 0.229166666666667
-0.415457148394532 -0.278594133552204 0.229166666666667
-0.411908418310146 -0.283702882752341 0.229166666666667
-0.409465101266009 -0.290792876024643 0.229166666666666
-0.407108683059163 -0.30022766156198 0.229166666666667
-0.402662863911662 -0.304479608346501 0.229166666666667
-0.393762568749777 -0.317676517563155 0.229166666666667
-0.380176254942251 -0.32964295712875 0.229166666666667
-0.385489292803384 -0.328325475726281 0.229166666666667
-0.372744608636155 -0.343763037541887 0.229166666666667
-0.363593074077756 -0.353196878564509 0.229166666666666
-0.367649580698448 -0.361134853368919 0.229166666666666
-0.356241595425873 -0.37496044374092 0.229166666666667
-0.349205162986306 -0.376782833064911 0.229166666666666
-0.336310297014137 -0.389839728105607 0.229166666666667
-0.338112954266723 -0.394808013692574 0.229166666666667
-0.321975453067781 -0.403956697758514 0.229166666666667
-0.316060766572245 -0.420686385839025 0.229166666666667
-0.316451070100008 -0.431384195079305 0.229166666666667
-0.314142432760902 -0.432789606222574 0.229166666666667
-0.296203312179682 -0.447376067680171 0.229166666666666
-0.299309489957725 -0.452120405619836 0.229166666666667
-0.282527301893165 -0.470382185676768 0.223958333333333
-0.275141820030926 -0.473861368473778 0.223958333333333
-0.262920545773165 -0.492114980713521 0.223958333333333
-0.259537350182183 -0.494085122556302 0.223958333333333
-0.492894452610444 -0.159661760629717 0.229166666666666
-0.485438804234098 -0.171460058343982 0.229166666666666
-0.482443129214047 -0.176276371522735 0.229166666666667
-0.477469096527192 -0.177915922026189 0.229166666666667
-0.474766083140782 -0.180092784513 0.229166666666667
-0.462045182575762 -0.202383056645279 0.229166666666667
-0.460564328678482 -0.211762658839477 0.229166666666667
-0.451238310664138 -0.211127013502595 0.229166666666667
-0.445715253858047 -0.221252453639036 0.229166666666667
-0.438938573390695 -0.232944797688386 0.229166666666667
-0.437876493320291 -0.230552610383091 0.229166666666667
-0.436933249339719 -0.243143579001974 0.229166666666666
-0.429270578641094 -0.257504231488569 0.229166666666667
-0.419697877872323 -0.259072508644484 0.229166666666667
-0.410153034404906 -0.270091953988476 0.229166666666667
-0.406518203412385 -0.276283489346575 0.229166666666667
-0.395770155445126 -0.288432172176127 0.229166666666667
-0.393956422238769 -0.293320452070472 0.229166666666667
-0.387233072762921 -0.304897721174161 0.229166666666667
-0.378891697497165 -0.31404690640917 0.229166666666666
-0.379731620779012 -0.313689108807472 0.229166666666666
-0.366703556010342 -0.332810900288927 0.229166666666666
-0.361584443601539 -0.339026033033194 0.229166666666667
-0.360102291313166 -0.341611544739498 0.229166666666667
-0.354978817475775 -0.355510648914806 0.229166666666666
-0.347801857963818 -0.359101534963564 0.229166666666667
-0.341977280481158 -0.377522677946132 0.229166666666667
-0.332006090805788 -0.374921763693441 0.229166666666667
-0.325889687476005 -0.389520088126449 0.229166666666667
-0.320892379310428 -0.398030622323237 0.229166666666667
-0.317953119664003 -0.406998340256647 0.229166666666667
-0.30877265280062 -0.41125159921951 0.229166666666667
-0.302676204745424 -0.423993445018189 0.229166666666667
-0.296340668276595 -0.43918095504853 0.229166666666667
-0.282084019332194 -0.453657237422948 0.223958333333333
-0.284270743406672 -0.456110468293042 0.223958333333333
-0.269962345993917 -0.47188757546271 0.223958333333333
-0.260163589949838 -0.48520678222261 0.223958333333333
-0.254742406143747 -0.491757339170955 0.223958333333333
-0.493066481596632 -0.150394372964193 0.229166666666667
-0.481751160592967 -0.158566787023365 0.229166666666666
-0.477535861139627 -0.167272799134816 0.229166666666667
-0.477924047653964 -0.172638903878424 0.229166666666667
-0.463486551843049 -0.183508274367232 0.229166666666667
-0.460814974345208 -0.192334434222902 0.229166666666667
-0.455463018122291 -0.197430861918651 0.229166666666667
-0.449849460928085 -0.199891239736129 0.229166666666667
-0.44263119988733 -0.215210881645323 0.229166666666667
-0.432314746638235 -0.21798493847167 0.229166666666666
-0.42936631794102 -0.231858642767016 0.229166666666667
-0.420693935463035 -0.237971432058236 0.229166666666667
-0.416100721075759 -0.242799159300635 0.229166666666667
-0.408268893813889 -0.258185887315411 0.229166666666667
-0.405188650446993 -0.263411464049898 0.229166666666667
-0.403670182843053 -0.267680444787625 0.229166666666667
-0.392621154471236 -0.283764256177884 0.229166666666666
-0.386375798219993 -0.286362943032705 0.229166666666667
-0.385083297963524 -0.293556757938688 0.229166666666667
-0.372389742487583 -0.311097114966019 0.229166666666667
-0.376980557457503 -0.304868363348268 0.229166666666667
-0.367405129996928 -0.32099817180683 0.229166666666667
-0.364518105985292 -0.329381860431386 0.229166666666666
-0.352711204981397 -0.338583085192585 0.229166666666666
-0.347781855601889 -0.349758787735656 0.229166666666666
-0.341757718688913 -0.357692553858085 0.229166666666666
-0.331094538244477 -0.36329402385436 0.229166666666667
-0.320056001249921 -0.383140534897835 0.229166666666667
-0.318633693408698 -0.389459689590093 0.229166666666667
-0.307929875138709 -0.395916600112143 0.229166666666667
-0.311424719897785 -0.392861019708488 0.229166666666667
-0.303651699740984 -0.408014034678142 0.229166666666667
-0.28819174748978 -0.422362559937608 0.223958333333333
-0.282378904326003 -0.429322905374023 0.223958333333333
-0.275373845052233 -0.446591737267231 0.223958333333333
-0.275161861175058 -0.456694689985066 0.223958333333333
-0.261161258910075 -0.460551149080871 0.223958333333333
-0.254312626948818 -0.468490016417169 0.223958333333334
-0.251240687997712 -0.487985675715121 0.223958333333333
-0.482568338051376 -0.145186744026427 0.229166666666667
-0.475181586428739 -0.154091322943222 0.229166666666667
-0.465607230380462 -0.16475493283718 0.229166666666666
-0.466789494962702 -0.172557352647188 0.229166666666667
-0.461152906874792 -0.176488291068245 0.229166666666666
-0.454420962225884 -0.178318238808344 0.229166666666667
-0.44468095376336 -0.186846032281731 0.229166666666667
-0.443668603097415 -0.195923104242877 0.229166666666667
-0.439668789674067 -0.20699404277379 0.229166666666667
-0.424925148715988 -0.219396606594522 0.229166666666667
-0.423635987903751 -0.216549720190411 0.229166666666666
-0.419521975594502 -0.230218310807545 0.229166666666667
-0.408306646144815 -0.244764142369778 0.229166666666667
-0.404820595002153 -0.249361455005183 0.229166666666667
-0.398016464487074 -0.252691816119817 0.229166666666667
-0.388124829158071 -0.262279865621674 0.229166666666667
-0.392877252644751 -0.266012435007316 0.229166666666667
-0.380530220396729 -0.281004400124474 0.229166666666667
-0.379800996173724 -0.287199181816038 0.229166666666667
-0.36873302220632 -0.302357003866745 0.229166666666667
-0.363393608626189 -0.303353643981403 0.229166666666667
-0.354897113371212 -0.312484434815566 0.229166666666666
-0.353189375974554 -0.319940693904459 0.229166666666666
-0.344331749564032 -0.332074031591825 0.229166666666667
-0.337152654864199 -0.340625611144349 0.229166666666667
-0.332259317532449 -0.351175499890524 0.229166666666667
-0.321914011771541 -0.353888279798839 0.229166666666667
-0.317110021211408 -0.372664322144174 0.229166666666667
-0.314333167733045 -0.380937420246917 0.229166666666666
-0.305891172693072 -0.392371249917604 0.229166666666667
-0.303743557669006 -0.391509572075597 0.229166666666666
-0.285500487936916 -0.406463854723059 0.223958333333333
-0.282737000423156 -0.42527502953031 0.223958333333334
-0.278685881471533 -0.420713917387606 0.223958333333333
-0.268017436923488 -0.430773256220899 0.223958333333333
-0.266715861572536 -0.445920879143094 0.223958333333333
-0.256831859738681 -0.46466240094382 0.223958333333333
-0.249791879106886 -0.464264037164523 0.223958333333333
-0.24442177147529 -0.469364162113798 0.223958333333333
-0.238568113572855 -0.477505105338473 0.223958333333334
-0.470339298218898 -0.141934158269483 0.229166666666667
-0.471786516828705 -0.147947860618356 0.229166666666667
-0.460804406293241 -0.14821132139248 0.229166666666667
-0.45694667022856 -0.16138361222171 0.229166666666667
-0.453216947803925 -0.165882859495867 0.229166666666667
-0.441933529904029 -0.180671243291549 0.229166666666666
-0.444811410319688 -0.176588380328521 0.229166666666667
-0.429310860340601 -0.197882516392758 0.229166666666667
-0.429679291730832 -0.205935145584 0.229166666666667
-0.423943737748984 -0.212397806917391 0.229166666666667
-0.416955677698535 -0.213674582242377 0.229166666666667
-0.409401595727385 -0.222586629623243 0.229166666666667
-0.406016665864421 -0.234165919973507 0.229166666666666
-0.399313377903485 -0.242676121711235 0.229166666666667
-0.399481509741205 -0.248005561268716 0.229166666666667
-0.392800507422371 -0.253597435023725 0.229166666666667
-0.378773487612066 -0.269764156123396 0.229166666666667
-0.373338405768576 -0.271084190378085 0.229166666666667
-0.368786753433253 -0.281793938142048 0.229166666666667
-0.359193941448786 -0.287966117990824 0.229166666666667
-0.357455374601685 -0.304214515647431 0.229166666666667
-0.353251714595139 -0.307960833471582 0.229166666666667
-0.340271983162076 -0.313491982218485 0.229166666666667
-0.333656241726928 -0.322407697562312 0.229166666666667
-0.335385873759332 -0.32550899737053 0.229166666666667
-0.326232170907166 -0.340268977470977 0.229166666666667
-0.321350051847403 -0.35666422323251 0.229166666666667
-0.311877331563595 -0.358940721372464 0.229166666666667
-0.304829502855596 -0.371042551724956 0.229166666666667
-0.305560694314405 -0.374041086183648 0.229166666666667
-0.283806638418599 -0.396291531678587 0.223958333333333
-0.285163397077994 -0.393656683146988 0.223958333333333
-0.281252356317289 -0.413515067460215 0.223958333333333
-0.272438394685184 -0.422618681011081 0.223958333333333
-0.261847312539143 -0.432661339952185 0.223958333333333
-0.259645760943408 -0.430449504806581 0.223958333333333
-0.247925671856941 -0.443345290139961 0.223958333333333
-0.237982831350658 -0.462252156948509 0.223958333333333
-0.233273908027117 -0.468358371819496 0.223958333333333
-0.228988544595609 -0.475642073179729 0.223958333333333
-0.218586003737126 -0.483354353347041 0.223958333333333
-0.470376987108969 -0.12736688584363 0.229166666666667
-0.464490503235142 -0.137937964981837 0.229166666666667
-0.455893113215023 -0.146113061873794 0.229166666666667
-0.448312590429353 -0.152341596026452 0.229166666666667
-0.450413185045943 -0.156898542106375 0.229166666666667
-0.435050759236817 -0.171535230010252 0.229166666666667
-0.435710859435174 -0.173328064604635 0.229166666666667
-0.431707805166344 -0.179997564389661 0.229166666666667
-0.421050141700404 -0.193531670381749 0.229166666666667
-0.415455209728538 -0.203059120272592 0.229166666666667
-0.414027771018434 -0.205579360209368 0.229166666666667
-0.409474448441684 -0.209825623949446 0.229166666666666
-0.405604262373023 -0.217814435073002 0.229166666666667
-0.388770841416855 -0.234439498139406 0.229166666666667
-0.389961447531189 -0.243479530523301 0.229166666666667
-0.377381962918651 -0.25066736321732 0.229166666666667
-0.37287078886727 -0.259279762028563 0.229166666666667
-0.365151298350694 -0.272760374677405 0.229166666666667
-0.364986837144494 -0.266075494112855 0.229166666666667
-0.36041384800118 -0.279479712015911 0.229166666666667
-0.354666438795559 -0.292264987900932 0.229166666666667
-0.341316850093161 -0.295771192681599 0.229166666666666
-0.335915831710462 -0.306682226100503 0.229166666666667
-0.330247143473844 -0.31174957462979 0.229166666666667
-0.323260780504899 -0.334389264542211 0.229166666666667
-0.323484329767276 -0.338602078888085 0.229166666666667
-0.313054979149414 -0.338721644440575 0.229166666666666
-0.303376175606209 -0.354386257206146 0.229166666666667
-0.297858528211908 -0.358615713044389 0.229166666666667
-0.294556483592176 -0.369744985964266 0.229166666666667
-0.275939593216071 -0.39293425839337 0.223958333333334
-0.266672974479774 -0.40262012060576 0.223958333333333
-0.266857547870797 -0.400264668154972 0.223958333333333
-0.258767091348419 -0.414510882210227 0.223958333333333
-0.251434749060519 -0.419984804461515 0.223958333333333
-0.243191486052039 -0.428362372718223 0.223958333333333
-0.242420991719758 -0.445865583719273 0.223958333333334
-0.226079934336545 -0.454302866892038 0.223958333333333
-0.228843323722599 -0.461784827044078 0.223958333333333
-0.224445013044533 -0.474120424612587 0.223958333333333
-0.205553637053392 -0.480281797318331 0.223958333333333
-0.204593064628677 -0.487188940035489 0.223958333333333
-0.465824356438083 -0.126786912904191 0.229166666666667
-0.454632291064542 -0.133881287584668 0.229166666666667
-0.449753979304018 -0.138964513238228 0.229166666666666
-0.440674811480064 -0.146358807752347 0.229166666666667
-0.440954946971783 -0.15931007507806 0.229166666666667
-0.430625919383304 -0.161984512139578 0.229166666666667
-0.426566859955723 -0.166887763316634 0.229166666666667
-0.423683094554736 -0.182065047600028 0.229166666666667
-0.420425998816325 -0.18353516420542 0.229166666666666
-0.410761246954038 -0.196285984599618 0.229166666666667
-0.400234490712358 -0.198683524183257 0.229166666666667
-0.399105027436512 -0.211414356469534 0.229166666666667
-0.387549595020543 -0.221483401416242 0.229166666666667
-0.389492718663157 -0.22380400160912 0.229166666666667
-0.386197733267535 -0.22758404665352 0.229166666666667
-0.368099146893144 -0.242372365663578 0.229166666666667
-0.367869607708994 -0.243276713785252 0.229166666666667
-0.359141477657053 -0.261238279654125 0.229166666666667
-0.358509488759421 -0.264230100045037 0.229166666666667
-0.352417554498221 -0.273815055494617 0.229166666666667
-0.344514585196004 -0.279462964815815 0.229166666666667
-0.334611449665449 -0.294664573830258 0.229166666666667
-0.329697356893235 -0.306334496309554 0.229166666666667
-0.324471260214073 -0.308782919280988 0.229166666666667
-0.317947752436563 -0.319249992564355 0.229166666666667
-0.314411602945507 -0.323774062546497 0.229166666666667
-0.307232971481215 -0.32998558991559 0.229166666666667
-0.303667101495666 -0.34735687915292 0.229166666666667
-0.287465801823738 -0.3599503689689 0.223958333333334
-0.280331653243829 -0.362698002600841 0.223958333333333
-0.274057737791213 -0.37480142982372 0.223958333333333
-0.274203580873023 -0.38746606742441 0.223958333333334
-0.261227158325493 -0.389021754262401 0.223958333333333
-0.250148020809058 -0.408230486768791 0.223958333333334
-0.248983699830518 -0.414400021617034 0.223958333333333
-0.240890626521628 -0.421578944215757 0.223958333333333
-0.226349040305799 -0.437581563344554 0.223958333333334
-0.220743162337938 -0.447183858202996 0.223958333333333
-0.216364893986918 -0.452941253190401 0.223958333333334
-0.216351729681011 -0.464558956313987 0.223958333333333
-0.200723844750836 -0.482109401318155 0.223958333333333
-0.196666474715798 -0.482214191775609 0.223958333333333
-0.186326196765643 -0.490565640957914 0.223958333333334
-0.46064238787841 -0.120422288275085 0.229166666666667
-0.451590277583043 -0.12164039898799 0.229166666666667
-0.443866367389195 -0.139697012053834 0.229166666666667
-0.438125825656703 -0.133528969580954 0.229166666666667
-0.433618776728366 -0.1478086185897 0.229166666666667
-0.43174320988321 -0.148498648832803 0.229166666666666
-0.422837540415815 -0.161621968975819 0.229166666666667
-0.415044735554738 -0.165329782231494 0.229166666666667
-0.410274694692607 -0.173324354918737 0.229166666666667
-0.404499780741823 -0.187149144912223 0.229166666666667
-0.402464200899518 -0.191147334608643 0.229166666666667
-0.393114803060204 -0.206451070543025 0.229166666666667
-0.384021815511724 -0.216820771269291 0.229166666666667
-0.379071155698938 -0.216632722354736 0.229166666666667
-0.36944044664881 -0.23447365243835 0.229166666666667
-0.371277085159237 -0.234660301710341 0.229166666666667
-0.358236976994851 -0.239173022235008 0.229166666666667
-0.34989309135196 -0.251868267156539 0.229166666666667
-0.350368486618267 -0.260493762796071 0.229166666666667
-0.341114603305343 -0.274269570570182 0.229166666666666
-0.340526308512946 -0.277951909324418 0.229166666666667
-0.330126090521903 -0.290897144145799 0.229166666666667
-0.321200957102535 -0.297181208999063 0.229166666666667
-0.316617854577458 -0.302711268809601 0.229166666666667
-0.312382073364926 -0.310731147133383 0.229166666666667
-0.304834184441537 -0.319685196964572 0.229166666666667
-0.293242104572095 -0.330367511554459 0.229166666666667
-0.285422336919879 -0.3469851983092 0.223958333333333
-0.282288400533516 -0.350619985833936 0.223958333333333
-0.269679196865128 -0.358975511137437 0.223958333333333
-0.268923084819448 -0.373737060289098 0.223958333333333
-0.260280244347008 -0.371059133772325 0.223958333333333
-0.256562899673513 -0.388707046056879 0.223958333333333
-0.251585970198672 -0.393829968166247 0.223958333333333
-0.236169200147497 -0.40360264398852 0.223958333333333
-0.238389407078468 -0.413478582028043 0.223958333333333
-0.230403951831749 -0.426263507889935 0.223958333333333
-0.216885399316118 -0.439083232218203 0.223958333333333
-0.209602455752929 -0.449089316122464 0.223958333333333
-0.199465165596956 -0.449775950164716 0.223958333333333
-0.195067239839566 -0.46307076641387 0.223958333333333
-0.183280618310754 -0.480921677597576 0.223958333333333
-0.176459631933093 -0.483325916545836 0.223958333333333
-0.454366835000648 -0.108371903362163 0.229166666666666
-0.446167344673949 -0.11382754190828 0.229166666666667
-0.434753196128764 -0.128377259349435 0.229166666666667
-0.427740957669735 -0.132054877517726 0.229166666666667
-0.423352059225763 -0.141286277079143 0.229166666666667
-0.417120358702515 -0.150602083390821 0.229166666666666
-0.412107015276952 -0.155124714654748 0.229166666666667
-0.410285462238892 -0.160058528395415 0.229166666666667
-0.405679940118506 -0.170061076264306 0.229166666666667
-0.397154278299306 -0.177974584528882 0.229166666666666
-0.392256696686834 -0.194280127004176 0.229166666666667
-0.388165285532764 -0.198635076104402 0.229166666666667
-0.377186878425229 -0.205185104349549 0.229166666666666
-0.375702309436454 -0.210814107599379 0.229166666666667
-0.364276040758783 -0.227096074643301 0.229166666666667
-0.361826792633539 -0.225305916887365 0.229166666666667
-0.355827696902769 -0.230044711665103 0.229166666666667
-0.351878140330357 -0.23989082334129 0.229166666666667
-0.339878593990802 -0.253842939531527 0.229166666666667
-0.333436545708424 -0.258614615789699 0.229166666666667
-0.335959375256588 -0.271439253598564 0.229166666666667
-0.320994971786594 -0.2764162166697 0.229166666666667
-0.313639438755182 -0.287860227054864 0.229166666666667
-0.310148775588815 -0.300809795199879 0.229166666666666
-0.300167639554804 -0.305886915105341 0.229166666666666
-0.287302525971929 -0.324063602019046 0.223958333333333
-0.285780707749668 -0.324214317018192 0.223958333333333
-0.281878706784527 -0.330742751663911 0.223958333333333
-0.267493724654666 -0.344265505468247 0.223958333333333
-0.260342238755501 -0.353568322677179 0.223958333333333
-0.255220761150391 -0.358520493885905 0.223958333333333
-0.249618167219499 -0.368668822347765 0.223958333333333
-0.252876626107228 -0.377702955753488 0.223958333333333
-0.235469164433554 -0.392011960814693 0.223958333333334
-0.232870741138153 -0.401181015981427 0.223958333333333
-0.22268827107104 -0.409528016245034 0.223958333333333
-0.216218621394551 -0.422075133943543 0.223958333333334
-0.204205177473718 -0.433260316689846 0.223958333333334
-0.197507439955627 -0.437087093262595 0.223958333333333
-0.200829747113673 -0.445485831754666 0.223958333333333
-0.188382278980353 -0.464717965204728 0.223958333333333
-0.173945425873928 -0.474505991891629 0.223958333333334
-0.168843604356307 -0.481846136199671 0.223958333333333
-0.167048501284835 -0.488304797440478 0.223958333333333
-0.440891371043116 -0.101106932956295 0.229166666666667
-0.438345682251211 -0.113686792481927 0.229166666666667
-0.42379430767094 -0.125588158004046 0.229166666666667
-0.431689275174957 -0.121664266254748 0.229166666666667
-0.419942386508696 -0.135804896426176 0.229166666666667
-0.415846968289369 -0.139864793690484 0.229166666666667
-0.4071951082298 -0.150735703529947 0.229166666666667
-0.400626198319205 -0.162787347271576 0.229166666666666
-0.393968141165693 -0.167299783377908 0.229166666666667
-0.386598041587008 -0.17872518612632 0.229166666666667
-0.381753872665415 -0.174868851296022 0.229166666666667
-0.383407722962685 -0.182469196548261 0.229166666666667
-0.371881940132307 -0.204291411076966 0.229166666666667
-0.372900815234756 -0.206322585433261 0.229166666666667
-0.359369777460191 -0.207682689449421 0.229166666666667
-0.356809997452267 -0.226736221063976 0.229166666666667
-0.341757251919274 -0.235693084597194 0.229166666666667
-0.342698017582483 -0.24201317949163 0.229166666666667
-0.336381825164532 -0.241969176295596 0.229166666666667
-0.328982130520014 -0.255078085998024 0.229166666666666
-0.328102756647693 -0.261490593377299 0.229166666666667
-0.320368911032342 -0.266771717285568 0.229166666666667
-0.305697590059573 -0.281414161932287 0.229166666666667
-0.305925123684522 -0.290992332693281 0.229166666666667
-0.292187454369661 -0.299937132157145 0.229166666666667
-0.293121367101402 -0.303325114786829 0.229166666666666
-0.272582657090515 -0.32493895582455 0.223958333333333
-0.268952016259594 -0.335895967365374 0.223958333333333
-0.264238349652176 -0.331955015165286 0.223958333333333
-0.257440287814989 -0.344961214428137 0.223958333333333
-0.25946091554328 -0.355317502509535 0.223958333333333
-0.247359947371623 -0.368344577488213 0.223958333333333
-0.235219911958687 -0.372849886139973 0.223958333333333
-0.229585981416951 -0.38685257113258 0.223958333333333
-0.223792613749714 -0.39288321061198 0.223958333333333
-0.222972486660027 -0.394354026595537 0.223958333333333
-0.209716151387266 -0.40922156646879 0.223958333333333
-0.194870635357848 -0.421154285378721 0.223958333333333
-0.188456690085871 -0.439371277567672 0.223958333333333
-0.187243724589476 -0.439632247748696 0.223958333333334
-0.175902378258535 -0.456707751972707 0.223958333333333
-0.179745698298284 -0.462088432949732 0.223958333333333
-0.158233584173926 -0.476899990317104 0.223958333333334
-0.151533200008504 -0.482406689769632 0.223958333333333
-0.150394800617271 -0.48895635559321 0.223958333333333
-0.43766540653166 -0.0987967349274991 0.229166666666667
-0.429278102851569 -0.0982114076858715 0.229166666666666
-0.425933370066645 -0.107398527810481 0.229166666666667
-0.420173516700374 -0.116664131953763 0.229166666666667
-0.417248228635562 -0.125050399424125 0.229166666666667
-0.405796798430193 -0.139521481743319 0.229166666666666
-0.401098168415448 -0.140071523459477 0.229166666666667
-0.393725177553763 -0.150211789931139 0.229166666666666
-0.388858761112132 -0.162211995254541 0.229166666666666
-0.385091224004602 -0.167444836260627 0.229166666666667
-0.381122609732596 -0.170376349770195 0.229166666666667
-0.370414878027019 -0.186270963715628 0.229166666666667
-0.36618863033037 -0.190863553841023 0.229166666666667
-0.354103780781771 -0.199282834525095 0.229166666666667
-0.354235483320577 -0.210198219730022 0.229166666666667
-0.343668705160727 -0.219182238279578 0.229166666666667
-0.342599415594719 -0.229862934930164 0.229166666666667
-0.33344197545006 -0.232436998356959 0.229166666666667
-0.324831748605679 -0.245424733751471 0.229166666666667
-0.314404083819854 -0.247099038384948 0.229166666666667
-0.315191347285501 -0.253669051324672 0.229166666666667
-0.306334937904503 -0.264882761640605 0.229166666666667
-0.304296440344799 -0.27354142146854 0.229166666666667
-0.298645632916437 -0.2772078528593 0.229166666666667
-0.281488035468072 -0.297683074358122 0.223958333333333
-0.280870006834135 -0.304144751054182 0.223958333333333
-0.271716843334363 -0.311882119849308 0.223958333333333
-0.263842326088224 -0.322444576573539 0.223958333333333
-0.260678644419767 -0.327067359675567 0.223958333333333
-0.250213418744177 -0.343156220892327 0.223958333333333
-0.246573824386283 -0.353650916615014 0.223958333333334
-0.24138802007325 -0.357464709771253 0.223958333333333
-0.235474946742377 -0.36904479703222 0.223958333333334
-0.21958849550742 -0.383754706591029 0.223958333333333
-0.216324487840522 -0.384148605747329 0.223958333333334
-0.213915240021381 -0.396774158480882 0.223958333333333
-0.202144902134832 -0.411764854824454 0.223958333333334
-0.19234080733871 -0.422542130746292 0.223958333333333
-0.185418999289123 -0.428054876815122 0.223958333333333
-0.178360286986244 -0.425190134922882 0.223958333333333
-0.172494776105209 -0.440160209871351 0.223958333333333
-0.168323353693908 -0.453435156764966 0.223958333333334
-0.156475658616947 -0.466842067796699 0.223958333333333
-0.155756354315013 -0.477169496840182 0.223958333333333
-0.146748646059905 -0.48083440711944 0.223958333333333
-0.128535186927649 -0.490366263963715 0.223958333333333
-0.425281244421232 -0.0902822801935454 0.229166666666667
-0.42891139155471 -0.101697807389287 0.229166666666667
-0.417523844724422 -0.114571940987147 0.229166666666667
-0.417869130302353 -0.110424162986207 0.229166666666666
-0.407288213204908 -0.12224610504983 0.229166666666667
-0.401166604928505 -0.127989237049609 0.229166666666667
-0.388923203964386 -0.135607049836441 0.229166666666667
-0.391421219394547 -0.147020513424502 0.229166666666666
-0.378654179669805 -0.15641702432016 0.229166666666667
-0.380648169444949 -0.161663617623438 0.229166666666667
-0.373939720714668 -0.165750990137616 0.229166666666667
-0.367450198022359 -0.172064556285218 0.229166666666667
-0.357240476834964 -0.185325084588251 0.229166666666667
-0.350948895995001 -0.187505231357607 0.229166666666667
-0.345477626091286 -0.200872913498667 0.229166666666667
-0.341889995913285 -0.207422554695252 0.229166666666667
-0.333871784470809 -0.21138701590655 0.229166666666667
-0.323480190859181 -0.231340046169618 0.229166666666667
-0.320757542641097 -0.229879187694442 0.229166666666667
-0.318097616462707 -0.234437894743315 0.229166666666667
-0.304030881522331 -0.255392788033223 0.229166666666667
-0.304296710935159 -0.259616557053875 0.229166666666667
-0.300787271066076 -0.264315895827446 0.229166666666667
-0.295487582178547 -0.269402363939658 0.229166666666667
-0.282855615046589 -0.2872680162528 0.223958333333333
-0.27467377074191 -0.293652483878634 0.223958333333333
-0.262658945109238 -0.309217062561661 0.223958333333333
-0.251719726811583 -0.312311382414133 0.223958333333333
-0.249668434094304 -0.323002832327641 0.223958333333333
-0.240651461884545 -0.330924829170778 0.223958333333333
-0.237073977735567 -0.342303597099889 0.223958333333333
-0.234285989622535 -0.351459185366928 0.223958333333333
-0.22526462175332 -0.358912544207643 0.223958333333333
-0.218813976814127 -0.36876198621586 0.223958333333333
-0.210839010062054 -0.381537201847372 0.223958333333333
-0.197853463971464 -0.388279923691233 0.223958333333333
-0.19559532687968 -0.391477282499012 0.223958333333333
-0.185916720707876 -0.406090321316931 0.223958333333333
-0.177950467796391 -0.411372169139282 0.223958333333333
-0.175492236211395 -0.41958599772938 0.223958333333333
-0.159620605228276 -0.439265153540149 0.223958333333333
-0.156290850652305 -0.45101996537852 0.223958333333333
-0.147378087864183 -0.456525557578284 0.223958333333333
-0.139217217982199 -0.467765130187652 0.223958333333333
-0.131150169132768 -0.476367891667502 0.223958333333333
-0.127996281669496 -0.489346708089226 0.223958333333333
-0.423592489255983 -0.0792615030367897 0.229166666666667
-0.414777121411046 -0.0959125419195537 0.229166666666667
-0.41280516753831 -0.103892035812855 0.229166666666667
-0.404901842078916 -0.107079305974161 0.229166666666667
-0.399050860335296 -0.108852158938974 0.229166666666667
-0.394516851441606 -0.1278400051077 0.229166666666667
-0.389142765351216 -0.128786055991819 0.229166666666667
-0.38120898660251 -0.137271955672677 0.229166666666667
-0.380164082910811 -0.142537903048674 0.229166666666667
-0.369433317925626 -0.150151970184847 0.229166666666667
-0.369097767271642 -0.157625729957687 0.229166666666667
-0.354952401297027 -0.165304579039101 0.229166666666667
-0.34741572599894 -0.175229111370945 0.229166666666667
-0.339718268377699 -0.191753764218202 0.229166666666667
-0.345358900726915 -0.189997832964146 0.229166666666667
-0.330776693471208 -0.198118931326785 0.229166666666667
-0.319598584436379 -0.217546831879321 0.229166666666667
-0.323722959670034 -0.213937051166805 0.229166666666667
-0.314858507282293 -0.220519730653354 0.229166666666667
-0.310209628838497 -0.232546099380494 0.229166666666667
-0.306385421292655 -0.238011679239109 0.229166666666667
-0.293736835134547 -0.242672759727941 0.229166666666667
-0.28443290922884 -0.26845061396911 0.223958333333333
-0.275101184634026 -0.275469306106431 0.223958333333333
-0.270930050392483 -0.278631221077229 0.223958333333333
-0.262482254962973 -0.284566925757055 0.223958333333334
-0.258996014049672 -0.296675480566281 0.223958333333333
-0.247869904057024 -0.306591957077866 0.223958333333333
-0.242587709455541 -0.32261865570612 0.223958333333333
-0.237562266471923 -0.33131810970758 0.223958333333333
-0.229583810252649 -0.329109688393128 0.223958333333333
-0.227892804792552 -0.346227863665437 0.223958333333333
-0.213059190888974 -0.347686252222212 0.223958333333334
-0.209984339838036 -0.364924426770709 0.223958333333333
-0.199287346666086 -0.364806318408399 0.223958333333333
-0.199593012808038 -0.377096840736558 0.223958333333333
-0.18967784126501 -0.385253100298281 0.223958333333333
-0.179539210029555 -0.391981551468546 0.223958333333333
-0.16782206588021 -0.404993041824526 0.223958333333333
-0.170928621055844 -0.415955451616761 0.223958333333333
-0.160872958282727 -0.423620217473253 0.223958333333333
-0.149530336398232 -0.430099996715836 0.223958333333333
-0.147339655762577 -0.450291927440811 0.223958333333333
-0.138663526691629 -0.459514605824007 0.223958333333333
-0.131723088292349 -0.469261033448321 0.223958333333333
-0.119305505617836 -0.476540983792912 0.223958333333333
-0.111748503577576 -0.491408104813737 0.223958333333333
-0.41253599680386 -0.0840750295804576 0.229166666666667
-0.405524891274412 -0.0870160983198802 0.229166666666667
-0.406800584483711 -0.0917477349603671 0.229166666666667
-0.400628229761782 -0.099023375366395 0.229166666666667
-0.397409244302825 -0.11051750987598 0.229166666666667
-0.384968917887624 -0.118017563038243 0.229166666666667
-0.377986314227339 -0.121620301469471 0.229166666666666
-0.381547957051341 -0.12866581750552 0.229166666666667
-0.367835364043868 -0.140946938982254 0.229166666666667
-0.36649146402409 -0.14927295860631 0.229166666666667
-0.358509213734742 -0.155375378443907 0.229166666666667
-0.350632452556816 -0.166113555991985 0.229166666666666
-0.346368075639438 -0.168731244299865 0.229166666666667
-0.340707519601158 -0.176605227994644 0.229166666666666
-0.335359403749024 -0.182790436228156 0.229166666666667
-0.327061590557868 -0.196065260725315 0.229166666666667
-0.320511260548262 -0.200197140103528 0.229166666666667
-0.312801096754943 -0.205756161403479 0.229166666666667
-0.30802503958223 -0.21728258535635 0.229166666666667
-0.304528660070649 -0.225603753095117 0.229166666666667
-0.293894211611298 -0.232162584810771 0.229166666666667
-0.280437656380335 -0.254998995649899 0.223958333333333
-0.275782742351604 -0.258661456356384 0.223958333333333
-0.269766912946545 -0.265185756889671 0.223958333333333
-0.269024549574025 -0.264888919925144 0.223958333333333
-0.264523221099587 -0.278435591289946 0.223958333333333
-0.252008674844532 -0.284445752836403 0.223958333333333
-0.247090957159514 -0.299908056140629 0.223958333333333
-0.244333920384552 -0.301534741505911 0.223958333333333
-0.228031769901874 -0.32164787758136 0.223958333333334
-0.223179211413161 -0.325260182378651 0.223958333333333
-0.217160835878893 -0.336097926574686 0.223958333333333
-0.204888060373512 -0.342957865722486 0.223958333333333
-0.200015263171405 -0.35598341635249 0.223958333333334
-0.192911404456579 -0.36627403330095 0.223958333333333
-0.187572451784717 -0.381057983643473 0.223958333333333
-0.174845298635932 -0.389733963486138 0.223958333333333
-0.177418739448995 -0.38363544928679 0.223958333333333
-0.166286568899594 -0.401687760563337 0.223958333333333
-0.162369217842479 -0.408965941084036 0.223958333333333
-0.145629548018028 -0.417837779476164 0.223958333333334
-0.144250617213428 -0.427660016075521 0.223958333333333
-0.13767005421648 -0.443225318273446 0.223958333333333
-0.119527818544937 -0.449940940767738 0.223958333333333
-0.120357702182572 -0.462121393444414 0.223958333333333
-0.114275621149282 -0.472889777001742 0.223958333333333
-0.100581322086368 -0.478868862398211 0.223958333333333
-0.0952171197990881 -0.48273679249506 0.223958333333333
-0.404284156223319 -0.0730689978337 0.229166666666666
-0.396631275314198 -0.0853025899350332 0.229166666666667
-0.398802716998728 -0.0867514227608082 0.229166666666667
-0.388370856259903 -0.0904805490178821 0.229166666666667
-0.387239191352564 -0.0999848051240463 0.229166666666667
-0.385902645538085 -0.102447660894146 0.229166666666667
-0.377274953892262 -0.114065541151818 0.229166666666667
-0.372236530855571 -0.119800316460037 0.229166666666667
-0.366597725067769 -0.132085763266644 0.229166666666667
-0.355359987974144 -0.146610215437069 0.229166666666667
-0.348661268507244 -0.145438455887612 0.229166666666667
-0.343708440990913 -0.155450717440272 0.229166666666667
-0.337144823352252 -0.161970882934049 0.229166666666666
-0.329166330434291 -0.172444371934688 0.229166666666667
-0.321306006706959 -0.178736818709328 0.229166666666667
-0.318413183542298 -0.184956309263543 0.229166666666667
-0.30790313017022 -0.194346650826547 0.229166666666667
-0.302220337042351 -0.202003604237628 0.229166666666667
-0.303961789776103 -0.209723141410115 0.229166666666667
-0.286017217456937 -0.221240268706514 0.223958333333333
-0.284863124720498 -0.240242003732581 0.223958333333333
-0.271348349318616 -0.246653776519675 0.223958333333333
-0.273949392992036 -0.243408627842185 0.223958333333333
-0.264401943161871 -0.261584725589265 0.223958333333333
-0.257736851233011 -0.266675886668929 0.223958333333333
-0.254815385785088 -0.2783679749178 0.223958333333333
-0.25010819737786 -0.276297079222614 0.223958333333333
-0.23154027921206 -0.291216375452094 0.223958333333334
-0.233744304910168 -0.30677774778648 0.223958333333333
-0.215876580289446 -0.313710317810485 0.223958333333333
-0.215291331828252 -0.313201033195696 0.223958333333333
-0.203832305068418 -0.332016390415336 0.223958333333333
-0.205311613264665 -0.341505963373733 0.223958333333333
-0.195184634693262 -0.349188412118099 0.223958333333334
-0.193709184002615 -0.349007426603708 0.223958333333333
-0.183708305227194 -0.367701165401411 0.223958333333334
-0.177694705742534 -0.374976960619804 0.223958333333333
-0.165773863377148 -0.389640593910047 0.223958333333333
-0.155527755272227 -0.39649757215993 0.223958333333333
-0.143762527416288 -0.403107112300905 0.223958333333334
-0.139201655367236 -0.413959564353219 0.223958333333333
-0.1385082976903 -0.429500249556613 0.223958333333334
-0.128742218974052 -0.426102781636679 0.223958333333333
-0.120150587949296 -0.437391663808927 0.223958333333333
-0.10888279118947 -0.454663895590244 0.223958333333333
-0.11048566562978 -0.466858929444652 0.223958333333333
-0.104110935699844 -0.46486000998982 0.223958333333333
-0.0897443971095589 -0.480292579318374 0.223958333333333
-0.0764903354825181 -0.492229378013005 0.223958333333333
-0.398704535097288 -0.0653420645548297 0.229166666666666
-0.39882643061617 -0.0757444684455234 0.229166666666667
-0.384554222700269 -0.085298984935123 0.229166666666667
-0.385070041831981 -0.0849627266932955 0.229166666666667
-0.377527730426862 -0.100643078274365 0.229166666666667
-0.375148973119728 -0.10505946356395 0.229166666666667
-0.36562351066456 -0.111671877846011 0.229166666666667
-0.358707008902547 -0.120284548962804 0.229166666666667
-0.354669588793582 -0.130645391052614 0.229166666666667
-0.352378781109754 -0.13777545994397 0.229166666666667
-0.341293996357348 -0.147137005520622 0.229166666666667
-0.335807662773444 -0.147451516916716 0.229166666666667
-0.333122419920438 -0.156943756837079 0.229166666666667
