ply
format ascii 1.0
element vertex 875
property float x
property float y
property float z
end_header
-0.131325210339282 0.320512409804202 0.60593220338983
-0.138588322228527 0.321981649474664 0.60593220338983
-0.142973853326343 0.311542693489797 0.60593220338983
-0.161449568610586 0.307620277191317 0.60593220338983
-0.166196455334982 0.300042282692335 0.60593220338983
-0.171723342118994 0.294306442909463 0.60593220338983
-0.183463086002151 0.288048860434098 0.60593220338983
-0.202888563012544 0.271097883576805 0.60593220338983
-0.199991860911815 0.267601691964936 0.60593220338983
-0.211497369294181 0.263199888910747 0.60593220338983
-0.223698411195596 0.255925160597403 0.60593220338983
-0.24090822840808 0.2432448540087 0.60593220338983
-0.250057409541289 0.234863900585571 0.60593220338983
-0.257766029078402 0.233026793035626 0.60593220338983
-0.264393462087817 0.225991255335527 0.60593220338983
-0.280698234548856 0.211433363841519 0.60593220338983
-0.284560675954796 0.208860703351602 0.60593220338983
-0.295441469607898 0.200614960125095 0.60593220338983
-0.300539694196927 0.190746855774008 0.60593220338983
-0.31527919582505 0.183403467557628 0.60593220338983
-0.330169308169787 0.169516677654785 0.60593220338983
-0.341384762225603 0.159489035099983 0.60593220338983
-0.353835099345646 0.155517676963252 0.60593220338983
-0.355811250182719 0.150528077050724 0.60593220338983
-0.361398659289789 0.142936034742866 0.60593220338983
-0.380825228698597 0.123942910792123 0.60593220338983
-0.384352900238634 0.118489601205344 0.60593220338983
-0.398922806528564 0.117141209481137 0.60593220338983
-0.413949952890065 0.0996867976410517 0.60593220338983
-0.416430159252572 0.0998855307513913 0.60593220338983
-0.438177259003127 0.0758966869373217 0.60593220338983
-0.446922971420827 0.0804991777697389 0.60593220338983
-0.465026923087179 0.0697097338991527 0.60593220338983
-0.475509553803207 0.052154674281185 0.60593220338983
-0.485841439303417 0.0407218941991849 0.60593220338983
0.103162288001068 0.5 0.438226689486901
0.101336434849752 0.5 0.447052799336134
0.105042862994113 0.5 0.464452011260704
0.098791340294282 0.5 0.46005042433109
0.0927978770967577 0.493372875552081 0.466101694915254
0.0877601292430832 0.488800599092608 0.466101694915254
0.0791570667737559 0.482494325547343 0.466101694915254
0.0741581235051743 0.477954109381921 0.466101694915254
0.0583809024798943 0.470932775319003 0.466101694915254
0.060719988630618 0.463936661530926 0.466101694915254
0.0528167832869402 0.459430683435922 0.466101694915254
0.0418302945040441 0.454736161356421 0.466101694915254
0.0365175618364347 0.453167705465098 0.466101694915254
0.0262711985909096 0.438815390376838 0.466101694915254
0.0210649557669386 0.440081316071569 0.466101694915254
0.00970210811305699 0.424777281633137 0.466101694915254
0.000715092620503928 0.424961481224186 0.466101694915254
0.100868731713608 0.5 0.595359983162332
-0.0120308139053012 0.414073968811722 0.466101694915254
0.0965447227315363 0.5 0.596333743792764
0.0947243177222595 0.491840615816069 0.60593220338983
0.0864227716308318 0.484240282442311 0.60593220338983
0.0803531169374112 0.481301152643798 0.60593220338983
0.0706550190546281 0.478647495003006 0.60593220338983
0.0607871201507603 0.472104477997882 0.60593220338983
0.0580382790452745 0.466919965351145 0.60593220338983
0.0531637786369285 0.46108631619025 0.60593220338983
0.0447242715940938 0.451208969723575 0.60593220338983
0.0326034169018901 0.448514205110203 0.60593220338983
0.025619505538873 0.447888469989267 0.60593220338983
0.0187207301345156 0.435264089558941 0.60593220338983
0.00806486764188909 0.428749729018115 0.60593220338983
0.00675207866949303 0.420763941258139 0.60593220338983
-0.00808284182542105 0.411918972029296 0.60593220338983
-0.0198881325968142 0.407868561668417 0.60593220338983
-0.0277173498771366 0.396821329207365 0.60593220338983
-0.027944536408019 0.392570947730383 0.60593220338983
-0.0394333096655611 0.392589280400777 0.60593220338983
-0.0462970458617214 0.384804036779317 0.60593220338983
-0.0545909861365803 0.373839895540499 0.60593220338983
-0.0610691803842116 0.369166123246777 0.60593220338983
-0.0725893421791187 0.359349522934545 0.60593220338983
-0.0873258663852454 0.35440244884527 0.60593220338983
-0.0870866585918423 0.3532856930659 0.60593220338983
-0.10066223899969 0.342961703064028 0.60593220338983
-0.108412841008381 0.338024672934703 0.60593220338983
-0.107819695719735 0.331806267403528 0.60593220338983
-0.118460980840323 0.318616095223223 0.60593220338983
-0.126565647076751 0.3184297036651 0.60593220338983
-0.143657649483802 0.305433661209373 0.60593220338983
-0.154162052490167 0.294169140874043 0.60593220338983
-0.156421472720892 0.291247029631922 0.60593220338983
-0.167367526255116 0.28588251465564 0.60593220338983
-0.180423640768587 0.280701355397055 0.60593220338983
-0.183062580621876 0.269375913340349 0.60593220338983
-0.190607498540614 0.268861436072865 0.60593220338983
-0.206793145056807 0.249437573534272 0.60593220338983
-0.218474934844997 0.247196501817125 0.60593220338983
-0.231422685086962 0.229459468810935 0.60593220338983
-0.233125961884188 0.234140330823893 0.60593220338983
-0.24802284168547 0.225383336451656 0.60593220338983
-0.254950422597722 0.212256101592828 0.60593220338983
-0.276611882192403 0.207193843292645 0.60593220338983
-0.276207289633354 0.194852693309249 0.60593220338983
-0.294185344456431 0.18654952882922 0.60593220338983
-0.301599413354579 0.177353481884852 0.60593220338983
-0.306892488273481 0.173960732436557 0.60593220338983
-0.318016551015451 0.165592369372826 0.60593220338983
-0.333074527863725 0.151648915207905 0.60593220338983
-0.343235310301812 0.142672832847531 0.60593220338983
-0.352745424236101 0.130981477542239 0.60593220338983
-0.354654030389079 0.137609161525051 0.60593220338983
-0.374790552612527 0.120741982176486 0.60593220338983
-0.377937651921236 0.118743999056394 0.60593220338983
-0.391841979421243 0.110461877437707 0.60593220338983
-0.406080527742154 0.09598072795432 0.60593220338983
-0.410018949274009 0.0857806850283049 0.60593220338983
-0.435682504635217 0.0803186900182605 0.60593220338983
-0.437329315619555 0.0680788561255887 0.60593220338983
-0.454702367086384 0.0601910470938474 0.60593220338983
-0.45926684898637 0.0512742574261245 0.60593220338983
-0.474251943542987 0.0323927039368571 0.60593220338983
-0.483176761972577 0.0308152872509429 0.60593220338983
-0.494353153452084 0.0192969411528083 0.60593220338983
0.113853041982922 0.5 0.447875349221768
0.113938820512688 0.5 0.450333651248087
0.114622964339005 0.5 0.464161600658403
0.11504969096995 0.496879254839548 0.466101694915254
0.100593212692071 0.492052054676384 0.466101694915254
0.0906726650884224 0.486947150032211 0.466101694915254
0.0896699422737935 0.483415576301793 0.466101694915254
0.0830424045361676 0.476519917386855 0.466101694915254
0.0761708324795172 0.470922576897235 0.466101694915254
0.0675304720969799 0.461178827750079 0.466101694915254
0.0628791187062593 0.462484417022097 0.466101694915254
0.0579810336023365 0.455919317562495 0.466101694915254
0.051557159632565 0.449337441996995 0.466101694915254
0.0368273752824415 0.443406978702796 0.466101694915254
0.0403449596015327 0.44296777917537 0.466101694915254
0.0266700042757182 0.435138111748142 0.466101694915254
0.0197008731553822 0.420006397803415 0.466101694915254
0.011129190204009 0.416026884819961 0.466101694915254
0.114598616841537 0.5 0.603242159726566
0.115100473185287 0.497741377415876 0.60593220338983
0.109946183027924 0.49496927965384 0.60593220338983
0.0956452175385602 0.48833551712305 0.60593220338983
0.0896963506331616 0.485677126411391 0.60593220338983
0.0825429925682617 0.476277885693828 0.60593220338983
0.0794823777830072 0.473220800568783 0.60593220338983
0.0723409295277984 0.46376796357423 0.60593220338983
0.0577216803698245 0.45785534995089 0.60593220338983
0.057334770491375 0.451022493121716 0.60593220338983
0.0508159599466599 0.445605443939423 0.60593220338983
0.0413595075873669 0.439399618507733 0.60593220338983
0.0309820559579032 0.435347615145542 0.60593220338983
0.0213608080606544 0.42856850966354 0.60593220338983
0.0190128646535092 0.42490400187601 0.60593220338983
0.00658406401978713 0.420659266227951 0.60593220338983
0.000946507795037172 0.406307758682532 0.60593220338983
-0.00154632677954126 0.402802531218196 0.60593220338983
-0.0114276900025998 0.391983759820253 0.60593220338983
-0.0228465350883352 0.393904458150119 0.60593220338983
-0.0356726260914188 0.383784245412329 0.60593220338983
-0.0379022840190178 0.380607234696515 0.60593220338983
-0.052539245273306 0.367065637895701 0.60593220338983
-0.0568751576890494 0.362415985152139 0.60593220338983
-0.0671051115190141 0.357738035332896 0.60593220338983
-0.0791534844764908 0.350733700711161 0.60593220338983
-0.0811846017724099 0.345330629671016 0.60593220338983
-0.0942565297230207 0.327421825774435 0.60593220338983
-0.0947446007573675 0.325925419946169 0.60593220338983
-0.105645889350418 0.325125048789709 0.60593220338983
-0.124025081659169 0.314276365550987 0.60593220338983
-0.126496885279585 0.306831018392358 0.60593220338983
-0.13465700686831 0.295002992400056 0.60593220338983
-0.14353332456424 0.287534552254 0.60593220338983
-0.158252565968316 0.28364971934634 0.60593220338983
-0.160127677457767 0.276464712118818 0.60593220338983
-0.17767011649341 0.26668934408702 0.60593220338983
-0.177177963062367 0.259812277012415 0.60593220338983
-0.18977929910726 0.256611728798154 0.60593220338983
-0.198735935690611 0.249418549643184 0.60593220338983
-0.203635751525384 0.241995766782212 0.60593220338983
-0.214419183929176 0.236524706797796 0.60593220338983
-0.234726732032518 0.222326949482984 0.60593220338983
-0.244478287113429 0.218778767312517 0.60593220338983
-0.247321139307468 0.20749345028297 0.60593220338983
-0.254150602573785 0.205407801689657 0.60593220338983
-0.277935452154912 0.192002824654632 0.60593220338983
-0.279996525315536 0.18646153021284 0.60593220338983
-0.291875420097776 0.170115822185766 0.60593220338983
-0.293165134169768 0.168590231819045 0.60593220338983
-0.312885005525864 0.160449403989592 0.60593220338983
-0.326213669928671 0.140244598450966 0.60593220338983
-0.331061930067895 0.136895112877189 0.60593220338983
-0.346336718273847 0.134846137824928 0.60593220338983
-0.350067828453162 0.124154627334896 0.60593220338983
-0.362507480725001 0.110479153097498 0.60593220338983
-0.381575137595297 0.109440851833819 0.60593220338983
-0.386102256176251 0.103613568855126 0.60593220338983
-0.408980134107569 0.0871239708087219 0.60593220338983
-0.409812907548261 0.0814145861671143 0.60593220338983
-0.422042333991769 0.0748661929862647 0.60593220338983
-0.424293094278389 0.0673098394629857 0.60593220338983
-0.447510058225348 0.053755808249639 0.60593220338983
-0.456387408042887 0.0481796228274411 0.60593220338983
-0.470836151591936 0.0240893247517555 0.60593220338983
-0.487829588532819 0.0177835327707629 0.60593220338983
-0.49924277775423 0.0123127874882142 0.60593220338983
-0.498351305466192 0.00179400541726067 0.60593220338983
0.128536287046236 0.5 0.433969615357878
0.124253686775607 0.5 0.441467559112883
0.124451960112092 0.5 0.44501243429949
0.132268950549273 0.5 0.461663700561115
0.120618495041108 0.495041580625146 0.466101694915254
0.122827075939862 0.495186877058208 0.466101694915254
0.109989073859107 0.491691614260146 0.466101694915254
0.109591474318491 0.482906044602396 0.466101694915254
0.0987171172802607 0.475872200565893 0.466101694915254
0.0855093038221008 0.472390322208242 0.466101694915254
0.080858487487341 0.464163452385095 0.466101694915254
0.0815324917102451 0.464132645485656 0.466101694915254
0.0689499131276233 0.456208412760635 0.466101694915254
0.0621971417092198 0.451636964845545 0.466101694915254
0.0589784244506902 0.442999492501131 0.466101694915254
0.0478879109798638 0.432151992866015 0.466101694915254
0.0408029333550834 0.429782002825219 0.466101694915254
0.0367239704244155 0.425897606258514 0.466101694915254
0.0247150399556982 0.419951368304886 0.466101694915254
0.130267515892586 0.5 0.598600067941672
0.127237709016252 0.5 0.605104212623095
0.124836687600598 0.498108542780636 0.60593220338983
0.108827172910444 0.490876235276209 0.60593220338983
0.106596724968817 0.484334339791627 0.60593220338983
0.100496798575888 0.471977613056202 0.60593220338983
0.0952393930668994 0.474804080239755 0.60593220338983
0.0831708983277722 0.465569693113013 0.60593220338983
0.0745898195508449 0.454164721975186 0.60593220338983
0.070367796579946 0.45093293478477 0.60593220338983
0.0658401186937974 0.450768921215485 0.60593220338983
0.0514653833451095 0.435991067002676 0.60593220338983
0.0436657567799679 0.435150058949618 0.60593220338983
0.0362705956570994 0.431006217437285 0.60593220338983
0.030073566058723 0.425783451083353 0.60593220338983
0.0292641153062052 0.421983501655202 0.60593220338983
0.016154544786346 0.411220773309069 0.60593220338983
0.0040776699833169 0.399295101597975 0.60593220338983
-0.00231921147338201 0.397122329954835 0.60593220338983
-0.00743504604828519 0.390562267966972 0.60593220338983
-0.0217692446932976 0.386215050602019 0.60593220338983
-0.0306224435095189 0.373097379551452 0.60593220338983
-0.0387621225140799 0.372242324423179 0.60593220338983
-0.0451256622871563 0.367569303000469 0.60593220338983
-0.0578472343919121 0.350636279648382 0.60593220338983
-0.0590932273958142 0.343141872253748 0.60593220338983
-0.0761613099578925 0.33527652904178 0.60593220338983
-0.0713487984029982 0.339754348441684 0.60593220338983
-0.0798124752451837 0.327066776242385 0.60593220338983
-0.0938439109014938 0.326355161748535 0.60593220338983
-0.105169000868927 0.311902222001452 0.60593220338983
-0.109718304118857 0.302379133452224 0.60593220338983
-0.118038694139549 0.296357183585371 0.60593220338983
-0.133801739861827 0.29576346681078 0.60593220338983
-0.133707050897295 0.282256854103445 0.60593220338983
-0.142662884421431 0.278320651552714 0.60593220338983
-0.164465378848786 0.262622529856415 0.60593220338983
-0.164882642551692 0.264616522920615 0.60593220338983
-0.177576822192014 0.259230536609697 0.60593220338983
-0.182847129868319 0.253174377235893 0.60593220338983
-0.194920458308847 0.23866822374047 0.60593220338983
-0.196731558552509 0.229750196669208 0.60593220338983
-0.218139136710011 0.217334744286666 0.60593220338983
-0.223210837405304 0.208890975126819 0.60593220338983
-0.237780153547785 0.200761908200197 0.60593220338983
-0.24055707527653 0.205077356241974 0.60593220338983
-0.259624601632866 0.184788156041991 0.60593220338983
-0.263695197763126 0.187319373174 0.60593220338983
-0.274344015942962 0.171143608911942 0.60593220338983
-0.282983264260132 0.165313209006614 0.60593220338983
-0.296619652450994 0.15382515093083 0.60593220338983
-0.303263453630513 0.155957668207226 0.60593220338983
-0.318362180782976 0.135403529006912 0.60593220338983
-0.323517377342987 0.136462312848768 0.60593220338983
-0.331185078069401 0.125293238222447 0.60593220338983
-0.350675489146982 0.108611833319311 0.60593220338983
-0.352587791676047 0.105561567840054 0.60593220338983
-0.367186447001143 0.104135220291245 0.60593220338983
-0.381783540064623 0.0949814098880042 0.60593220338983
-0.388457600734829 0.0844317784167341 0.60593220338983
-0.395592970351008 0.0753369004576618 0.60593220338983
-0.411233359454673 0.0602611748971905 0.60593220338983
-0.433007180741505 0.0447340702268743 0.60593220338983
-0.435727135739428 0.0464589513645315 0.60593220338983
-0.45393748796615 0.0270559002359955 0.60593220338983
-0.456036636727568 0.0195711100323318 0.60593220338983
-0.468408411423437 0.00991643866862353 0.60593220338983
-0.485881116641371 -0.0039987661377706 0.60593220338983
0.133384364344683 0.5 0.439858649372291
0.149137306735055 0.5 0.458598752108334
0.136488663986061 0.5 0.459729501379102
0.135547700705071 0.492762330052336 0.466101694915254
0.129503816891982 0.489760293846766 0.466101694915254
0.123341470303868 0.492152552138366 0.466101694915254
0.116396605926814 0.481026262821154 0.466101694915254
0.116572600105785 0.476704127132744 0.466101694915254
0.101988771533073 0.468168454994164 0.466101694915254
0.0958116543462305 0.46528835965476 0.466101694915254
0.088553210635571 0.458284137253327 0.466101694915254
0.0778797739308526 0.446375289848244 0.466101694915254
0.0723800552716116 0.452630560837317 0.466101694915254
0.0657638626726311 0.44314235628457 0.466101694915254
0.0611936270602973 0.434743014329942 0.466101694915254
0.0502305460552702 0.425001431144169 0.466101694915254
0.0436345480756675 0.421209718323318 0.466101694915254
0.0447787961500424 0.422927386811081 0.466101694915254
0.0391697581823153 0.418477066671389 0.466101694915254
0.137418602300113 0.49680290036796 0.60593220338983
0.136539856870347 0.493751297014438 0.60593220338983
0.126699762846824 0.486466268041357 0.60593220338983
0.1135129750831 0.477978424248734 0.60593220338983
0.116018983305173 0.474326656495737 0.60593220338983
0.10492119648676 0.466797505138081 0.60593220338983
0.0970508284205031 0.465628536756781 0.60593220338983
0.0864224065039594 0.462020996898342 0.60593220338983
0.0859941405618232 0.450278716811503 0.60593220338983
0.0769689402554059 0.45074859434523 0.60593220338983
0.0664599707706086 0.439139448820696 0.60593220338983
0.0613991547020796 0.433584877857524 0.60593220338983
0.0523339594595643 0.427198762479794 0.60593220338983
0.0422460598268821 0.422073625859746 0.60593220338983
0.0357659783264063 0.412650936114459 0.60593220338983
0.0321745458912141 0.410945439819287 0.60593220338983
0.0189904399874963 0.404881906392546 0.60593220338983
0.00783211567087141 0.398426414269539 0.60593220338983
0.00780628706073333 0.396323129999085 0.60593220338983
-0.00788289968371181 0.381337111762449 0.60593220338983
-0.0136964228841899 0.372477514695483 0.60593220338983
-0.017326735277957 0.373046743293572 0.60593220338983
-0.0260234539126164 0.359825660603726 0.60593220338983
-0.0387077157770243 0.351925767006523 0.60593220338983
-0.0512643111067252 0.341937572977919 0.60593220338983
-0.0558378638599049 0.340947093867624 0.60593220338983
-0.0592764438013896 0.334536966937206 0.60593220338983
-0.0688384583221212 0.331387673987228 0.60593220338983
-0.0761530729708137 0.319706834333559 0.60593220338983
-0.0937126628354047 0.315084757429328 0.60593220338983
-0.0878981188471829 0.307491207448835 0.60593220338983
-0.105794990961298 0.297641711615666 0.60593220338983
-0.112258505970619 0.29360730419869 0.60593220338983
-0.120096115351142 0.286816542899688 0.60593220338983
-0.130782896525498 0.272601972940085 0.60593220338983
-0.146425262227748 0.270479320670066 0.60593220338983
-0.15033248238992 0.268650061868774 0.60593220338983
-0.158228316200941 0.255517544274787 0.60593220338983
-0.167879197145111 0.246606234835908 0.60593220338983
-0.170398241630936 0.238209831783014 0.60593220338983
-0.191108892624663 0.237769285837416 0.60593220338983
-0.189636025446019 0.23006198103591 0.60593220338983
-0.206887477728325 0.209838736598254 0.60593220338983
-0.219466568313065 0.205117392863217 0.60593220338983
-0.224828509317675 0.206775389078019 0.60593220338983
-0.231967334209297 0.191446922129302 0.60593220338983
-0.252416563137323 0.186327981716957 0.60593220338983
-0.262990600937455 0.178965142352014 0.60593220338983
-0.262654327447841 0.167514718778373 0.60593220338983
-0.269375154334509 0.162388545401699 0.60593220338983
-0.291737852852599 0.151487488984098 0.60593220338983
-0.295253913487566 0.141665857428301 0.60593220338983
-0.303702576917285 0.140192180355316 0.60593220338983
-0.322458413703489 0.127410775480638 0.60593220338983
-0.330741246353654 0.11410179339697 0.60593220338983
-0.342646666898323 0.112304453328427 0.60593220338983
-0.347661503261926 0.101967202881666 0.60593220338983
-0.362563661444119 0.0889897272643635 0.60593220338983
-0.372167354748318 0.0798948452387445 0.60593220338983
-0.385702010527609 0.0718969009729039 0.60593220338983
-0.389689840477656 0.0628631800445413 0.60593220338983
-0.398566175560224 0.0523034881045713 0.60593220338983
-0.417477525327166 0.0403499372838313 0.60593220338983
-0.434581884394789 0.0267273649310769 0.60593220338983
-0.440755149391367 0.0273253417640665 0.60593220338983
-0.454109058901173 0.0130281298386568 0.60593220338983
-0.461658406816973 0.00383192172187069 0.60593220338983
-0.47102390735451 0.00508378679196169 0.60593220338983
-0.479795478944065 -0.00610153478165269 0.60593220338983
0.152096316955807 0.5 0.447540716436261
0.149514509370523 0.5 0.458031585261557
0.148888287550312 0.494742902435549 0.466101694915254
0.143423148748442 0.495789836950728 0.466101694915254
0.13537051599632 0.484975103846549 0.466101694915254
0.127750616531234 0.478354507856338 0.466101694915254
0.121164216518106 0.475714329285933 0.466101694915254
0.116974684106562 0.470138999335131 0.466101694915254
0.109908070977376 0.46596978080355 0.466101694915254
0.104033866818883 0.456985640344202 0.466101694915254
0.0935857795361547 0.453534326136338 0.466101694915254
0.0818549125871716 0.445657763342302 0.466101694915254
0.0798487673947096 0.437658557752421 0.466101694915254
0.0683663888424108 0.430109822639857 0.466101694915254
0.0661932991565991 0.431167653924451 0.466101694915254
0.0612786854116485 0.42500889434603 0.466101694915254
0.054734659637671 0.420446897738179 0.466101694915254
0.0500900752444967 0.417978894263947 0.466101694915254
0.150500369990197 0.5 0.600996750214407
0.14479366443854 0.49413795259542 0.60593220338983
0.142231155054231 0.489738622777259 0.60593220338983
0.131641694454862 0.483058773691008 0.60593220338983
0.124061845330069 0.476053203242295 0.60593220338983
0.114344883649605 0.469591210452789 0.60593220338983
0.109215028241868 0.458916036945899 0.60593220338983
0.106486188852292 0.4574030464666 0.60593220338983
0.0953857851339927 0.45305164092105 0.60593220338983
0.0820291044454326 0.447469105252143 0.60593220338983
0.0838477426238472 0.439953215176511 0.60593220338983
0.0755068442647961 0.434764840007205 0.60593220338983
0.0673823200309765 0.428709367401309 0.60593220338983
0.059456850892745 0.424093184582717 0.60593220338983
0.0510611172628253 0.422820883891174 0.60593220338983
0.0482172772782576 0.413508056623887 0.60593220338983
0.0346080375360851 0.40860787954195 0.60593220338983
0.0232951887695234 0.392407661040311 0.60593220338983
0.0180425532010468 0.385986609053534 0.60593220338983
0.00978969287756621 0.381287836502039 0.60593220338983
0.00164222326868008 0.375552805195965 0.60593220338983
-0.0127212331638839 0.364783973777081 0.60593220338983
-0.0201826415204667 0.362845713557518 0.60593220338983
-0.0187573827501141 0.358330617049599 0.60593220338983
-0.0307385878506843 0.347888906369284 0.60593220338983
-0.0367007217997625 0.342452583912793 0.60593220338983
-0.0488419089017835 0.33502131464137 0.60593220338983
-0.0500696461777504 0.328233334294663 0.60593220338983
-0.0634644418184104 0.321891868142751 0.60593220338983
-0.0729422772031312 0.30922479573004 0.60593220338983
-0.0752436433838154 0.308437781137054 0.60593220338983
-0.0941844008996449 0.295786874805869 0.60593220338983
-0.0978405396688722 0.301264985478026 0.60593220338983
-0.101306133757802 0.291516877045503 0.60593220338983
-0.121691157017436 0.274965183916677 0.60593220338983
-0.124837573519642 0.272863853999169 0.60593220338983
-0.133065061379683 0.265639410309533 0.60593220338983
-0.144562685155544 0.258627098534455 0.60593220338983
-0.154474324660203 0.243857951923253 0.60593220338983
-0.157611622538382 0.240874050472772 0.60593220338983
-0.175240198876877 0.235332876353674 0.60593220338983
-0.177532152143651 0.225750140739074 0.60593220338983
-0.190614070282179 0.210768495568694 0.60593220338983
-0.198953120365458 0.209129348899412 0.60593220338983
-0.201358966239925 0.205199651469575 0.60593220338983
-0.219818874942874 0.19576357802445 0.60593220338983
-0.226583449056505 0.184352376679976 0.60593220338983
-0.238213048703998 0.180916691954565 0.60593220338983
-0.253946333028271 0.161846731586343 0.60593220338983
-0.258668803768759 0.158376563769515 0.60593220338983
-0.268167677345477 0.151018552394348 0.60593220338983
-0.286983966887029 0.142795647349822 0.60593220338983
-0.292324640174036 0.129171139148644 0.60593220338983
-0.30459706560063 0.1245224406416 0.60593220338983
-0.310622988869128 0.114917615902605 0.60593220338983
-0.311143671019754 0.110160346794813 0.60593220338983
-0.32841665180255 0.10061183961285 0.60593220338983
-0.349320210995269 0.0863239038672269 0.60593220338983
-0.353611850803541 0.0832397140198812 0.60593220338983
-0.365137041505441 0.0728134232779479 0.60593220338983
-0.383018554792787 0.0583292201511266 0.60593220338983
-0.392027965391009 0.0555513077364506 0.60593220338983
-0.40037963909261 0.0500221465406785 0.60593220338983
-0.406123610592889 0.033353811122333 0.60593220338983
-0.42571871232226 0.0234620486635245 0.60593220338983
-0.434533277532022 0.0174601948877351 0.60593220338983
-0.45038681517864 0.0101539036350009 0.60593220338983
-0.457986521729711 0.00025397374345893 0.60593220338983
-0.470440712699566 -0.0145817967783805 0.60593220338983
-0.485574507676395 -0.0260302207785767 0.60593220338983
-0.491563842364114 -0.0326760425404504 0.60593220338983
0.167014323561982 0.5 0.462105386054783
0.158394267041608 0.5 0.465261275887692
0.15855443506686 0.492533414564854 0.466101694915254
0.149721231857763 0.482300650088557 0.466101694915254
0.141482429791906 0.476777133150729 0.466101694915254
0.133924343334374 0.474816085969278 0.466101694915254
0.129136653838441 0.467684436550903 0.466101694915254
0.128693574918144 0.469647516721633 0.466101694915254
0.115461682195343 0.460837492301514 0.466101694915254
0.111659701194584 0.449372636106774 0.466101694915254
0.10291116641672 0.448105358550643 0.466101694915254
0.101166577842251 0.441904547476679 0.466101694915254
0.0848863289560687 0.438690790492007 0.466101694915254
0.0748384512949369 0.425907452392982 0.466101694915254
0.0776475721888293 0.427766734292035 0.466101694915254
0.0603415354934158 0.418096656800269 0.466101694915254
0.169748107634028 0.5 0.598636842361897
0.164679281628883 0.5 0.604934480222322
0.162524677774707 0.49461903730525 0.60593220338983
0.156000587131703 0.490723787232752 0.60593220338983
0.139260760480741 0.478865352969629 0.60593220338983
0.135493521898494 0.472882800432051 0.60593220338983
0.127416861085942 0.469381378827248 0.60593220338983
0.128135845120783 0.467079856549891 0.60593220338983
0.112287484579874 0.453849759362086 0.60593220338983
0.105164840053363 0.451848279813521 0.60593220338983
0.101447226523057 0.450493369756354 0.60593220338983
0.093945566593794 0.440210257092062 0.60593220338983
0.0923282393626338 0.439176541155785 0.60593220338983
0.0753492387663665 0.427134762446623 0.60593220338983
0.0697179449223643 0.416838409919952 0.60593220338983
0.0645921509858687 0.409358432488945 0.60593220338983
0.0513353854982397 0.408045052772872 0.60593220338983
0.0444129296807001 0.402664231041536 0.60593220338983
0.0460769427100635 0.394998666261378 0.60593220338983
0.0287256275145214 0.384234508071712 0.60593220338983
0.0281963815265734 0.386194452107062 0.60593220338983
0.0156370794873918 0.373847465452765 0.60593220338983
0.00786819784546388 0.372150546069849 0.60593220338983
-0.00124643375115223 0.361155120167149 0.60593220338983
-0.00634477121863525 0.356180789787536 0.60593220338983
-0.0105711451293336 0.353213963494946 0.60593220338983
-0.0215988219060946 0.344046577428134 0.60593220338983
-0.0363091886485827 0.334797536543023 0.60593220338983
-0.0418038748599529 0.33011014351612 0.60593220338983
-0.0454625530839756 0.320200852808967 0.60593220338983
-0.0523279623145308 0.313261305545779 0.60593220338983
-0.0725526014184112 0.305004244707361 0.60593220338983
-0.0735680523230788 0.294206189398545 0.60593220338983
-0.0859137787714764 0.290815143145151 0.60593220338983
-0.097159583620739 0.280519000045003 0.60593220338983
-0.0924737692974813 0.279245575971551 0.60593220338983
-0.102294767107317 0.273489513448989 0.60593220338983
-0.12357407941276 0.257324370280676 0.60593220338983
-0.130166249294766 0.259096709937024 0.60593220338983
-0.132827311647138 0.24926344139046 0.60593220338983
-0.141860444781623 0.241386337652865 0.60593220338983
-0.157332935770018 0.234825835922731 0.60593220338983
-0.155794162847117 0.233062590375962 0.60593220338983
-0.177785026733143 0.21402416196166 0.60593220338983
-0.183867638520247 0.21425497715872 0.60593220338983
-0.189714038878626 0.20704668926754 0.60593220338983
-0.207731973406854 0.187430982328163 0.60593220338983
-0.214630464614791 0.183083424732042 0.60593220338983
-0.221100713919102 0.180511366192856 0.60593220338983
-0.234786939931221 0.168120208584872 0.60593220338983
-0.246284041330608 0.163554664157461 0.60593220338983
-0.253282553423781 0.154904839463807 0.60593220338983
-0.256109543930242 0.1514408256666 0.60593220338983
-0.275844819962001 0.132639051797599 0.60593220338983
-0.273486725481579 0.135100443428468 0.60593220338983
-0.293154674379669 0.110559444324707 0.60593220338983
-0.299078393209641 0.116111329604528 0.60593220338983
-0.31533337981444 0.105955363084243 0.60593220338983
-0.330884458933112 0.0904389019466234 0.60593220338983
-0.335995914363356 0.0872053232417334 0.60593220338983
-0.349988545854097 0.0738665743891188 0.60593220338983
-0.349730069382851 0.071273049612558 0.60593220338983
-0.362029130018698 0.0549365129042707 0.60593220338983
-0.383139301056928 0.0402892033385364 0.60593220338983
-0.398612108096965 0.0287882553868891 0.60593220338983
-0.404401511792661 0.0207206042394688 0.60593220338983
-0.414006793818917 0.022443577340853 0.60593220338983
-0.429950741492184 0.0101008577001481 0.60593220338983
-0.438163368539054 -0.00390444690805008 0.60593220338983
-0.446849122358549 -0.0158380787962151 0.60593220338983
-0.46703324699513 -0.0247165315034954 0.60593220338983
-0.476939021098614 -0.0357054460106217 0.60593220338983
-0.481059169238799 -0.0433653666269385 0.60593220338983
0.172102078530569 0.496990400646918 0.466101694915254
0.16265401682 0.489985231468362 0.466101694915254
0.160917485652833 0.484735759303897 0.466101694915254
0.154669196420553 0.477015831471296 0.466101694915254
0.149723872394576 0.471511206291094 0.466101694915254
0.143555000571367 0.4708500794893 0.466101694915254
0.137084247139877 0.457897797158107 0.466101694915254
0.128016544771315 0.460197145865667 0.466101694915254
0.121016438946269 0.457908544212212 0.466101694915254
0.11362825791159 0.443530793558459 0.466101694915254
0.105057675979646 0.43952177721809 0.466101694915254
0.100323383432858 0.434558229758686 0.466101694915254
0.0982206054938477 0.430245807597895 0.466101694915254
0.0842974596808642 0.427387640392835 0.466101694915254
0.0802844823805814 0.416558583445538 0.466101694915254
0.184053339772403 0.498897526121512 0.60593220338983
0.178520127102189 0.5 0.599762345202104
0.168068135894306 0.491264704957914 0.60593220338983
0.162177160198467 0.48951260397363 0.60593220338983
0.159245221683286 0.482776241899582 0.60593220338983
0.149603971304221 0.479436527689882 0.60593220338983
0.139745788994835 0.471243059057658 0.60593220338983
0.141915334491781 0.467811132106396 0.60593220338983
0.129817189424518 0.461616749566812 0.60593220338983
0.117309367976978 0.453785057178671 0.60593220338983
0.118219136447899 0.444854892591766 0.60593220338983
0.104906499033853 0.43508150084667 0.60593220338983
0.106213928249991 0.438735162396567 0.60593220338983
0.0906909290586854 0.431168050828092 0.60593220338983
0.0864355555688904 0.424278861502954 0.60593220338983
0.0762838830522915 0.413170527000355 0.60593220338983
0.0694624564376682 0.403678299225438 0.60593220338983
0.0602053924828591 0.400307409314388 0.60593220338983
0.0574314006278521 0.398526231871302 0.60593220338983
0.0464841537654462 0.390326158940392 0.60593220338983
0.0467664064830526 0.386323681678197 0.60593220338983
0.0320388343321467 0.374146347587886 0.60593220338983
0.0274253909231554 0.367692215541616 0.60593220338983
0.0201836600426427 0.367089653467183 0.60593220338983
0.00986760607475561 0.358248112466443 0.60593220338983
0.00324652749126495 0.346675778589866 0.60593220338983
-0.0131139082703823 0.342231738359909 0.60593220338983
-0.00844034557128134 0.338435184126006 0.60593220338983
-0.0256271879067445 0.329096813806094 0.60593220338983
-0.0322100250227107 0.318646558434807 0.60593220338983
-0.0448950331237269 0.312302189964617 0.60593220338983
-0.044874528016725 0.312231472328355 0.60593220338983
-0.0579037275431824 0.306337582844617 0.60593220338983
-0.0649431865215575 0.298257079256639 0.60593220338983
-0.0786005687636586 0.286748825522435 0.60593220338983
-0.0829301410061025 0.283380457639082 0.60593220338983
-0.0869386288247 0.275944113379939 0.60593220338983
-0.100365918467238 0.260395556314603 0.60593220338983
-0.117628781099983 0.255579832576438 0.60593220338983
-0.121566522359753 0.248400476097779 0.60593220338983
-0.121219473307644 0.247703957762415 0.60593220338983
-0.134844673012473 0.234784034716672 0.60593220338983
-0.148103618687164 0.220590098002302 0.60593220338983
-0.158315483244163 0.218660398180498 0.60593220338983
-0.164348616281623 0.209559845622907 0.60593220338983
-0.168353159767605 0.206312047619329 0.60593220338983
-0.1823947559954 0.193846118081859 0.60593220338983
-0.201253707464895 0.189132009983581 0.60593220338983
-0.210050154916016 0.180746783431688 0.60593220338983
-0.213395295947689 0.169528301613808 0.60593220338983
-0.230029724339801 0.158603375631999 0.60593220338983
-0.234635123647486 0.153554048989686 0.60593220338983
-0.24308185459728 0.154476728436717 0.60593220338983
-0.247936336983228 0.141312350476173 0.60593220338983
-0.266113675172559 0.127818740179975 0.60593220338983
-0.269309054605037 0.124906256144759 0.60593220338983
-0.28544854664723 0.10686162783117 0.60593220338983
-0.291594991677389 0.0989696345176653 0.60593220338983
-0.306144478902533 0.0920291401787759 0.60593220338983
-0.318099696737193 0.0844691076752497 0.60593220338983
-0.332003100887332 0.0720187243418326 0.60593220338983
-0.34569446728734 0.0684541237290924 0.60593220338983
-0.353232806889222 0.0557285682915943 0.60593220338983
-0.364266447970514 0.042158183465659 0.60593220338983
-0.378067570953975 0.0430439186549498 0.60593220338983
-0.38278775222897 0.0309095769180266 0.60593220338983
-0.388167203571445 0.0226215493987821 0.60593220338983
-0.40666993183661 0.0145325914485751 0.60593220338983
-0.421477762792706 0.00207103124919584 0.60593220338983
-0.435100185735744 -0.00814809194123229 0.60593220338983
-0.432986262163409 -0.019058214598591 0.60593220338983
-0.457709373412421 -0.0300621312997216 0.60593220338983
-0.475963580420043 -0.0374477729320681 0.60593220338983
-0.484123800617586 -0.0491433576868028 0.60593220338983
-0.491949347861182 -0.0551769357013748 0.60593220338983
0.186320729315427 0.494125103632068 0.466101694915254
0.168347769023137 0.483964759856922 0.466101694915254
0.165096714478541 0.48105440314373 0.466101694915254
0.164369927410534 0.476396282138934 0.466101694915254
0.152976072054987 0.465152251380705 0.466101694915254
0.143140772192559 0.461137232080839 0.466101694915254
0.143547480519506 0.461047740742306 0.466101694915254
0.139027443368575 0.456924627230802 0.466101694915254
0.129174847817603 0.449413298837191 0.466101694915254
0.118761816541304 0.44252507288458 0.466101694915254
0.109872452140579 0.426925768261748 0.466101694915254
0.110017798757919 0.427942757861398 0.466101694915254
0.09787766671824 0.418076347377113 0.466101694915254
0.0935128510974037 0.420605392096526 0.466101694915254
0.0856717276347229 0.415022767810609 0.466101694915254
0.193968168686721 0.4956460924397 0.60593220338983
0.184700373508413 0.494193741078726 0.60593220338983
0.175910105276286 0.484426135897216 0.60593220338983
0.172449464145714 0.478256588521086 0.60593220338983
0.160250401869197 0.472419487157863 0.60593220338983
0.157971987567801 0.470964020573941 0.60593220338983
0.149187446629889 0.467936121144345 0.60593220338983
0.144659958671588 0.460612966075154 0.60593220338983
0.131530854323241 0.450382776999463 0.60593220338983
0.134732200189614 0.44868448805976 0.60593220338983
0.120852069072881 0.435697727412334 0.60593220338983
0.110710153836503 0.433804540161096 0.60593220338983
0.11012839382444 0.430526568484599 0.60593220338983
0.0973601206509924 0.424043604450764 0.60593220338983
0.095744217616635 0.419717880742592 0.60593220338983
0.088347700466614 0.415533475704066 0.60593220338983
0.0760809903252816 0.404727950526555 0.60593220338983
0.0698104461984996 0.398161060845125 0.60593220338983
0.0645415464429514 0.390410318035294 0.60593220338983
0.0548539110806544 0.379097287879123 0.60593220338983
0.0444548341667298 0.372966438809553 0.60593220338983
0.0330778002626662 0.367019376065237 0.60593220338983
0.0301505751499867 0.356835800369097 0.60593220338983
0.026656573700069 0.358582127309454 0.60593220338983
0.013206817988692 0.346469027747921 0.60593220338983
0.00375508460624982 0.345232284958726 0.60593220338983
-0.00233901021718597 0.335069232848556 0.60593220338983
-0.0044962976084317 0.329166677253046 0.60593220338983
-0.0235732040097748 0.324637252554026 0.60593220338983
-0.0256493472912645 0.317737928898256 0.60593220338983
-0.036366961222523 0.312422987706305 0.60593220338983
-0.0437020643873542 0.307797413970722 0.60593220338983
-0.0446968005398659 0.295747657106284 0.60593220338983
-0.0600935111792838 0.286564170839855 0.60593220338983
-0.0686826129707778 0.275834489463904 0.60593220338983
-0.0809837674977633 0.267755304443875 0.60593220338983
-0.0870735909002043 0.266266717653939 0.60593220338983
-0.10278244573836 0.252471737934276 0.60593220338983
-0.103446885179812 0.247663404023942 0.60593220338983
-0.112974685107058 0.241230132957054 0.60593220338983
-0.123764784258346 0.234167433162154 0.60593220338983
-0.132473334909486 0.229590462056607 0.60593220338983
-0.147350057742674 0.218685762534423 0.60593220338983
-0.153845670955161 0.211762397782684 0.60593220338983
-0.168109352774691 0.20028010989961 0.60593220338983
-0.168305802749343 0.195127597835261 0.60593220338983
-0.176807480544059 0.194385756453993 0.60593220338983
-0.185206561238013 0.18108876508455 0.60593220338983
-0.19379290143172 0.171718466432452 0.60593220338983
-0.204323453137932 0.164772727489683 0.60593220338983
-0.212935462208804 0.156505200472879 0.60593220338983
-0.224137963408057 0.149544670950685 0.60593220338983
-0.232833950275063 0.142190338335941 0.60593220338983
-0.250663080974026 0.13538749216063 0.60593220338983
-0.259349134042524 0.118647774853244 0.60593220338983
-0.265774738476798 0.107259306646662 0.60593220338983
-0.280839346709768 0.104113548274985 0.60593220338983
-0.288951228698375 0.0903411696627773 0.60593220338983
-0.299882923064689 0.0877485869592184 0.60593220338983
-0.316980479137849 0.0732467231951083 0.60593220338983
-0.320691257972075 0.0670684781030362 0.60593220338983
-0.324283477643067 0.0626968594396137 0.60593220338983
-0.338644841615358 0.0456348815376375 0.60593220338983
-0.351453907075857 0.0410122850913834 0.60593220338983
-0.366627424552506 0.0332828778688238 0.60593220338983
-0.371953891893505 0.0222638783140937 0.60593220338983
-0.381484691508907 0.017612097150399 0.60593220338983
-0.397860994229936 0.000424447285282272 0.60593220338983
-0.402795582376547 -0.00310886790172822 0.60593220338983
-0.428085118131267 -0.0190731363896455 0.60593220338983
-0.434109057560091 -0.0311809997862495 0.60593220338983
-0.452454933276102 -0.038860671589212 0.60593220338983
-0.456146205924118 -0.0443063580592417 0.60593220338983
-0.459728697565486 -0.0461622961972049 0.60593220338983
-0.474983393691334 -0.0619524685274732 0.60593220338983
0.188500506269561 0.487094571347114 0.466101694915254
0.180508416723736 0.47572078801993 0.466101694915254
0.177025645400873 0.474947384120201 0.466101694915254
0.169211767743702 0.471961210784807 0.466101694915254
0.163708944309599 0.464000410502931 0.466101694915254
0.152272782671301 0.456828417310818 0.466101694915254
0.141726507062419 0.451427057024552 0.466101694915254
0.141076363168817 0.444891903105179 0.466101694915254
0.13182804514292 0.435835931863518 0.466101694915254
0.133406929591207 0.439970274679388 0.466101694915254
0.121752050990172 0.430874120773011 0.466101694915254
0.119383829270573 0.422414896642513 0.466101694915254
0.107339017810017 0.419515161406767 0.466101694915254
0.209396700737199 0.5 0.601045506019613
0.205369631040338 0.49453058819494 0.60593220338983
0.195262244890391 0.492827084338278 0.60593220338983
0.191927173702137 0.482856258931397 0.60593220338983
0.177420251522969 0.477244488795204 0.60593220338983
0.177803416548304 0.470282323153915 0.60593220338983
0.163628367617043 0.47124768381629 0.60593220338983
0.164795998559509 0.467058103139302 0.60593220338983
0.159138391863498 0.463714055108049 0.60593220338983
0.150717419555428 0.447880528669899 0.60593220338983
0.142892687385313 0.446494267000739 0.60593220338983
0.134991559684642 0.444751760082885 0.60593220338983
0.125792167988757 0.429750302278792 0.60593220338983
0.12398907572708 0.428687708476834 0.60593220338983
0.106393316252665 0.415478039557556 0.60593220338983
0.109131641367559 0.418695678257021 0.60593220338983
0.103265742033402 0.414911092472763 0.60593220338983
0.0937645235101355 0.402855084111696 0.60593220338983
0.0877568766823398 0.393747911969298 0.60593220338983
0.0736618362628118 0.388796906427617 0.60593220338983
0.0739609706722604 0.385422408449674 0.60593220338983
0.0603148629226047 0.374560848385694 0.60593220338983
0.0519625957816268 0.367712525666082 0.60593220338983
0.0489142943399533 0.365327411273457 0.60593220338983
0.0328344609032189 0.359124883915312 0.60593220338983
0.0294124971565009 0.351829715958145 0.60593220338983
0.0225134997208638 0.345937393917856 0.60593220338983
0.014096885871104 0.333729958872876 0.60593220338983
0.00316212784142043 0.331492992299337 0.60593220338983
-0.00350456425181061 0.318075849918649 0.60593220338983
-0.0153532851206867 0.310112605166247 0.60593220338983
-0.0244362231984487 0.305558967206794 0.60593220338983
-0.0234789750778099 0.302551597411448 0.60593220338983
-0.0423826129785962 0.289329378858454 0.60593220338983
-0.0443460729976333 0.288815203722249 0.60593220338983
-0.058766870206712 0.279128289629101 0.60593220338983
-0.0622510527543866 0.278183789347166 0.60593220338983
-0.0746970850456493 0.26629404597158 0.60593220338983
-0.0759011717744435 0.258426739663116 0.60593220338983
-0.0868726115058668 0.254543112683416 0.60593220338983
-0.0970795987044014 0.24800399719361 0.60593220338983
-0.106760259748734 0.240561590033559 0.60593220338983
-0.109396793789506 0.231256221992513 0.60593220338983
-0.12538347621155 0.219866020415481 0.60593220338983
-0.126855900983327 0.219627024751107 0.60593220338983
-0.145625108219096 0.206671485575201 0.60593220338983
-0.150849731343795 0.195366140623827 0.60593220338983
-0.155705256736175 0.188542887227956 0.60593220338983
-0.172790056034444 0.18857150714448 0.60593220338983
-0.18506864358904 0.172743442692411 0.60593220338983
-0.195536203281691 0.161675228500576 0.60593220338983
-0.203325243594583 0.155334308443539 0.60593220338983
-0.206087401515307 0.153059506281428 0.60593220338983
-0.226766591101543 0.139961796390604 0.60593220338983
-0.231192322130329 0.127911270471606 0.60593220338983
-0.2361103640988 0.12720460026031 0.60593220338983
-0.243518008969842 0.121312221941415 0.60593220338983
-0.255776070574406 0.106135870759263 0.60593220338983
-0.271183105301404 0.102624856669977 0.60593220338983
-0.276052294125581 0.091930382390708 0.60593220338983
-0.294035230970326 0.0790101915245111 0.60593220338983
-0.30659607742712 0.0693785720254613 0.60593220338983
-0.309423197143308 0.0591404292809022 0.60593220338983
-0.322666100376901 0.0552623704521402 0.60593220338983
-0.340724730168038 0.0370791690027483 0.60593220338983
-0.337198172389607 0.0315654204628994 0.60593220338983
-0.364468751861234 0.0193615545566373 0.60593220338983
-0.372999522824416 0.0141458634640242 0.60593220338983
-0.382250012861233 0.00166551712848022 0.60593220338983
-0.394684762940887 -0.00480388184708701 0.60593220338983
-0.401588346262657 -0.0173685657946029 0.60593220338983
-0.411794886414989 -0.0263755581023005 0.60593220338983
-0.433933623384643 -0.0319421569578549 0.60593220338983
-0.431578117360722 -0.0395723344015158 0.60593220338983
-0.448290458437449 -0.0561201313925786 0.60593220338983
-0.467545619587088 -0.0645813257795735 0.60593220338983
-0.472079314761737 -0.0752264202416166 0.60593220338983
-0.477353804679533 -0.0770822222605499 0.60593220338983
-0.499405204654656 -0.0928586456792655 0.60593220338983
0.19348105650354 0.477181427529906 0.466101694915254
0.187875696668444 0.469726541424452 0.466101694915254
0.180011556026054 0.469369647013818 0.466101694915254
0.168941212929212 0.458988995763272 0.466101694915254
0.16184044688428 0.457959482526544 0.466101694915254
0.156690042310666 0.447813021811204 0.466101694915254
0.156923439962192 0.445352566462881 0.466101694915254
0.146332617585474 0.444589042281434 0.466101694915254
0.136971971672622 0.428812313050389 0.466101694915254
0.133061258306682 0.427878817296532 0.466101694915254
0.124714463191165 0.420434402314842 0.466101694915254
0.123497552470065 0.421787683395499 0.466101694915254
0.220271911262986 0.5 0.602160384167706
0.215300631169829 0.496588435474185 0.60593220338983
0.206304886743187 0.491700013324594 0.60593220338983
0.204832047849812 0.490752011055543 0.60593220338983
0.198001334031175 0.482251694318794 0.60593220338983
0.190027340640521 0.478728128755235 0.60593220338983
0.185439404454163 0.470381160409047 0.60593220338983
0.170444727625206 0.465724316035053 0.60593220338983
0.171161881904194 0.455685232925054 0.60593220338983
0.157885475041033 0.450171109829143 0.60593220338983
0.152124565545506 0.44453120240486 0.60593220338983
0.15263963576056 0.446614605357593 0.60593220338983
0.141664930787764 0.433763858386286 0.60593220338983
0.132458390265776 0.427767798947474 0.60593220338983
0.120534904371556 0.421327430542617 0.60593220338983
0.114947186175674 0.412923952942484 0.60593220338983
0.105285305890491 0.408609805541619 0.60593220338983
0.108144436607151 0.403807007689878 0.60593220338983
0.0960297270178869 0.393222302749954 0.60593220338983
0.088950898251478 0.390111467294436 0.60593220338983
0.0845794984956442 0.387324326026022 0.60593220338983
0.0764342014153433 0.380108770269267 0.60593220338983
0.0697388633310642 0.373570395768714 0.60593220338983
0.0575664316035895 0.366995739488112 0.60593220338983
0.0562747480065286 0.355156999637463 0.60593220338983
0.0477237483099009 0.350455629769388 0.60593220338983
0.0327980669065395 0.343401453453201 0.60593220338983
0.0321605513719122 0.336400708164377 0.60593220338983
0.0204382472747265 0.336477590000938 0.60593220338983
0.0130019242625194 0.323834834049466 0.60593220338983
-0.00271194938358964 0.314698883799863 0.60593220338983
-0.0103096778193255 0.308853436800879 0.60593220338983
-0.0136293961468255 0.298643731374061 0.60593220338983
