ply
format ascii 1.0
element vertex 863
property float x
property float y
property float z
end_header
-0.284760210439212 -0.474952582720785 0.174418604651163
-0.297086302165458 -0.465722213705793 0.174418604651163
-0.303172853519337 -0.461762522973593 0.174418604651163
-0.316833262983776 -0.452262868520737 0.174418604651163
-0.328289747360422 -0.445470113769876 0.174418604651163
-0.327297303420455 -0.440362139319147 0.174418604651163
-0.337612277044049 -0.436134914828281 0.174418604651163
-0.343081864163719 -0.425946035128587 0.174418604651162
-0.233928241016266 -0.5 0.311294548335429
-0.242848769607225 -0.499723825086233 0.313953488372093
-0.25608489724847 -0.49329527393448 0.313953488372093
-0.256759080761784 -0.49169507297042 0.313953488372093
-0.264733667496726 -0.482745221990266 0.313953488372093
-0.279390952344061 -0.477913206532365 0.313953488372093
-0.289621723563276 -0.473374211813476 0.313953488372093
-0.297118484710163 -0.46003471308658 0.313953488372093
-0.302655488044785 -0.46318206991982 0.313953488372093
-0.303443347027397 -0.456549188600645 0.313953488372093
-0.321277952380692 -0.442329111045003 0.313953488372093
-0.328187506385294 -0.438596736226117 0.313953488372093
-0.341231975134702 -0.435275845205138 0.313953488372093
-0.345257609647174 -0.424661530599892 0.313953488372093
-0.357564213098831 -0.424372823554003 0.313953488372093
-0.365649317221632 -0.415596414624538 0.313953488372093
-0.38237148015301 -0.412403379788313 0.313953488372093
-0.387215771087165 -0.40225987111443 0.313953488372093
-0.389756064940755 -0.393116557853478 0.313953488372093
-0.396868923411293 -0.393078083028572 0.313953488372093
-0.413823313260407 -0.385683340196846 0.313953488372093
-0.415718510375544 -0.377997337805086 0.313953488372093
-0.434521475081011 -0.368880694087913 0.313953488372093
-0.443946022948294 -0.362818943766379 0.313953488372093
-0.4418987955257 -0.362952047012357 0.313953488372093
-0.46326447979343 -0.355300146357367 0.313953488372093
-0.463794695401311 -0.346752534900876 0.313953488372093
-0.473176250436932 -0.338115942189951 0.313953488372093
-0.489180323076368 -0.323965397999247 0.313953488372093
-0.493297872561511 -0.331265999449883 0.313953488372093
-0.258460211448181 -0.5 0.157573791322869
-0.252827085555213 -0.499466360063106 0.174418604651163
-0.270072036127131 -0.490638441978935 0.174418604651163
-0.268734015285312 -0.497081075958392 0.174418604651163
-0.279328034403374 -0.481938738729264 0.174418604651163
-0.287397183481539 -0.48410934646894 0.174418604651163
-0.294172424774197 -0.46990225464036 0.174418604651163
-0.306429875444112 -0.472401888989259 0.174418604651163
-0.316985743443689 -0.459886973249184 0.174418604651163
-0.321880613207383 -0.460516196177089 0.174418604651163
-0.334113713291184 -0.453248955603071 0.174418604651163
-0.33801542187314 -0.44975815680972 0.174418604651163
-0.343875576750416 -0.440753135462584 0.174418604651163
-0.358950998176793 -0.435826479636785 0.174418604651163
-0.354836688431626 -0.432951050102661 0.174418604651163
-0.37542471701453 -0.424973997109486 0.174418604651163
-0.261437495329219 -0.497511279887787 0.313953488372093
-0.270762377856541 -0.491385332851205 0.313953488372093
-0.272776849215078 -0.497131573731396 0.313953488372093
-0.289918104155114 -0.480504124489183 0.313953488372093
-0.28984010084909 -0.482550174063111 0.313953488372093
-0.300561852499328 -0.476411462209611 0.313953488372093
-0.313152444816064 -0.464252299491247 0.313953488372093
-0.320219677721518 -0.465353392366741 0.313953488372093
-0.321384817893973 -0.455123245882234 0.313953488372093
-0.338373397365505 -0.452631146431109 0.313953488372093
-0.340835683803178 -0.4476360177268 0.313953488372093
-0.34727639173746 -0.433762209927614 0.313953488372093
-0.361523884874366 -0.43239330563127 0.313953488372093
-0.3754856950393 -0.423953781731198 0.313953488372093
-0.381285994150768 -0.42268933139145 0.313953488372093
-0.390371668759263 -0.407149432791991 0.313953488372093
-0.397415874903353 -0.410039861996151 0.313953488372093
-0.401800458067787 -0.397938420041042 0.313953488372093
-0.414985648862068 -0.393560110315898 0.313953488372093
-0.42481120565848 -0.391552299835354 0.313953488372093
-0.434222821909896 -0.386222141479657 0.313953488372093
-0.440462136735407 -0.377460464016597 0.313953488372093
-0.458965860013554 -0.362623012108804 0.313953488372093
-0.465586239203258 -0.357801973672193 0.313953488372093
-0.476808955548678 -0.356604805332746 0.313953488372093
-0.489235997865208 -0.342883033592321 0.313953488372093
-0.496862678456597 -0.342758904368722 0.313953488372093
-0.499565687299693 -0.333881753858901 0.313953488372093
-0.279924647158748 -0.5 0.146879851348515
-0.27796705827858 -0.5 0.154962569240141
-0.283020817412189 -0.5 0.15830868079243
-0.274684723951834 -0.5 0.171066291502454
-0.286196501492301 -0.489304783022572 0.174418604651162
-0.296447695286925 -0.48389024921899 0.174418604651163
-0.29664331774731 -0.480806461430692 0.174418604651163
-0.310562433099726 -0.471840248152078 0.174418604651163
-0.321222624757471 -0.475876274359791 0.174418604651163
-0.321883164212033 -0.4669553863996 0.174418604651162
-0.342643243986228 -0.455206133859389 0.174418604651163
-0.346139733822426 -0.452679085864128 0.174418604651163
-0.35022837818804 -0.450450376682598 0.174418604651163
-0.366325876697874 -0.445204827491615 0.174418604651163
-0.370337192506646 -0.437439424445486 0.174418604651163
-0.372979210681394 -0.437523787118429 0.174418604651163
-0.390267024556512 -0.426068234642791 0.174418604651163
-0.281830405490044 -0.5 0.309130896729588
-0.284055428233199 -0.498239032800217 0.313953488372093
-0.290850358753713 -0.496173143452396 0.313953488372093
-0.295088133745873 -0.4834980637464 0.313953488372093
-0.308687426114803 -0.481716476392632 0.313953488372093
-0.312210501398338 -0.480346356464888 0.313953488372093
-0.319835362281463 -0.473072099340184 0.313953488372093
-0.33680406745806 -0.456551619984524 0.313953488372093
-0.338081051818785 -0.458926235500623 0.313953488372093
-0.348259551823964 -0.45189264012408 0.313953488372093
-0.36031083444352 -0.449429823840438 0.313953488372093
-0.363861239975925 -0.442227700110523 0.313953488372093
-0.375006875204162 -0.430980047626345 0.313953488372093
-0.390511612470626 -0.427737044158241 0.313953488372093
-0.396412418962542 -0.411956443420218 0.313953488372093
-0.412063944126623 -0.409043699819612 0.313953488372093
-0.418275263575076 -0.401354770078422 0.313953488372093
-0.426349554165465 -0.403759529111253 0.313953488372093
-0.428809742210401 -0.391476854601346 0.313953488372093
-0.442751844875083 -0.387862615357716 0.313953488372093
-0.453415828009046 -0.379311139792031 0.313953488372093
-0.466965253157094 -0.374932568170638 0.313953488372093
-0.473748715621924 -0.364812032335143 0.313953488372093
-0.480852277478634 -0.363839595380906 0.313953488372093
-0.291006068408081 -0.5 0.141819617203934
-0.291646836225374 -0.5 0.157192636545855
-0.303431164625976 -0.5 0.153722067808592
-0.293169102045106 -0.498461894463647 0.174418604651163
-0.301751325396167 -0.498760136887981 0.174418604651163
-0.313204124541825 -0.487720564971458 0.174418604651163
-0.313896463858295 -0.484043707858719 0.174418604651163
-0.324805212878104 -0.481063336757241 0.174418604651163
-0.333802521876514 -0.472351506124365 0.174418604651163
-0.341672306505043 -0.460404824090053 0.174418604651163
-0.351091361352763 -0.463181351585969 0.174418604651163
-0.354189204368286 -0.457344010734088 0.174418604651163
-0.373695983618727 -0.445139207083767 0.174418604651162
-0.378700446406758 -0.443125661596448 0.174418604651163
-0.388035557218131 -0.441038069044476 0.174418604651163
-0.392816381040032 -0.437470749869439 0.174418604651163
-0.397024573602016 -0.422471914422916 0.174418604651163
-0.293421113434918 -0.5 0.313156254728744
-0.293937297899896 -0.499629326955556 0.313953488372093
-0.30776545379163 -0.488458391857954 0.313953488372093
-0.314550509804513 -0.487981205712166 0.313953488372093
-0.321398205161271 -0.476629455159196 0.313953488372093
-0.330893243782811 -0.478407634661047 0.313953488372093
-0.347198063715598 -0.469532907603747 0.313953488372093
-0.345817854226534 -0.464248036000823 0.313953488372093
-0.364960909729345 -0.456570971473041 0.313953488372093
-0.363278503203777 -0.44781275895335 0.313953488372093
-0.384387487500891 -0.44419382586526 0.313953488372093
-0.376466495593779 -0.438729702087304 0.313953488372093
-0.391531125578112 -0.4344474382543 0.313953488372093
-0.40497926234259 -0.427347251815551 0.313953488372093
-0.411381779628544 -0.420010483567051 0.313953488372093
-0.418043004038662 -0.416916541180079 0.313953488372093
-0.42554574597979 -0.403977438749997 0.313953488372093
-0.441075561386555 -0.397820928106805 0.313953488372093
-0.449067897272918 -0.394264992046927 0.313953488372093
-0.458212114777122 -0.384547151750242 0.313953488372093
-0.478514076878208 -0.377523775155719 0.313953488372093
-0.483640927675399 -0.37050980096574 0.313953488372093
-0.491338042156248 -0.364731656093696 0.313953488372093
-0.302208354458451 -0.5 0.148027223708601
-0.312872718693041 -0.5 0.158207832128642
-0.312142225495165 -0.5 0.16224918890679
-0.305904798746754 -0.495846027667439 0.174418604651163
-0.31643108903471 -0.5 0.170032644347642
-0.324371623303645 -0.496178861052402 0.174418604651163
-0.336005854215947 -0.48720492872992 0.174418604651162
-0.346431162375645 -0.475093659253923 0.174418604651163
-0.3533193748828 -0.477269692503823 0.174418604651163
-0.364097663171522 -0.463980952082527 0.174418604651163
-0.370677599655951 -0.462643034565853 0.174418604651163
-0.380315212198764 -0.451008754072745 0.174418604651163
-0.384409320369615 -0.445424085942391 0.174418604651162
-0.389784117309399 -0.444388259599671 0.174418604651163
-0.407903155280765 -0.438458912919068 0.174418604651162
-0.41217342866 -0.429310942932078 0.174418604651163
-0.417739714397829 -0.431736918585757 0.174418604651163
-0.428260072318874 -0.420074629205992 0.174418604651163
-0.312555130882564 -0.499309957907939 0.313953488372093
-0.316941444338242 -0.495575260321106 0.313953488372093
-0.324948854294068 -0.483398398845373 0.313953488372093
-0.336888652800824 -0.47701975955727 0.313953488372093
-0.342449995481005 -0.476992696847346 0.313953488372093
-0.354145102915857 -0.466336612778292 0.313953488372093
-0.363399132503665 -0.456707621455842 0.313953488372093
-0.378611393121292 -0.455268227088555 0.313953488372093
-0.377676111176319 -0.449132729391365 0.313953488372093
-0.39882303220032 -0.438933259096511 0.313953488372093
-0.396211774421255 -0.441230581234649 0.313953488372093
-0.407737362035259 -0.43658251794182 0.313953488372093
-0.427686088032887 -0.419596353655979 0.313953488372093
-0.426279678821403 -0.424184708724699 0.313953488372093
-0.434903736368401 -0.413080511287231 0.313953488372093
-0.450794194849816 -0.40471543885053 0.313953488372093
-0.45677484520795 -0.403202749937257 0.313953488372093
-0.468422576902002 -0.387006888464658 0.313953488372093
-0.470876604956377 -0.391472241032989 0.313953488372093
-0.496806321324325 -0.381513667537116 0.313953488372093
-0.317974840885918 -0.5 0.142915156419914
-0.324849898254079 -0.5 0.141205371231971
-0.338779047435019 -0.5 0.144594692766126
-0.328267676972158 -0.5 0.163220516096172
-0.331289627839749 -0.5 0.164747318621937
-0.326766313189827 -0.5 0.174323909561365
-0.340338335217836 -0.486906546948527 0.174418604651163
-0.347407019828364 -0.481484706061103 0.174418604651163
-0.357987622661538 -0.476463089954486 0.174418604651163
-0.359135537267612 -0.475048218113925 0.174418604651163
-0.375690794778397 -0.467404307348793 0.174418604651163
-0.382691302005102 -0.469559599915925 0.174418604651162
-0.395225750632755 -0.455441457316795 0.174418604651163
-0.395996259017649 -0.453285412599622 0.174418604651163
-0.412256415726084 -0.443062105919369 0.174418604651163
-0.421697475022758 -0.438966830761736 0.174418604651163
-0.432501262515059 -0.43385482370104 0.174418604651163
-0.433468634201613 -0.431585134695036 0.174418604651163
-0.446458366462371 -0.424693414932751 0.174418604651163
-0.32890754727939 -0.499685566855677 0.313953488372093
-0.337032978344084 -0.49572757885064 0.313953488372093
-0.344588870788879 -0.495856551691742 0.313953488372093
-0.359901005211506 -0.480191304843784 0.313953488372093
-0.358080379621279 -0.477850126371095 0.313953488372093
-0.376949863674168 -0.469698121380406 0.313953488372093
-0.380137557825711 -0.464669323084588 0.313953488372093
-0.392370959873621 -0.451543210443751 0.313953488372093
-0.400441443365584 -0.445534961427523 0.313953488372093
-0.408503202511317 -0.443023549581327 0.313953488372093
-0.418632448243822 -0.434065782737772 0.313953488372093
-0.43141742636027 -0.429571348506538 0.313953488372093
-0.438136857557642 -0.433499630492231 0.313953488372093
-0.446127594814382 -0.425422076171093 0.313953488372093
-0.449506499385753 -0.413493900399518 0.313953488372093
-0.459411032261194 -0.408343063026287 0.313953488372093
-0.476187094704812 -0.399184330164948 0.313953488372093
-0.486880092896558 -0.393697659487215 0.313953488372093
-0.495755780030661 -0.388627255520642 0.313953488372093
-0.347039548541034 -0.5 0.142540798045912
-0.343091511664833 -0.5 0.147750277946729
-0.334688434436792 -0.5 0.165482361129017
-0.345930781842607 -0.5 0.167855340443199
-0.351289183306365 -0.5 0.174431941675379
-0.356718923886726 -0.497453677802047 0.174418604651163
-0.367642835734616 -0.4887223050644 0.174418604651163
-0.37761804868936 -0.475348302386768 0.174418604651162
-0.378228371399329 -0.481793990915782 0.174418604651163
-0.387543273109268 -0.474869637402435 0.174418604651163
-0.398986923960032 -0.466951355626831 0.174418604651163
-0.402883070906507 -0.461587727991109 0.174418604651163
-0.410449602566547 -0.458588998947091 0.174418604651163
-0.425197252698232 -0.445569432229133 0.174418604651163
-0.436036071389503 -0.441930438138945 0.174418604651163
-0.444848950710492 -0.43156285056024 0.174418604651162
-0.454923917160382 -0.42689143114004 0.174418604651163
-0.465203447610249 -0.420283708865792 0.174418604651163
-0.348087935822714 -0.5 0.311240798588627
-0.348958630636117 -0.491752014595621 0.313953488372093
-0.361373570660425 -0.487966499354023 0.313953488372093
-0.363651334210418 -0.483209489266618 0.313953488372093
-0.37379243807903 -0.479403268895036 0.313953488372093
-0.389222510489971 -0.474132319190968 0.313953488372093
-0.397847165340031 -0.469129189177404 0.313953488372093
-0.402113869088494 -0.457110348670914 0.313953488372093
-0.420004732631021 -0.446052058345629 0.313953488372093
-0.416598143561295 -0.445064819832925 0.313953488372093
-0.440094113529339 -0.438983089138379 0.313953488372093
-0.447231269131405 -0.434523477053511 0.313953488372093
-0.458001860669114 -0.43095411211119 0.313953488372093
-0.472766023892908 -0.419175824050347 0.313953488372093
-0.478283039639749 -0.413566723231677 0.313953488372093
-0.481836163632258 -0.413248380729862 0.313953488372093
-0.491968012250216 -0.397204821638852 0.313953488372093
-0.362008298510003 -0.5 0.141004900720819
-0.358556418485384 -0.5 0.156839615367803
-0.360426067398184 -0.5 0.159668400819772
-0.364218369369713 -0.5 0.157443777677409
-0.372471891399725 -0.5 0.167676753674244
-0.36505508318411 -0.5 0.174418604651163
-0.373499582274182 -0.487100721878667 0.174418604651162
-0.387194479217551 -0.484371552116614 0.174418604651163
-0.39688059177782 -0.475696898345673 0.174418604651163
-0.403655860376471 -0.471654008577066 0.174418604651162
-0.416674516245479 -0.463244539268422 0.174418604651163
-0.419497777226312 -0.458056205099098 0.174418604651163
-0.437454754694804 -0.455162458940487 0.174418604651163
-0.444505553057118 -0.445654802236819 0.174418604651163
-0.4486467567894 -0.438763274236749 0.174418604651163
-0.461217557439092 -0.436157354740499 0.174418604651163
-0.475725940746597 -0.423589198409259 0.174418604651163
-0.474234963718557 -0.421275091797993 0.174418604651163
-0.353011092125062 -0.49843512138506 0.313953488372093
-0.37122632721044 -0.490598979489427 0.313953488372093
-0.376120108121988 -0.485786616997709 0.313953488372093
-0.384333592491411 -0.479056778484322 0.313953488372093
-0.395363587382006 -0.47472775269215 0.313953488372093
-0.405909862874884 -0.470877762311134 0.313953488372093
-0.410080590756264 -0.463701055817393 0.313953488372093
-0.421136863591207 -0.459883038536179 0.313953488372093
-0.429424534045716 -0.456110085602022 0.313953488372093
-0.445613361411081 -0.448562964208378 0.313953488372093
-0.452590617526245 -0.443146296167569 0.313953488372093
-0.452744590204276 -0.43850267117677 0.313953488372093
-0.463301487709584 -0.434312892126359 0.313953488372093
-0.482340238091896 -0.42064441011426 0.313953488372093
-0.486764266094194 -0.415557412160316 0.313953488372093
-0.499550906919158 -0.41195421093549 0.313953488372093
-0.370464729542278 -0.5 0.153360897532804
-0.376492811618088 -0.5 0.158422002461478
-0.377599559388009 -0.5 0.164781494543962
-0.378631698838724 -0.498639782900272 0.174418604651163
-0.388902391454278 -0.49237259094246 0.174418604651163
-0.391294723134321 -0.492530936489383 0.174418604651163
-0.411329508892332 -0.484749936952758 0.174418604651163
-0.40962577793014 -0.473005814758192 0.174418604651162
-0.421957119530381 -0.471862327211109 0.174418604651163
-0.429632808026684 -0.463861361704572 0.174418604651162
-0.443001160392848 -0.463389687534104 0.174418604651163
-0.442948945826636 -0.461315453849039 0.174418604651163
-0.458132574724562 -0.449421105264519 0.174418604651163
-0.464339432591237 -0.439940393762692 0.174418604651163
-0.474575073248763 -0.43918483786256 0.174418604651163
-0.487047194922451 -0.432937606377051 0.174418604651163
-0.498310814185071 -0.42362367464424 0.174418604651163
-0.377714074775826 -0.5 0.31151706576874
-0.391105627961708 -0.49459993151498 0.313953488372093
-0.40076560407365 -0.484860589200799 0.313953488372093
-0.407176688914804 -0.478095201872229 0.313953488372093
-0.418349229011852 -0.474336750812231 0.313953488372093
-0.432984487613026 -0.464680073830508 0.313953488372093
-0.441484484847218 -0.461192414579701 0.313953488372093
-0.448840589677894 -0.452315190037897 0.313953488372093
-0.453310741671526 -0.448894788018689 0.313953488372093
-0.465715689356377 -0.440844672931347 0.313953488372093
-0.47940480044934 -0.439058865322406 0.313953488372093
-0.486424075076417 -0.43731628558472 0.313953488372093
-0.491540575056307 -0.427544214083913 0.313953488372093
-0.397495976884701 -0.5 0.139661552629454
-0.392676413304135 -0.5 0.158623846858301
-0.399576744986445 -0.5 0.154816817619951
-0.400575401518361 -0.5 0.162828308037217
-0.401575173545169 -0.498296464278696 0.174418604651163
-0.414878608102977 -0.490982175697901 0.174418604651163
-0.415260211542393 -0.482630385528101 0.174418604651163
-0.429439683354358 -0.473715607188269 0.174418604651163
-0.444803023688667 -0.474570800374403 0.174418604651163
-0.438921773583879 -0.47270341077047 0.174418604651163
-0.454734479669535 -0.454737578522139 0.174418604651163
-0.464571026249993 -0.460876613084519 0.174418604651163
-0.472274325620824 -0.44686833739308 0.174418604651162
-0.483477951175795 -0.447628260516451 0.174418604651163
-0.489316750487093 -0.443235230931173 0.174418604651163
-0.400683169640006 -0.5 0.311869155305195
-0.403884178307282 -0.498274466927332 0.313953488372093
-0.413386267152218 -0.491142184036819 0.313953488372093
-0.427393737495102 -0.478220643662052 0.313953488372093
-0.442943492666389 -0.472858120032107 0.313953488372093
-0.441132071744401 -0.465380615705408 0.313953488372093
-0.455674927377397 -0.464382471445635 0.313953488372093
-0.468344976815838 -0.450603458203421 0.313953488372093
-0.477605146910231 -0.449295125968284 0.313953488372093
-0.491566765181782 -0.441291872209803 0.313953488372093
-0.497912227840994 -0.431517930166331 0.313953488372093
-0.410862409379701 -0.5 0.146605015508547
-0.413291419258017 -0.5 0.15161368554768
-0.419783367208822 -0.5 0.157241629466525
-0.416479978291295 -0.5 0.168585892620838
-0.416222270032856 -0.5 0.167585393424941
-0.430339172772417 -0.495528201474357 0.174418604651163
-0.435720283165388 -0.480798284256421 0.174418604651163
-0.445570515224489 -0.479096578249583 0.174418604651163
-0.453676426052203 -0.474750923999511 0.174418604651163
-0.465818039550677 -0.46759905862664 0.174418604651163
-0.470816491393123 -0.465298100537074 0.174418604651163
-0.481389448625135 -0.464935873296795 0.174418604651163
-0.490895070661864 -0.44927068267632 0.174418604651163
-0.415297122967145 -0.499301432425173 0.313953488372093
-0.420219278650191 -0.499786934460448 0.313953488372093
-0.431421160427997 -0.492654423997495 0.313953488372093
-0.445056782355162 -0.482130338743637 0.313953488372093
-0.448949214167303 -0.478977971026229 0.313953488372093
-0.46408252525462 -0.472312133407597 0.313953488372093
-0.471559558218015 -0.463526797578337 0.313953488372093
-0.484271045923148 -0.457478567489639 0.313953488372093
-0.491231931836751 -0.448494573346821 0.313953488372093
-0.499144544831658 -0.443477940582864 0.313953488372093
-0.439413805637471 -0.5 0.143296164782264
-0.434391236198731 -0.5 0.147836047199255
-0.427402279805411 -0.5 0.163659002757825
-0.437239776204495 -0.5 0.170425930374042
-0.448544424192446 -0.492605814867795 0.174418604651163
-0.449108740849978 -0.484782483348504 0.174418604651163
-0.463763166677176 -0.483347625531753 0.174418604651163
-0.46338025740315 -0.476748614061597 0.174418604651163
-0.483448290482 -0.46437950047966 0.174418604651163
-0.487442389527773 -0.464116238098599 0.174418604651163
-0.499948301430871 -0.456312727500265 0.174418604651163
-0.425192019100554 -0.498936221389398 0.313953488372093
-0.444031704892831 -0.48923190741351 0.313953488372093
-0.450835044354605 -0.490841480489519 0.313953488372093
-0.4590671767442 -0.484665258748209 0.313953488372093
-0.461157508417702 -0.476588893295486 0.313953488372093
-0.483239099654896 -0.472035727469524 0.313953488372093
-0.48508878609624 -0.4659671362496 0.313953488372093
-0.491831715917897 -0.457357185848716 0.313953488372093
-0.458366076781504 -0.5 0.153147460590658
-0.459073474021993 -0.5 0.151807672894675
-0.449758604465884 -0.5 0.168656917698008
-0.452879279376364 -0.493435430286472 0.174418604651163
-0.462376871718506 -0.487354707629284 0.174418604651163
-0.483471433133698 -0.486335046463371 0.174418604651163
-0.484294472159774 -0.480937552612038 0.174418604651163
-0.488635839474151 -0.47287817006264 0.174418604651163
-0.497973321949521 -0.463794838523165 0.174418604651162
-0.44427770925707 -0.499341615033179 0.313953488372093
-0.457871842819379 -0.498931681337823 0.313953488372093
-0.46475302354346 -0.488145278630151 0.313953488372093
-0.480594736411828 -0.487965095848879 0.313953488372093
-0.489111251400773 -0.48048949458753 0.313953488372093
-0.498295712796288 -0.464331375194336 0.313953488372093
-0.473651300854509 -0.5 0.141812645270835
-0.468516866213573 -0.5 0.156282204060608
-0.467397781408114 -0.5 0.161697488057735
-0.473157639538642 -0.5 0.163780343006872
-0.473149552888568 -0.5 0.174364452960429
-0.484931157288054 -0.494013633694251 0.174418604651162
-0.489697807309235 -0.486154957163287 0.174418604651163
-0.479503270514299 -0.5 0.310303389131263
-0.490579224969067 -0.492224107612282 0.313953488372093
-0.488541886638068 -0.481828390774269 0.313953488372093
-0.485526442522151 -0.5 0.145020238925679
-0.486668433376268 -0.5 0.152290711013131
-0.478964257123233 -0.5 0.16237848597562
-0.493322206476267 -0.5 0.165079583541567
-0.48892852080609 -0.498027689397474 0.174418604651163
-0.489995997753685 -0.495227990004002 0.313953488372093
-0.498709935068797 -0.493387207986405 0.313953488372093
-0.495335302132591 -0.5 0.170709330714984
0.321456844292077 -0.49841621145882 0.313953488372093
0.321845105864168 -0.487170380226237 0.313953488372093
0.311502730869475 -0.489152259795102 0.313953488372093
0.301962172516148 -0.493979178618366 0.313953488372093
0.2883319662035 -0.493450799476609 0.313953488372093
0.288020017041351 -0.495600510097239 0.313953488372093
0.328539916855859 -0.480227627322311 0.313953488372093
0.308515890711761 -0.48279367525789 0.313953488372093
0.304023073506572 -0.485254467911881 0.313953488372093
0.300249618382996 -0.487952273908436 0.313953488372093
0.287549722027948 -0.492314665791727 0.313953488372093
0.278005938448022 -0.4926414870422 0.313953488372093
0.271593375211163 -0.492662584807194 0.313953488372093
0.257650930657797 -0.488512784712556 0.313953488372093
0.243503594878376 -0.496564287346226 0.313953488372093
0.244367577109427 -0.497766668228595 0.313953488372093
0.209611388829374 -0.498922614813555 0.313953488372093
0.328978952661475 -0.471697086325733 0.313953488372093
0.306295741800391 -0.479185261624993 0.313953488372093
0.302699330584501 -0.478975408490824 0.313953488372093
0.292735170072488 -0.478975493137367 0.313953488372093
0.278933453231474 -0.478852459847126 0.313953488372093
0.27747253688028 -0.484163513754736 0.313953488372093
0.267810080700652 -0.480594150919581 0.313953488372093
0.259225940108547 -0.485131533249907 0.313953488372093
0.249920085167078 -0.490127746498795 0.313953488372093
0.233765930661982 -0.490904151269151 0.313953488372093
0.232759222170395 -0.493527227641591 0.313953488372093
0.224326004208958 -0.489800662351987 0.313953488372093
0.214687033568904 -0.494522426613228 0.313953488372093
0.195710282056763 -0.493502221658973 0.313953488372093
0.191684473362128 -0.495565268574597 0.313953488372093
0.18444776742328 -0.496661480512767 0.313953488372093
0.172212224797674 -0.499040054278924 0.313953488372093
0.150636397057357 -0.499545775770586 0.313953488372093
0.32726178014969 -0.465320214950528 0.313953488372093
0.313579064286262 -0.466736911700225 0.313953488372093
0.308469814919888 -0.468630675186456 0.313953488372093
0.299091671631648 -0.465722260389086 0.313953488372093
0.288318210436111 -0.468904352969236 0.313953488372093
0.276138946723264 -0.47489163555805 0.313953488372093
0.270929242856018 -0.472492090123803 0.313953488372093
0.256940464859344 -0.474063737462971 0.313953488372093
0.243619872295319 -0.47309961889892 0.313953488372093
0.242306553338186 -0.475619914479036 0.313953488372093
0.2341860146412 -0.476488569184502 0.313953488372093
0.221533099125076 -0.480695497450105 0.313953488372093
0.214077540177956 -0.48138756692556 0.313953488372093
0.19951604075669 -0.48318931388403 0.313953488372093
0.193884850529553 -0.482210608979725 0.313953488372093
0.181158341721494 -0.487784257250136 0.313953488372093
0.179626788625682 -0.48474536371701 0.313953488372093
0.162856844809086 -0.495099065969756 0.313953488372093
0.155789893538058 -0.494813011806699 0.313953488372093
0.14290324579805 -0.497512239608482 0.313953488372093
0.13762969682536 -0.492967989783103 0.313953488372093
0.105816116232187 -0.498827742320033 0.313953488372093
0.317940964763443 -0.452921810263813 0.313953488372093
0.32004442061421 -0.458151603245998 0.313953488372093
0.302117798681026 -0.456647595781342 0.313953488372093
0.296827783872794 -0.463262580951916 0.313953488372093
0.292597836259264 -0.458562967051197 0.313953488372093
0.278000991417348 -0.463997506215675 0.313953488372093
0.26918286151318 -0.463102156417623 0.313953488372093
0.260753335096152 -0.462121016053371 0.313953488372093
0.245780649323911 -0.46721053145972 0.313953488372093
0.233345882717093 -0.470790443539953 0.313953488372093
0.235846164181203 -0.466369851375297 0.313953488372093
0.220365509658442 -0.476010779979599 0.313953488372093
0.210279343809895 -0.477356719703406 0.313953488372093
0.207735833979367 -0.477817007281392 0.313953488372093
0.193802506988811 -0.482000848022809 0.313953488372093
0.176643521679215 -0.477789953538964 0.313953488372093
0.166702465250873 -0.477104134773684 0.313953488372093
0.159684412387741 -0.478471233875788 0.313953488372093
0.148834654889097 -0.485352475518934 0.313953488372093
0.148118523230794 -0.485727489846284 0.313953488372093
0.135738865509139 -0.483075607815143 0.313953488372093
0.12045775701316 -0.486481459242634 0.313953488372093
0.11151213679157 -0.496208201714918 0.313953488372093
0.0927217888052606 -0.497526796764392 0.313953488372093
0.0920890588424997 -0.495117132902678 0.313953488372093
0.0881028559593972 -0.491901416180712 0.313953488372093
0.0706083827019898 -0.495043032296323 0.313953488372093
0.0617819770632025 -0.497768105242589 0.313953488372093
0.326581975166473 -0.447034648711292 0.313953488372093
0.31703566313141 -0.449573439870325 0.313953488372093
0.307769834135069 -0.450371555732144 0.313953488372093
0.303296213262027 -0.450992183954506 0.313953488372093
0.286587534341099 -0.455703525458888 0.313953488372093
0.278432039411589 -0.452498332695504 0.313953488372093
0.268375135788766 -0.459839267625644 0.313953488372093
0.262805556094241 -0.453816735181886 0.313953488372093
0.256003163617893 -0.45390014738744 0.313953488372093
0.236243042492596 -0.462193237871683 0.313953488372093
0.231429109394041 -0.464424078716408 0.313953488372093
0.220617982200878 -0.462586055088467 0.313953488372093
0.209572361175372 -0.463630875905242 0.313953488372093
0.20844991520053 -0.468742296722512 0.313953488372093
0.196828047602796 -0.463761630429836 0.313953488372093
0.188706733055294 -0.472877645822957 0.313953488372093
0.179800018702254 -0.473563924633785 0.313953488372093
0.167120135178441 -0.471179093762369 0.313953488372093
0.145770678583123 -0.474630021964497 0.313953488372093
0.135144312466455 -0.475815355844497 0.313953488372093
0.132133447606121 -0.479920433151294 0.313953488372093
0.121432379067638 -0.480526904483399 0.313953488372093
0.119863336458808 -0.478457575419426 0.313953488372093
0.104906147951742 -0.487982669844581 0.313953488372093
0.091157989384983 -0.484798299998255 0.313953488372093
0.0784804508891955 -0.484528312036977 0.313953488372093
0.0668165319956033 -0.491062949613861 0.313953488372093
0.0607192763944215 -0.486435409982473 0.313953488372093
0.0480551261045261 -0.495851275020469 0.313953488372093
0.0312526683864085 -0.490695324505311 0.313953488372093
0.0252595378735149 -0.492705333550382 0.313953488372093
0.0205660849831553 -0.492494359990233 0.313953488372093
0.0033140578574506 -0.499300426105944 0.313953488372093
0.329206985376877 -0.435056095990112 0.313953488372093
0.312639065387108 -0.43574485069231 0.313953488372093
0.296728400316503 -0.437126849124101 0.313953488372093
0.297602892022889 -0.439845334808062 0.313953488372093
0.290209348450777 -0.439225380201372 0.313953488372093
0.283805084640042 -0.442662577344994 0.313953488372093
0.271995185418603 -0.444101845597377 0.313953488372093
0.264615509146351 -0.444662945350096 0.313953488372093
0.256995644154923 -0.447055890560637 0.313953488372093
0.242847222328378 -0.453714646047957 0.313953488372093
0.225804542704464 -0.450015273437691 0.313953488372093
0.225162124341879 -0.44938127199164 0.313953488372093
0.209491448221603 -0.456760924023782 0.313953488372093
0.200650534568371 -0.460220538531269 0.313953488372093
0.197942015701492 -0.459472623159717 0.313953488372093
0.17680700467892 -0.459069240207417 0.313953488372093
0.171149783401751 -0.46051356223008 0.313953488372093
0.160044321233321 -0.467379132932367 0.313953488372093
0.151688282933914 -0.467326322778786 0.313953488372093
0.142489577183951 -0.465489268420408 0.313953488372093
0.12918847997347 -0.46380806571896 0.313953488372093
0.123891091636863 -0.469920332618556 0.313953488372093
0.110160212187967 -0.471688352310618 0.313953488372093
0.099836151319353 -0.475926988056554 0.313953488372093
0.0941212908744829 -0.477851060101727 0.313953488372093
0.0822578708866381 -0.474224269786929 0.313953488372093
0.0626195591570109 -0.477041432952408 0.313953488372093
0.0690193437490205 -0.481188524619285 0.313953488372093
0.0518638021682131 -0.480228625884418 0.313953488372093
0.0393954533881049 -0.484407260555722 0.313953488372093
0.027983715786443 -0.482563521868983 0.313953488372093
0.0142130694023749 -0.486875386027048 0.313953488372093
-0.00551298822906564 -0.486732603956195 0.313953488372093
-0.0138670941068368 -0.496393456985205 0.313953488372093
-0.00963451682261721 -0.489328670225457 0.313953488372093
-0.0309048885376409 -0.492983810774545 0.313953488372093
-0.0489250764463502 -0.493298352401719 0.313953488372093
-0.0629387956062471 -0.499106895539509 0.313953488372093
0.323295967237987 -0.429737751919323 0.313953488372093
0.319110831227126 -0.432276821993785 0.313953488372093
0.302768857099314 -0.432243148963112 0.313953488372093
0.29567497556668 -0.428826180359152 0.313953488372093
0.292602621111263 -0.42979469380567 0.313953488372093
0.280534966498213 -0.438865245611732 0.313953488372093
0.261344609516761 -0.437425065289466 0.313953488372093
0.252510896508845 -0.436493690614702 0.313953488372093
0.257628736461859 -0.443350544973124 0.313953488372093
0.241350461735567 -0.439756162294118 0.313953488372093
0.22402826234365 -0.439139036729318 0.313953488372093
0.217003902876957 -0.441050767568729 0.313953488372093
0.218051921552241 -0.445959744092064 0.313953488372093
0.201782980217062 -0.449681115567045 0.313953488372093
0.190606786417317 -0.450286111638212 0.313953488372093
0.177783706193074 -0.452919204298574 0.313953488372093
0.164637803560197 -0.45253806075044 0.313953488372093
0.158247051797472 -0.451613595938632 0.313953488372093
0.149080696131475 -0.454020338697582 0.313953488372093
0.13894227666243 -0.45456746307513 0.313953488372093
0.135137838256533 -0.453791828528343 0.313953488372093
0.128223995363715 -0.463155439633958 0.313953488372093
0.111072359637548 -0.461879721135801 0.313953488372093
0.10461431447128 -0.459121976239142 0.313953488372093
0.0893409087522678 -0.460502201480443 0.313953488372093
0.0821128920534592 -0.469573145295629 0.313953488372093
0.0717824133738258 -0.465443496617413 0.313953488372093
0.0593075251276471 -0.471271735809163 0.313953488372093
0.0492412261967636 -0.474364302304457 0.313953488372093
0.0376923138801544 -0.469975218630157 0.313953488372093
0.0232118858859834 -0.473258386383064 0.313953488372093
0.0216427495734121 -0.475492388409962 0.313953488372093
0.00546506395448209 -0.48268786523965 0.313953488372093
-0.00307235088688025 -0.480792850766331 0.313953488372093
-0.01369065010818 -0.484624970339211 0.313953488372093
-0.0361293286586021 -0.489391086344534 0.313953488372093
-0.0475053203013764 -0.48648065718911 0.313953488372093
-0.0601445768619992 -0.484001049523232 0.313953488372093
-0.058600215658559 -0.485268370044171 0.313953488372093
-0.0742145346569403 -0.495577531241142 0.313953488372093
-0.0917502258731848 -0.496469238074063 0.313953488372093
-0.10260111812595 -0.494456388485782 0.313953488372093
0.323891980326906 -0.415351089914172 0.313953488372093
0.314293085490896 -0.424866427513902 0.313953488372093
0.306140770900013 -0.421194295437588 0.313953488372093
0.296338208219081 -0.4225750566414 0.313953488372093
0.287712818260634 -0.420440932679246 0.313953488372093
0.280534549583914 -0.430778042938302 0.313953488372093
0.264755516643689 -0.42604777122448 0.313953488372093
0.267064963279951 -0.428900786374645 0.313953488372093
0.254700411136042 -0.432181908839285 0.313953488372093
0.237718329629126 -0.434767495707469 0.313953488372093
0.233650659313517 -0.430598365095736 0.313953488372093
0.220045630989196 -0.434938228362615 0.313953488372093
0.209568213297319 -0.437460520285786 0.313953488372093
0.197062257012565 -0.442088685867422 0.313953488372093
0.19101106140342 -0.442151132491334 0.313953488372093
0.176370920764583 -0.440175173977932 0.313953488372093
0.173021497122137 -0.441973341025087 0.313953488372093
0.163996552692629 -0.442744950487917 0.313953488372093
0.150353506345424 -0.44422130320269 0.313953488372093
0.144737970290539 -0.451208350183134 0.313953488372093
0.133395856888938 -0.449597710181473 0.313953488372093
0.124608378825788 -0.449889963761218 0.313953488372093
0.11488144941181 -0.452628848006983 0.313953488372093
0.0992858193331063 -0.45854489403929 0.313953488372093
0.0858710550622053 -0.46035479965926 0.313953488372093
0.0745289840355907 -0.454564593602509 0.313953488372093
0.0671332267615123 -0.454297031730348 0.313953488372093
0.0569275907334483 -0.456128710020054 0.313953488372093
0.0514625242500932 -0.461094778548766 0.313953488372093
0.0340386993445715 -0.45922950083828 0.313953488372093
0.0225948160598785 -0.468870940161313 0.313953488372093
0.00816991322239932 -0.463735080851532 0.313953488372093
0.0049292595257594 -0.46915897686621 0.313953488372093
-0.0102157505811422 -0.47564824582811 0.313953488372093
-0.0137543851034961 -0.475313669525969 0.313953488372093
-0.0209095972431078 -0.471279874369945 0.313953488372093
-0.0397149934545899 -0.479993443614641 0.313953488372093
-0.0463043863222548 -0.47396354596435 0.313953488372093
-0.0633630306127322 -0.483424676733707 0.313953488372093
-0.0840281368827169 -0.484555409528655 0.313953488372093
-0.0804326140711488 -0.485160259504981 0.313953488372093
-0.101413962438606 -0.489533914677043 0.313953488372093
-0.11464962225394 -0.492674404922586 0.313953488372093
-0.120864088332978 -0.492718298778383 0.313953488372093
-0.137906024602983 -0.487148111572873 0.313953488372093
-0.149332793461813 -0.491512683753907 0.313953488372093
-0.15550363475282 -0.490723418630275 0.313953488372093
-0.167523327320793 -0.498587487436534 0.313953488372093
-0.17607436583815 -0.49725605113924 0.313953488372093
0.327822700634394 -0.407768099005737 0.313953488372093
0.318072233931011 -0.412031729543909 0.313953488372093
0.305866838748761 -0.410587701042051 0.313953488372093
0.301634098453142 -0.416117259916849 0.313953488372093
0.281038875686712 -0.415782027642174 0.313953488372093
0.276418734723851 -0.415757335063537 0.313953488372093
0.270296931206723 -0.417322337186313 0.313953488372093
0.265783026405337 -0.42383946618178 0.313953488372093
0.244564247696956 -0.418614373304567 0.313953488372093
0.243810300619083 -0.419083694686031 0.313953488372093
0.236477123687763 -0.420115632989253 0.313953488372093
0.224196716231512 -0.421383536936805 0.313953488372093
0.207920252522423 -0.42382397450896 0.313953488372093
0.208955931219057 -0.432627278136641 0.313953488372093
0.190446493517993 -0.431045723378725 0.313953488372093
0.180462467219538 -0.434640620440243 0.313953488372093
0.176827234941609 -0.434875299560762 0.313953488372093
0.165278577374302 -0.432503318898138 0.313953488372093
0.150228757278152 -0.440762912031914 0.313953488372093
0.147477184097628 -0.440284001705335 0.313953488372093
0.128502188585714 -0.443887161276506 0.313953488372093
0.11602560012401 -0.444685166807485 0.313953488372093
0.116578990290503 -0.439309008304169 0.313953488372093
0.10928101121289 -0.448484051760447 0.313953488372093
0.098385558578519 -0.444036636317728 0.313953488372093
0.0731724055141475 -0.447070129613723 0.313953488372093
0.0649576113169544 -0.448432520796826 0.313953488372093
0.0575345799282099 -0.454503003854682 0.313953488372093
0.0530273110379655 -0.453726693129915 0.313953488372093
0.0399058537323436 -0.45818153117974 0.313953488372093
0.0179783369228964 -0.460704830577909 0.313953488372093
0.0166289864612253 -0.454453363772301 0.313953488372093
0.00810795256070678 -0.463955540134329 0.313953488372093
-0.00992753720884036 -0.465192534596583 0.313953488372093
-0.018425024510196 -0.46739986850582 0.313953488372093
-0.0284315813920188 -0.46725080104127 0.313953488372093
-0.0385088549662776 -0.469452264166481 0.313953488372093
-0.0481261084259619 -0.468664560849227 0.313953488372093
-0.0632196268539302 -0.470970077388073 0.313953488372093
-0.0742195523547494 -0.468009624580408 0.313953488372093
-0.0857070086564692 -0.469622789395102 0.313953488372093
-0.106189507188346 -0.475809087791027 0.313953488372093
-0.115810761571544 -0.475136479715045 0.313953488372093
-0.126957179696358 -0.47740654803182 0.313953488372093
-0.136771825974464 -0.484951383125088 0.313953488372093
-0.151765565515217 -0.486291133011445 0.313953488372093
-0.15981837675038 -0.482269983193495 0.313953488372093
-0.167469504014668 -0.48114047781374 0.313953488372093
-0.190928110027604 -0.491731006537184 0.313953488372093
-0.199481832017899 -0.48659975480366 0.313953488372093
-0.207634646396085 -0.490049449341474 0.313953488372093
-0.227611486031055 -0.496320718962455 0.313953488372093
-0.244878849146315 -0.499939539871355 0.313953488372093
-0.283862000006518 -0.498678297592583 0.313953488372093
0.32403478490576 -0.401073843359042 0.313953488372093
0.310805960519598 -0.40593319741773 0.313953488372093
0.311707040593942 -0.407901307703014 0.313953488372093
0.291957250395963 -0.410335866466805 0.313953488372093
0.283138693263447 -0.411481370647559 0.313953488372093
0.278948825288295 -0.41223621807252 0.313953488372093
0.269297844778317 -0.409065794973629 0.313953488372093
0.25838342800746 -0.407599299823256 0.313953488372093
0.250759879863732 -0.413996875129068 0.313953488372093
0.24467015066758 -0.414877171376361 0.313953488372093
0.23172259615141 -0.412590965251732 0.313953488372093
0.217417075027701 -0.413944513607756 0.313953488372093
0.203127284033134 -0.422369423112612 0.313953488372093
0.200142707489486 -0.416561330471901 0.313953488372093
0.192867231591188 -0.423480103488602 0.313953488372093
0.188354880010072 -0.418569753230021 0.313953488372093
0.166441239602675 -0.42015341788908 0.313953488372093
0.159890513294932 -0.43006629686823 0.313953488372093
0.1526642254866 -0.426336460634643 0.313953488372093
0.142763878564863 -0.428631666213745 0.313953488372093
0.127251142424019 -0.434975385672488 0.313953488372093
0.12017421931722 -0.432765234602717 0.313953488372093
0.10904749210788 -0.430521684260943 0.313953488372093
0.101960892387256 -0.434751160255212 0.313953488372093
0.0915108615017741 -0.433046696162309 0.313953488372093
0.0774115482161954 -0.440972435232593 0.313953488372093
0.0767369769691271 -0.435465299319979 0.313953488372093
0.058758012251608 -0.442685084043232 0.313953488372093
0.0568375964124692 -0.444840529273594 0.313953488372093
0.0377230634248968 -0.448235107342982 0.313953488372093
0.031203080700859 -0.44296142327683 0.313953488372093
0.018502565657093 -0.442617498565734 0.313953488372093
-0.00285640849691925 -0.448181211511263 0.313953488372093
-0.00640432693368188 -0.453014560100675 0.313953488372093
-0.0250270013342345 -0.457620523076101 0.313953488372093
-0.030562126151201 -0.453722724199551 0.313953488372093
-0.0436932100158215 -0.45584778815958 0.313953488372093
-0.0551284870400546 -0.458202686820707 0.313953488372093
-0.0685916092748122 -0.462571252170608 0.313953488372093
-0.0758546760938346 -0.46310577461745 0.313953488372093
-0.0912273971359057 -0.462418087126689 0.313953488372093
-0.0897022309061387 -0.464114723382565 0.313953488372093
-0.114975951479346 -0.46404061986173 0.313953488372093
-0.125333074265359 -0.468520713147094 0.313953488372093
-0.135797915369028 -0.47179282567679 0.313953488372093
-0.153461836663624 -0.472410109779994 0.313953488372093
-0.150738763560883 -0.468771925809073 0.313953488372093
-0.167447490881446 -0.474342513058836 0.313953488372093
-0.183685630642543 -0.473996023514731 0.313953488372093
-0.190951493362559 -0.483390254495119 0.313953488372093
-0.209343393472898 -0.480191200967398 0.313953488372093
-0.217690045189588 -0.488509154784532 0.313953488372093
-0.233144584325753 -0.489817997674506 0.313953488372093
-0.250514286326458 -0.483146250186836 0.313953488372093
-0.258776584564002 -0.492367475315564 0.313953488372093
-0.280330298157024 -0.492520543003138 0.313953488372093
-0.299905922111801 -0.496298541567364 0.313953488372093
-0.309446925773484 -0.494581848527695 0.313953488372093
-0.369966370546435 -0.499560584013897 0.313953488372093
0.325342786972223 -0.391721905022462 0.313953488372093
0.3143943645251 -0.392612364325375 0.313953488372093
0.306144440121125 -0.396841801842693 0.313953488372093
0.293639334668848 -0.395552627444201 0.313953488372093
0.29058959207904 -0.398625432212312 0.313953488372093
0.274500596920609 -0.402192836013184 0.313953488372093
0.269217214852929 -0.398612813726914 0.313953488372093
0.258466083022181 -0.400160694035852 0.313953488372093
0.254335735605725 -0.402136428546912 0.313953488372093
0.237994382889304 -0.404843290869069 0.313953488372093
0.231054694693888 -0.406641837407254 0.313953488372093
0.221880171155415 -0.406102437609297 0.313953488372093
0.209637053130502 -0.407559688914327 0.313953488372093
0.200197306553004 -0.411835448810597 0.313953488372093
0.193470845045344 -0.4143179635658 0.313953488372093
0.17409731554848 -0.415939299075975 0.313953488372093
0.17193058127591 -0.418678895655132 0.313953488372093
0.162240474376882 -0.418799809614826 0.313953488372093
0.153494440387776 -0.421719545525054 0.313953488372093
0.143994008162607 -0.419599512444117 0.313953488372093
0.132152324140281 -0.42284425853904 0.313953488372093
0.120037829567742 -0.420593919482278 0.313953488372093
0.116314633952625 -0.42329295917916 0.313953488372093
0.104002315637184 -0.420514109499115 0.313953488372093
0.0893742542504901 -0.427165785340419 0.313953488372093
0.0779414275354181 -0.425188719413377 0.313953488372093
0.0697453124725829 -0.434566039772356 0.313953488372093
0.0600322740889368 -0.426261142675978 0.313953488372093
0.0468196737715253 -0.428556325351278 0.313953488372093
0.0350874729569512 -0.432336177610596 0.313953488372093
0.0291740494142769 -0.440022728769306 0.313953488372093
0.00620291678391679 -0.439998888603052 0.313953488372093
0.00307020771793904 -0.436903214514014 0.313953488372093
-0.00327958130806311 -0.442881917465574 0.313953488372093
-0.0200105062312949 -0.444782397262229 0.313953488372093
-0.0259766189850825 -0.443478138321789 0.313953488372093
-0.0364336740700975 -0.443824657748566 0.313953488372093
-0.0550900954056794 -0.443019876196132 0.313953488372093
-0.0724903028875913 -0.447361792313815 0.313953488372093
-0.0774460515991712 -0.447754832597111 0.313953488372093
-0.0938844045235632 -0.453572534150139 0.313953488372093
-0.0948070201420786 -0.449089357227147 0.313953488372093
-0.108924879421832 -0.451281103698644 0.313953488372093
-0.117458035481569 -0.457104472036558 0.313953488372093
-0.139793146988531 -0.462813930363596 0.313953488372093
-0.143878290822357 -0.457048382548338 0.313953488372093
-0.149862233062897 -0.466467205769539 0.313953488372093
-0.171151290930836 -0.467941682204038 0.313953488372093
-0.180534079092696 -0.467209008345493 0.313953488372093
-0.193071962621625 -0.472693619708729 0.313953488372093
-0.208343239901887 -0.46581596018277 0.313953488372093
-0.230228685262881 -0.475366588670715 0.313953488372093
-0.23961320330576 -0.47927820916426 0.313953488372093
-0.243951493742628 -0.479718930249792 0.313953488372093
-0.267753994718174 -0.480570861582132 0.313953488372093
-0.280560954549559 -0.483941744699972 0.313953488372093
-0.282337716711075 -0.477229607855862 0.313953488372093
-0.305310880342208 -0.485613836343987 0.313953488372093
-0.310751572133312 -0.491470954623487 0.313953488372093
-0.339090157989713 -0.485951043155685 0.313953488372093
-0.342236548941851 -0.494213516634926 0.313953488372093
-0.353545500575348 -0.4928290793197 0.313953488372093
-0.365871716274354 -0.494598508118211 0.313953488372093
-0.383981862766366 -0.493851814898894 0.313953488372093
