ply
format ascii 1.0
element vertex 832
property float x
property float y
property float z
end_header
-0.129287398731614 0.00362226992551221 0.330483887651205
-0.130480191595809 0.00234130831038685 0.330483887651205
-0.132638751111842 0.0302209721939976 0.330483887651205
-0.135412166038843 0.0377380168492229 0.330483887651205
-0.127389751946307 0.0451137356844286 0.330483887651205
-0.133230874051687 0.0539214123801787 0.330483887651204
-0.132953562090163 0.063898430847161 0.330483887651205
-0.134431486208894 0.0807621425132338 0.330483887651205
-0.136799161170332 0.0924583880884295 0.330483887651205
-0.136200795672198 0.104327402760607 0.330483887651205
-0.133155430771395 0.115785943576466 0.330483887651205
-0.139305658427474 0.127300227200517 0.330483887651205
-0.131359814362614 0.145874880163842 0.330483887651205
-0.13375864703728 0.151319062619414 0.330483887651205
-0.137262820868783 0.165482235910187 0.330483887651205
-0.134996712096861 0.179659265781174 0.330483887651205
-0.139260383917242 0.190812717458697 0.330483887651205
-0.135561541213167 0.207948591818083 0.330483887651205
-0.136664340634643 0.212464203339068 0.330483887651205
-0.139397525183016 0.226910780820458 0.330483887651205
-0.136465476904193 0.238690245008389 0.330483887651205
-0.143379221448745 0.251409465734474 0.330483887651205
-0.140564503928151 0.266247053052618 0.330483887651205
-0.137790924476207 0.28093941159237 0.330483887651205
-0.137387556432924 0.291454681476902 0.330483887651205
-0.145642837337753 0.311886568684891 0.330483887651205
-0.114286508953459 -0.2509015505974 0.241500171931618
-0.109597712094721 -0.316674641655897 0.314767871830697
-0.107177295738164 -0.316674641655896 0.32236854149165
-0.110629666714144 -0.305818611111498 0.330483887651204
-0.111208806401763 -0.304779530545541 0.330483887651205
-0.112356961297122 -0.294026501866631 0.330483887651205
-0.109627761541777 -0.288068854529375 0.330483887651205
-0.104951653359826 -0.279906040358576 0.330483887651204
-0.112601187832414 -0.266247665653457 0.330483887651205
-0.109823869483507 -0.257939730064975 0.330483887651205
-0.108477232966126 -0.24702747846804 0.330483887651205
-0.108528024355752 -0.238335175054153 0.330483887651205
-0.111593725201091 -0.234094867255349 0.330483887651205
-0.115727024200146 -0.225937992458043 0.330483887651205
-0.113596164809787 -0.210686137793815 0.330483887651204
-0.107680728204593 -0.202654998879802 0.330483887651205
-0.115760345651065 -0.182369749816177 0.330483887651204
-0.1103516863915 -0.175155170496545 0.330483887651204
-0.109250997602909 -0.169397630424469 0.330483887651205
-0.113166511797945 -0.162837627178373 0.330483887651205
-0.111740455487139 -0.153520379382446 0.330483887651205
-0.110870046223205 -0.138605583940797 0.330483887651205
-0.110492742393608 -0.125480983386289 0.330483887651205
-0.113107546785362 -0.12344076960173 0.330483887651205
-0.114249583977945 -0.108898053366291 0.330483887651205
-0.116549238050357 -0.0980687703665436 0.330483887651204
-0.120239731296327 -0.0969468867795164 0.330483887651205
-0.117322017215488 -0.0838876835311028 0.330483887651205
-0.120753454301518 -0.0579774750120987 0.330483887651205
-0.119092086998736 -0.0571577936667267 0.330483887651205
-0.122542139053255 -0.0365481981812411 0.330483887651205
-0.114472979324697 -0.0359381133442972 0.330483887651205
-0.120647863518612 -0.0280306271071134 0.330483887651205
-0.122891850693042 -0.00239788411029097 0.330483887651204
-0.11949516201332 -2.89679677199018e-005 0.330483887651205
-0.123933461937094 0.00654500138876427 0.330483887651205
-0.123631757885653 0.0168347212715571 0.330483887651205
-0.118737474399287 0.0370817898239112 0.330483887651205
-0.118857181904254 0.0460076426989932 0.330483887651205
-0.123366027286447 0.0583559620294895 0.330483887651205
-0.118528156007219 0.072318675983039 0.330483887651205
-0.119797512909455 0.0767942439306805 0.330483887651205
-0.120894840356261 0.096336342573515 0.330483887651205
-0.124866080534224 0.106925692735999 0.330483887651205
-0.129130008895408 0.119707774499053 0.330483887651205
-0.126168939146527 0.131611653488575 0.330483887651205
-0.121563224360908 0.145713581635436 0.330483887651205
-0.131415943440225 0.152187029221329 0.330483887651205
-0.129124110842333 0.163387429987783 0.330483887651204
-0.130627004862341 0.172819157654031 0.330483887651205
-0.123967282515809 0.187935484048555 0.330483887651205
-0.129691458924093 0.20661632384977 0.330483887651205
-0.13190665139397 0.220918625195231 0.330483887651205
-0.134021326992705 0.225539908266323 0.330483887651205
-0.13453873749273 0.241687539633849 0.330483887651205
-0.126506788251239 0.259728124579604 0.330483887651205
-0.129290577412804 0.279148155377511 0.330483887651205
-0.131600700590575 0.285847907910227 0.330483887651205
-0.129239277726081 0.299678506860666 0.330483887651205
-0.128655717305716 0.306905398161693 0.330483887651205
-0.0997262487351328 -0.250901550597399 0.238860900784786
-0.0959409982965761 -0.316674641655897 0.322834848897576
-0.0965128031486673 -0.316674641655897 0.318486263670275
-0.0952146245711675 -0.316674641655897 0.328722853937443
-0.0955618971274624 -0.30342164884526 0.330483887651205
-0.099559872978692 -0.291372706656315 0.330483887651205
-0.102870642189809 -0.288367361541316 0.330483887651205
-0.10189845587779 -0.274683439130658 0.330483887651205
-0.104626005719027 -0.259669339854559 0.330483887651205
-0.0981574110451236 -0.256432508001744 0.330483887651205
-0.10071412578486 -0.247472673832389 0.330483887651205
-0.0989202056876744 -0.240941777752909 0.330483887651205
-0.102599517200332 -0.231946231822361 0.330483887651205
-0.0991974488683065 -0.214322980818295 0.330483887651205
-0.102422219769508 -0.208535799386346 0.330483887651205
-0.104170567724938 -0.204333883954918 0.330483887651204
-0.104836828480438 -0.186185508305037 0.330483887651205
-0.104294992708441 -0.176226588848344 0.330483887651204
-0.107969313091251 -0.166610068752473 0.330483887651205
-0.104176944760951 -0.159573105903612 0.330483887651205
-0.101466604651435 -0.155560836034651 0.330483887651205
-0.100446077886619 -0.139135424061392 0.330483887651205
-0.102556125741878 -0.128126000004346 0.330483887651205
-0.110231309945771 -0.124683667775793 0.330483887651205
-0.10637878196808 -0.10598444722544 0.330483887651205
-0.104013584722076 -0.0991382912498175 0.330483887651204
-0.110178129933021 -0.0939769192302878 0.330483887651205
-0.107649207680426 -0.0808377441546357 0.330483887651205
-0.103737135493114 -0.0628703793074376 0.330483887651204
-0.105245551080554 -0.0523583664628056 0.330483887651205
-0.108248982956958 -0.0435921617384311 0.330483887651205
-0.104901900696874 -0.0353610364400997 0.330483887651205
-0.106365730288997 -0.0232333672884263 0.330483887651205
-0.105893492730328 -0.00926900863661285 0.330483887651204
-0.115139741609794 0.00649944373523336 0.330483887651205
-0.113065050875864 0.0142207557568769 0.330483887651205
-0.115315293200389 0.0155846539785548 0.330483887651205
-0.109917317334198 0.0308235395570908 0.330483887651205
-0.114620913903553 0.0427879374182713 0.330483887651204
-0.115828451718839 0.0529584725037736 0.330483887651205
-0.112676687669986 0.0747610930072042 0.330483887651204
-0.109101965089808 0.0813346718188552 0.330483887651205
-0.109910377334628 0.100205328890929 0.330483887651205
-0.117884477776593 0.100047200815456 0.330483887651205
-0.118934439802448 0.111564057871632 0.330483887651205
-0.113164831803119 0.121537642229068 0.330483887651205
-0.113655741999242 0.144464619163288 0.330483887651205
-0.111796880514383 0.150884911719144 0.330483887651205
-0.11212619270369 0.158064365292062 0.330483887651205
-0.113533747715009 0.176399328885069 0.330483887651205
-0.111864667638201 0.196258047481803 0.330483887651205
-0.119284237772066 0.197006846610104 0.330483887651205
-0.113847426752731 0.216444200693341 0.330483887651205
-0.122703802044813 0.220720126566897 0.330483887651205
-0.116618949769102 0.243917422037115 0.330483887651205
-0.120846673302156 0.262483517916145 0.330483887651205
-0.124132221462284 0.270103434215149 0.330483887651205
-0.125364783802287 0.280186035775293 0.330483887651205
-0.123021761171646 0.296821145467083 0.330483887651205
-0.122096035407137 0.310601789217133 0.330483887651205
-0.0927328903134477 -0.2509015505974 0.24081272946189
-0.0920439365973361 -0.316674641655897 0.3121518480687
-0.0898210855442507 -0.316674641655897 0.329439323755039
-0.0875669367230771 -0.314265663083463 0.330483887651205
-0.0921157516989225 -0.29769781030503 0.330483887651204
-0.0909931109867213 -0.29650599848901 0.330483887651205
-0.087345671198424 -0.290659588802806 0.330483887651205
-0.0866310231225679 -0.273944249096255 0.330483887651204
-0.0886012347254387 -0.261751672849292 0.330483887651205
-0.0946584961090043 -0.25891241340976 0.330483887651205
-0.0914414891196137 -0.250914226498503 0.330483887651205
-0.0958557433051405 -0.241851987432111 0.330483887651205
-0.0900763453349369 -0.227678258314575 0.330483887651204
-0.0918083440509656 -0.223722339426548 0.330483887651205
-0.0955627015221578 -0.206861344600425 0.330483887651205
-0.0916776472228764 -0.200679836419157 0.330483887651205
-0.0954100237049895 -0.188086602453858 0.330483887651205
-0.098635938313281 -0.180317864340607 0.330483887651205
-0.0943095105406073 -0.169485607628301 0.330483887651205
-0.0918403470492373 -0.165630233016727 0.330483887651205
-0.0987795648763285 -0.148321439057156 0.330483887651205
-0.098657863927433 -0.13909106442926 0.330483887651205
-0.0946468759392546 -0.13156920492218 0.330483887651205
-0.093889762825449 -0.122730306849224 0.330483887651205
-0.0927197581675703 -0.107566053069541 0.330483887651205
-0.100521886109974 -0.0983011629855087 0.330483887651205
-0.0927916066650007 -0.0932927114807774 0.330483887651205
-0.0996833955511959 -0.07721208709102 0.330483887651204
-0.100026862902404 -0.0694470194708937 0.330483887651205
-0.102002512225284 -0.0562307841232067 0.330483887651205
-0.0966267130764963 -0.0430940081321797 0.330483887651205
-0.0977434074361498 -0.0268357424622379 0.330483887651205
-0.0988422847218035 -0.0290924544536795 0.330483887651205
-0.0947461625005154 -0.0160854109414299 0.330483887651205
-0.095137971502636 -0.00599878580816798 0.330483887651204
-0.102805853711658 0.00902992668681268 0.330483887651205
-0.0978424394182949 0.0143954562577844 0.330483887651205
-0.0971872345461344 0.0337531778640643 0.330483887651205
-0.0977486834511873 0.046905736522467 0.330483887651204
-0.0996833471819886 0.0595852741304922 0.330483887651205
-0.101361968108627 0.0693368523069328 0.330483887651205
-0.0988561551103024 0.0732778058247756 0.330483887651204
-0.0992475571514951 0.0936630209104095 0.330483887651205
-0.0989943872311449 0.0941024929088377 0.330483887651205
-0.100308046640214 0.115818741917562 0.330483887651205
-0.101922772510432 0.123800427692477 0.330483887651204
-0.103386704340272 0.137654303468 0.330483887651205
-0.105416586163046 0.14639626312745 0.330483887651205
-0.108926882393873 0.162577627078124 0.330483887651205
-0.103164390859407 0.176608664682945 0.330483887651205
-0.101476051200062 0.199085293164622 0.330483887651205
-0.105990206970325 0.193613177819767 0.330483887651205
-0.112212677387112 0.210693044016261 0.330483887651205
-0.106380894598459 0.231008414229889 0.330483887651205
-0.107457849931127 0.240471639811498 0.330483887651205
-0.102897563863851 0.252807743582074 0.330483887651205
-0.104680443478108 0.270050566110044 0.330483887651205
-0.112703558099621 0.280985006306298 0.330483887651205
-0.110844386624606 0.298282401396983 0.330483887651205
-0.106011614049215 0.310618984293213 0.330483887651205
-0.0804609113946013 -0.2509015505974 0.241383589168853
-0.0832894430712505 -0.316674641655896 0.32012817609338
-0.0803676422288664 -0.316674641655897 0.326403849653194
-0.0850079089979085 -0.316674641655897 0.329797560699668
-0.0806894914191389 -0.308815308709666 0.330483887651205
-0.0781748323977548 -0.296236406248403 0.330483887651204
-0.0788258262538185 -0.284872658292821 0.330483887651205
-0.0772575478330691 -0.27368357448306 0.330483887651205
-0.0837985675078753 -0.268062052395437 0.330483887651205
-0.0783626158661991 -0.250019999977191 0.330483887651205
-0.0798834194162553 -0.247991624718257 0.330483887651205
-0.0841391886065456 -0.244531526914717 0.330483887651205
-0.0837511105739709 -0.229097103982136 0.330483887651205
-0.0840027791887882 -0.222045633708459 0.330483887651204
-0.0884492177799726 -0.206296391039654 0.330483887651205
-0.0808530611598103 -0.207992186967319 0.330483887651204
-0.0839639165562933 -0.192340948675612 0.330483887651205
-0.0863678869105649 -0.180482800646763 0.330483887651205
-0.0838899124902654 -0.174609346712177 0.330483887651204
-0.0815440965523057 -0.158453131613642 0.330483887651205
-0.0877319535267206 -0.152685625169308 0.330483887651204
-0.0849975117685795 -0.146725809094833 0.330483887651205
-0.09077368192652 -0.130133239712811 0.330483887651205
-0.0860913839638938 -0.115324541615489 0.330483887651205
-0.08352864169949 -0.102370312506229 0.330483887651205
-0.0891091320346851 -0.0941305299922743 0.330483887651205
-0.0848621000933712 -0.0849710101623427 0.330483887651205
-0.0891036527511994 -0.0828628035731731 0.330483887651204
-0.0857583268726882 -0.0587321648357068 0.330483887651205
-0.0892140570449154 -0.0556131833074774 0.330483887651205
-0.0881250363392706 -0.0444169597317005 0.330483887651205
-0.0898166600893422 -0.0309942813494327 0.330483887651205
-0.0848200063607291 -0.0246686785214337 0.330483887651205
-0.0881379095918196 -0.0116476640375963 0.330483887651205
-0.0897488238972232 0.000644567727267935 0.330483887651205
-0.0934004268693528 0.00770238362134492 0.330483887651205
-0.0910877330991152 0.0186493617045807 0.330483887651205
-0.0928163849639587 0.0339729377031691 0.330483887651205
-0.0871922147564313 0.0415355476264203 0.330483887651205
-0.0968694643076798 0.0567970425969203 0.330483887651205
-0.093414794297254 0.0615024334392038 0.330483887651205
-0.0906706548861523 0.0795232441644642 0.330483887651205
-0.0892143374338781 0.0962628453848844 0.330483887651204
-0.0897040547622198 0.0962310219147407 0.330483887651205
-0.0919855576162859 0.113309867097666 0.330483887651205
-0.093144078935596 0.122840488571293 0.330483887651205
-0.0954528021808523 0.142781683991954 0.330483887651205
-0.0930089838323271 0.152328921520263 0.330483887651205
-0.09007905808649 0.168511867195506 0.330483887651205
-0.0899824858897041 0.176041599376164 0.330483887651205
-0.0925681846533706 0.196350714637413 0.330483887651205
-0.0986393086640605 0.206007988413514 0.330483887651205
-0.0967629806728077 0.222244688613433 0.330483887651205
-0.0949255122398645 0.230907263997492 0.330483887651205
-0.0922548624974673 0.242168710726645 0.330483887651205
-0.099733260231549 0.249427870036103 0.330483887651204
-0.102334931834251 0.266396644800706 0.330483887651204
-0.0988558221641288 0.280310773665042 0.330483887651204
-0.0957507661137777 0.304888610617202 0.330483887651205
-0.101435677006735 0.311683563736749 0.330483887651205
-0.0732912162541712 -0.263654797584136 0.256729620623489
-0.0704751594099599 -0.316674641655897 0.319337023093269
-0.0689961109013562 -0.316674641655897 0.328804745306746
-0.0754381133666214 -0.311522986184521 0.330483887651205
-0.0713938353985746 -0.308439742911931 0.330483887651205
-0.0746663194335616 -0.286327603988591 0.330483887651205
-0.0729512483166055 -0.284144352526942 0.330483887651205
-0.0683873868449946 -0.281883380920356 0.330483887651205
-0.0747836649471439 -0.274464756191523 0.330483887651204
-0.0696377814621812 -0.254672415383715 0.330483887651205
-0.0768231728584895 -0.242743789243654 0.330483887651205
-0.0755126204355068 -0.240729863433567 0.330483887651204
-0.0698864689080921 -0.227182684136961 0.330483887651205
-0.0746770803528 -0.224707806730694 0.330483887651205
-0.0779200552436482 -0.210897695156456 0.330483887651205
-0.0735988791013343 -0.196511783218819 0.330483887651205
-0.07608914115666 -0.184026325121216 0.330483887651205
-0.0759427369452014 -0.186330735981541 0.330483887651205
-0.0726838483784034 -0.172998550298709 0.330483887651205
-0.0751022707650386 -0.160400468641837 0.330483887651205
-0.0724067163409985 -0.150308794451544 0.330483887651205
-0.0773655191045078 -0.137490238159695 0.330483887651205
-0.0765665661263047 -0.131833068498887 0.330483887651205
-0.0767776196246914 -0.116046222777862 0.330483887651205
-0.0736364545134891 -0.108326976103414 0.330483887651205
-0.081788491529283 -0.100560533488025 0.330483887651205
-0.0802335442292625 -0.094994404106661 0.330483887651205
-0.0796316688100425 -0.0864525049485146 0.330483887651205
-0.0830789908304112 -0.0624887058726341 0.330483887651205
-0.0743496582445739 -0.06152290363102 0.330483887651205
-0.0784115817917901 -0.0511249359459316 0.330483887651205
-0.0790405473014643 -0.0349851626193346 0.330483887651205
-0.0842413204067797 -0.0211369498906215 0.330483887651205
-0.0841338378979055 -0.0181526211575416 0.330483887651205
-0.0753730465168184 -0.000107380784383983 0.330483887651204
-0.0759237958574335 0.0132265073629543 0.330483887651205
-0.0812602768981644 0.0213013682501946 0.330483887651205
-0.0768098777267503 0.0359493044015159 0.330483887651205
-0.0806269597991871 0.0460001150029122 0.330483887651205
-0.0805718589674174 0.0555834704044918 0.330483887651205
-0.0778733141681055 0.0709954657995455 0.330483887651205
-0.0799939254644393 0.082794354832039 0.330483887651205
-0.0813317326424267 0.0935218452804237 0.330483887651205
-0.0812345961140453 0.1035169732564 0.330483887651205
-0.0859248186530358 0.117363141382742 0.330483887651205
-0.0814812086205961 0.129918038392459 0.330483887651205
-0.086726736413281 0.135263946189899 0.330483887651205
-0.0852001186040827 0.156656664920493 0.330483887651205
-0.0845015149974119 0.160482294514404 0.330483887651205
-0.0835393867300127 0.175420541037152 0.330483887651205
-0.087461119810192 0.192283451498963 0.330483887651205
-0.0837600923956133 0.203472972091119 0.330483887651205
-0.0907269111855933 0.212437562574558 0.330483887651205
-0.0812740228360741 0.229362325908456 0.330483887651205
-0.0826111160275195 0.252494414291914 0.330483887651205
-0.0900551361864978 0.249145071957847 0.330483887651205
-0.0914010762865984 0.270570258009089 0.330483887651205
-0.0921908585979316 0.272805234683687 0.330483887651204
-0.0853106765883233 0.295805479159751 0.330483887651205
-0.0871337607585557 0.310693264883284 0.330483887651205
-0.0650301994360002 -0.277379103986106 0.272504512928165
-0.0605010053806383 -0.316674641655897 0.318889623011215
-0.0589387010934005 -0.316674641655897 0.321622013450119
-0.0627768791846899 -0.31000997496394 0.330483887651205
-0.0628614914381348 -0.301435130863262 0.330483887651204
-0.0621331409568796 -0.295529048933892 0.330483887651205
-0.0664291446322515 -0.277765094389449 0.330483887651205
-0.0632593859942252 -0.281602482858633 0.330483887651204
-0.0632212993698223 -0.267342232334779 0.330483887651205
-0.0624153984971757 -0.260665219206394 0.330483887651205
-0.06843845018424 -0.246561263655323 0.330483887651205
-0.0676541670110746 -0.23586396023656 0.330483887651205
-0.069138754323599 -0.229240380296454 0.330483887651205
-0.065989997277852 -0.215453103167168 0.330483887651205
-0.0640936401569088 -0.212420134497206 0.330483887651205
-0.063722567137352 -0.191895575690573 0.330483887651205
-0.0642606945182442 -0.193867211183236 0.330483887651205
-0.0704410937117751 -0.189369034809644 0.330483887651205
-0.0626610525386567 -0.175302440987126 0.330483887651205
-0.0685764393987749 -0.158941915882684 0.330483887651205
-0.0676391997340429 -0.150085202352029 0.330483887651205
-0.0675524471985256 -0.14581797723758 0.330483887651205
-0.0693184926848967 -0.13108999933193 0.330483887651205
-0.0625869712190958 -0.119334090453654 0.330483887651205
-0.0673013858164015 -0.103938842269175 0.330483887651205
-0.070326324035712 -0.096959637013471 0.330483887651204
-0.0690607388849936 -0.0917211289921939 0.330483887651204
-0.0700149233780552 -0.0833253854869292 0.330483887651204
-0.072310792553492 -0.0660197314364069 0.330483887651205
-0.0664438550963204 -0.0601958577788494 0.330483887651205
-0.0703172864738546 -0.0476067208118731 0.330483887651205
-0.0714853400235572 -0.034722775149034 0.330483887651205
-0.0673161570326912 -0.0283757676668865 0.330483887651205
-0.0737205916547244 -0.00906096387992951 0.330483887651205
-0.0737448639227806 0.00794552068705358 0.330483887651205
-0.0686327300926711 0.0153577519751797 0.330483887651205
-0.0675788597554926 0.021449415649869 0.330483887651204
-0.0703958831856187 0.0379939153806724 0.330483887651205
-0.0734864537719815 0.0443421365833868 0.330483887651205
-0.0760843785955791 0.0626335400939153 0.330483887651205
-0.0672329456245929 0.0657793973457668 0.330483887651205
-0.070192592974055 0.0762650475737717 0.330483887651205
-0.0699248083601599 0.094401858834308 0.330483887651205
-0.0758784836283701 0.110774265522032 0.330483887651205
-0.0703612264132667 0.116509151381459 0.330483887651205
-0.0714379585191115 0.135700529570658 0.330483887651205
-0.0747188008566584 0.145340600566962 0.330483887651205
-0.0692988921510134 0.150018934753179 0.330483887651205
-0.0756895572322892 0.16630547730523 0.330483887651205
-0.0736263495231525 0.182413337085692 0.330483887651205
-0.0757903518167919 0.186064349458471 0.330483887651205
-0.0748967524341325 0.195177355563134 0.330483887651205
-0.0744220076561373 0.213799542012483 0.330483887651205
-0.0715750347409864 0.227837333915273 0.330483887651205
-0.0717695108253681 0.248966013892147 0.330483887651204
-0.0766687625202267 0.265618479118003 0.330483887651205
-0.0791938830884049 0.270038860920099 0.330483887651205
-0.0765270329767335 0.283908501237461 0.330483887651205
-0.0756151794300669 0.296773891129012 0.330483887651205
-0.075570440169007 0.310151148395971 0.330483887651205
-0.0504421995379607 -0.250901550597399 0.242010690498103
-0.056081375796572 -0.316674641655896 0.315892167213618
-0.0529411270464976 -0.316674641655896 0.329901063290692
-0.0503266568291301 -0.316674641655897 0.326215962920899
-0.0538134330768062 -0.302869137156023 0.330483887651205
-0.0570945952151426 -0.287862449848432 0.330483887651205
-0.0561615987700582 -0.290711812970138 0.330483887651205
-0.0583244894096234 -0.275625237248769 0.330483887651205
-0.050558036613953 -0.269983821099531 0.330483887651205
-0.058418136432762 -0.261088621149617 0.330483887651205
-0.0575263318740421 -0.247156160805636 0.330483887651205
-0.0573730857559493 -0.238358039716412 0.330483887651205
-0.0534165754848949 -0.232699171719961 0.330483887651205
-0.0602914774361672 -0.212065881348501 0.330483887651205
-0.0534398254121966 -0.213304092617382 0.330483887651205
-0.0586023003182086 -0.19942701290481 0.330483887651205
-0.0594367696049126 -0.18260286688178 0.330483887651205
-0.0516216386284316 -0.18063470772761 0.330483887651204
-0.058287813725281 -0.167977123975154 0.330483887651205
-0.0600357247423526 -0.159426032836638 0.330483887651205
-0.0571532827570418 -0.153378042617866 0.330483887651204
-0.0616490104159315 -0.134847882724822 0.330483887651205
-0.0607611030049249 -0.127956089451229 0.330483887651205
-0.0534659531182227 -0.125216317926021 0.330483887651205
-0.0580770120617003 -0.107805099909348 0.330483887651205
-0.0605575868237315 -0.0919676898825344 0.330483887651205
-0.0617336322796626 -0.0950755086595858 0.330483887651205
-0.0567040358032083 -0.0759859301395725 0.330483887651205
-0.061208824067803 -0.0736012197571547 0.330483887651205
-0.0612839222036131 -0.0534934488866258 0.330483887651205
-0.0586793763796979 -0.0419373328544199 0.330483887651205
-0.055781000658476 -0.0412357151355065 0.330483887651205
-0.0561112692848333 -0.0242929832191584 0.330483887651205
-0.0632471535134815 -0.00571983239851707 0.330483887651205
-0.0552881351099324 0.000755007758808287 0.330483887651205
-0.0605370916503094 0.00213102515284379 0.330483887651205
-0.0585155511214606 0.0186397558909352 0.330483887651205
-0.0557493270424788 0.0322143606760362 0.330483887651205
-0.0596852054371765 0.0417295675797085 0.330483887651205
-0.0592253042190291 0.0513011035527967 0.330483887651205
-0.0618591815186896 0.0677628252273727 0.330483887651205
-0.0596416224422909 0.0772572058396933 0.330483887651205
-0.0565589705963482 0.0860773290506525 0.330483887651204
-0.0626241903206795 0.0983485982441904 0.330483887651205
-0.0652202395866546 0.120654913630425 0.330483887651205
-0.0632293331720161 0.133934252018061 0.330483887651205
-0.0596759891500476 0.144950929387734 0.330483887651205
-0.0656489362963654 0.152547999640521 0.330483887651205
-0.059881915260958 0.158938120424164 0.330483887651204
-0.0658138382163466 0.181886837768466 0.330483887651205
-0.065508169008891 0.194139660848246 0.330483887651205
-0.0640570142388737 0.206955865255688 0.330483887651205
-0.0674344933592505 0.213873833004895 0.330483887651205
-0.0594706465473828 0.227695062072582 0.330483887651205
-0.0676753994882229 0.249200582348259 0.330483887651204
-0.065604136269314 0.256799660642482 0.330483887651205
-0.0605893824286267 0.265167762089668 0.330483887651205
-0.070781818861162 0.283047474908097 0.330483887651205
-0.0646645535358927 0.299092752217914 0.330483887651204
-0.0607050694622587 0.305601359465883 0.330483887651205
-0.0681028575987792 0.315164475582637 0.330483887651204
-0.0494243786039154 -0.263654797584136 0.256978750983033
-0.0469426590546893 -0.316674641655897 0.316285137040117
-0.0488817993124511 -0.316674641655897 0.32485079815003
-0.047693698142994 -0.315240715542302 0.330483887651205
-0.0454465221384196 -0.304555444320406 0.330483887651205
-0.0428231809550054 -0.288804539673205 0.330483887651205
-0.0463265956872206 -0.288809945488095 0.330483887651205
-0.0464161742618956 -0.282622214873782 0.330483887651205
-0.0483772476178125 -0.271348414399925 0.330483887651204
-0.0452805754044069 -0.25799713242152 0.330483887651205
-0.0462681309556675 -0.248446633900836 0.330483887651205
-0.0444903484178485 -0.241197377292297 0.330483887651205
-0.0428584238796293 -0.227333910893713 0.330483887651205
-0.0507940980283343 -0.221485756428306 0.330483887651205
-0.0502569273361997 -0.210057748105557 0.330483887651205
-0.0466994913964118 -0.198309502712808 0.330483887651205
-0.0425610275033532 -0.189492217448426 0.330483887651205
-0.0460332815738742 -0.180342912476315 0.330483887651205
-0.0444656077353988 -0.170733476481196 0.330483887651205
-0.0501664482580623 -0.159630426607772 0.330483887651205
-0.0470711636285702 -0.142883990780078 0.330483887651205
-0.0459122107209843 -0.14123367852171 0.330483887651205
-0.0504353114791617 -0.125966555324599 0.330483887651205
-0.0459838704762187 -0.111818795711915 0.330483887651205
-0.0474147594933871 -0.118875504642077 0.330483887651205
-0.050050016667757 -0.0927368327784854 0.330483887651205
-0.0525241169430635 -0.0923994892589645 0.330483887651205
-0.0464770954898301 -0.068471293283153 0.330483887651205
-0.0454348562924938 -0.0633091747028299 0.330483887651205
-0.0526435246088184 -0.056114266763068 0.330483887651205
-0.0457814328902285 -0.0518525658890428 0.330483887651205
-0.0534155329846191 -0.0372653745209082 0.330483887651205
-0.0479644357533692 -0.0279539208421085 0.330483887651205
-0.0547527396999256 -0.0164030007366371 0.330483887651204
-0.0529046359532032 0.00208057640270587 0.330483887651205
-0.0507261961670212 0.00680481194307763 0.330483887651205
-0.0499225299533513 0.0276205021724891 0.330483887651205
-0.0532500696701761 0.0360292583622436 0.330483887651205
-0.0550820940842146 0.0496649861630166 0.330483887651205
-0.0472517369270275 0.0584400384539962 0.330483887651205
-0.055671666916542 0.0701443251140984 0.330483887651205
-0.0492384581584262 0.0863709843224948 0.330483887651205
-0.0465606959396252 0.0886752525557358 0.330483887651205
-0.0492095912728807 0.109147248966334 0.330483887651205
-0.0477593886908294 0.11350256157529 0.330483887651205
-0.0569991255503246 0.130383157801118 0.330483887651205
-0.0573178321061583 0.133980826205735 0.330483887651205
-0.0490756272120895 0.150982398023415 0.330483887651205
-0.0562009810494318 0.169385014841521 0.330483887651204
-0.0531052788927695 0.17980993085043 0.330483887651205
-0.0527327510861094 0.189227150694648 0.330483887651205
-0.0508608813227086 0.197959168612973 0.330483887651205
-0.0481991303251393 0.213565618180539 0.330483887651205
-0.0533596747318519 0.227907242341879 0.330483887651205
-0.0592845840945705 0.244193281331229 0.330483887651205
-0.0566981491715623 0.255173720975305 0.330483887651205
-0.0551056585202338 0.266875294257388 0.330483887651205
-0.0593394218139129 0.283504893447645 0.330483887651205
-0.0536165157841047 0.297505269429315 0.330483887651205
-0.0586978838487116 0.307253043157354 0.330483887651205
-0.0354541802472433 -0.2509015505974 0.242111684255481
-0.0356251825608195 -0.316674641655896 0.318293799869382
-0.0381311674428343 -0.316674641655897 0.32703175320335
-0.0368857709028348 -0.311354663489499 0.330483887651205
-0.034582582263989 -0.306124863643432 0.330483887651205
-0.0367937419322847 -0.294591555781282 0.330483887651205
-0.0342302727145553 -0.288289871551344 0.330483887651205
-0.0353129661507171 -0.269024207142906 0.330483887651205
-0.0343109722437641 -0.265232806428009 0.330483887651205
-0.0409235400530239 -0.259174621173134 0.330483887651205
-0.0363646396995836 -0.252284180859478 0.330483887651205
-0.0374484302908376 -0.230818750778475 0.330483887651205
-0.033835360347037 -0.231861540871708 0.330483887651205
-0.034324655321613 -0.218599700357358 0.330483887651205
-0.0384451133420727 -0.20591598570784 0.330483887651205
-0.0334277710111295 -0.201831522031033 0.330483887651205
-0.0349873195889496 -0.189315581839811 0.330483887651205
-0.0355759729857919 -0.181167732681146 0.330483887651205
-0.0361824621307353 -0.174393032102554 0.330483887651205
-0.0345637813256842 -0.157056340220992 0.330483887651205
-0.0405841765963037 -0.155096616973989 0.330483887651205
-0.0421121241161711 -0.137931574763858 0.330483887651204
-0.0407505506354563 -0.122488585550662 0.330483887651205
-0.0347217582456174 -0.112619252597763 0.330483887651205
-0.0430317976651911 -0.100849358613775 0.330483887651205
-0.0367609963234022 -0.0897915231703408 0.330483887651204
-0.043680198898403 -0.0851191181128597 0.330483887651205
-0.0428101776969392 -0.0804695506364276 0.330483887651205
-0.0375214603164836 -0.0610312051913766 0.330483887651205
-0.0430291760141242 -0.0533832077452774 0.330483887651205
-0.0372355856815144 -0.0434574069802698 0.330483887651205
-0.0374205220661597 -0.0342207924536303 0.330483887651205
-0.0424762586447915 -0.0257780061782469 0.330483887651205
-0.0426968199582082 -0.010329161701158 0.330483887651205
-0.0378514896662467 0.00258633257183266 0.330483887651205
-0.0427867130764441 0.00474442676994311 0.330483887651205
-0.0441102698810084 0.0136356826162481 0.330483887651205
-0.0405750148261591 0.0377954738925483 0.330483887651205
-0.0444371415280425 0.0415788142041537 0.330483887651204
-0.0391295799243684 0.0622651012495496 0.330483887651205
-0.0373243060040664 0.0716195629611016 0.330483887651205
-0.0456612513863706 0.0838935322676228 0.330483887651205
-0.0389963703350125 0.0881579771901932 0.330483887651204
-0.0423836472366165 0.108153921087554 0.330483887651205
-0.0409376668631006 0.11293364949419 0.330483887651205
-0.0365467948316232 0.127707765515094 0.330483887651205
-0.0464185668605731 0.132908339044964 0.330483887651205
-0.0394729059184927 0.153564086355864 0.330483887651205
-0.0468837533494762 0.16268274067783 0.330483887651205
-0.0386585486398239 0.18287720363131 0.330483887651205
-0.0461533169830622 0.191542973391373 0.330483887651205
-0.0465776569934645 0.194013511050464 0.330483887651205
-0.0440030613953094 0.205864030687948 0.330483887651205
-0.0427888737078364 0.233717959677361 0.330483887651205
-0.0388327920460305 0.239422131541749 0.330483887651205
-0.0433202459389754 0.255091694797651 0.330483887651205
-0.04691766002611 0.265708516226339 0.330483887651205
-0.040335009325633 0.288708894891471 0.330483887651205
-0.0484159729539551 0.297493698340189 0.330483887651205
-0.0470899473456249 0.30672916013075 0.330483887651205
-0.0461056908467421 0.315954862369472 0.330483887651205
-0.0283406928611938 -0.316674641655897 0.313095102400013
-0.0277744017860874 -0.316674641655896 0.314559426351039
-0.0302171579739572 -0.316674641655897 0.317777938514052
-0.0283831117407505 -0.3086177704064 0.330483887651205
-0.0285500893741759 -0.29947784195409 0.330483887651205
-0.0293197509350575 -0.29448422022637 0.330483887651204
-0.022649970837062 -0.286325856962652 0.330483887651205
-0.031143424245926 -0.274587811968846 0.330483887651205
-0.0281595241204246 -0.274656901538962 0.330483887651205
-0.0278099537465394 -0.260806508764072 0.330483887651205
-0.0304819202194289 -0.251241862403691 0.330483887651205
-0.0293989864307727 -0.244428708646142 0.330483887651205
-0.0283625570385889 -0.236321041167667 0.330483887651205
-0.029704780699922 -0.212037258585662 0.330483887651205
-0.0237722552904055 -0.214078861894219 0.330483887651205
-0.0273194843550447 -0.192730229763295 0.330483887651205
-0.0250410886733204 -0.195773319159612 0.330483887651204
-0.0262434142622255 -0.183963854338393 0.330483887651205
-0.031340364473626 -0.162875874953103 0.330483887651205
-0.0250880499892665 -0.153349459247109 0.330483887651205
-0.0309486297621613 -0.149739869188517 0.330483887651205
-0.025772505196392 -0.142778625317731 0.330483887651205
-0.0309455095652292 -0.128726172236718 0.330483887651205
-0.0297228440639483 -0.121648905309799 0.330483887651205
-0.0270607639672182 -0.109208631386917 0.330483887651205
-0.0290468965610152 -0.102108070448779 0.330483887651205
-0.0270837586355209 -0.083501251193079 0.330483887651205
-0.025418363869016 -0.0788343839877487 0.330483887651205
-0.0311402703190708 -0.0725146942298498 0.330483887651205
-0.0339471284961393 -0.0559506139029203 0.330483887651205
-0.0284713709055424 -0.0491032812658883 0.330483887651205
-0.0257840448274384 -0.034231434408595 0.330483887651205
-0.0299088953813644 -0.0275781898053866 0.330483887651205
-0.0295686093398012 -0.0123066353415594 0.330483887651205
-0.0338399903150306 0.0029941352172715 0.330483887651205
-0.0287639332305258 0.00545144182281256 0.330483887651205
-0.0273627222770003 0.0144016346150185 0.330483887651205
-0.0283936728817209 0.0414959442925276 0.330483887651205
-0.0349236808565329 0.0472374454050884 0.330483887651204
-0.029879019428501 0.0578890276392139 0.330483887651205
-0.0357452719779519 0.0743417547338327 0.330483887651205
-0.0323347056870838 0.0765720709012559 0.330483887651205
-0.029798598907244 0.0998686847566937 0.330483887651205
-0.0313651725844112 0.0999562106132322 0.330483887651205
-0.0356997256756269 0.111351057617266 0.330483887651205
-0.0328361177079094 0.129969558492118 0.330483887651205
-0.0277286369153282 0.143028208582543 0.330483887651205
-0.0303507951436233 0.153964397097376 0.330483887651205
-0.0292051290406902 0.169686772368633 0.330483887651205
-0.0315595825671452 0.172007583451441 0.330483887651205
-0.0266261712623836 0.184790585199117 0.330483887651205
-0.0290266769960117 0.193572622455056 0.330483887651205
-0.0296137934625783 0.214390777888819 0.330483887651205
-0.0314134567024302 0.232530132913296 0.330483887651204
-0.0272660804176559 0.244432922297891 0.330483887651205
-0.0277734431346767 0.253220845924026 0.330483887651205
-0.0308429618677651 0.272816895830052 0.330483887651205
-0.0291733398252139 0.291369733800059 0.330483887651205
-0.0308412064704724 0.2989637834794 0.330483887651205
-0.0366903248785014 0.308974107844951 0.330483887651204
-0.0152648232534625 -0.2509015505974 0.236718895045175
-0.015399386058954 -0.316674641655896 0.323655281001433
-0.0192289157419748 -0.316674641655896 0.322296269534115
-0.0146225841588662 -0.311465618367543 0.330483887651205
-0.0194685107271501 -0.301887883693056 0.330483887651205
-0.0189746730750737 -0.294526910422327 0.330483887651205
-0.0198089251222563 -0.286867367672884 0.330483887651205
-0.0157577253029375 -0.279281895453456 0.330483887651204
-0.0201610038241688 -0.267575335637 0.330483887651205
-0.0165581002929602 -0.256385034073359 0.330483887651205
-0.0223512342968387 -0.242849494975461 0.330483887651205
-0.020530872789144 -0.24172276042085 0.330483887651205
-0.0225971861379156 -0.229996444714821 0.330483887651205
-0.0221008774350334 -0.216206401769823 0.330483887651205
-0.0190843218279541 -0.208503575168318 0.330483887651205
-0.0191467298409284 -0.208448669584239 0.330483887651205
-0.0206827659925619 -0.192555524283485 0.330483887651205
-0.0168575961397393 -0.170851949950149 0.330483887651205
-0.0196457401675393 -0.178674343952367 0.330483887651205
-0.0219227319202877 -0.158461116942044 0.330483887651205
-0.0210002451161392 -0.152101244352624 0.330483887651205
-0.0158218104247507 -0.131711092397824 0.330483887651205
-0.0183685067963436 -0.127185596542722 0.330483887651205
-0.0232718957421686 -0.119891111742933 0.330483887651205
-0.0178168646798242 -0.116165731619169 0.330483887651204
-0.0181353354344943 -0.0973621592873848 0.330483887651205
-0.020731893028278 -0.0908948711595418 0.330483887651205
-0.0241383831841518 -0.073033781716615 0.330483887651205
-0.018355420951743 -0.0656814871270695 0.330483887651205
-0.0152750057436012 -0.0523702683940546 0.330483887651205
-0.0168254245060964 -0.0418987212068953 0.330483887651205
-0.0189336873653631 -0.0349474604069345 0.330483887651205
-0.0205750388125489 -0.0234187971335427 0.330483887651205
-0.0176067167793481 -0.00531012570662912 0.330483887651205
-0.0194517528726863 0.00472645915988869 0.330483887651205
-0.0250310632978968 0.0151285441308737 0.330483887651205
-0.0247844317559207 0.0239984739873805 0.330483887651205
-0.0221905300681102 0.0293565484124382 0.330483887651205
-0.0201563256755514 0.0520373406492994 0.330483887651205
-0.0198615655588115 0.0538311341882429 0.330483887651205
-0.0198999382439124 0.0623362923035398 0.330483887651205
-0.0201998839900262 0.0775176560421592 0.330483887651205
-0.0184277606464774 0.0917437005717739 0.330483887651205
-0.022997025305601 0.1053241394296 0.330483887651205
-0.0235894233754556 0.118298502729768 0.330483887651205
-0.0160430406006104 0.123788880569754 0.330483887651205
-0.0219474676964335 0.136975108027767 0.330483887651205
-0.0211652129670875 0.146417032609513 0.330483887651205
-0.0240323927550452 0.169665979202965 0.330483887651205
-0.0225048787055174 0.184545789806662 0.330483887651204
-0.0194686533599988 0.193149809265674 0.330483887651205
-0.0232212639874879 0.20848903749652 0.330483887651205
-0.0228613289688742 0.217133950883526 0.330483887651205
-0.0224666758492656 0.220068762215613 0.330483887651205
-0.026129957554115 0.243980861841462 0.330483887651205
-0.0262994785230422 0.257658353762785 0.330483887651205
-0.0210912407157827 0.264735687612978 0.330483887651205
-0.0172456615005846 0.275635377815864 0.330483887651205
-0.0191349877168235 0.298092666191687 0.330483887651205
-0.026980211820586 0.301655522649178 0.330483887651205
-0.00735403087498257 -0.277379103986106 0.271889964085693
-0.00501276713728993 -0.316674641655897 0.315692177339777
-0.00785482012585684 -0.316674641655897 0.324971627053907
-0.00695882161549619 -0.316674641655896 0.327723069004199
-0.00919367206936767 -0.303322614539253 0.330483887651205
-0.0122147626694021 -0.293708269807741 0.330483887651205
-0.00705053565638541 -0.282633610346352 0.330483887651205
-0.0109797760121884 -0.279219690159381 0.330483887651205
-0.0132757389110281 -0.267555704943722 0.330483887651205
-0.0108705085302672 -0.258549361018507 0.330483887651205
-0.0110475036745172 -0.243751611481253 0.330483887651205
-0.0128234926253013 -0.244695731231965 0.330483887651205
-0.00798003437989498 -0.229880109613089 0.330483887651205
-0.011060612659561 -0.217664192255675 0.330483887651205
-0.0128869892435232 -0.213393033908266 0.330483887651205
-0.00877603660018534 -0.205817296783408 0.330483887651205
-0.0138125163658265 -0.192018795744839 0.330483887651205
-0.00559770224507485 -0.185374958381043 0.330483887651205
-0.00710096629124465 -0.170440611956589 0.330483887651205
-0.00546371412668045 -0.163557774161957 0.330483887651205
-0.00808858604921679 -0.143018095577232 0.330483887651205
-0.0127320301552405 -0.137998590530026 0.330483887651205
-0.00492700030514048 -0.124963336553361 0.330483887651204
-0.00994300627949791 -0.119321722760338 0.330483887651205
-0.012813319022305 -0.116091045244272 0.330483887651205
-0.0100336499735815 -0.100648196089118 0.330483887651205
-0.0112258781024691 -0.0893618569149426 0.330483887651205
-0.0131750087496735 -0.0828048626230919 0.330483887651205
-0.0107616226279582 -0.0631305190937644 0.330483887651205
-0.0104698094651083 -0.0529279782182061 0.330483887651205
-0.00560283832791148 -0.0450686435497442 0.330483887651205
-0.0132248801995663 -0.0275330577193182 0.330483887651205
-0.0144750957140632 -0.020432564581353 0.330483887651205
-0.00897277230170609 -0.0192530567471677 0.330483887651205
-0.00805346224730339 -0.00145962878120437 0.330483887651205
-0.010127244743551 0.00201283359504127 0.330483887651205
-0.0121205651330569 0.0232162644890248 0.330483887651205
-0.00690933279498467 0.031885837883027 0.330483887651205
-0.00811170144728686 0.0511538429254645 0.330483887651205
-0.00809714870228074 0.0523528807786827 0.330483887651205
-0.00826531943978962 0.0682114708797863 0.330483887651205
-0.00665844912135659 0.0780761918684424 0.330483887651205
-0.01509341827634 0.0898609963416959 0.330483887651205
-0.00832284566780942 0.104949066192792 0.330483887651205
-0.0144342441012279 0.111006635402845 0.330483887651205
-0.0070952440850678 0.131186555576491 0.330483887651205
-0.00779271428543706 0.138317690368054 0.330483887651205
-0.0129124437878536 0.151699587475647 0.330483887651205
-0.0143772479825578 0.167054258871516 0.330483887651205
-0.0129402717453547 0.179945239961622 0.330483887651205
-0.00963261000211068 0.197685973409294 0.330483887651205
-0.0067797454115638 0.208368060691871 0.330483887651205
-0.0113212870547559 0.227916734709754 0.330483887651205
-0.013116445189197 0.238458748445003 0.330483887651204
-0.0122774549632072 0.234992556103041 0.330483887651205
-0.0103366469094974 0.260515801236964 0.330483887651205
-0.0164289996026408 0.27578898817587 0.330483887651205
-0.0141011939666104 0.287743376470113 0.330483887651205
-0.0159664310632729 0.296139673853813 0.330483887651205
-0.0121686692788673 0.302769783292876 0.330483887651205
-0.000197257325888619 -0.263654797584136 0.256525269854665
-0.00441558687632597 -0.316674641655897 0.316225090955818
0.00122153882947404 -0.316674641655897 0.328482413790676
0.000364492444024042 -0.309780680955439 0.330483887651204
0.000490172123853894 -0.302941372936055 0.330483887651205
-0.00101895955035789 -0.287499497480464 0.330483887651205
-0.000549735360534131 -0.28404724677798 0.330483887651205
-0.00114127634946492 -0.283456561144313 0.330483887651205
-0.00301165487962254 -0.258631033865447 0.330483887651205
-0.00446670547976565 -0.257382474439624 0.330483887651205
0.00256579998254607 -0.249291018508352 0.330483887651205
0.00277462213640257 -0.242704154126265 0.330483887651205
0.000138865319302099 -0.224954017184552 0.330483887651205
0.00102576110234101 -0.21667033732839 0.330483887651205
-0.00447512660280497 -0.213039908162194 0.330483887651205
0.00163470237052414 -0.197033591279786 0.330483887651204
-0.00142449145621295 -0.193016853089432 0.330483887651205
-0.000192909602430268 -0.180956680025648 0.330483887651205
0.00398123096641147 -0.17270379739418 0.330483887651205
0.00169859047498543 -0.153407175313897 0.330483887651205
0.00335933042397612 -0.149059911906644 0.330483887651205
0.00164377487793147 -0.132048360274942 0.330483887651205
0.00181230011027915 -0.135335379351381 0.330483887651205
0.0041234463532192 -0.114637320701674 0.330483887651205
0.00426948362263177 -0.106444639623939 0.330483887651205
-0.00070557790723666 -0.097858907783323 0.330483887651205
-0.00160385739005001 -0.0950005881424449 0.330483887651205
-0.00243340595973212 -0.0755219080054489 0.330483887651205
0.00141649642364759 -0.0621248812610384 0.330483887651205
0.00353948634752164 -0.055370169216817 0.330483887651205
-0.000230765413197412 -0.047062931086256 0.330483887651205
-0.00155719032096801 -0.0365492955479056 0.330483887651205
-0.00153282632948046 -0.0256236665784264 0.330483887651205
0.00392773256778894 -0.0154072245871322 0.330483887651205
-0.00284094259761326 -0.00149140197040037 0.330483887651205
-0.00430255213465935 0.0115355261735865 0.330483887651205
0.000388340713287282 0.0202349792360405 0.330483887651205
0.0017945665948943 0.0334132403097107 0.330483887651204
-0.00187212680644687 0.0534779846300742 0.330483887651205
0.000859287248378891 0.0523598591760192 0.330483887651205
0.00324232182541547 0.0745664084157786 0.330483887651205
-0.00473045960357017 0.0887309336419674 0.330483887651205
0.0046518776891306 0.0978591101099938 0.330483887651205
0.0031315662064226 0.107953087615273 0.330483887651204
0.00471448604352811 0.116118095906655 0.330483887651205
0.00210399887048141 0.127085428035143 0.330483887651205
-0.00369433199040018 0.146992150502513 0.330483887651205
0.00417674015277679 0.148641222940376 0.330483887651205
0.0051239063696885 0.159053618476803 0.330483887651205
-0.0028355889442483 0.185123158349671 0.330483887651205
-4.32114810504535e-006 0.190187953799697 0.330483887651205
0.000513491830920063 0.200215319124193 0.330483887651205
0.00342136848635211 0.21464707516861 0.330483887651205
-0.00543587437286117 0.231629945135202 0.330483887651205
-0.00530343552542206 0.248079309074164 0.330483887651205
0.00311796098839741 0.252603511879756 0.330483887651205
0.00495035647610609 0.271603587512494 0.330483887651205
-0.00145198296366512 0.288429532009432 0.330483887651205
0.0053228951669331 0.306267024045393 0.330483887651205
0.00239765860572244 0.308269537759159 0.330483887651205
-0.00285087823398999 0.313867048285548 0.330483887651205
0.00528908113833379 -0.263654797584136 0.256362697436312
0.0103154910192813 -0.316674641655897 0.323795771598051
0.00502059124260094 -0.316674641655896 0.322951625363236
0.0101953093376118 -0.315595475282687 0.330483887651205
0.0108709915678311 -0.310377068451699 0.330483887651205
0.00722691350929597 -0.288708353659022 0.330483887651205
0.0116893754809187 -0.277991053601238 0.330483887651205
0.00790615910925177 -0.275861040226538 0.330483887651205
0.0126958395147188 -0.263408376601109 0.330483887651205
0.00734194029475497 -0.25823532918249 0.330483887651205
0.00896629643937811 -0.245343902825065 0.330483887651204
0.0132098562751966 -0.244647097831385 0.330483887651204
0.0128685916141885 -0.232472783734926 0.330483887651205
0.00871648813536599 -0.222004193836003 0.330483887651205
0.0122642798272335 -0.204469153718176 0.330483887651204
0.00625125310211267 -0.202684297611967 0.330483887651204
0.00762766350679049 -0.190263915561473 0.330483887651205
0.0076022368923569 -0.171166581617639 0.330483887651205
0.0137676686374456 -0.168080583155008 0.330483887651205
0.00627867145411343 -0.15468994810809 0.330483887651205
0.00572345113317323 -0.147448080172129 0.330483887651205
0.010903685030157 -0.137060943362107 0.330483887651205
0.00753452753041028 -0.125939098742092 0.330483887651205
