ply
format ascii 1.0
element vertex 864
property float x
property float y
property float z
end_header
-0.0472102554235162 -0.20294238160078 0.366666666666666
-0.0422535973695976 -0.206722418508325 0.366666666666666
-0.0463100192699552 -0.216607601946616 0.366666666666666
-0.0417844147435871 -0.238199403941397 0.366666666666666
-0.0230485899855813 0.25 0.320266920804648
-0.0286223453728945 0.25 0.334331398730648
-0.0264453943959421 0.25 0.341600430500546
-0.0311430732358448 0.25 0.358651280237126
-0.0247750449097809 0.25 0.359521838545882
-0.0301383950732215 0.24322063497622 0.366666666666666
-0.0279961910416789 0.240774153091853 0.366666666666666
-0.0279140898741933 0.230785623285949 0.366666666666666
-0.0267927348980003 0.222989762123384 0.366666666666666
-0.0233397123047316 0.211067223573233 0.366666666666666
-0.0250097137500703 0.193100264880057 0.366666666666666
-0.0287190426401321 0.187028352311911 0.366666666666667
-0.0275589302894558 0.174224157901337 0.366666666666666
-0.0268164237617251 0.16033683988486 0.366666666666666
-0.0328955677165044 0.162808114954731 0.366666666666666
-0.0282164526489186 0.147003184381042 0.366666666666667
-0.0318522294231407 0.12919865297967 0.366666666666666
-0.0265519529942652 0.124643550820165 0.366666666666666
-0.0272022762564613 0.120207182299552 0.366666666666666
-0.0315881666066438 0.104190417347799 0.366666666666666
-0.0268415346209606 0.0971620031230037 0.366666666666666
-0.0293149867253135 0.0941971594340168 0.366666666666666
-0.0287449947237264 0.0795514061601911 0.366666666666666
-0.0263503506586308 0.0607026268807193 0.366666666666666
-0.0284732447711535 0.0475822104879292 0.366666666666666
-0.0299057583923302 0.0440911732771864 0.366666666666666
-0.0270267141853746 0.0216658682457315 0.366666666666667
-0.028048501693092 0.0111832797783184 0.366666666666666
-0.0297020037121191 -0.00090670892293752 0.366666666666666
-0.0304020894170094 -0.00795441522168812 0.366666666666666
-0.0257199939486857 -0.0120663107570973 0.366666666666666
-0.0297501628473062 -0.0271250065406142 0.366666666666666
-0.0257095610138328 -0.0419551337300384 0.366666666666666
-0.0253827899111575 -0.0471858380361381 0.366666666666666
-0.031431723406325 -0.0629775342586423 0.366666666666666
-0.0268121802216493 -0.0732749938840851 0.366666666666666
-0.026502197319424 -0.0900387337225533 0.366666666666666
-0.0349549072528102 -0.0901650135021996 0.366666666666666
-0.0273891022659511 -0.109444773643729 0.366666666666667
-0.0363230226692533 -0.130434855346419 0.366666666666667
-0.0262746472637842 -0.139025122446438 0.366666666666666
-0.0309874516375961 -0.143549463255024 0.366666666666666
-0.0277233051468728 -0.166915029698738 0.366666666666666
-0.029390463070636 -0.17843874039994 0.366666666666666
-0.0267186136451047 -0.183543721633346 0.366666666666666
-0.0325053205502323 -0.197984736667989 0.366666666666666
-0.0314294807568308 -0.216288641621082 0.366666666666666
-0.0347493421557473 -0.232950487069046 0.366666666666666
-0.0306241278454908 -0.242267208065239 0.366666666666666
-0.0199423536642256 0.25 0.318047253047064
-0.0186898252986379 0.25 0.334711648277849
-0.0145662362566977 0.25 0.345359914292352
-0.0221865266599972 0.25 0.344894983596777
-0.0186634453193687 0.25 0.364798035826034
-0.0145388447970047 0.249999999999999 0.364710446819541
-0.0216145570595468 0.239381108623613 0.366666666666666
-0.0161318691900304 0.228246907095048 0.366666666666666
-0.0181341244076861 0.221170219622071 0.366666666666666
-0.0203482248296745 0.203533134397245 0.366666666666666
-0.0221312694444919 0.198951722817224 0.366666666666666
-0.0143568904080803 0.188137881415069 0.366666666666666
-0.0209543950345666 0.178110577665859 0.366666666666666
-0.0156305184163714 0.168339764178257 0.366666666666666
-0.0168649925244713 0.160146934917676 0.366666666666666
-0.0145298302425442 0.148066978232324 0.366666666666666
-0.0199266713834527 0.132865037388156 0.366666666666666
-0.0145802875637788 0.12958205929505 0.366666666666666
-0.0169222567984721 0.118193970695509 0.366666666666666
-0.0222787229598983 0.111550212210442 0.366666666666666
-0.0226010321600772 0.0918134513096689 0.366666666666666
-0.0149533287130301 0.0807843061644919 0.366666666666666
-0.0198059851261317 0.0767090930708811 0.366666666666666
-0.0145951835841599 0.0630925179860251 0.366666666666666
-0.022193210958361 0.0531785006477933 0.366666666666666
-0.0156030991644468 0.0354989420571395 0.366666666666666
-0.0206363422617433 0.0287884872379596 0.366666666666667
-0.0175051979097051 0.0224656630501251 0.366666666666666
-0.0151634435703757 0.00320882937762347 0.366666666666666
-0.0151394302688013 0.00539010109492879 0.366666666666667
-0.0184143085877557 -0.0138609769591225 0.366666666666667
-0.0218060597137319 -0.0231089053398944 0.366666666666666
-0.0231463545861552 -0.035648867654048 0.366666666666666
-0.0197936391036723 -0.0597008357672359 0.366666666666666
-0.0188754940080161 -0.0613607741886487 0.366666666666667
-0.0207267037683937 -0.0737111025189281 0.366666666666666
-0.0183286340113077 -0.0903948982348308 0.366666666666666
-0.0226567138490907 -0.0957215448580764 0.366666666666666
-0.0190080316893224 -0.116077331035841 0.366666666666667
-0.0175511871286909 -0.113102402628671 0.366666666666666
-0.0222602368925016 -0.140927978165803 0.366666666666666
-0.0259304018850243 -0.145537707608993 0.366666666666666
-0.0212920579081177 -0.164421274181398 0.366666666666667
-0.0235204776015826 -0.177345794748753 0.366666666666666
-0.0212491564803231 -0.184841171867199 0.366666666666666
-0.0229147080785503 -0.198004058050048 0.366666666666666
-0.0239561406403294 -0.205467905040682 0.366666666666666
-0.0267883066427272 -0.225426618659637 0.366666666666666
-0.026677085062721 -0.239794166533156 0.366666666666666
-0.0129003542797253 0.25 0.318271450264418
-0.010030764365866 0.25 0.323351346440454
-0.0115609598804 0.25 0.337663623700672
-0.013746409028473 0.25 0.343793111692936
-0.00584836990097435 0.25 0.351303284346442
-0.0122323930411629 0.25 0.358434032234798
-0.00976709586642559 0.245578044945996 0.366666666666666
-0.00934364562094263 0.234300460876016 0.366666666666666
-0.00887755183544795 0.231914713696611 0.366666666666667
-0.00470694540670147 0.223487653119356 0.366666666666667
-0.0123493050633426 0.206756131474957 0.366666666666667
-0.0126534658596655 0.196533476189892 0.366666666666666
-0.0127237406464432 0.194693176107519 0.366666666666666
-0.0134656114369923 0.185531381409428 0.366666666666666
-0.00748591961798928 0.165488023984418 0.366666666666666
-0.00955543453012863 0.164598714752386 0.366666666666666
-0.0136822261305241 0.147351833116588 0.366666666666666
-0.011226567965248 0.144468510710968 0.366666666666666
-0.00919898135725695 0.126979009297262 0.366666666666666
-0.00482590315235383 0.118794548953997 0.366666666666666
-0.0139788954005072 0.106307556610223 0.366666666666666
-0.00901919607942029 0.0999050960594911 0.366666666666667
-0.0128541163200599 0.076982521379314 0.366666666666666
-0.00843301780008494 0.0689864488866085 0.366666666666666
-0.011606671301037 0.0579295218372416 0.366666666666666
-0.00757905294146146 0.0592305039859366 0.366666666666666
-0.0141658755638073 0.0324813965477078 0.366666666666666
-0.00623103828947433 0.0318753257574566 0.366666666666666
-0.0134165280980952 0.01795941843747 0.366666666666666
-0.00790074603051937 0.00773450826567116 0.366666666666666
-0.00936105045744216 -0.00363163421273847 0.366666666666667
-0.0107705110118929 -0.0189138914326048 0.366666666666666
-0.0112660600623002 -0.0293876609108286 0.366666666666666
-0.0084202793846619 -0.0398961911759037 0.366666666666666
-0.0112414578557876 -0.0548583458569474 0.366666666666666
-0.0124880016752768 -0.059945036206493 0.366666666666666
-0.00538821764983649 -0.0809880091825849 0.366666666666666
-0.0109394058308896 -0.0860879348431042 0.366666666666666
-0.0141736874335889 -0.09528744613169 0.366666666666667
-0.00876138998116315 -0.110147271760587 0.366666666666666
-0.0144518447919675 -0.123828147935257 0.366666666666666
-0.00660124799309126 -0.133681792233722 0.366666666666667
-0.0110354760435661 -0.145513507605076 0.366666666666666
-0.00978510000123946 -0.165643965431901 0.366666666666666
-0.00701362474134883 -0.173284141829932 0.366666666666666
-0.011694058324845 -0.182941763956296 0.366666666666666
-0.00624057805864581 -0.195271111926095 0.366666666666666
-0.0145909330142608 -0.208216297597631 0.366666666666666
-0.0137923254230328 -0.230067327557417 0.366666666666666
-0.0160889726308538 -0.228455508504707 0.366666666666666
-0.0143853243462998 -0.246519994261075 0.366666666666666
-0.00395338180090202 0.249999999999999 0.325611827557532
-0.00103744534342691 0.249999999999999 0.331344548744193
-0.000851455733084442 0.25 0.345493502665134
-0.00394235434277892 0.25 0.34585638449117
0.00280141115323667 0.249999999999999 0.360119807607019
-0.00266026465998488 0.25 0.364718555533559
-0.00438960889535917 0.237865845219383 0.366666666666666
-0.00224490632184104 0.230743639088596 0.366666666666666
0.00406924385626696 0.21893319768749 0.366666666666666
-0.00441334060102778 0.2058816175874 0.366666666666666
0.000120398783810236 0.201183416527808 0.366666666666666
-0.00411306893898002 0.185572630701962 0.366666666666666
0.00354043916528039 0.180262646055636 0.366666666666666
-0.000251352089888695 0.165225318178557 0.366666666666666
0.00111020202486327 0.162041118395729 0.366666666666666
0.00403233693007697 0.151855410175584 0.366666666666666
-0.00146408630375743 0.143097424669308 0.366666666666666
-0.000333265576581937 0.135413399240549 0.366666666666667
-0.0033777466505853 0.113366460902487 0.366666666666666
-0.00218066470654128 0.102420057140592 0.366666666666666
-0.00039687387184376 0.0897919419254086 0.366666666666666
0.000381358191552234 0.0916068277133082 0.366666666666667
-0.00188568798799838 0.0712915573317146 0.366666666666667
-0.000385683051258264 0.0626101427375067 0.366666666666666
-0.001877716244566 0.044484724014834 0.366666666666666
0.00271382190667289 0.0372364072720904 0.366666666666666
0.00423149798204737 0.0311380104922107 0.366666666666666
0.000493011859065883 0.019478249507514 0.366666666666666
0.00284427928429764 0.00438081751047019 0.366666666666667
0.00234891466807369 0.00154035989872216 0.366666666666666
0.00128707660305996 -0.018561543535875 0.366666666666666
0.00312672690299621 -0.0245323676625425 0.366666666666666
-0.00101501314150366 -0.041350897137402 0.366666666666666
0.00161775262787923 -0.0449933642162655 0.366666666666666
0.00340314280062004 -0.0610755710366125 0.366666666666666
-0.00152431341587841 -0.0736288096539373 0.366666666666666
-0.00481767324453527 -0.0901251808832461 0.366666666666666
0.00129991618022595 -0.105623656968918 0.366666666666666
-0.00382068381801734 -0.113555773317519 0.366666666666666
0.0036261707512163 -0.131429215460025 0.366666666666666
0.0013384399913781 -0.138842604792868 0.366666666666666
-0.00012666343742062 -0.140134464515051 0.366666666666666
0.00440504120346424 -0.159694566698784 0.366666666666667
-0.00475483176097173 -0.171207152029617 0.366666666666666
-0.00125741264111111 -0.180902623545704 0.366666666666666
-0.000385914791452196 -0.195870856686606 0.366666666666666
0.00267884447075289 -0.209435178690925 0.366666666666666
-0.0021038281256264 -0.216528430947329 0.366666666666666
-0.000188387457462216 -0.232964150897689 0.366666666666666
0.00516136630401768 0.249999999999999 0.318380425475975
0.00468018237491068 0.249999999999999 0.325063548120694
0.00576450220809987 0.25 0.329772222577024
0.00773762079010996 0.25 0.340083558142787
0.00783043456317398 0.25 0.347266012307038
0.0129978242475456 0.25 0.356838058916679
0.0137414015572426 0.242707690692876 0.366666666666666
0.00901810175279826 0.238860546341811 0.366666666666666
0.007107497023562 0.234690911362822 0.366666666666666
0.00931489644229303 0.221118405067597 0.366666666666666
0.00925229342722311 0.206419033357171 0.366666666666666
0.0139971662333446 0.199949129604755 0.366666666666666
0.00709718565763721 0.182354805551451 0.366666666666666
0.0127919252791201 0.173875796014226 0.366666666666666
0.0110528744193779 0.167728797522156 0.366666666666666
0.007610991543088 0.156849440960788 0.366666666666666
0.0119308299963545 0.143658015973445 0.366666666666666
0.0063924234872633 0.137606102329942 0.366666666666666
0.00719349985231977 0.121508408789584 0.366666666666666
0.00742331616579022 0.121452804578524 0.366666666666666
0.00501627607382692 0.103831241431634 0.366666666666667
0.00972778147523784 0.100728726134437 0.366666666666666
0.00908349322733389 0.0773537309861478 0.366666666666666
0.0083750528591121 0.0722683898436523 0.366666666666666
0.0122362199067422 0.0613190766444146 0.366666666666667
0.010448717068397 0.0564634453756305 0.366666666666666
0.00647706668163843 0.0379815533716067 0.366666666666666
0.0116045501398371 0.0288638975963974 0.366666666666666
0.00863891552928926 0.0198278600107973 0.366666666666666
0.00541212548057249 -0.00111770359332235 0.366666666666666
0.0127784156246152 0.00157856735563311 0.366666666666666
0.0107298738892753 -0.00549776818788271 0.366666666666666
0.0108860587187664 -0.0180575370993575 0.366666666666666
0.0117299647710587 -0.0412213299750604 0.366666666666666
0.0136238986866627 -0.053312751554992 0.366666666666666
0.0124396784603709 -0.0668011982730796 0.366666666666666
0.00532220170449049 -0.0688940217735286 0.366666666666666
0.00762728124679692 -0.0811552703382298 0.366666666666666
0.0154048513961588 -0.100774284108968 0.366666666666666
0.0112805907036625 -0.110554677003854 0.366666666666666
0.00922384110541831 -0.115003865831993 0.366666666666666
0.01171372007044 -0.131811947966444 0.366666666666666
0.00672046205394378 -0.145816057607236 0.366666666666666
0.00796162136388572 -0.163232811143653 0.366666666666666
0.0142163779592387 -0.168050213990199 0.366666666666666
0.0159616251028537 -0.192632927449207 0.366666666666666
0.00599209656737437 -0.202507855194241 0.366666666666666
0.0145525018809341 -0.213240906226406 0.366666666666666
0.00940012773680685 -0.226430829096924 0.366666666666666
0.00703358797433211 -0.234122307504845 0.366666666666666
0.0161029884755273 0.25 0.321491561413355
0.0142894834334597 0.25 0.327724879155813
0.0213204335094799 0.25 0.340047985992948
0.0180579607154957 0.25 0.341851665743529
0.0157325989616692 0.25 0.349055160333785
0.0151152361517182 0.25 0.354225801693665
0.0184587721722052 0.246919947966849 0.366666666666667
0.0148138941852235 0.239470372444831 0.366666666666666
0.0149326270689201 0.225887691057287 0.366666666666666
0.0221914192676385 0.216517617252365 0.366666666666666
0.0174204794718613 0.210252725900203 0.366666666666666
0.0160815939953495 0.195419740861513 0.366666666666666
0.0164885693842592 0.180992077521307 0.366666666666666
0.0145484048557432 0.174491353477203 0.366666666666666
0.0158891728445905 0.164989133227439 0.366666666666666
0.0157230959041264 0.158293180489753 0.366666666666666
0.0169374284684702 0.146416950741847 0.366666666666666
0.0232434096166204 0.134122786817491 0.366666666666666
0.0183942069789646 0.124152390745539 0.366666666666666
0.0230188843363071 0.121669704195969 0.366666666666666
0.0241663531290973 0.107812261409275 0.366666666666667
0.0166452798158683 0.0940610996119226 0.366666666666666
0.0152825497323473 0.0883177115160851 0.366666666666667
0.0188855843117729 0.071804724386755 0.366666666666666
0.0226123304700743 0.0593042004241206 0.366666666666666
0.0226883364574639 0.0555054021957848 0.366666666666667
0.0239435814310086 0.0436617309401683 0.366666666666666
0.0170498117285318 0.0305787880357419 0.366666666666666
0.0158843356228748 0.0187058433691936 0.366666666666666
0.0172977233177962 0.00825259177003118 0.366666666666666
0.0163113146343932 -0.0110167959515658 0.366666666666666
0.0160530651541662 -0.0214454775569772 0.366666666666666
0.0213787053499598 -0.0273617057441232 0.366666666666666
0.0239611132785211 -0.0325739492748521 0.366666666666666
0.0198270365132491 -0.0550713649694217 0.366666666666666
0.0213760167477093 -0.0676303946675089 0.366666666666666
0.017946232121951 -0.0759127604236759 0.366666666666666
0.0173571734582641 -0.0886641706073309 0.366666666666666
0.0233146825572205 -0.100804112218837 0.366666666666667
0.025516688327729 -0.105684525817486 0.366666666666666
0.0170220110984357 -0.126425382714551 0.366666666666666
0.0222199906206423 -0.142943362270762 0.366666666666666
0.0188131366938445 -0.146796099570539 0.366666666666666
0.0229465119166591 -0.154246178563004 0.366666666666667
0.0159839398639531 -0.174805450059893 0.366666666666667
0.0232529896487038 -0.187525545228002 0.366666666666666
0.0184189042860934 -0.202291623418069 0.366666666666666
0.0221625354953529 -0.210033968563386 0.366666666666666
0.0207563749542629 -0.227505145372359 0.366666666666666
0.0206702940256682 -0.238629631637305 0.366666666666666
0.0216308960898424 -0.248427292869636 0.366666666666666
0.0251120927513338 0.25 0.318395119048811
0.0288428404708377 0.25 0.335464356277058
0.0275026880839352 0.25 0.347498568627414
0.0285535577922456 0.25 0.345740831087856
0.0280922570384603 0.25 0.358964449066094
0.029082228543221 0.245136738873688 0.366666666666666
0.029058015285919 0.238955411232477 0.366666666666666
0.0232836535307421 0.229742277621748 0.366666666666667
0.0288681929935556 0.213681231843893 0.366666666666666
0.0260977638093854 0.202587038531228 0.366666666666666
0.0259243973685377 0.191383688973768 0.366666666666666
0.0276061767267405 0.197270409760205 0.366666666666666
0.0307963583111938 0.18459606679757 0.366666666666666
0.0272521646774845 0.167239252109841 0.366666666666666
0.0315645864618918 0.161046132938263 0.366666666666666
0.0274768600759294 0.154375898480953 0.366666666666666
0.0288741177745797 0.139295264400105 0.366666666666666
0.0301363727841806 0.125873090298235 0.366666666666666
0.03299458512079 0.113191465164467 0.366666666666667
0.0304957067800931 0.112808662859861 0.366666666666667
0.0328222440199383 0.0921914987959028 0.366666666666666
0.0275056165009643 0.0836743145612716 0.366666666666666
0.033193198684443 0.0710131925463754 0.366666666666666
0.0251228263365796 0.0605353266325842 0.366666666666666
0.0304536106269631 0.0501700323673775 0.366666666666666
0.0273425940580939 0.0468320316356173 0.366666666666667
0.0288744779656366 0.0346144540761338 0.366666666666666
0.0299885732848039 0.0133861588546653 0.366666666666666
0.0304377699900662 0.00806358053546078 0.366666666666666
0.0311117297945425 -0.000179061107493138 0.366666666666666
0.0287233563284737 -0.0181470518637255 0.366666666666666
0.0289736338751823 -0.0211081557861889 0.366666666666666
0.0295597276220619 -0.0290836341161253 0.366666666666666
0.0280489526374389 -0.0531758212320282 0.366666666666666
0.0264813191523018 -0.0591991813740443 0.366666666666666
0.0265256899899182 -0.0725531785417819 0.366666666666666
0.0259330350122306 -0.0818947697312081 0.366666666666666
0.0339998086439107 -0.101444120374953 0.366666666666666
0.0330421638620157 -0.11221499870516 0.366666666666666
0.0325916040732809 -0.115057043492698 0.366666666666666
0.0344209360473863 -0.130973032314806 0.366666666666666
0.0290179183968288 -0.149040818164529 0.366666666666667
0.034804234012417 -0.158774004202036 0.366666666666667
0.0356195316029524 -0.174835782435649 0.366666666666666
0.0284303161351043 -0.183733037469828 0.366666666666666
0.0372355975410635 -0.204907903758214 0.366666666666666
0.0342145723127231 -0.200258224164994 0.366666666666666
0.0300450744142439 -0.229296474155619 0.366666666666666
0.0326662330150788 -0.24000308916923 0.366666666666666
0.0333436265991862 -0.240302569917105 0.366666666666666
0.0404895991404565 0.25 0.325796233494851
0.033397579312068 0.25 0.332348630611318
0.0395758291025001 0.25 0.341533596959385
0.0367371114916697 0.25 0.351721195475214
0.0405231217558645 0.25 0.355337765239888
0.037228022155831 0.247513770093128 0.366666666666666
0.0412547531646236 0.239532272378938 0.366666666666666
0.0358068200481237 0.22475133257815 0.366666666666666
0.0397553556474799 0.218782184949961 0.366666666666666
0.0352200614277421 0.214671236281475 0.366666666666667
0.0336348852510218 0.191427865587572 0.366666666666666
0.0374946656160405 0.182780943886375 0.366666666666666
0.0412385669471073 0.185086132380722 0.366666666666666
0.0378914363860003 0.160777164386113 0.366666666666667
0.0411147971703065 0.160594965246791 0.366666666666666
0.0334291026413648 0.14551601099904 0.366666666666666
0.0399727011067888 0.136390924835871 0.366666666666666
0.0387174634531597 0.125310802503307 0.366666666666666
0.0393588760054738 0.115240128731718 0.366666666666666
0.0339934439919208 0.10217101471908 0.366666666666666
0.0360333564913058 0.090621107167611 0.366666666666666
0.0387530045525527 0.0897570951013588 0.366666666666667
0.0432814173926065 0.0768010308112287 0.366666666666666
0.036868364019583 0.0620636051426063 0.366666666666666
0.0344566928835275 0.0482591575528201 0.366666666666666
0.0368511546963753 0.0446991586983461 0.366666666666666
0.0355838012212751 0.0342652155218264 0.366666666666666
0.0441551499046835 0.0153427085831431 0.366666666666666
0.0361662986817941 0.00762141815788565 0.366666666666666
0.0415657319283607 -0.004105125736507 0.366666666666666
0.0371949301150817 -0.0128337198320407 0.366666666666666
0.0370315365789346 -0.0273981502730692 0.366666666666666
0.0420485162416814 -0.0342780685888065 0.366666666666666
0.0453562750438105 -0.0529977572232261 0.366666666666666
0.0437194935288587 -0.0623070960583651 0.366666666666666
0.0397684966864425 -0.0736316844572217 0.366666666666666
0.043062234521583 -0.0939569132181576 0.366666666666666
0.0367586533151279 -0.107736131804458 0.366666666666666
0.0466119723712017 -0.107419550235952 0.366666666666666
0.0399493286893425 -0.122668347142996 0.366666666666666
0.0401650901670168 -0.13884949492598 0.366666666666666
0.0446623599164873 -0.141586360092847 0.366666666666666
0.0430761413668686 -0.158276186819762 0.366666666666666
0.0465524434334896 -0.16896331608596 0.366666666666666
0.0411186108149196 -0.177505407488814 0.366666666666666
0.0450084993581167 -0.206428906789019 0.366666666666666
0.0469501245312071 -0.206708297852547 0.366666666666666
0.0458275058912666 -0.22582962393889 0.366666666666666
0.0413821203010718 -0.231942780367555 0.366666666666666
0.0442143154582606 -0.245599324980432 0.366666666666666
0.048921933234457 0.25 0.33093386163191
0.0415215141591916 0.25 0.333713122904265
0.0436307274312036 0.249999999999999 0.337481277669909
0.0421702303585887 0.25 0.350983456707081
0.0419897567752179 0.25 0.358300312976311
0.0477677996894878 0.24550195647896 0.366666666666666
0.0499409027123313 0.23942987158217 0.366666666666666
0.0492463962851023 0.229948181153346 0.366666666666666
0.0489877647419421 0.214383765083234 0.366666666666666
0.0440043761314687 0.203879130905808 0.366666666666666
0.0503824373722691 0.194721965942137 0.366666666666666
0.043898420157434 0.18740603238966 0.366666666666666
0.0470068252758705 0.181570146904161 0.366666666666666
0.04302046929947 0.169241675688154 0.366666666666666
0.0447209383796551 0.155242006858483 0.366666666666666
0.0430815608663905 0.145025187182818 0.366666666666666
0.050022703738389 0.132469208819488 0.366666666666666
0.0472442050844457 0.125131220571159 0.366666666666666
0.0464241210029103 0.119636952555339 0.366666666666666
0.0502211276814975 0.106889105454785 0.366666666666666
0.0447310296367443 0.0935727329689066 0.366666666666666
0.053446444223017 0.0891239588894161 0.366666666666666
0.0491268582576603 0.0771987194873419 0.366666666666667
0.0469230301523879 0.0665464785258363 0.366666666666666
0.0495586966348435 0.0577657774275562 0.366666666666666
0.0461723434388669 0.0405152816511915 0.366666666666666
0.049025828525012 0.0363549209796329 0.366666666666666
0.0450601826509067 0.0186069517527307 0.366666666666667
0.0517674436553613 0.014308167065529 0.366666666666666
0.0514019145250341 -0.0096012999012967 0.366666666666666
0.0543595823581415 -0.0155812608950325 0.366666666666666
0.051669574051209 -0.0214401536590285 0.366666666666666
0.0537388355420708 -0.0370073518228535 0.366666666666666
0.0516705169475222 -0.0449390867959323 0.366666666666666
0.0469520600010036 -0.0658093914457449 0.366666666666666
0.0501829759925812 -0.0686504436501203 0.366666666666666
0.0525263087008281 -0.0849483232886541 0.366666666666667
0.0565351794749829 -0.0909550734437395 0.366666666666666
0.0471261678310042 -0.10557384128643 0.366666666666667
0.050258456449293 -0.124967679722328 0.366666666666666
0.0551855124415777 -0.123838091338481 0.366666666666666
0.0522591798998974 -0.156620788455769 0.366666666666666
0.051989477647649 -0.162997917523192 0.366666666666667
0.0485158411310017 -0.173741566653106 0.366666666666666
0.0571215894059718 -0.188985747869937 0.366666666666666
0.053464025569446 -0.203235498579857 0.366666666666666
0.0519287930861138 -0.212382593202243 0.366666666666666
0.0540086210405309 -0.23137402219261 0.366666666666666
0.0572801054733708 -0.234948247819334 0.366666666666666
0.051095424744537 -0.247789799799027 0.366666666666666
0.0561622457500603 0.25 0.320896038021378
0.0590031215152925 0.25 0.326759243011972
0.0591950822586095 0.25 0.337616231068377
0.0547928911179506 0.25 0.344468344250507
0.0563865603055698 0.25 0.361673297293285
0.0591584056648138 0.249438374232205 0.366666666666666
0.0595330863381319 0.228815266320592 0.366666666666666
0.0543249506383255 0.227072697792532 0.366666666666666
0.0581257045340456 0.213843514896293 0.366666666666666
0.054334779683399 0.20586862118459 0.366666666666666
0.0563845717270708 0.199537456599546 0.366666666666666
0.0522805221467668 0.192356905862633 0.366666666666666
0.0527314151645792 0.181557189162556 0.366666666666666
0.0601191053867283 0.163066539927594 0.366666666666666
0.0614510062431998 0.155467124254981 0.366666666666666
0.0549369040007872 0.154735550241829 0.366666666666666
0.0603474059237724 0.141105951993411 0.366666666666667
0.060912805905028 0.120184347440015 0.366666666666666
0.0575297725705635 0.116019209624872 0.366666666666666
0.0568310666499577 0.106147237536096 0.366666666666666
0.0590968596429608 0.104199750626259 0.366666666666666
0.0572864272813291 0.0777807206971214 0.366666666666666
0.0564281370007395 0.0775664433266586 0.366666666666666
0.0593360978384742 0.0642872135186703 0.366666666666666
0.0579549130701075 0.0430656836282913 0.366666666666666
0.061462291426873 0.035489455317883 0.366666666666666
0.0625780663854899 0.03339351757043 0.366666666666666
0.0628783626270834 0.0198060979571632 0.366666666666666
0.0619614361919855 0.00557932182854903 0.366666666666666
0.0573878467463419 -0.0081691078462674 0.366666666666666
0.0585674019827295 -0.0219959798247974 0.366666666666666
0.0580175324266492 -0.0230362388446343 0.366666666666666
0.0650078975451729 -0.0419928690847121 0.366666666666666
0.0571701032205704 -0.0511824673295354 0.366666666666666
0.0641377191291085 -0.0593927839411831 0.366666666666666
0.0603778461012984 -0.0805530416510125 0.366666666666666
0.0661247560050508 -0.0933713487862709 0.366666666666666
0.059316515506767 -0.0921534260390991 0.366666666666666
0.0614674939905778 -0.108410015729998 0.366666666666666
0.0606400922103907 -0.121467226130436 0.366666666666666
0.0612748129223711 -0.139211029130681 0.366666666666666
0.0651793924245022 -0.143636652083433 0.366666666666666
0.0646577543208949 -0.169353767016052 0.366666666666666
0.0684423929693915 -0.173027084323554 0.366666666666667
0.0633557835782449 -0.186312289261618 0.366666666666666
0.058950471306113 -0.198304754730689 0.366666666666666
0.0657967225827863 -0.211742236711578 0.366666666666666
0.0591444862596329 -0.225521407132902 0.366666666666666
0.0614281612107032 -0.235452304027824 0.366666666666666
0.0600747829072013 -0.246963045081047 0.366666666666667
0.0627736232349361 0.25 0.317524498022171
0.0680049855689065 0.25 0.325178818412157
0.0634120945028399 0.25 0.333558648528733
0.0686599708785822 0.25 0.335201045535165
0.065997357210215 0.249999999999999 0.351186398648242
0.0661678418390116 0.25 0.356869509362097
0.0670178373488297 0.247227536996984 0.366666666666666
0.0600680955857129 0.236936237674467 0.366666666666666
0.0633909250952505 0.22357853983715 0.366666666666667
0.0638430938277535 0.212384512917285 0.366666666666666
0.0650452350899813 0.209050757439286 0.366666666666666
0.0683019132502104 0.199212025950286 0.366666666666666
0.0699882870339495 0.195484504455142 0.366666666666666
0.0637913355974674 0.175434739872665 0.366666666666667
0.0685868287671003 0.167912918203158 0.366666666666667
0.0691019108938194 0.163478787962281 0.366666666666666
0.0618037682243714 0.140649588678366 0.366666666666666
0.0689048112548697 0.133479338013465 0.366666666666666
0.0651930099601735 0.127881383111355 0.366666666666666
0.0653524875202954 0.111892047096779 0.366666666666666
0.0645039036996591 0.104508600328801 0.366666666666666
0.0710593213329928 0.102531699516334 0.366666666666666
0.0673038431109228 0.0948282717109756 0.366666666666666
0.0641039769618242 0.0823942869395959 0.366666666666666
0.0644597023505954 0.0566545943290196 0.366666666666666
0.0716627514028598 0.0554899426556924 0.366666666666666
0.064874365541106 0.0355624532659516 0.366666666666666
0.065396828164461 0.0330541124092497 0.366666666666666
0.0691343941532149 0.0168609691117454 0.366666666666666
0.0706740820560737 0.00499922952144931 0.366666666666666
0.0714621637930059 -0.0041782694470376 0.366666666666666
0.0749144973107312 -0.0171133708918562 0.366666666666666
0.0683374517753197 -0.0331324416517126 0.366666666666666
0.0713141476298976 -0.0330468626252725 0.366666666666666
0.0723076733519894 -0.0475738814695301 0.366666666666666
0.0739728154012763 -0.0596611956612995 0.366666666666666
0.067022928786834 -0.0760992500464302 0.366666666666666
0.0691794369534956 -0.0901684365169671 0.366666666666666
0.0772530203461234 -0.0920712757899843 0.366666666666666
0.0731916021699172 -0.110755676603915 0.366666666666666
0.0686988157187708 -0.125512485002612 0.366666666666666
0.0702534882702582 -0.128206729564878 0.366666666666666
0.0746483617744387 -0.148596491589609 0.366666666666666
0.0702642832779145 -0.157119928872924 0.366666666666666
0.0700254042549731 -0.170732157620694 0.366666666666666
0.0713551020068414 -0.189844809719379 0.366666666666667
0.0739100236061551 -0.206930831697957 0.366666666666666
0.0802102412100653 -0.21110246754773 0.366666666666667
0.0709305651984165 -0.223231432701777 0.366666666666666
0.0745061784332829 -0.233535762196164 0.366666666666666
0.0743350970374094 0.25 0.32282799911537
0.0698867378136226 0.249999999999999 0.332510617897369
0.0702153230271311 0.25 0.339337113387227
0.0755040683668707 0.25 0.348975308427851
0.0767846393664253 0.25 0.356320077169109
0.0751674755640627 0.24149000379372 0.366666666666666
0.0706858128966319 0.238734175599384 0.366666666666666
0.0786163099195851 0.222383444248814 0.366666666666667
0.0706064789472958 0.211271301058605 0.366666666666666
0.0771314801942977 0.208450526085832 0.366666666666666
0.0764001680187647 0.192076662214128 0.366666666666666
0.0707338349761076 0.190432302374917 0.366666666666666
0.0744879189493041 0.181097809277176 0.366666666666666
0.0747357176821005 0.17504394396895 0.366666666666666
0.076396609991707 0.152508337766138 0.366666666666666
0.0800014716518269 0.149486794971898 0.366666666666666
0.0800014013899377 0.147035108758093 0.366666666666666
0.0783254069047557 0.136105654439833 0.366666666666666
0.0721182056283119 0.114013582117647 0.366666666666666
0.0724564513310808 0.113185634865961 0.366666666666666
0.0814946189193041 0.102980861032593 0.366666666666666
0.0802793407466752 0.0919292448961364 0.366666666666666
0.0798490599078181 0.0653971078411561 0.366666666666666
0.0787022388648633 0.0581708891679385 0.366666666666666
0.079658812936247 0.0492813539736356 0.366666666666666
0.075894688566041 0.0472211488248238 0.366666666666666
0.0829946532404435 0.0353887793887272 0.366666666666667
0.0817313498991925 0.0187313744943544 0.366666666666666
0.0834022834053582 0.00868017846985103 0.366666666666666
0.0822366435741935 -0.00407047810349808 0.366666666666667
0.0788736909985932 -0.0115172829993625 0.366666666666666
0.0811551765700823 -0.0279673267453034 0.366666666666666
0.0854728752005762 -0.0319230882848551 0.366666666666666
0.0814168353073746 -0.0549460292537793 0.366666666666666
0.0767854599132666 -0.0610680157304583 0.366666666666666
0.086368916033336 -0.0673178490554664 0.366666666666666
0.0812778273914305 -0.0915419925290532 0.366666666666666
0.0872357615898086 -0.101559100019054 0.366666666666666
0.0871872001473556 -0.108528470686229 0.366666666666666
0.082840840369431 -0.11734751630859 0.366666666666666
0.0824836861089406 -0.140598941705497 0.366666666666667
0.0892997433816848 -0.1543297813062 0.366666666666666
0.0803904284469404 -0.158308734185807 0.366666666666666
0.0847602042251704 -0.180677610936535 0.366666666666666
0.081249925484953 -0.183613834092857 0.366666666666666
0.0892446235222607 -0.195883788369122 0.366666666666667
0.0898827915765181 -0.219261273765276 0.366666666666666
0.080924141139706 -0.233414642453746 0.366666666666666
0.08404121560886 -0.237610748636097 0.366666666666666
0.0811508848027749 0.25 0.319944654611404
0.0810665227363916 0.25 0.324364488119194
0.083650898949157 0.25 0.326454224156249
0.0831016097553428 0.25 0.341352699798052
0.0864147752912985 0.25 0.358635539001859
0.0847603077104433 0.25 0.365556040555217
0.0801289979874735 0.249809180067609 0.366666666666666
0.080204097167568 0.237794088214185 0.366666666666666
0.0793165384012559 0.226091493231072 0.366666666666666
0.0818110042511456 0.21791674028156 0.366666666666666
0.0872957519327151 0.203780561128929 0.366666666666667
0.0824789663327667 0.196750347148148 0.366666666666666
0.0834431589991123 0.19036988186862 0.366666666666666
0.0887829763273006 0.184448864794324 0.366666666666666
0.0802686398666847 0.166039422928917 0.366666666666666
0.0897067889171298 0.161005401530711 0.366666666666666
0.0831119097116146 0.145585649139097 0.366666666666667
0.0879257641066627 0.141100594959406 0.366666666666666
0.0904129244473064 0.128035427147631 0.366666666666666
0.0854267179555469 0.11629356461316 0.366666666666667
0.0865188973531873 0.105791123040075 0.366666666666666
0.0919443645946822 0.0937350667755912 0.366666666666666
0.0915454965334488 0.0819835231147138 0.366666666666666
0.090632664377905 0.0673291025741593 0.366666666666666
0.0902153603916397 0.0710018201748036 0.366666666666666
0.0902689176657533 0.0522013228834453 0.366666666666666
0.0866582746683717 0.0464929717281334 0.366666666666666
0.0866966635238493 0.0318750845535018 0.366666666666666
0.0912803111943891 0.0201671076406907 0.366666666666666
0.0924468451448323 0.00990132538030507 0.366666666666666
0.0858461029466484 -0.00411327878559234 0.366666666666666
0.0855216044217703 -0.0115518266127354 0.366666666666666
0.0867215213046427 -0.027763342324317 0.366666666666666
0.0927484679838648 -0.0349815069613076 0.366666666666666
0.08922480560863 -0.0567281124534842 0.366666666666666
0.0868002061094615 -0.0665027943480481 0.366666666666666
0.0945799084926019 -0.0727659309144756 0.366666666666666
0.0885305577480263 -0.0849912359288526 0.366666666666667
0.0910735257619238 -0.09406145200427 0.366666666666666
0.0939890947118138 -0.112481028958795 0.366666666666666
0.0940327441151616 -0.118297084444212 0.366666666666666
0.0938904027405679 -0.129399770876703 0.366666666666666
0.0972056686500943 -0.153067093567564 0.366666666666667
0.0898743247728565 -0.161258369639698 0.366666666666666
0.0957980397953831 -0.167719109240512 0.366666666666666
0.0974489394887438 -0.188683734779247 0.366666666666667
0.0979334576373253 -0.192249290889756 0.366666666666666
0.0919016851571212 -0.212694042319619 0.366666666666667
0.0993678969577652 -0.229986326783269 0.366666666666666
0.0934343371677706 -0.234748783587701 0.366666666666666
0.0956403718527462 0.25 0.326255545297685
0.0889326643053632 0.249999999999999 0.338307671770391
0.0934260438528578 0.25 0.343631751828246
0.0871977646197016 0.25 0.346135928672755
0.0918972718333691 0.25 0.360458234782865
0.0922293967259933 0.249622420502359 0.366666666666666
0.0921333877966559 0.239921315007056 0.366666666666666
0.0894360430929128 0.232715104678799 0.366666666666666
0.0941875507878611 0.223775253387136 0.366666666666666
0.0892049184307963 0.209008823892973 0.366666666666666
0.0903330293643474 0.198218897122086 0.366666666666666
0.0942381838460182 0.194819181032484 0.366666666666666
0.0897935452580765 0.181204538724246 0.366666666666667
0.0951107884198603 0.17259382051889 0.366666666666666
0.0974433163861979 0.155916579713959 0.366666666666666
0.0938913142133687 0.148957212260217 0.366666666666667
0.0986413116219012 0.142506686792507 0.366666666666666
0.093314551674597 0.11944179726442 0.366666666666666
0.0944770392544981 0.116233920472687 0.366666666666667
0.101273868544193 0.101833717256756 0.366666666666666
0.0933758647620179 0.0933968440330745 0.366666666666666
0.0940621107497261 0.0863531938068748 0.366666666666666
0.0957370647491339 0.0701115142713954 0.366666666666666
0.0996305826369793 0.0666491798661187 0.366666666666666
0.0997643183912966 0.0482603775899853 0.366666666666666
0.101265909386334 0.0379900476517605 0.366666666666666
0.102140880419969 0.0348431858085888 0.366666666666666
0.095866313982221 0.0132232486978159 0.366666666666666
0.102861624212662 0.00537772137386313 0.366666666666667
0.104603642231556 -0.00617256922622862 0.366666666666666
0.0978214106236189 -0.0200412191305958 0.366666666666666
0.0990223546688176 -0.0260603593011283 0.366666666666666
0.105306061452565 -0.0376153773369543 0.366666666666666
0.103241696038717 -0.0584538346958412 0.366666666666666
0.102009714890953 -0.0656763531305998 0.366666666666666
0.103544599175587 -0.0657769028793896 0.366666666666666
0.101907519197492 -0.0887196365847433 0.366666666666667
0.0981844954981471 -0.0944513528959212 0.366666666666666
0.100966302766347 -0.112935896425002 0.366666666666666
0.109043789424466 -0.118767553126372 0.366666666666666
0.100879152531491 -0.138963469687719 0.366666666666666
0.103343395541328 -0.140480766648259 0.366666666666666
0.108113471074162 -0.155271935677321 0.366666666666666
0.10138401624741 -0.17577382968663 0.366666666666666
0.104575099865094 -0.18814872160478 0.366666666666666
0.111522233702107 -0.197951839547589 0.366666666666666
0.107926352266626 -0.202969695499517 0.366666666666666
0.107129744995186 -0.221469400323779 0.366666666666666
0.108965659071702 -0.239655606684314 0.366666666666666
0.0960516360451095 0.25 0.328472504546509
0.101019210132297 0.25 0.339624384459951
0.101718453991964 0.25 0.345899466918997
0.103456918416141 0.25 0.350259666832237
0.102540334322589 0.25 0.363884096366966
0.101960482960416 0.24361841794488 0.366666666666666
0.0992533096327255 0.231234195724594 0.366666666666667
0.104708917510758 0.225788980433688 0.366666666666666
0.10424220755632 0.216626893611264 0.366666666666666
0.103026031359817 0.206046984598915 0.366666666666666
0.0995053696864046 0.200493858553552 0.366666666666666
0.101781346690322 0.191924570065421 0.366666666666666
0.10243159850724 0.1721276926389 0.366666666666666
0.101265225885098 0.173885485888296 0.366666666666667
0.100969657373797 0.159296721300242 0.366666666666666
0.101925182132424 0.147921420605621 0.366666666666666
0.103965316271935 0.139425301141004 0.366666666666666
0.104731762683801 0.1207933827167 0.366666666666666
0.108518522393788 0.120834697463483 0.366666666666666
0.104776241231714 0.100217527198927 0.366666666666666
0.111407155455925 0.0898691648926205 0.366666666666666
0.106004939341288 0.0816646391229424 0.366666666666666
0.105948548300778 0.0709635417631908 0.366666666666667
0.104667413587395 0.0669091515442031 0.366666666666666
0.103794787344675 0.0510478384304916 0.366666666666666
0.113210201214737 0.0400322950990236 0.366666666666666
0.105999531915611 0.0350005350728861 0.366666666666666
0.111004260942191 0.0162100701332683 0.366666666666666
0.112433026832722 0.000879269548030464 0.366666666666666
0.112509767912175 -0.00255095963662309 0.366666666666666
0.109408133868325 -0.0100217395722198 0.366666666666666
0.11278698024791 -0.0227333776370482 0.366666666666666
0.109026307301159 -0.0475948157435765 0.366666666666666
0.111480622552434 -0.0463021060593287 0.366666666666666
0.112260600591211 -0.0592968731980553 0.366666666666666
0.116679579317403 -0.0716020812121 0.366666666666666
0.112714867079816 -0.0926034276826343 0.366666666666666
0.113566278855222 -0.0983410268245294 0.366666666666666
0.118405255699603 -0.10545547317307 0.366666666666666
0.11836254202813 -0.123925203181844 0.366666666666666
0.111544116329761 -0.133818565682772 0.366666666666666
0.11301043503994 -0.154005027617194 0.366666666666666
0.118136017880972 -0.155843995923296 0.366666666666666
0.121692649362996 -0.172036306013692 0.366666666666666
0.117212586738987 -0.179507143095616 0.366666666666666
0.115840777889948 -0.201150386296372 0.366666666666666
0.117211710420799 -0.205540700113337 0.366666666666666
0.116343034006377 -0.220364080496974 0.366666666666666
0.116645251633466 -0.233394721843054 0.366666666666666
0.118219886895987 -0.240001780478471 0.366666666666666
0.106221597222505 0.25 0.318124569116494
0.114333973145108 0.25 0.322122952841274
0.106768078875225 0.25 0.335567905547971
0.10831571682214 0.249999999999999 0.341562560698829
0.112039690784263 0.25 0.355179552666496
0.107537233217239 0.249999999999999 0.355646841309681
0.112202516464604 0.25 0.362308410690799
0.112049174095396 0.238804027554932 0.366666666666666
0.108987573730454 0.230885683304774 0.366666666666666
0.107980708404879 0.222158542380679 0.366666666666666
0.11542353811201 0.214751648628319 0.366666666666666
0.115855932011468 0.198824609241744 0.366666666666666
0.116164868360965 0.185414693327175 0.366666666666666
0.109974722250765 0.183448637986882 0.366666666666666
0.113396663388149 0.167215284031626 0.366666666666666
0.111390845633658 0.1562555427475 0.366666666666666
0.117748796715785 0.143847497659789 0.366666666666666
0.116454603971765 0.13692679278529 0.366666666666666
0.116363596249285 0.120774594251279 0.366666666666666
0.110990202380148 0.117003616963844 0.366666666666667
0.115280919886335 0.108760392126781 0.366666666666666
0.119585052133099 0.098025758796918 0.366666666666666
0.116606917037836 0.0839630572222071 0.366666666666667
0.119618326638224 0.0680523656134255 0.366666666666666
0.121327016528603 0.0684406323035597 0.366666666666666
0.11639560255498 0.0565201705903514 0.366666666666666
0.12020613428281 0.0402982369294122 0.366666666666666
0.117984619585942 0.032026311848077 0.366666666666667
0.115741616410395 0.0190395965245837 0.366666666666666
0.122107321854709 0.0132860026426778 0.366666666666666
0.115224804857836 0.000866666536038764 0.366666666666666
0.115757748527706 -0.00564549231871215 0.366666666666666
0.125783371055816 -0.0310369087332624 0.366666666666666
0.116830090126979 -0.0354860556267918 0.366666666666666
0.122525971566562 -0.0556122176022256 0.366666666666666
0.121757286473319 -0.0594527554340391 0.366666666666667
0.127940640658099 -0.0795612662880061 0.366666666666666
0.126949967054109 -0.088977734410797 0.366666666666666
0.126069038285671 -0.0922648237558221 0.366666666666667
0.124584148545286 -0.104953136849084 0.366666666666667
0.121424244636794 -0.115430308145006 0.366666666666666
0.123406051539789 -0.136449148201788 0.366666666666666
0.120724343467715 -0.147070487676729 0.366666666666666
0.125378000516003 -0.161716247005254 0.366666666666666
0.124613580423796 -0.171923191616035 0.366666666666666
0.126378807704284 -0.188801174970279 0.366666666666667
0.131811504643415 -0.201754355753328 0.366666666666666
0.123182939181066 -0.205747182746809 0.366666666666666
0.13203259555581 -0.224200525458833 0.366666666666666
0.126194362252333 -0.234310013689572 0.366666666666666
0.127790229134512 -0.242256514716955 0.366666666666667
0.119283126442574 0.25 0.323685557693622
0.12026276736814 0.25 0.327267173496551
0.122583494480243 0.25 0.333558751507814
0.118908233456115 0.25 0.346439968753939
0.120212319033585 0.25 0.357381885532752
0.122765871245983 0.24947361237848 0.366666666666666
0.116193218388878 0.234405637154818 0.366666666666666
0.121892994265636 0.228726194369339 0.366666666666666
0.124131785829592 0.211515262158016 0.366666666666666
0.118253968121623 0.21328402080517 0.366666666666666
0.12529528354453 0.199441931104549 0.366666666666666
0.121380321092327 0.191123664891038 0.366666666666666
0.11996664827259 0.181260067961314 0.366666666666666
0.12049778833108 0.168766236062749 0.366666666666666
0.120418891041932 0.157145163045943 0.366666666666666
0.120481458067657 0.14750947986646 0.366666666666666
0.124831849965601 0.135267971388275 0.366666666666666
0.119579944909949 0.135214548770348 0.366666666666666
0.129374739637712 0.110639265563494 0.366666666666667
0.124708546528661 0.0999379927971319 0.366666666666666
0.126271685162346 0.0929991276312403 0.366666666666666
0.124358920334381 0.0806300540238544 0.366666666666667
0.129594330696595 0.0731144891984573 0.366666666666666
0.125314181809948 0.0634761470088174 0.366666666666666
0.122606236772832 0.0620089925331301 0.366666666666666
0.133185061379939 0.0387106357766814 0.366666666666666
0.12845478217397 0.0340772566676235 0.366666666666666
0.132749012233662 0.0175623620383529 0.366666666666666
0.131989204720385 0.0076599886815811 0.366666666666666
0.126808805518226 -0.0061516755391843 0.366666666666666
0.130020428346039 -0.0158287794931154 0.366666666666666
0.135173548062203 -0.0240314345806707 0.366666666666667
0.133119084385165 -0.0427488940712325 0.366666666666667
0.128628145706587 -0.0464704302054082 0.366666666666666
0.13120943288121 -0.0585780167204007 0.366666666666666
0.12849707893121 -0.0823827308115479 0.366666666666666
0.131247542425434 -0.0882024327934621 0.366666666666666
0.133458993416593 -0.0965690597376873 0.366666666666666
0.133288997432221 -0.105253197262002 0.366666666666666
0.130299861175688 -0.127854804308617 0.366666666666666
0.13655573717699 -0.138758377733332 0.366666666666666
0.136278598542602 -0.146421616274855 0.366666666666666
0.136136907312053 -0.163588661529699 0.366666666666666
0.139907223942696 -0.171505205978176 0.366666666666666
0.132723985034711 -0.185667495324211 0.366666666666666
0.137414861977949 -0.205301073098476 0.366666666666666
0.138786137861231 -0.211865113338728 0.366666666666666
0.136831607368028 -0.227766803753052 0.366666666666666
0.143922963414008 -0.243014304835576 0.366666666666667
0.129627494354134 0.25 0.319055068331908
0.12851039033529 0.25 0.326872477421093
0.124562988536662 0.25 0.332007384232198
0.124112954679701 0.25 0.337193245904997
0.127420874145992 0.25 0.34548763580468
0.125205008740009 0.249999999999999 0.356086401621598
0.125991623508651 0.247551224514426 0.366666666666666
0.130665789692376 0.234799044993034 0.366666666666666
0.130214975310925 0.227692517706121 0.366666666666666
0.130140937183048 0.219209575098001 0.366666666666666
0.133114424415857 0.208872260551008 0.366666666666666
0.131569544557446 0.204987403973769 0.366666666666666
0.134915018215144 0.183886885076799 0.366666666666667
