ply
format ascii 1.0
element vertex 921
property float x
property float y
property float z
end_header
0.424321563592987 -0.242265890392939 0.366666666666666
0.367610522141686 0.249999999999999 0.328205358678489
0.365020016380579 0.25 0.329224710830059
0.368194666821478 0.249999999999999 0.340307045039294
0.36658135621632 0.25 0.348911979702689
0.365695398043592 0.249632062554159 0.366666666666666
0.367932698432038 0.247276109838389 0.366666666666666
0.367696790095072 0.237087139372742 0.366666666666666
0.373922611686179 0.223146331056954 0.366666666666666
0.368932983516803 0.226094099001001 0.366666666666667
0.371758684931872 0.214196316827345 0.366666666666666
0.377578100893565 0.190344606276344 0.366666666666666
0.376649662097262 0.186604797418164 0.366666666666666
0.37659750646455 0.180100619644629 0.366666666666667
0.373303534772316 0.168435496790007 0.366666666666666
0.377425441234829 0.154267363207153 0.366666666666666
0.384655881095291 0.153378090022864 0.366666666666666
0.38304719522706 0.136913540079742 0.366666666666667
0.384446979563655 0.128923226776487 0.366666666666666
0.385726607297132 0.117233771504054 0.366666666666666
0.385145947063839 0.100138079028325 0.366666666666666
0.385085581891372 0.100247373075609 0.366666666666666
0.387262271252866 0.086953150090353 0.366666666666667
0.390671703735875 0.0773457200155563 0.366666666666666
0.387702083105367 0.0668069397669381 0.366666666666666
0.389562102314153 0.0426002266077196 0.366666666666667
0.397806980838743 0.0384456120709736 0.366666666666666
0.395254461009155 0.0324031461527104 0.366666666666666
0.399554411599392 0.0218947639674814 0.366666666666666
0.401035048904666 0.0146222322719637 0.366666666666666
0.404221396320497 0.00168997436204548 0.366666666666666
0.401271040067758 -0.0228210552036632 0.366666666666666
0.40311294239827 -0.0270334906092147 0.366666666666666
0.406086097691236 -0.035124223998732 0.366666666666667
0.401700439754179 -0.0412929156390955 0.366666666666666
0.406973423320429 -0.0661061815719862 0.366666666666666
0.406213914245101 -0.0754013547196485 0.366666666666666
0.407068753831754 -0.0860064538797081 0.366666666666666
0.41164020501787 -0.0959921452474863 0.366666666666666
0.412326035717801 -0.103890624620956 0.366666666666666
0.411507026794087 -0.11972598898573 0.366666666666666
0.415754192220385 -0.132826900877495 0.366666666666666
0.42416588000877 -0.147606397548899 0.366666666666666
0.419994146022146 -0.166302876940454 0.366666666666666
0.424599563323266 -0.170978748784332 0.366666666666666
0.42380192652685 -0.191318015449925 0.366666666666666
0.425956171607959 -0.202282780786188 0.366666666666666
0.429739854181474 -0.205461862260598 0.366666666666666
0.426323517336543 -0.228782699760651 0.366666666666666
0.429042049236171 -0.247665687051753 0.366666666666666
0.438363501794772 -0.248411448814817 0.366666666666666
0.376189683189754 0.25 0.326060257299952
0.376300196593666 0.25 0.333433292459989
0.372112943511726 0.25 0.339816492483519
0.373116362122931 0.25 0.351510221939088
0.372450806185879 0.25 0.361645722003204
0.378555297954199 0.24720334410432 0.366666666666666
0.378187443790836 0.237095813412352 0.366666666666666
0.381122570845434 0.223699366732731 0.366666666666666
0.377736271699154 0.21468655473929 0.366666666666666
0.380957018352272 0.206010967327978 0.366666666666666
0.38542664057545 0.201508651445468 0.366666666666666
0.38146360286302 0.185775823755364 0.366666666666667
0.381063917697735 0.174989656996777 0.366666666666666
0.385010548048232 0.16738831068347 0.366666666666667
0.391018204768544 0.16232800160475 0.366666666666666
0.394480976725978 0.144057732751785 0.366666666666666
0.390114301841024 0.140763622646253 0.366666666666666
0.390269255672332 0.132343122756052 0.366666666666666
0.393806731033868 0.119533485502008 0.366666666666667
0.398131207103619 0.101243090841888 0.366666666666666
0.394578544182661 0.0974065471649887 0.366666666666667
0.402972307959567 0.0834633154027927 0.366666666666667
0.403995134856121 0.0820721600404212 0.366666666666666
0.398666574893203 0.062468894066439 0.366666666666666
0.403973756661338 0.0472862022252505 0.366666666666666
0.408769300629627 0.0399983825259534 0.366666666666667
0.405013785611255 0.0357731755515724 0.366666666666666
0.40676729117375 0.0196499489373361 0.366666666666666
0.405254112427957 -0.000345523242736883 0.366666666666666
0.414468232914276 -0.00592552604599144 0.366666666666666
0.411908817596961 -0.00877757588469477 0.366666666666666
0.415324596522141 -0.0280406624775809 0.366666666666666
0.415270882208361 -0.031165967446972 0.366666666666666
0.420817442248438 -0.0475188599545476 0.366666666666666
0.415006298728507 -0.0589745991983677 0.366666666666666
0.41490978745604 -0.0762465256557284 0.366666666666666
0.42102972778103 -0.0865981769970448 0.366666666666667
0.425038410186781 -0.0929121318228437 0.366666666666666
0.424532194627919 -0.107396526374114 0.366666666666666
0.42876986790873 -0.120395634487998 0.366666666666666
0.432450584576459 -0.14298553430582 0.366666666666667
0.430273382564033 -0.149621639585023 0.366666666666666
0.432943557419415 -0.155606916705778 0.366666666666666
0.436438408387581 -0.18193252455363 0.366666666666666
0.433261071400235 -0.183329981182727 0.366666666666666
0.438958647209454 -0.202441359607925 0.366666666666666
0.441766715740386 -0.210537645612748 0.366666666666666
0.438342456669128 -0.224757437943406 0.366666666666666
0.446951657201569 -0.238440911442546 0.366666666666666
0.386741637545901 0.25 0.322701547348111
0.386697917306325 0.25 0.334744756303693
0.389137194810387 0.25 0.342460896121964
0.386219660173603 0.25 0.351920666933409
0.382415856765652 0.25 0.360025668755015
0.38794924737132 0.249624091299471 0.366666666666666
0.384151319854491 0.24036340550564 0.366666666666666
0.390620905597884 0.233411846795207 0.366666666666666
0.389200772971795 0.227220734831774 0.366666666666666
0.387930258758205 0.206656372396552 0.366666666666666
0.388130454868311 0.204583369494227 0.366666666666666
0.398190306145266 0.186047566870129 0.366666666666666
0.399639722564959 0.172538666512819 0.366666666666666
0.392041838104211 0.172796330423696 0.366666666666667
0.402114299277427 0.152973489209093 0.366666666666666
0.397648476303365 0.153446158009252 0.366666666666666
0.402933654226 0.129552797666946 0.366666666666666
0.397273488245839 0.127924114388682 0.366666666666667
0.403991292128521 0.125493649369179 0.366666666666666
0.408905717771224 0.104181466922493 0.366666666666666
0.406752453420551 0.091930643630747 0.366666666666666
0.41038509393961 0.0820176390734118 0.366666666666666
0.409332619332393 0.0778116278848805 0.366666666666666
0.41236766620054 0.0658561394822444 0.366666666666666
0.413978579024123 0.0491037627034765 0.366666666666666
0.415401713265045 0.0415080164973442 0.366666666666666
0.416106310814873 0.0345496080609964 0.366666666666666
0.4155787186612 0.0261957614438513 0.366666666666666
0.419876081850763 0.0029786881529811 0.366666666666666
0.417179256821189 -0.000456145734594725 0.366666666666666
0.416665231528442 -0.0117201589748661 0.366666666666667
0.420836165688547 -0.0265859860078573 0.366666666666666
0.425144579158361 -0.0399228589479339 0.366666666666666
0.426802593971029 -0.059469866938936 0.366666666666666
0.430976872767739 -0.0625361819695958 0.366666666666666
0.434700291341004 -0.0748473103362452 0.366666666666666
0.431664642480273 -0.0819280345360016 0.366666666666666
0.431534311647705 -0.0932855586491458 0.366666666666667
0.436895119381265 -0.104877630644272 0.366666666666666
0.441025947281814 -0.118615200080233 0.366666666666667
0.434500699024858 -0.136379757732912 0.366666666666666
0.444304235399461 -0.152393722977524 0.366666666666667
0.443654958070364 -0.158468169897268 0.366666666666666
0.44884849382857 -0.170950520549638 0.366666666666666
0.441128489735662 -0.184338534297898 0.366666666666666
0.446727049899203 -0.198639353520833 0.366666666666666
0.446995013667077 -0.213642313432615 0.366666666666666
0.449302523823318 -0.217618087422958 0.366666666666666
0.456065118099971 -0.237444487931726 0.366666666666666
0.450595096243456 -0.249839346097781 0.366666666666666
0.39123538381522 0.25 0.317383165276049
0.392323665720658 0.25 0.323860768539456
0.396682895223574 0.25 0.329548856621327
0.3965808265287 0.25 0.3412296713004
0.390257179551891 0.25 0.353948025153698
0.397108083433574 0.25 0.358098390808836
0.393171709015736 0.24534465431788 0.366666666666666
0.392921165356512 0.232256866689643 0.366666666666666
0.397255562728627 0.226214872810876 0.366666666666666
0.401407392798655 0.219344039424876 0.366666666666666
0.39716793349891 0.206459974846409 0.366666666666666
0.398555003490896 0.204711609552276 0.366666666666666
0.39862362400562 0.188617642922414 0.366666666666666
0.405778892938279 0.173751878130155 0.366666666666666
0.404359071491496 0.169570485162538 0.366666666666666
0.40939079224503 0.152576072228325 0.366666666666666
0.405729999467546 0.152790851752298 0.366666666666666
0.406349675999664 0.1368025109016 0.366666666666666
0.413888827607376 0.128852169472144 0.366666666666666
0.415377590320733 0.115855437375839 0.366666666666666
0.413740394805322 0.112375920509371 0.366666666666666
0.41734681972377 0.0942855593974032 0.366666666666666
0.420797243057142 0.093921877962844 0.366666666666666
0.422269630990593 0.0724596243421091 0.366666666666666
0.422925053108161 0.0561277698869122 0.366666666666666
0.424805405881598 0.054148980211507 0.366666666666666
0.425784533505078 0.0373852715482352 0.366666666666667
0.423811363820455 0.0319697173324453 0.366666666666666
0.430344124299155 0.0166591397953148 0.366666666666666
0.427664629710406 0.0136772140645682 0.366666666666666
0.431431562714858 -0.00556323572655733 0.366666666666666
0.433719976699816 -0.0076252290600953 0.366666666666667
0.428620542115794 -0.0197049648969807 0.366666666666667
0.439793058654048 -0.0479336223188861 0.366666666666666
0.436810193549236 -0.047078809859965 0.366666666666666
0.436366319897208 -0.0611671351110659 0.366666666666666
0.441362041904932 -0.0765437867602808 0.366666666666666
0.44672440081315 -0.0782652654373719 0.366666666666666
0.439835479913281 -0.0940322658943902 0.366666666666666
0.449772253155482 -0.108259133771626 0.366666666666666
0.444333516234439 -0.126822318003506 0.366666666666666
0.444586912768508 -0.134972421844617 0.366666666666666
0.454627765973847 -0.151733614543161 0.366666666666666
0.456881816054722 -0.152620103722244 0.366666666666666
0.451046338078549 -0.168975147781534 0.366666666666666
0.460852805163664 -0.190741270578306 0.366666666666666
0.461402963865399 -0.198850066112578 0.366666666666666
0.463149869270371 -0.216109925760378 0.366666666666667
0.463201261582308 -0.22085104703626 0.366666666666666
0.459763544219818 -0.24086382468032 0.366666666666666
0.463647179475915 -0.244287002972035 0.366666666666666
0.400742563020432 0.25 0.329963916081056
0.400569889919151 0.25 0.332253808739992
0.405130354701905 0.25 0.337896022569537
0.403780114645155 0.249999999999999 0.348513433315237
0.40280524867962 0.25 0.357799473187817
0.405103130845506 0.25 0.3626378336542
0.405474169641869 0.238902267975186 0.366666666666666
0.408758403896714 0.228926453151063 0.366666666666667
0.40337599473074 0.222775878720326 0.366666666666666
0.406532962931659 0.212226190142069 0.366666666666666
0.414154413922506 0.199413507524155 0.366666666666666
0.414356821410501 0.190269592534568 0.366666666666666
0.413979176735338 0.187692198265684 0.366666666666666
0.41255082694358 0.173248013733374 0.366666666666666
0.412369268522046 0.16193566098072 0.366666666666666
0.414784959212832 0.151018835127827 0.366666666666666
0.423544722780276 0.140007881038245 0.366666666666666
0.417688631753834 0.135752548220305 0.366666666666666
0.420329103486133 0.116249347499098 0.366666666666666
0.429165328194814 0.106438459220589 0.366666666666666
0.427658946486892 0.0964704562575449 0.366666666666666
0.428667078544178 0.0885208121586352 0.366666666666666
0.432224321684219 0.0762262656812465 0.366666666666666
0.427840325312676 0.0615968695683022 0.366666666666666
0.427450048919815 0.0559883910310842 0.366666666666666
0.431409361254183 0.043966704241623 0.366666666666666
0.433459135374613 0.0361011652061044 0.366666666666666
0.435567230602266 0.0193940799762013 0.366666666666666
0.443530029595453 0.003221829863888 0.366666666666666
0.443123846933203 -0.00489790530098547 0.366666666666666
0.43902283525346 -0.00755916201884633 0.366666666666666
0.444042520991104 -0.0297212713871925 0.366666666666666
0.440369017963637 -0.0354963799767192 0.366666666666666
0.450836493829666 -0.0406022352190382 0.366666666666666
0.451285439210666 -0.0616802218308037 0.366666666666666
0.452403368224509 -0.0776377492345462 0.366666666666666
0.452921099649627 -0.0930711414015802 0.366666666666666
0.454722933450916 -0.105351394350906 0.366666666666666
0.453089683114817 -0.10741224999131 0.366666666666666
0.453921530520232 -0.11722439035666 0.366666666666666
0.465132214322516 -0.136256725106627 0.366666666666666
0.459144791106827 -0.137109663897014 0.366666666666666
0.459670032311131 -0.162526210858198 0.366666666666666
0.464472939374092 -0.177966443507533 0.366666666666666
0.471445391010238 -0.180126905063341 0.366666666666666
0.46476264183227 -0.200168622150259 0.366666666666666
0.470288486113055 -0.202562196421225 0.366666666666667
0.472142984388042 -0.230701362373159 0.366666666666667
0.478176886051746 -0.231922497144418 0.366666666666666
0.416873014801767 0.25 0.316713539520045
0.413328723072787 0.25 0.336825215590215
0.407865786858355 0.25 0.344529149347091
0.412689315395596 0.25 0.356848043152346
0.408381929944412 0.25 0.357423394395197
0.414544547900723 0.248666844637425 0.366666666666666
0.413984310281635 0.235395840341265 0.366666666666667
0.419142266562973 0.225137667659378 0.366666666666666
0.414174552304942 0.22020410433063 0.366666666666667
0.420666208943276 0.204465445965631 0.366666666666666
0.425104093308462 0.192098648308293 0.366666666666666
0.419355349366821 0.186838578460541 0.366666666666666
0.422090193208732 0.179317153690414 0.366666666666666
0.426669991497005 0.17092917946193 0.366666666666666
0.429639888389809 0.152891307924553 0.366666666666666
0.429510673600462 0.154004014889604 0.366666666666667
0.431694246769068 0.140026852556252 0.366666666666666
0.43339497911417 0.131803259277228 0.366666666666666
0.432574939365841 0.112681768717619 0.366666666666666
0.436193740826939 0.101218578952449 0.366666666666666
0.436978083949583 0.101202753820001 0.366666666666666
0.437833463850652 0.0917644904627632 0.366666666666666
0.440380892441988 0.0712156409017399 0.366666666666666
0.439411477407056 0.0643668537414284 0.366666666666667
0.440357218168066 0.0493473491074636 0.366666666666666
0.442382336155349 0.0351952446544353 0.366666666666667
0.446360192386469 0.0274865331749064 0.366666666666666
0.450443067140296 0.0167577713845919 0.366666666666666
0.450343308294725 0.00599118022198251 0.366666666666666
0.452534180649886 -0.0075066567985272 0.366666666666666
0.447678627338727 -0.0119132345510762 0.366666666666666
0.458193239066194 -0.0258608463641947 0.366666666666666
0.460407535401696 -0.0358343450703769 0.366666666666666
0.459580804947901 -0.0439035129251343 0.366666666666666
0.462544062111501 -0.059448571812245 0.366666666666666
0.455221876648871 -0.0630352858792269 0.366666666666666
0.464261873017193 -0.0876043051010693 0.366666666666666
0.466499402934811 -0.0914525586478179 0.366666666666666
0.468177850304061 -0.108089700475247 0.366666666666666
0.467801144544258 -0.128189906529349 0.366666666666667
0.471215599415517 -0.139069323196692 0.366666666666667
0.468487928409857 -0.147116104001265 0.366666666666666
0.475877461344117 -0.162548722976316 0.366666666666667
0.476500184927708 -0.172213739812835 0.366666666666666
0.475756285505878 -0.18217557896257 0.366666666666666
0.481283450607483 -0.197700331842667 0.366666666666666
0.478222925477098 -0.218552270077057 0.366666666666666
0.480442427144103 -0.225168350190042 0.366666666666666
0.482466470010877 -0.238261807593635 0.366666666666666
0.49215796720322 -0.248856957530161 0.366666666666667
0.423421242289599 0.25 0.324722544780084
0.426398393835278 0.25 0.331010601056643
0.416443573429297 0.249999999999999 0.346547383525471
0.424853379354321 0.25 0.347490605779682
0.419474142782355 0.25 0.359824872390002
0.418486295238363 0.249999999999999 0.364423799851015
0.423879631332144 0.240687165820346 0.366666666666667
0.429338848819897 0.228694911685779 0.366666666666666
0.425569760245347 0.212668835031821 0.366666666666666
0.43269294598972 0.205921132471586 0.366666666666666
0.432554293919312 0.200098713187784 0.366666666666666
0.432855218979247 0.184416939029395 0.366666666666666
0.428541039187568 0.173807996687415 0.366666666666667
0.438010425340377 0.16680575482772 0.366666666666666
0.433384718762055 0.158673707157455 0.366666666666666
0.435146953375116 0.145583846190593 0.366666666666666
0.442907501381857 0.138273259370401 0.366666666666666
0.44211905008399 0.1239059729554 0.366666666666667
0.444453028606004 0.116425914297661 0.366666666666667
0.445858266168819 0.102135612173991 0.366666666666666
0.447010070317522 0.0939994433418194 0.366666666666666
0.449796850359853 0.0855101875390867 0.366666666666666
0.446651753550991 0.0765131550105332 0.366666666666666
0.452151564188399 0.0609346211172106 0.366666666666666
0.448406544268781 0.0557745611722316 0.366666666666666
0.456382674747232 0.0396359224888949 0.366666666666666
0.456472075877684 0.0309314787384855 0.366666666666666
0.459312354023963 0.0209925422886722 0.366666666666666
0.464024423249872 0.000681323493909463 0.366666666666666
0.457623325585346 0.000477418725608265 0.366666666666666
0.462473677622496 -0.0231567373900092 0.366666666666666
0.46130556531812 -0.035776157166626 0.366666666666666
0.461856269124388 -0.0443179651241398 0.366666666666666
0.472486283879133 -0.0492632592303174 0.366666666666666
0.46572785521668 -0.0677412625237538 0.366666666666666
0.471784117343493 -0.0746685122392477 0.366666666666667
0.471059946834589 -0.0908063554048448 0.366666666666666
0.472403111692355 -0.104466734902472 0.366666666666667
0.477865840945522 -0.110035381531685 0.366666666666666
0.474227116423367 -0.122105131029921 0.366666666666666
0.484463308753385 -0.129357697872572 0.366666666666666
0.479817791697181 -0.143154000794197 0.366666666666666
0.480850614759583 -0.157326088521649 0.366666666666666
0.483521782916167 -0.169327790298337 0.366666666666666
0.485042600250604 -0.192166624994033 0.366666666666666
0.485093641415896 -0.197171363212518 0.366666666666666
0.493976247922954 -0.205486300610121 0.366666666666666
0.495760908473708 -0.215746468139256 0.366666666666666
0.498557645537358 -0.237355966140097 0.366666666666666
0.494054443327293 -0.243705180039316 0.366666666666666
0.426478123057689 0.249999999999999 0.328108600676635
0.433251944746454 0.25 0.339934165320443
0.43422765577011 0.25 0.336888860732032
0.429160138584245 0.25 0.350086387595216
0.432118932594859 0.249999999999999 0.357335392806463
0.436367026243823 0.242644370158588 0.366666666666666
0.435179658204683 0.24289710543262 0.366666666666666
0.437603360652884 0.232664114361705 0.366666666666666
0.438135077932316 0.222316989462841 0.366666666666666
0.434033039365788 0.20250625771781 0.366666666666667
0.44125299041427 0.201760884191059 0.366666666666667
0.440377063288077 0.192187718278065 0.366666666666667
0.445698136822788 0.176190807780692 0.366666666666666
0.445174861755955 0.174178783098351 0.366666666666666
0.443112831771156 0.155600425791591 0.366666666666667
0.45125891795158 0.15116138691989 0.366666666666666
0.449454152938855 0.13033870974067 0.366666666666666
0.455351578473044 0.122798208977129 0.366666666666667
0.455503877823395 0.115431409943855 0.366666666666666
0.45201536244946 0.115267406016169 0.366666666666666
0.458426607336468 0.0956067917492754 0.366666666666666
0.459177391036508 0.0930033276876453 0.366666666666666
0.459561941816535 0.0795206175989125 0.366666666666666
0.458676052224987 0.0634582842190768 0.366666666666666
0.465706117845477 0.0548671799061643 0.366666666666666
0.461936456441071 0.0378837425014403 0.366666666666666
0.461807015068513 0.0295654503938842 0.366666666666666
0.462731493182213 0.0117233080767201 0.366666666666666
0.469285641016108 0.00673045936430269 0.366666666666666
0.465329928271938 -0.00337065010037133 0.366666666666666
0.470050565795347 -0.0194110479346596 0.366666666666666
0.472439879179727 -0.0284478195041288 0.366666666666666
0.479227458650887 -0.0311568101418954 0.366666666666666
0.475906880457744 -0.0481585320886797 0.366666666666667
0.485682338011987 -0.0723177843102534 0.366666666666666
0.479115966241967 -0.0756331201050744 0.366666666666666
0.47988003059499 -0.0933283988957514 0.366666666666666
0.489783527035158 -0.0900262554631994 0.366666666666666
0.481613082801798 -0.106186140620134 0.366666666666666
0.487486011203343 -0.122525891338564 0.366666666666666
0.48951307609037 -0.140250957273583 0.366666666666666
0.490954972938718 -0.1535350033826 0.366666666666666
0.493149011629731 -0.159028999672222 0.366666666666666
0.494763607297022 -0.172260042740707 0.366666666666666
0.498684666219625 -0.186110685901456 0.366666666666667
0.45 0.213812306076216 0.257713955965912
0.45 0.212956787036866 0.278803122053488
0.437562562987772 0.25 0.323106129143901
0.438016445567868 0.25 0.341410188989151
0.440668713054072 0.249999999999999 0.340235690702599
0.436197202600014 0.25 0.346110031276479
0.437584456740657 0.25 0.357792292650295
0.445345189908746 0.247335335162971 0.366666666666666
0.440185079899095 0.24037090503358 0.366666666666666
0.442765143550885 0.221908081343425 0.366666666666666
0.443745083696269 0.221748902212252 0.366666666666667
0.448668233383677 0.201142558195787 0.366666666666666
0.452916516055579 0.192849001553024 0.366666666666667
0.450681014462747 0.195004935658882 0.366666666666666
0.453887812706657 0.176306941763581 0.366666666666666
0.452420514325582 0.162550321840191 0.366666666666666
0.4547672139152 0.153529070171776 0.366666666666666
0.454891936232777 0.150250235398425 0.366666666666666
0.456246862996647 0.141882343444114 0.366666666666666
0.458643919469887 0.125061979585001 0.366666666666666
0.456455601833521 0.11729063234585 0.366666666666666
0.466826733249935 0.104133280926033 0.366666666666666
0.460550898419374 0.104367221990944 0.366666666666666
0.462050266261984 0.0838800766955139 0.366666666666666
0.465866459480509 0.0785965073875763 0.366666666666666
0.471941564529713 0.0643410626062647 0.366666666666666
0.468489687967749 0.0468700944475173 0.366666666666666
0.477026937179369 0.0403420715063547 0.366666666666667
0.472016114840596 0.0324276140080431 0.366666666666666
0.474399182372923 0.0130325743814224 0.366666666666666
0.479905168573834 -0.00190666717612894 0.366666666666667
0.477144646542863 -0.000500876171443298 0.366666666666666
0.485543687764373 -0.0222179183802657 0.366666666666666
0.481345960347713 -0.0301329443572278 0.366666666666666
0.48343283972723 -0.0347315515871695 0.366666666666667
0.486520917767909 -0.0418592879676623 0.366666666666666
0.487442457642924 -0.0612626216597507 0.366666666666666
0.489641621362653 -0.0809301345752853 0.366666666666666
0.496317752032728 -0.0830401253070538 0.366666666666666
0.496796551252072 -0.0960503494070908 0.366666666666666
0.499726088251597 -0.103640699713362 0.366666666666666
0.499161374279833 -0.121838798272094 0.366666666666666
0.499982865420902 -0.156369632143032 0.366666666666666
0.450488624967 0.25 0.241555184484826
0.45 0.246795214085587 0.243834113862231
0.45 0.249463842706182 0.256147696945256
0.45 0.214055087136163 0.241200347232338
0.450269137645128 0.25 0.274488668239265
0.45 0.220879748648189 0.261947965201094
0.453933906848789 0.25 0.291982273235221
0.452665481686356 0.25 0.300112892095992
0.450857807209599 0.25 0.316466491865159
0.4516575693108 0.25 0.329006840523177
0.445227748875644 0.25 0.326232965773485
0.451519224192914 0.25 0.344199648920946
0.452455288112995 0.25 0.350435465472793
0.448700517311246 0.25 0.353982193609372
0.444649387142598 0.249914774690042 0.366666666666666
0.448747947528606 0.235454112655736 0.366666666666666
0.448137144091579 0.233629452139601 0.366666666666666
0.455486025750668 0.22186600486356 0.366666666666666
0.456010377043581 0.209266366789568 0.366666666666666
0.461012648027902 0.201522769474274 0.366666666666666
0.461548188827282 0.184704120807044 0.366666666666666
0.46222015773822 0.18160225178559 0.366666666666666
0.458196306587458 0.173257821108955 0.366666666666667
0.463906542496658 0.161617184991072 0.366666666666666
0.461179259992659 0.148140895962017 0.366666666666667
0.466910557250213 0.134521378560103 0.366666666666666
0.469157331252561 0.128682066426059 0.366666666666666
0.471699223310028 0.115168273810147 0.366666666666666
0.472480432485423 0.111702740390617 0.366666666666666
0.473329064698217 0.0958191489777415 0.366666666666666
0.472986554342297 0.0848470314438925 0.366666666666666
0.472295980974045 0.0787007463578927 0.366666666666666
0.474782910862548 0.0717505404177078 0.366666666666666
0.48112207164053 0.0558465033701744 0.366666666666666
0.478848455589376 0.0358755624712381 0.366666666666667
0.486547951753834 0.0270796054187505 0.366666666666666
0.48842890885204 0.0187524679307609 0.366666666666666
0.489951010466422 0.0111586931053441 0.366666666666666
0.491838462623413 -0.00465434233394174 0.366666666666667
0.495209229308517 -0.0222312601265444 0.366666666666666
0.492564339161331 -0.0314951215386433 0.366666666666666
0.496806047620511 -0.0382449457196581 0.366666666666666
0.495767854576433 -0.0581612826465645 0.366666666666666
0.499149561852673 -0.0702932657423898 0.366666666666666
0.456808057806786 0.249999999999999 0.246323959038647
0.458148322500441 0.25 0.252464325653236
0.458608496764068 0.249999999999999 0.258480732189569
0.462213445262603 0.25 0.268332668499711
0.463270356502534 0.25 0.272225285876011
0.461294667584761 0.25 0.287904841269495
0.456820219794626 0.25 0.293254953703808
0.456735479767362 0.25 0.30219541760683
0.461393510110924 0.25 0.313078940834009
0.457985585622092 0.249999999999999 0.315945419223516
0.460450224973619 0.25 0.335890028360971
0.461270938488613 0.25 0.343942662192621
0.462696170929454 0.25 0.34495255787656
0.454792409149686 0.25 0.365032397130526
0.455204520295182 0.249999999999999 0.362453359600592
0.459969523259953 0.236401545064212 0.366666666666667
0.464205114742155 0.230371315099666 0.366666666666666
0.459745012867785 0.218922086525613 0.366666666666667
0.470300608387389 0.204793695372315 0.366666666666666
0.462142078062378 0.198933475049115 0.366666666666666
0.470042518253711 0.181426166769231 0.366666666666667
0.470429626488789 0.186091363830776 0.366666666666666
0.472133855693333 0.170099680147902 0.366666666666666
0.470572263694423 0.157482683875921 0.366666666666666
0.472388337607126 0.147052755913364 0.366666666666666
0.480152976910733 0.135686098230478 0.366666666666667
0.474812185512146 0.13004043841658 0.366666666666666
0.485970035571195 0.106694413807705 0.366666666666666
0.483084452289572 0.106251123922317 0.366666666666666
0.483737979549929 0.0923261708090111 0.366666666666666
0.49014093251774 0.0813624712162477 0.366666666666666
0.485944450426291 0.0778756064054686 0.366666666666666
0.492508654454538 0.0694545361316753 0.366666666666666
0.487603988379306 0.0559717543997375 0.366666666666666
0.497340502491552 0.039414369786661 0.366666666666666
0.490429009683539 0.0270897217043361 0.366666666666667
0.498280131309479 -0.00807763329173784 0.366666666666666
0.468708639139836 0.25 0.233380027546487
0.470158334720883 0.25 0.255645697886137
0.471864697978047 0.25 0.25421124446327
0.471304105942857 0.25 0.264548025720025
0.470835913786262 0.25 0.278745877297756
0.46732551658854 0.25 0.290065151640288
0.467830024158673 0.25 0.298761664226343
0.466651089582122 0.25 0.305479744816275
0.466573984392677 0.25 0.319664041694644
0.472211218005862 0.249999999999999 0.316425949819361
0.468304130016604 0.25 0.326426689238488
0.462803064612006 0.25 0.345074537768365
0.466659725916028 0.25 0.358268181416214
0.470124288425162 0.25 0.356653867916455
0.465690693880997 0.248630833148516 0.366666666666667
0.469669774075734 0.239804244054268 0.366666666666666
0.471077740780482 0.227247944331031 0.366666666666666
0.477090326730071 0.22179413255677 0.366666666666666
0.473677726215755 0.207040464552379 0.366666666666666
0.471646251760259 0.200505412607842 0.366666666666666
0.475764722943648 0.191052678666647 0.366666666666666
0.482855791515382 0.178430446647534 0.366666666666666
0.477404827964215 0.163841240336322 0.366666666666667
0.479099734023231 0.156139390762615 0.366666666666666
0.48255458543595 0.145643455170118 0.366666666666666
0.489015620196556 0.132838577850346 0.366666666666666
0.489164870177409 0.126538035214267 0.366666666666666
0.494253153366828 0.115683288192969 0.366666666666666
0.487976485974517 0.102814655329936 0.366666666666667
0.496651263457267 0.0938865055360416 0.366666666666666
0.492216113541041 0.0820238004193014 0.366666666666666
0.496263338603709 0.0614373778346726 0.366666666666666
0.476177827968252 0.25 0.237546469089992
0.474331383817792 0.25 0.249504754543847
0.477457170704136 0.25 0.255687746609635
0.475077992906924 0.25 0.271867080963535
0.47755898140735 0.25 0.277876206866462
0.481340262690997 0.25 0.280807214101114
0.475846032890096 0.25 0.293387499862526
0.473349696335663 0.25 0.308327540335146
0.472829606547206 0.25 0.312616549763006
0.477653028963796 0.249999999999999 0.328264474660016
0.478955474726452 0.25 0.326821081386681
0.47324446289281 0.25 0.340432334508056
0.478817588068807 0.25 0.345149463828729
0.482039353379981 0.25 0.353666929555574
0.473487077572947 0.240694173450852 0.366666666666666
0.475741453338982 0.238223773357392 0.366666666666666
0.485436190570871 0.228638858860155 0.366666666666666
0.48141606565302 0.218120797670483 0.366666666666667
0.482879236558619 0.208865650225108 0.366666666666666
0.48366773965162 0.196088768734645 0.366666666666666
0.491159537521825 0.185815931568355 0.366666666666666
0.484992617965049 0.174357832716787 0.366666666666666
0.49122923261113 0.170162230901988 0.366666666666666
0.494746148668243 0.164183992326301 0.366666666666666
0.492954820335513 0.150674434606005 0.366666666666666
0.49843135340993 0.142304034236304 0.366666666666667
0.498105473891928 0.122553882738198 0.366666666666666
0.499784213656737 0.0957126974602152 0.366666666666667
0.488838130593496 0.25 0.234927329801008
0.486932914877451 0.25 0.255308395308724
0.487232803475756 0.25 0.254880611618733
0.481638234271575 0.25 0.268259968009451
0.484957648939908 0.25 0.284309272715133
0.485179864646243 0.249999999999999 0.287940261901006
0.487066455370609 0.25 0.296382740458164
0.488317922015184 0.25 0.299951118409576
0.489009933496783 0.25 0.31939032657692
0.481883434479777 0.25 0.324937234591132
0.488085464167579 0.249999999999999 0.331667008357203
0.486485807673993 0.25 0.342480573962736
0.485605444043345 0.25 0.34307401520338
0.48400854408836 0.25 0.358068582881309
0.482933220252474 0.248870650835681 0.366666666666666
0.491398449847999 0.242387161954267 0.366666666666666
0.493324483891287 0.220914163913459 0.366666666666666
0.493057955730534 0.225033042711043 0.366666666666666
0.495249807071349 0.21311158396201 0.366666666666666
0.490695666855775 0.199289125856445 0.366666666666666
0.498777044751636 0.195931352779818 0.366666666666666
0.494314199801103 0.174161923447651 0.366666666666666
0.498328621205702 0.154383439173438 0.366666666666666
0.49621876612499 0.25 0.238537146712036
0.491409608111015 0.249999999999999 0.251137114328434
0.498685795317147 0.25 0.26738895994544
0.491745895253098 0.249999999999999 0.268340737694101
0.49876670412395 0.25 0.284441661769104
0.495054763884951 0.25 0.281335009964264
0.490181090277293 0.25 0.302935119915191
0.492656392970436 0.25 0.298810803684477
0.5 0.25 0.308393901743142
0.493445116952866 0.25 0.318010088993315
0.492362493679755 0.25 0.334727891480969
0.490505561651963 0.25 0.343676738055626
0.494588600839487 0.25 0.356241272453307
0.494891090287338 0.25 0.352106573193844
0.495986803276159 0.245535651768718 0.366666666666666
0.497357665534299 0.243706818717332 0.366666666666666
0.493968501215785 0.236689914214189 0.366666666666666
0.496192688435334 0.220270099275528 0.366666666666666
0.497613727219542 0.206516036268406 0.366666666666666
0.499083101360816 0.20173541504702 0.366666666666666
0.499952496748841 0.25 0.319735746112414
-0.5 -0.242695442134878 0.164419812820211
-0.5 -0.244481958437527 0.183174232865132
-0.5 -0.24865523949834 0.191888094429426
-0.5 -0.248488408113207 0.193615156805291
-0.5 -0.241513624245701 0.217019986712431
-0.5 -0.243097621411173 0.223625132853496
-0.5 -0.245792167318559 0.217725133274716
-0.5 -0.239960485432813 0.239549504990198
-0.5 -0.248402814539014 0.239486837424033
-0.5 -0.249664833433179 0.25152433086914
-0.5 -0.244663589675727 0.279490097859004
-0.5 -0.240192798333964 0.291148570505515
-0.5 -0.239631656881919 0.296635166861981
-0.5 -0.248279767988288 0.303944678257535
-0.5 -0.242512644544453 0.31391032497735
-0.5 -0.243516723165376 0.323075017516708
-0.5 -0.244322944015037 0.327070532359496
-0.5 -0.244695867554615 0.340796856492974
-0.5 -0.239144498224723 0.359961640251308
-0.5 -0.242729564904035 0.362630846389526
-0.497895159489191 -0.249172043073546 0.366666666666666
-0.5 -0.223173337367046 0.192597714806908
-0.5 -0.230868797539527 0.19632323851849
-0.5 -0.226830657049496 0.206416558777197
-0.5 -0.231974235021861 0.209617876623856
-0.5 -0.221506174852762 0.228145508119808
-0.5 -0.228254896349882 0.236191682497081
-0.5 -0.229007387377135 0.236941145142638
-0.5 -0.219950523743614 0.255967989121409
-0.5 -0.237287480714637 0.256916831139694
-0.5 -0.225665515971828 0.272817001653313
-0.5 -0.224394326114162 0.278316195579338
-0.5 -0.223272171602315 0.294942670632816
-0.5 -0.218722368852768 0.30555670242061
-0.5 -0.228102950180545 0.30452870322899
-0.5 -0.225656746610325 0.312732992618207
-0.5 -0.226978086245598 0.322677127075153
-0.5 -0.234490128455808 0.321563694930689
-0.5 -0.229519786456528 0.339518414722901
-0.5 -0.220159544953603 0.362363567164057
-0.5 -0.225595801975401 0.361213010918412
-0.498101604302566 -0.228695259620708 0.366666666666666
-0.494370544636747 -0.238992409239304 0.366666666666666
-0.488364439023283 -0.244639752223511 0.366666666666666
-0.5 -0.203791688911176 0.203004414751845
-0.5 -0.217975383683714 0.198638019823747
-0.5 -0.219169822264334 0.210434669630828
-0.5 -0.21915178295195 0.21681235287499
-0.5 -0.216399396016115 0.2279138800247
-0.5 -0.209567701789409 0.241072173776462
-0.5 -0.208930932142539 0.254453763155426
-0.5 -0.208551219567756 0.260476416592072
-0.5 -0.211360929862057 0.271292201778678
-0.5 -0.211464352969647 0.288158189258529
-0.5 -0.211485613691323 0.290818948593875
-0.5 -0.217439913268034 0.291645775705882
-0.5 -0.208777579488177 0.308522571915125
-0.5 -0.204912577749979 0.323078070600601
-0.5 -0.200826854251213 0.332705534590327
-0.5 -0.205811124732882 0.340394367404193
-0.5 -0.209318978830771 0.347348362199583
-0.5 -0.214289650712645 0.351152923526429
-0.5 -0.222579096330178 0.35327228505329
-0.5 -0.214927974469948 0.366691148889138
-0.493521731786024 -0.224869065040347 0.366666666666666
-0.492014185977062 -0.226191733897593 0.366666666666667
-0.480662586838714 -0.249168345531878 0.366666666666666
-0.472017469250752 -0.244169809682707 0.366666666666667
-0.493546439854263 -0.2 0.200081906960811
-0.495357084343691 -0.2 0.21387158550437
-0.5 -0.201270148951046 0.21568840990661
-0.5 -0.201980580268806 0.228189730070921
-0.497894077157647 -0.2 0.237694992642429
-0.493476108086474 -0.2 0.245231417176808
-0.498282664325183 -0.2 0.258038012037063
-0.493444660287885 -0.2 0.265702599146941
-0.495285336088277 -0.2 0.269762992518747
-0.5 -0.202408764364646 0.288504972570673
-0.494682210601781 -0.2 0.294713834952455
-0.497817523120274 -0.2 0.307645039788931
-0.5 -0.194318166480105 0.323760957304358
-0.5 -0.19328047658066 0.326589507261549
-0.5 -0.186776279864058 0.341822397379928
-0.5 -0.202623268303401 0.335188227962088
-0.5 -0.194890739626845 0.363474426970172
-0.497054531742141 -0.189553770553556 0.366666666666666
-0.490468274663502 -0.202399800661909 0.366666666666667
-0.486051244367418 -0.210288901060422 0.366666666666666
-0.478401594785874 -0.216931226725411 0.366666666666666
-0.477551778428033 -0.224661248354599 0.366666666666666
-0.473343652401369 -0.229988758898851 0.366666666666666
-0.46775932769438 -0.238864205881606 0.366666666666667
-0.485710857398331 -0.2 0.196669510187234
-0.483314271409705 -0.2 0.207851294680253
-0.490927764922471 -0.2 0.214752652917523
-0.480281708455251 -0.2 0.219249694831153
-0.484078782000662 -0.200000000000001 0.225301983180073
-0.488348833377735 -0.2 0.24701692620031
-0.483254906011969 -0.2 0.248558657931847
-0.487587524080936 -0.200000000000001 0.264224647080632
-0.485778582295047 -0.2 0.264139229508653
-0.485665573444051 -0.2 0.278872661190876
-0.48547417067378 -0.2 0.281590581576756
-0.489066820037563 -0.200000000000001 0.296525673627858
-0.5 -0.177890145272165 0.321454008804658
-0.5 -0.173832688390581 0.34163174276086
-0.5 -0.177456302941438 0.34906632455785
-0.5 -0.18603842227856 0.344926521685335
-0.497347979931874 -0.176913515066304 0.366666666666666
-0.49831463990972 -0.183881114122709 0.366666666666667
-0.490560457038099 -0.194503082828991 0.366666666666666
-0.485715953180932 -0.204441743574876 0.366666666666666
-0.473162480558956 -0.216479184084252 0.366666666666666
-0.476017879171281 -0.21490178467785 0.366666666666667
-0.468466475217359 -0.232154554981807 0.366666666666666
-0.46557186134057 -0.235195150778275 0.366666666666666
-0.4536622393394 -0.246615462077517 0.366666666666666
-0.473322024745798 -0.2 0.190735157434944
-0.473096863828518 -0.2 0.189637701801022
-0.473618201364882 -0.2 0.201324685684462
-0.479890666732467 -0.200000000000001 0.210906344036731
-0.472436953508452 -0.200000000000001 0.222791572447804
-0.479348423916604 -0.2 0.229744654317677
-0.480959741507274 -0.200000000000001 0.246597385482601
-0.476608029318211 -0.2 0.244106444997885
-0.467584509553516 -0.200000000000001 0.254645972679069
-0.47341711256042 -0.2 0.260630099422347
-0.479590794036515 -0.2 0.278456317806248
-0.5 -0.159829888878381 0.33461960606331
-0.5 -0.157598016402163 0.337648108889748
-0.5 -0.169685301385031 0.337767697230216
-0.5 -0.160066775246279 0.355439627255639
-0.5 -0.164656652448574 0.359905771407405
-0.495117913233995 -0.170328868634917 0.366666666666667
-0.482500727226188 -0.179881344153541 0.366666666666666
-0.485211921628062 -0.188086850563657 0.366666666666666
-0.476739319879164 -0.195995187277312 0.366666666666666
-0.468431377514509 -0.207393391326274 0.366666666666666
-0.468040774202474 -0.211188841636302 0.366666666666666
-0.460551161872957 -0.217985571695876 0.366666666666666
-0.450675610445228 -0.231740506562531 0.366666666666666
-0.442417199319353 -0.246099899858084 0.366666666666667
-0.441235197166495 -0.244003363607846 0.366666666666666
-0.467484269204039 -0.2 0.181005477873374
-0.457343143421545 -0.200000000000001 0.179607039530872
-0.459602897581184 -0.2 0.198718106188901
-0.461208941131812 -0.2 0.197049597720198
-0.465707670815085 -0.2 0.212676282742239
-0.459944300385737 -0.2 0.227783249762204
-0.461024392714519 -0.200000000000001 0.2324718784625
-0.464949030916632 -0.2 0.24766291729728
-0.462408065873055 -0.200000000000001 0.252080253250985
-0.5 -0.146188727818613 0.324303966296812
-0.5 -0.145259887734384 0.331004469495992
-0.5 -0.156812740259915 0.331061760649534
-0.5 -0.148749286284854 0.350296449254481
-0.5 -0.150257122540628 0.359738156659976
-0.498391250866465 -0.147461261136141 0.366666666666666
-0.488692489527308 -0.160064891162455 0.366666666666667
-0.484679999765179 -0.171226101267296 0.366666666666667
-0.483947285660393 -0.17435810299924 0.366666666666666
-0.476248195031353 -0.174061793366235 0.366666666666666
-0.475081740614927 -0.189987204849918 0.366666666666666
-0.465231037112279 -0.204847809222272 0.366666666666666
-0.456547242006007 -0.210013030130524 0.366666666666666
-0.44815786338182 -0.217963081732025 0.366666666666666
-0.449213107711673 -0.220586189109737 0.366666666666666
-0.439265448760823 -0.228851079336075 0.366666666666666
-0.427553733881892 -0.243016205431589 0.366666666666666
-0.455374437758254 -0.2 0.168265593697564
-0.450069564611534 -0.200000000000001 0.183511358794236
-0.451400682565708 -0.2 0.192683199356295
-0.451247790875162 -0.2 0.199389910462037
-0.454195511019171 -0.2 0.214570297915553
-0.5 -0.135920775633622 0.317814618380497
-0.5 -0.135857562919152 0.320567346471519
-0.5 -0.133910557394795 0.33676340433256
-0.5 -0.131603934527657 0.336779552843726
-0.5 -0.138024818751172 0.341594603852536
-0.5 -0.125986783916885 0.364267037348204
-0.498306814693303 -0.14107299577559 0.366666666666666
-0.491570707413262 -0.147187389020573 0.366666666666666
-0.483215219214042 -0.149825961117336 0.366666666666667
-0.477527146913963 -0.165596933606707 0.366666666666666
-0.480033547101323 -0.159784948715185 0.366666666666666
-0.469572660126824 -0.176325152028941 0.366666666666666
-0.461362754098836 -0.191431873131756 0.366666666666667
-0.452984800181467 -0.189440311162374 0.366666666666666
-0.452229559688208 -0.195677218277075 0.366666666666666
-0.44814147432249 -0.209527759548412 0.366666666666667
-0.435207922195219 -0.222094758274952 0.366666666666666
-0.431794678100609 -0.23141488196731 0.366666666666666
-0.428903675906702 -0.228478489658591 0.366666666666666
-0.418581738259685 -0.245147127353393 0.366666666666666
-0.5 -0.113898994219385 0.325050496124004
-0.5 -0.122170535756659 0.3318978144258
-0.5 -0.111561776093261 0.350612530692379
-0.5 -0.124579820973586 0.350393930770914
-0.5 -0.115919743342983 0.365275041346505
-0.49201580590475 -0.126270662629154 0.366666666666666
-0.486688114351914 -0.134416359686452 0.366666666666666
-0.4855609705642 -0.132637521237054 0.366666666666666
-0.477665203037403 -0.144433148320305 0.366666666666666
-0.476174515668771 -0.158033364072265 0.366666666666667
-0.467901721254723 -0.154597271233127 0.366666666666666
-0.463173219116389 -0.173071638348724 0.366666666666666
-0.453247836591291 -0.178205624744068 0.366666666666667
-0.455406996700074 -0.183570935613748 0.366666666666666
-0.447558200136219 -0.187338139311695 0.366666666666666
-0.439224424942603 -0.205954683341441 0.366666666666666
-0.432234808463739 -0.210522245562072 0.366666666666666
-0.425820940886933 -0.221930193104477 0.366666666666666
-0.420622587429452 -0.226675060469246 0.366666666666667
-0.411117210315995 -0.236647081522365 0.366666666666667
-0.412111118045696 -0.239726065652475 0.366666666666666
-0.402206356393012 -0.244249189808118 0.366666666666666
-0.5 -0.0998564300988512 0.319160719693706
-0.5 -0.10568933944595 0.325152483249697
-0.5 -0.103134943679008 0.33373843226472
-0.5 -0.0992454196232732 0.348760925929291
-0.5 -0.101749906177453 0.355909891883764
-0.499601576041133 -0.0934537583982614 0.366666666666666
-0.494649727204732 -0.107740630815881 0.366666666666666
-0.496198602873717 -0.116737599752641 0.366666666666666
-0.485815811652275 -0.123500827826225 0.366666666666666
-0.475033204472847 -0.136007619745555 0.366666666666666
-0.476117290964995 -0.135245120672378 0.366666666666666
-0.472388454786612 -0.141901318559507 0.366666666666666
-0.466189593831468 -0.158451096201069 0.366666666666667
-0.463041801044295 -0.158119671253428 0.366666666666666
-0.448412016712963 -0.166473133536786 0.366666666666666
-0.442844454255401 -0.177453218962981 0.366666666666667
-0.43964080372316 -0.189297606152873 0.366666666666666
-0.434162078473634 -0.199877155184504 0.366666666666666
-0.431571347530774 -0.202545453453306 0.366666666666666
-0.420590216553911 -0.205860922715847 0.366666666666666
-0.420311388601744 -0.218626063479765 0.366666666666666
-0.405574327094362 -0.232539456224987 0.366666666666666
-0.402317925027828 -0.239563830951781 0.366666666666667
-0.397188131880918 -0.238460579449693 0.366666666666666
-0.5 -0.0901382058647238 0.329021162133283
-0.5 -0.0856939904271971 0.338940317430132
-0.5 -0.0910799685446179 0.348670669259815
-0.5 -0.0834474958984459 0.36308933812558
-0.5 -0.0872462328417898 0.360838193130613
-0.494646653286082 -0.085717259622814 0.366666666666667
-0.486330380621526 -0.101639746910197 0.366666666666667
-0.486750461308963 -0.109265356574582 0.366666666666666
-0.476738422589895 -0.116172620697037 0.366666666666666
-0.474123688976034 -0.125166395570498 0.366666666666666
-0.469107839839056 -0.134028872069079 0.366666666666666
-0.465597887819152 -0.14103889485856 0.366666666666667
-0.459298170250603 -0.143785993153404 0.366666666666666
-0.447754096193874 -0.153059298388922 0.366666666666666
-0.444589819050253 -0.158803194472746 0.366666666666666
-0.441594513833015 -0.16632176233677 0.366666666666666
-0.428692091018479 -0.17858392413657 0.366666666666666
-0.428671610714422 -0.18377789939607 0.366666666666666
-0.425169446731959 -0.195432285247228 0.366666666666666
-0.416223920303048 -0.210904312035173 0.366666666666666
-0.413401920458403 -0.206531042736493 0.366666666666666
-0.402691633864647 -0.222477318731332 0.366666666666666
-0.392419159765478 -0.225177415841227 0.366666666666666
-0.386388470867671 -0.240444599939672 0.366666666666666
-0.377671638520371 -0.24734913400778 0.366666666666666
-0.5 -0.0659257895821491 0.329768131747788
-0.5 -0.0689484560803846 0.334838742262141
-0.5 -0.0760492546211327 0.334278135002492
-0.5 -0.0775471436033861 0.341085264584744
-0.5 -0.0676479023924865 0.362446817589411
-0.5 -0.0748851236464828 0.358637945515402
-0.495143230004634 -0.0773190223381574 0.366666666666667
-0.484799115343295 -0.085689646884039 0.366666666666667
-0.482986473080903 -0.0923470622490097 0.366666666666666
-0.476985607569172 -0.097729645312564 0.366666666666666
-0.473631224904302 -0.106832452434121 0.366666666666666
-0.467974883536982 -0.114498843645029 0.366666666666666
-0.4605976213156 -0.122205046770834 0.366666666666667
-0.462109629427394 -0.131679120038129 0.366666666666666
-0.448333949274722 -0.14380741524665 0.366666666666666
-0.44734675148693 -0.144461932404006 0.366666666666666
-0.438343427988436 -0.157546268363035 0.366666666666666
-0.434475852747814 -0.165629153953455 0.366666666666666
-0.426482174565129 -0.180117446344813 0.366666666666666
-0.418414807273193 -0.179759880091248 0.366666666666667
-0.416929310176415 -0.190222120336008 0.366666666666666
-0.407816650963235 -0.201356324518285 0.366666666666666
-0.397623333297881 -0.20654502426487 0.366666666666666
-0.389652173881785 -0.210761029919234 0.366666666666666
-0.392578560474473 -0.220756112979297 0.366666666666666
-0.381834421969645 -0.23327065603302 0.366666666666666
-0.378541428980669 -0.239030745236994 0.366666666666666
-0.371509871572099 -0.245196734664915 0.366666666666667
-0.5 -0.0559572678196323 0.327158162948462
-0.5 -0.0552126319914642 0.332329918351261
-0.5 -0.0585578586580605 0.340260431457591
-0.5 -0.0594318557403207 0.346582122150626
-0.5 -0.0545470049106082 0.361241222336973
