ply
format ascii 1.0
element vertex 888
property float x
property float y
property float z
end_header
-0.5 0.142510720874473 0.555549792254268
-0.5 0.140769620974595 0.565290851764174
-0.5 0.145122180509621 0.575555608121541
-0.5 0.138015013460371 0.578914809245762
-0.5 0.141026475236895 0.590306220901274
-0.5 0.132149184974578 0.595757299457395
-0.5 0.137604176011439 0.599879145848842
-0.494896429902075 0.130944883648488 0.60593220338983
-0.484215930750827 0.121312425025635 0.60593220338983
-0.485196090109281 0.120362013412995 0.60593220338983
-0.472414847769243 0.11133283064696 0.60593220338983
-0.47160008355931 0.0999288861028839 0.60593220338983
-0.461120732589221 0.0984917184465793 0.60593220338983
-0.45952041983464 0.0929965329780997 0.60593220338983
-0.454973241453634 0.082548300977301 0.60593220338983
-0.45048820513125 0.0746109908015672 0.60593220338983
-0.440131432907034 0.0677267951754235 0.60593220338983
-0.430592554253376 0.0642056775778139 0.60593220338983
-0.43348251502205 0.0578866532185646 0.60593220338983
-0.425234362941033 0.0459616685305254 0.60593220338983
-0.418811363253475 0.03471978233176 0.60593220338983
-0.413146782095381 0.0295169518274598 0.60593220338983
-0.408004183113551 0.0210880846270537 0.60593220338983
-0.392030860348893 0.00903481110042398 0.60593220338983
-0.396052749537248 0.00424076811878454 0.60593220338983
-0.386583615095973 -0.00364336857553789 0.60593220338983
-0.377353686361263 -0.00823334411548786 0.60593220338983
-0.371100892309196 -0.016528181354348 0.60593220338983
-0.362618406793798 -0.0261094397104382 0.60593220338983
-0.357177937516024 -0.0431167994658682 0.60593220338983
-0.350967229601503 -0.0424854901967446 0.60593220338983
-0.34337125758107 -0.0514721183337668 0.60593220338983
-0.338907067312496 -0.0574099513587185 0.60593220338983
-0.327070325049347 -0.0679999522038948 0.60593220338983
-0.318705557111889 -0.0780661923024206 0.60593220338983
-0.314039193242611 -0.0920087563417881 0.60593220338983
-0.308645856234923 -0.0967164068921545 0.60593220338983
-0.302061095928379 -0.106211759774523 0.60593220338983
-0.293222667719375 -0.111087128946859 0.60593220338983
-0.289068253901798 -0.123942785776796 0.60593220338983
-0.272790970398786 -0.133196182447861 0.60593220338983
-0.272890917685261 -0.147127647538033 0.60593220338983
-0.266713727785419 -0.149275351299506 0.60593220338983
-0.258119286879414 -0.158704845404009 0.60593220338983
-0.244623990354494 -0.168329985619836 0.60593220338983
-0.23378235142608 -0.184755785559939 0.60593220338983
-0.227862161041091 -0.188355194711733 0.60593220338983
-0.23119600695849 -0.189280990794936 0.60593220338983
-0.220359019103631 -0.212639255878111 0.60593220338983
-0.21198147293051 -0.214460563010315 0.60593220338983
-0.207629541972689 -0.225205311320494 0.60593220338983
-0.193238732917359 -0.232966771860382 0.60593220338983
-0.191271283330083 -0.243985524782185 0.60593220338983
-0.184368698852177 -0.249052066012685 0.60593220338983
-0.165286111453872 -0.26087045141153 0.60593220338983
-0.15542358285463 -0.282574096002758 0.60593220338983
-0.145277822938358 -0.290154894879058 0.60593220338983
-0.143665870825176 -0.301260034277596 0.60593220338983
-0.140931563870846 -0.307609168228155 0.60593220338983
-0.123951532198508 -0.316885917387509 0.60593220338983
-0.119700733812703 -0.333222335343247 0.60593220338983
-0.11041895671773 -0.337952433961986 0.60593220338983
-0.102155248468092 -0.343604773035568 0.60593220338983
-0.0988194066588607 -0.359759834564387 0.60593220338983
-0.0826529271879978 -0.368757120097787 0.60593220338983
-0.0764555309510595 -0.381105079623258 0.60593220338983
-0.0682165176997136 -0.396300360535193 0.60593220338983
-0.0520207777033968 -0.408703345531803 0.60593220338983
-0.0369123378500968 -0.418062257513463 0.60593220338983
-0.0373826668467522 -0.422001392578142 0.60593220338983
-0.0273556769584979 -0.43364098862396 0.60593220338983
-0.021030520324603 -0.444864242790772 0.60593220338983
-0.00612913020312825 -0.472075880881314 0.60593220338983
0.00332336425553038 -0.484808841608252 0.60593220338983
0.00674522598393399 -0.487668460979276 0.60593220338983
0.0288331299979388 -0.499808480317474 0.60593220338983
-0.5 0.152710062338994 0.453113782307375
-0.5 0.153886221459441 0.466215979701238
-0.5 0.15819072879859 0.474594517236783
-0.5 0.153482357598823 0.477079039720423
-0.5 0.15361256142022 0.488025599383035
-0.5 0.158014723015556 0.498018883148994
-0.5 0.151448040070719 0.500619196584444
-0.5 0.159855206415346 0.512721596113342
-0.5 0.148854181502037 0.519780454616791
-0.5 0.16114267809756 0.536114571316636
-0.5 0.154711612327226 0.537435955757408
-0.5 0.154159770358685 0.548852735710354
-0.5 0.156090653376305 0.553218277023528
-0.5 0.150710730417794 0.562923084904522
-0.5 0.153937836150253 0.572983306573213
-0.5 0.15329746500188 0.584350220051572
-0.5 0.14591272699169 0.587217882930377
-0.499036075922568 0.149662049684592 0.591101694915254
-0.498070791256119 0.153526119947836 0.60593220338983
-0.491423332214329 0.144666768509028 0.60593220338983
-0.49134284891305 0.139553180399579 0.60593220338983
-0.479352056604243 0.127899921940918 0.60593220338983
-0.480548880928414 0.127909733521892 0.60593220338983
-0.474587240175672 0.123203747971631 0.60593220338983
-0.461619881920109 0.105964889760968 0.60593220338983
-0.462139316930197 0.0996641322156482 0.60593220338983
-0.459412240266295 0.102282771001594 0.60593220338983
-0.443265128200372 0.0827374332243763 0.60593220338983
-0.446589942062367 0.0817237026744755 0.60593220338983
-0.437826645873045 0.0733451217209641 0.60593220338983
-0.434208627018574 0.0656070284341752 0.60593220338983
-0.421715666446287 0.0622800046043208 0.60593220338983
-0.41737431062742 0.0491274869751268 0.60593220338983
-0.413735014632214 0.0482921127240067 0.60593220338983
-0.401608104446717 0.0285475226453749 0.60593220338983
-0.396327639115849 0.0263516137830519 0.60593220338983
-0.396549986689047 0.0254692959423059 0.60593220338983
-0.387153429840146 0.00694850463005486 0.60593220338983
-0.370696930965755 0.00238088762471817 0.60593220338983
-0.365573481861773 -0.0067145689373631 0.60593220338983
-0.360885492333908 -0.0108346149247301 0.60593220338983
-0.361828062507555 -0.0230311869263074 0.60593220338983
-0.344359594276878 -0.0337625286200131 0.60593220338983
-0.336515915152558 -0.0391982341058503 0.60593220338983
-0.335237388446675 -0.0533066154938009 0.60593220338983
-0.329310755697692 -0.0561786554789895 0.60593220338983
-0.315638822393179 -0.0668713509767711 0.60593220338983
-0.313005989913918 -0.0728090277252295 0.60593220338983
-0.308208533134689 -0.0805996998378557 0.60593220338983
-0.301778228466331 -0.0884244634558017 0.60593220338983
-0.301968078484686 -0.0980373662346624 0.60593220338983
-0.285527853913938 -0.105063868012959 0.60593220338983
-0.281710101006389 -0.111432817298983 0.60593220338983
-0.270979938568757 -0.121715690039443 0.60593220338983
-0.265596137468758 -0.132928464933363 0.60593220338983
-0.249651788546679 -0.143654585536892 0.60593220338983
-0.249231265966548 -0.152015200293591 0.60593220338983
-0.237478641031543 -0.164544117360979 0.60593220338983
-0.238117039268299 -0.167433193221331 0.60593220338983
-0.218183430852086 -0.182880907116356 0.60593220338983
-0.218685779531729 -0.191636966213135 0.60593220338983
-0.211751191032331 -0.204342728925157 0.60593220338983
-0.206571146159377 -0.203337834960703 0.60593220338983
-0.191353844218932 -0.226285002531649 0.60593220338983
-0.193124196173842 -0.226907337586143 0.60593220338983
-0.176502283685596 -0.233506778004642 0.60593220338983
-0.173083549046719 -0.245847587672263 0.60593220338983
-0.158050592240422 -0.259235825403715 0.60593220338983
-0.149464954778889 -0.274206582527137 0.60593220338983
-0.146145765378328 -0.271079254877214 0.60593220338983
-0.136213256558498 -0.29404121392679 0.60593220338983
-0.121135309804703 -0.300558234541287 0.60593220338983
-0.113510318288906 -0.316732234184176 0.60593220338983
-0.112881421743915 -0.312716106460932 0.60593220338983
-0.100313249906233 -0.328202063286179 0.60593220338983
-0.0868204510005989 -0.345369600164712 0.60593220338983
-0.0873274927492403 -0.350271576700862 0.60593220338983
-0.0793607216373127 -0.357809824385562 0.60593220338983
-0.0621424651245309 -0.381776995127267 0.60593220338983
-0.0553494815489063 -0.394026797449121 0.60593220338983
-0.0487860916312151 -0.397648429152849 0.60593220338983
-0.0400742404958667 -0.409707050016354 0.60593220338983
-0.0255636864680505 -0.424235075817923 0.60593220338983
-0.016501568805088 -0.438262464809281 0.60593220338983
-0.00761754387272136 -0.450781507491012 0.60593220338983
-0.00105099208756524 -0.449821987786081 0.60593220338983
0.0141161531874578 -0.464766077168775 0.60593220338983
0.0183637224766052 -0.485028537540923 0.60593220338983
0.0278400803762682 -0.486251307385522 0.60593220338983
-0.5 0.166773978429396 0.45838337615596
-0.5 0.165712826433728 0.471072160456669
-0.5 0.166898526691009 0.482422031438922
-0.5 0.161947870015321 0.489146774380773
-0.5 0.168295604547273 0.50122286784879
-0.5 0.164206347024876 0.499682212791605
-0.5 0.165026156202276 0.515270650975812
-0.5 0.163873147436663 0.512816330048589
-0.5 0.166622557002736 0.537570647229258
-0.5 0.166140842643085 0.544665158220361
-0.5 0.169185516374955 0.550646012410362
-0.5 0.1644336035377 0.552549954063911
-0.5 0.168239858541017 0.563965866029514
-0.5 0.167037915045624 0.573864113894956
-0.5 0.170313959725536 0.581933683774018
-0.498509099278525 0.163910597053539 0.591101694915254
-0.5 0.173610906138822 0.601782451497761
-0.498394912189317 0.165237138748089 0.60593220338983
-0.492894896253723 0.161559053766104 0.60593220338983
-0.484386833649207 0.15595802552536 0.60593220338983
-0.476265109465216 0.141334957846018 0.60593220338983
-0.480658765857338 0.140303397200874 0.60593220338983
-0.466076710413831 0.125504829990325 0.60593220338983
-0.46465401893346 0.12458694951698 0.60593220338983
-0.458843705601802 0.115648739154088 0.60593220338983
-0.458074383708688 0.111153679566806 0.60593220338983
-0.448974377264066 0.10485159272969 0.60593220338983
-0.438817075860901 0.0957362470314803 0.60593220338983
-0.437600064829075 0.0859223490359848 0.60593220338983
-0.425084269580228 0.083111910404854 0.60593220338983
-0.419629152727429 0.0692446847508623 0.60593220338983
-0.414798471266484 0.0678601731991581 0.60593220338983
-0.408264940077582 0.0612759924120571 0.60593220338983
-0.400163738818157 0.049336356100588 0.60593220338983
-0.393962988988009 0.0429624435573654 0.60593220338983
-0.390581453586001 0.0383168304596153 0.60593220338983
-0.384643469137934 0.0297097212270149 0.60593220338983
-0.379889526412223 0.017537456254478 0.60593220338983
-0.366819090159954 0.00471604653542704 0.60593220338983
-0.361416830737387 -0.000357684276589678 0.60593220338983
-0.353888128532306 -0.00474302379369411 0.60593220338983
-0.353908131605733 -0.0152297971690508 0.60593220338983
-0.344008922212523 -0.0274542607447951 0.60593220338983
-0.334461937674265 -0.0316940075395087 0.60593220338983
-0.330341917008955 -0.0397964771215534 0.60593220338983
-0.324395500907793 -0.0504245443624856 0.60593220338983
-0.318447266266954 -0.0547309074795815 0.60593220338983
-0.301489212911489 -0.0671127799221161 0.60593220338983
-0.30440962510455 -0.0686180551911006 0.60593220338983
-0.295699530874363 -0.0735417711961484 0.60593220338983
-0.290758675951556 -0.0957354749950727 0.60593220338983
-0.271621731626882 -0.0999952072913062 0.60593220338983
-0.270578465794793 -0.102316570957402 0.60593220338983
-0.261183043778425 -0.123626670412034 0.60593220338983
-0.257343510678415 -0.121635072458525 0.60593220338983
-0.246957166658313 -0.130894403534517 0.60593220338983
-0.24423021367401 -0.142006857051078 0.60593220338983
-0.237457848666758 -0.153104822074342 0.60593220338983
-0.223317749498751 -0.164055342984585 0.60593220338983
-0.218706977034304 -0.171247393885385 0.60593220338983
-0.209624151726701 -0.187109765000337 0.60593220338983
-0.20106299265794 -0.194519064389812 0.60593220338983
-0.189070108547907 -0.201654015429948 0.60593220338983
-0.187673441087557 -0.21232695051396 0.60593220338983
-0.178355331914736 -0.226021502369736 0.60593220338983
-0.176359806004484 -0.22259160006284 0.60593220338983
-0.156048272963977 -0.246641088432877 0.60593220338983
-0.149793484275204 -0.245742789560741 0.60593220338983
-0.141231296559586 -0.263542007185287 0.60593220338983
-0.138667749483977 -0.270947223102009 0.60593220338983
-0.127690126083381 -0.282893133336231 0.60593220338983
-0.112381011085118 -0.294401745491642 0.60593220338983
-0.109055405457662 -0.300719750555184 0.60593220338983
-0.100548742912548 -0.316784719946025 0.60593220338983
-0.0900165536220583 -0.32149360241308 0.60593220338983
-0.0813418750775157 -0.333553882345864 0.60593220338983
-0.0781817250565088 -0.351505062759863 0.60593220338983
-0.0639266421229799 -0.357356940770988 0.60593220338983
-0.0583405106506725 -0.369425304926424 0.60593220338983
-0.0536182436277562 -0.376122937536893 0.60593220338983
-0.0353168108779652 -0.392011724656265 0.60593220338983
-0.0325127921011544 -0.402320743709514 0.60593220338983
-0.0186157546947648 -0.413634359372663 0.60593220338983
-0.00486008167986107 -0.429763654803043 0.60593220338983
0.000909560018704874 -0.444118658525446 0.60593220338983
0.0130758480891268 -0.444823017999067 0.60593220338983
0.0124929915073223 -0.45432952780653 0.60593220338983
0.0383741583069303 -0.480838400479489 0.60593220338983
0.0396618461903536 -0.478974038301872 0.60593220338983
-0.5 0.179686562078102 0.474986834872061
-0.5 0.178587690988912 0.477624032456371
-0.5 0.187032654472517 0.493694579232384
-0.5 0.178910580592584 0.503247571133229
-0.5 0.180535616621867 0.500212792031195
-0.5 0.173828444614584 0.509894307089213
-0.5 0.180586587037274 0.519650400182925
-0.5 0.184503151375163 0.537843351675807
-0.5 0.174840726782112 0.537668114390052
-0.5 0.181398684680056 0.552992590079069
-0.5 0.174834727325496 0.552180598483055
-0.5 0.182676779042673 0.571376948767406
-0.5 0.178940385287264 0.571604413677385
-0.5 0.179510119330741 0.580687459955183
-0.497734748249463 0.182801926941611 0.591101694915254
-0.5 0.17828612633549 0.601212008622717
-0.5 0.173147546486946 0.605761388770344
-0.493538972614162 0.175279679172149 0.60593220338983
-0.482575739445747 0.16096000924555 0.60593220338983
-0.47865053627967 0.160893915344709 0.60593220338983
-0.473775635239021 0.150135521374496 0.60593220338983
-0.475070898758974 0.146733111265642 0.60593220338983
-0.465631662913183 0.137167615983515 0.60593220338983
-0.457203003918427 0.135901505888673 0.60593220338983
-0.452586209362963 0.121835514634637 0.60593220338983
-0.452033970886947 0.115003238658619 0.60593220338983
-0.444004790137421 0.110297348000423 0.60593220338983
-0.439490949444534 0.0998259775088064 0.60593220338983
-0.428560533317766 0.0980725189195349 0.60593220338983
-0.416311463808079 0.0843508293045993 0.60593220338983
-0.410957006584531 0.0770775734111371 0.60593220338983
-0.410317942958252 0.0751699778315895 0.60593220338983
-0.401551514554786 0.0640334522262951 0.60593220338983
-0.398565631612241 0.0550437337889501 0.60593220338983
-0.392875622763861 0.0477564788449868 0.60593220338983
-0.380011449530753 0.0327352086769587 0.60593220338983
-0.37751524975033 0.0298359399575202 0.60593220338983
-0.37057437018345 0.0208437187645936 0.60593220338983
-0.365892913898158 0.0156237288035925 0.60593220338983
-0.356540140877321 0.0162123246861131 0.60593220338983
-0.351420406395195 -0.000430114413343502 0.60593220338983
-0.340724755783017 -0.0137197086811687 0.60593220338983
-0.334230666125324 -0.0216138429769422 0.60593220338983
-0.33626765702262 -0.0203615717651796 0.60593220338983
-0.318654590972757 -0.0387623957737779 0.60593220338983
-0.315620758577375 -0.0456110304350073 0.60593220338983
-0.304022540940728 -0.0571066156606338 0.60593220338983
-0.298610101393038 -0.0535141623510828 0.60593220338983
-0.297957077871445 -0.0641822632101741 0.60593220338983
-0.286388104278145 -0.0696264643820435 0.60593220338983
-0.283756381130322 -0.0802475378262714 0.60593220338983
-0.269263277104012 -0.0928188739198983 0.60593220338983
-0.263573894159782 -0.10931230438874 0.60593220338983
-0.254331940212349 -0.116522268089499 0.60593220338983
-0.242259603271402 -0.120103293698644 0.60593220338983
-0.242612565395099 -0.128802754981823 0.60593220338983
-0.241296584937384 -0.139450620286209 0.60593220338983
-0.223444409605233 -0.146608159467257 0.60593220338983
-0.218058866727936 -0.159733766690761 0.60593220338983
-0.214402319571101 -0.162448644266834 0.60593220338983
-0.21188665633098 -0.174795455259465 0.60593220338983
-0.194556931788135 -0.184808476438441 0.60593220338983
-0.19121666520919 -0.191819299195782 0.60593220338983
-0.179213714761555 -0.209215885910366 0.60593220338983
-0.172835624569354 -0.212364230961362 0.60593220338983
-0.166041760967838 -0.22072664477466 0.60593220338983
-0.14951896754433 -0.235948876523059 0.60593220338983
-0.138872491349692 -0.247840613463538 0.60593220338983
-0.146364139405742 -0.247389068404907 0.60593220338983
-0.13168371328357 -0.267833113201524 0.60593220338983
-0.122376798890574 -0.27363191595113 0.60593220338983
-0.116765039395797 -0.285406493610913 0.60593220338983
-0.106218653354912 -0.294356733609129 0.60593220338983
-0.0917717884834345 -0.305854459394353 0.60593220338983
-0.089158923962225 -0.31290143986168 0.60593220338983
-0.0727929066732176 -0.323785149600017 0.60593220338983
-0.0656723085827865 -0.337652320548539 0.60593220338983
-0.0560155580290786 -0.354260584370587 0.60593220338983
-0.0449346472132879 -0.3678527039594 0.60593220338983
-0.0462457430085584 -0.364240100964786 0.60593220338983
-0.035730804047966 -0.378784279959229 0.60593220338983
-0.0208307035646447 -0.388568831961681 0.60593220338983
-0.0072296707250012 -0.413956430517489 0.60593220338983
-0.00558003518586394 -0.412679292132906 0.60593220338983
0.00711630421274234 -0.420528292444301 0.60593220338983
0.0120794027958424 -0.43729377048914 0.60593220338983
0.0245508856637019 -0.444276700606361 0.60593220338983
0.0451716843980775 -0.468169983153426 0.60593220338983
0.0425425049264031 -0.471061464114488 0.60593220338983
0.050343701352113 -0.486969242626632 0.60593220338983
-0.5 0.191628330932978 0.487698719887171
-0.5 0.18727979000468 0.488366872738694
-0.5 0.185481257096931 0.491369122798043
-0.5 0.196137471296969 0.511367414291518
-0.5 0.193286227877532 0.517800981869107
-0.5 0.192227333017126 0.528072033286805
-0.5 0.193454358573107 0.532498005261283
-0.5 0.197760060498091 0.544152985774334
-0.5 0.190053174705123 0.544901341181336
-0.5 0.191504320076775 0.554437230760704
-0.5 0.192774215818987 0.569737721554162
-0.5 0.192084423785163 0.567391344126085
-0.5 0.193951866800716 0.586831429464369
-0.5 0.188971586003295 0.588829191617576
-0.497435877998083 0.184355116094919 0.591101694915254
-0.5 0.188912555445898 0.602141761235047
-0.496321331493164 0.184417396255004 0.60593220338983
-0.490310296925764 0.177970159643368 0.60593220338983
-0.477661048663078 0.164519756567604 0.60593220338983
-0.474361718511587 0.165301883345788 0.60593220338983
-0.469938509676302 0.153507060367336 0.60593220338983
-0.470375904834507 0.148766101909237 0.60593220338983
-0.45929494192035 0.143723483226575 0.60593220338983
-0.451922843592923 0.133646767693125 0.60593220338983
-0.445155487876277 0.125333632256786 0.60593220338983
-0.438256179019792 0.121176375085231 0.60593220338983
-0.441068901045699 0.116152091130207 0.60593220338983
-0.432092102975176 0.109823633758059 0.60593220338983
-0.424043162943669 0.0965718503984399 0.60593220338983
-0.416952928119525 0.0917709049872785 0.60593220338983
-0.412005982215271 0.0827799647243914 0.60593220338983
-0.407633807980725 0.0796050033670143 0.60593220338983
-0.40194420950043 0.0745562064928647 0.60593220338983
-0.384994441887283 0.0610503285468799 0.60593220338983
-0.38528284525376 0.058639254637936 0.60593220338983
-0.374010521715994 0.0410456127487495 0.60593220338983
-0.373513831484252 0.0383183402614845 0.60593220338983
-0.357907232742281 0.0312790821927417 0.60593220338983
-0.353336558843434 0.0174838917418147 0.60593220338983
-0.357115351241036 0.0156438493657567 0.60593220338983
-0.339390549330324 0.0018859436285587 0.60593220338983
-0.336880222045672 0.00347987198798197 0.60593220338983
-0.332143961589954 -0.00235562673952518 0.60593220338983
-0.325831193130802 -0.0146883201397105 0.60593220338983
-0.315009759822189 -0.0198332626076336 0.60593220338983
-0.309409420828961 -0.0365571128610575 0.60593220338983
-0.29684878745975 -0.0502614022960648 0.60593220338983
-0.297227013877127 -0.0457973358369811 0.60593220338983
-0.282262963584573 -0.0680519692648778 0.60593220338983
-0.272994462562186 -0.0749008713954424 0.60593220338983
-0.268453975315031 -0.0754293632733185 0.60593220338983
-0.265626795173013 -0.0889765675815402 0.60593220338983
-0.264778102300078 -0.0928489073020447 0.60593220338983
-0.248270399237669 -0.108422099735313 0.60593220338983
-0.242995088446529 -0.117655214719428 0.60593220338983
-0.232786316060111 -0.121174726169526 0.60593220338983
-0.230007563495571 -0.132430376860716 0.60593220338983
-0.220038242652737 -0.138827885591118 0.60593220338983
-0.21958940896518 -0.14838596626492 0.60593220338983
-0.204927313516223 -0.154401840104005 0.60593220338983
-0.194937785907816 -0.168850618919407 0.60593220338983
-0.188632144767917 -0.176365178490145 0.60593220338983
-0.185071064407544 -0.188056954449747 0.60593220338983
-0.171557306834169 -0.193913567963201 0.60593220338983
-0.164448289596461 -0.214483609524969 0.60593220338983
-0.150305724819392 -0.214086566386421 0.60593220338983
-0.151792972908946 -0.222231730162828 0.60593220338983
-0.13380987422578 -0.233912653674007 0.60593220338983
-0.131595068490313 -0.252856971706115 0.60593220338983
-0.11831325844317 -0.26239890508926 0.60593220338983
-0.109073350758581 -0.269717424920839 0.60593220338983
-0.0973994171307414 -0.280556025137862 0.60593220338983
-0.0980860845423607 -0.282446219962111 0.60593220338983
-0.083277581822256 -0.302263910654027 0.60593220338983
-0.073015489566861 -0.315664118195413 0.60593220338983
-0.0740306412864264 -0.32272333450788 0.60593220338983
-0.0521080409650405 -0.330473888714323 0.60593220338983
-0.0549719666357618 -0.341447554359484 0.60593220338983
-0.0442807300050462 -0.355849207891919 0.60593220338983
-0.0328894654703707 -0.36669242771892 0.60593220338983
-0.021256591436583 -0.372923686770211 0.60593220338983
-0.0112456942413901 -0.389286135115811 0.60593220338983
0.0037170813303155 -0.395654818313251 0.60593220338983
0.00213898491467929 -0.409529962106636 0.60593220338983
0.0143500288098726 -0.426101537351635 0.60593220338983
0.0255297126752375 -0.4332636379538 0.60593220338983
0.0280888363457399 -0.439864805280836 0.60593220338983
0.0511184834532668 -0.461009132996292 0.60593220338983
0.0611353133208578 -0.47049931980696 0.60593220338983
0.0718944261962235 -0.480674413071861 0.60593220338983
0.0736793632626883 -0.495828829253825 0.60593220338983
0.0781721752834164 -0.498090601458566 0.60593220338983
-0.5 0.209652667682929 0.4930427114011
-0.5 0.205861751208149 0.496002233049964
-0.5 0.203682336331663 0.507820531178744
-0.5 0.203730538972151 0.51392446116201
-0.5 0.20523998617558 0.524901240498402
-0.5 0.202138896865621 0.528780669635907
-0.5 0.204308758425669 0.539950606274916
-0.5 0.208578414817344 0.557780432914816
-0.5 0.210093227810905 0.556713333567062
-0.5 0.201934009338993 0.566045905563596
-0.5 0.204504631903552 0.573582188081891
-0.5 0.205784147083997 0.582552262624676
-0.5 0.206206327013258 0.597210947784675
-0.5 0.201493084308651 0.598678802454056
-0.5 0.202276053394877 0.600239804344558
-0.496229058007218 0.198073808290547 0.60593220338983
-0.486960295628353 0.196148781538096 0.60593220338983
-0.479019675710252 0.179081780107734 0.60593220338983
-0.475359861748713 0.179943295467576 0.60593220338983
-0.475655381317432 0.176152361982647 0.60593220338983
-0.461504364337954 0.156203296414808 0.60593220338983
-0.455358594966406 0.153638939403241 0.60593220338983
-0.449432179894996 0.147940048894645 0.60593220338983
-0.445288209627201 0.146432742492713 0.60593220338983
-0.440160854910451 0.134696265532018 0.60593220338983
-0.431933635678684 0.122548284921774 0.60593220338983
-0.426158335262955 0.115009937829643 0.60593220338983
-0.423062168502503 0.109063650153461 0.60593220338983
-0.417549683306014 0.105434693997929 0.60593220338983
-0.408083841878752 0.100436495967553 0.60593220338983
-0.405976152799672 0.0852111259367846 0.60593220338983
-0.399785606445066 0.0806773829791819 0.60593220338983
-0.385821238378726 0.06976389695853 0.60593220338983
-0.380800590826865 0.0689677643605853 0.60593220338983
-0.371967280827644 0.0541589005049115 0.60593220338983
-0.364348582891746 0.0464824417676448 0.60593220338983
-0.365246620230948 0.0445375356834651 0.60593220338983
-0.353337101740403 0.0405400566113606 0.60593220338983
-0.35371923051682 0.0268317900851174 0.60593220338983
-0.344261465664012 0.0195353377842461 0.60593220338983
-0.337858667046825 0.00767633929715126 0.60593220338983
-0.331287649624831 0.00327484746940562 0.60593220338983
-0.323131720151793 -0.00714713314115818 0.60593220338983
-0.321079690850282 -0.00822503875299433 0.60593220338983
-0.309641459666027 -0.0228955669579035 0.60593220338983
-0.302611255840679 -0.030916079278141 0.60593220338983
-0.294001151943141 -0.0379286738885195 0.60593220338983
-0.288913047136794 -0.0490798830918866 0.60593220338983
-0.277381385112852 -0.0541881466282478 0.60593220338983
-0.279206242177581 -0.0567420674571359 0.60593220338983
-0.265926130255248 -0.0637510350833777 0.60593220338983
-0.262981442857574 -0.0714911503115879 0.60593220338983
-0.246138880431693 -0.0860831942181662 0.60593220338983
-0.245591978694374 -0.0896253030851253 0.60593220338983
-0.241237146875522 -0.0998180820349442 0.60593220338983
-0.233627417488367 -0.110235037182724 0.60593220338983
-0.213439182269295 -0.12991265521642 0.60593220338983
-0.216459225399422 -0.135707398644461 0.60593220338983
-0.204713235410865 -0.144874545553221 0.60593220338983
-0.195640198181038 -0.153089709457925 0.60593220338983
-0.190590920382371 -0.157374646698145 0.60593220338983
-0.177628113952127 -0.172437626061831 0.60593220338983
-0.17050059076645 -0.175473670515711 0.60593220338983
-0.165693724596387 -0.187086656158413 0.60593220338983
-0.158426444087163 -0.198504144042309 0.60593220338983
-0.14776924885423 -0.204079762468699 0.60593220338983
-0.146664116569799 -0.216307154275587 0.60593220338983
-0.129293581942185 -0.22898670626058 0.60593220338983
-0.12581205543692 -0.241420343260465 0.60593220338983
-0.118267889988478 -0.251862404859257 0.60593220338983
-0.104043822443195 -0.26914841793103 0.60593220338983
-0.0940783045420206 -0.273961281468603 0.60593220338983
-0.0910009148876571 -0.282338013082081 0.60593220338983
-0.0750252330443934 -0.288336444799024 0.60593220338983
-0.0640423138144392 -0.306938895728808 0.60593220338983
-0.0536134359261168 -0.320992226903492 0.60593220338983
-0.05335753489432 -0.32168382929696 0.60593220338983
-0.0423728808249056 -0.342885349753026 0.60593220338983
-0.0323614299960406 -0.34364018009013 0.60593220338983
-0.0329992218986861 -0.355857916752834 0.60593220338983
-0.00642155667181357 -0.367924889680171 0.60593220338983
-0.00619920221220561 -0.380572933167164 0.60593220338983
0.00417731860016695 -0.392598574162766 0.60593220338983
0.0171149322623187 -0.40954955972303 0.60593220338983
0.0251180116812895 -0.412895412868083 0.60593220338983
0.0397862131276865 -0.433661698633013 0.60593220338983
0.0460960118522328 -0.440453109226526 0.60593220338983
0.052001745669721 -0.45011670840875 0.60593220338983
0.0634785731792331 -0.462205706981141 0.60593220338983
0.0764042064538776 -0.478841595681864 0.60593220338983
0.0828755599346368 -0.485737804030671 0.60593220338983
0.0909194389587264 -0.495709661962462 0.60593220338983
-0.5 0.217670954969588 0.494887147750086
-0.5 0.21828695424669 0.506623779085852
-0.5 0.223100937518816 0.517783024169363
-0.5 0.217660988682955 0.527108285716793
-0.5 0.213729880937634 0.534758066977276
-0.5 0.218086951352166 0.540569946674543
-0.5 0.218904549362557 0.549603932936308
-0.5 0.210463898851872 0.549084797190814
-0.5 0.216110107771625 0.56409359746929
-0.5 0.220798005937446 0.582010763247428
-0.5 0.218367179406259 0.587837331997997
-0.5 0.219125656986369 0.590445009751438
-0.499494457186263 0.217743361771009 0.591101694915254
-0.498489561876318 0.211078181014913 0.60593220338983
-0.487902256375386 0.209538937661157 0.60593220338983
-0.489226837865132 0.209451106493517 0.60593220338983
-0.488530870948265 0.198260027967108 0.60593220338983
-0.47721192196917 0.185599631089664 0.60593220338983
-0.466959270777982 0.179815984724047 0.60593220338983
-0.461084486475015 0.171126062677866 0.60593220338983
-0.457794267936909 0.16476175741114 0.60593220338983
-0.453079261584173 0.163050000919523 0.60593220338983
-0.442440671337909 0.152516451285861 0.60593220338983
-0.446327898764601 0.150295696928413 0.60593220338983
-0.435712370738163 0.139995658355074 0.60593220338983
-0.425056179761352 0.128063145563547 0.60593220338983
-0.421655302963888 0.12624150160845 0.60593220338983
-0.410598082764288 0.115940786049779 0.60593220338983
-0.41234801376228 0.11124142959802 0.60593220338983
-0.403063645916376 0.107181171537623 0.60593220338983
-0.3979029311375 0.099035652786122 0.60593220338983
-0.389757134576224 0.0911791959292136 0.60593220338983
-0.380817783567433 0.084612440652054 0.60593220338983
-0.370435112224521 0.0707198645876788 0.60593220338983
-0.367960204083141 0.0685062899330527 0.60593220338983
-0.368025138255509 0.05754818207842 0.60593220338983
-0.359932525205556 0.0478067853514071 0.60593220338983
-0.355284305295658 0.0439833780690991 0.60593220338983
-0.342465441924952 0.0399440006616723 0.60593220338983
-0.339365516862274 0.0212355964716558 0.60593220338983
-0.329519652510422 0.0149907339294081 0.60593220338983
-0.326197518167667 0.00665411252748623 0.60593220338983
-0.318474036165906 0.00272721833274174 0.60593220338983
-0.313700750685144 -8.55113418683166e-005 0.60593220338983
-0.304045703306144 -0.0168107921625497 0.60593220338983
-0.289202704262926 -0.0291239209934027 0.60593220338983
-0.290329552375122 -0.0350920425865907 0.60593220338983
-0.278603183711684 -0.0360503590527307 0.60593220338983
-0.27477213857164 -0.0467773909944132 0.60593220338983
-0.26835316847604 -0.0590801940132135 0.60593220338983
-0.254222836228716 -0.0623257860179442 0.60593220338983
-0.251576247542442 -0.069329138497682 0.60593220338983
-0.2437203554824 -0.0805071317804345 0.60593220338983
-0.233348064865161 -0.092671433850912 0.60593220338983
-0.232418932624531 -0.0973978166405058 0.60593220338983
-0.228683181313931 -0.10758946937787 0.60593220338983
-0.2067838779553 -0.116840404791621 0.60593220338983
-0.206388736436714 -0.122381144908725 0.60593220338983
-0.206143964581393 -0.127479372006238 0.60593220338983
-0.194217701000611 -0.141858048276242 0.60593220338983
-0.17905372286838 -0.158769943099054 0.60593220338983
-0.167333083623148 -0.164875837287604 0.60593220338983
-0.161313746242095 -0.174988893516768 0.60593220338983
-0.155317319933405 -0.176568790217031 0.60593220338983
-0.154533954059582 -0.193157394243939 0.60593220338983
-0.144108808721714 -0.2001172141987 0.60593220338983
-0.139517077942542 -0.206791989763674 0.60593220338983
-0.120780985110211 -0.22323088132974 0.60593220338983
-0.112202770502658 -0.238571219476078 0.60593220338983
-0.102037109535698 -0.242673420587181 0.60593220338983
-0.0939823345798104 -0.258941673094932 0.60593220338983
-0.0875042117741701 -0.267043588111513 0.60593220338983
-0.0790463507642484 -0.279918612980518 0.60593220338983
-0.0712623693907469 -0.28724999761498 0.60593220338983
-0.0578017255527833 -0.301760217790251 0.60593220338983
-0.0521025271820042 -0.30051256578473 0.60593220338983
-0.0444148923110884 -0.313283128774534 0.60593220338983
-0.0357221278125373 -0.334659767843596 0.60593220338983
-0.0226549479707135 -0.341047631458399 0.60593220338983
-0.0246138950345911 -0.347021634549809 0.60593220338983
-0.0122714651444041 -0.354168665200399 0.60593220338983
0.00510201006445896 -0.37135515139259 0.60593220338983
0.00836272386670935 -0.381038766232162 0.60593220338983
0.025719611584163 -0.393651401922658 0.60593220338983
0.0303085220106447 -0.414942245875057 0.60593220338983
0.0395245305634411 -0.41771331067185 0.60593220338983
0.0518072800055548 -0.421387433976163 0.60593220338983
0.0599007706589963 -0.441371734568727 0.60593220338983
0.0751060940569249 -0.45286025981237 0.60593220338983
0.0896106144056981 -0.468570376034 0.60593220338983
0.0858491790587637 -0.469452371606408 0.60593220338983
0.0961832468540718 -0.487342655592416 0.60593220338983
-0.5 0.227149901696771 0.508002092811837
-0.5 0.225718486047029 0.515283481597521
-0.5 0.227951941903004 0.522331828513335
-0.5 0.225109242074439 0.531177034255762
-0.5 0.230771889885067 0.543715617930865
-0.5 0.225113591572532 0.544712554504568
-0.5 0.226685121109808 0.553350771476335
-0.5 0.23398028926884 0.565741524557362
-0.5 0.237226931030332 0.582311127012777
-0.5 0.227635261205853 0.577441677873187
-0.5 0.230238947232911 0.584251205708338
-0.5 0.235542324142618 0.605709199336654
-0.499920443600744 0.226486271764606 0.60593220338983
-0.494833912730425 0.22012384680369 0.60593220338983
-0.488361885122085 0.215104406349226 0.60593220338983
-0.477398584310772 0.203383124977726 0.60593220338983
-0.475088233060979 0.203071516229367 0.60593220338983
-0.46837672168803 0.189134317288294 0.60593220338983
-0.468787026132569 0.194828586223725 0.60593220338983
-0.456131401379112 0.178900227905268 0.60593220338983
-0.447437108910659 0.174735845370868 0.60593220338983
-0.447065889683114 0.169409171421925 0.60593220338983
-0.442394238460855 0.16666309161697 0.60593220338983
-0.438615627552111 0.157699696384089 0.60593220338983
-0.434204865102955 0.14893030357236 0.60593220338983
-0.426646059258728 0.144900845807473 0.60593220338983
-0.421956904548864 0.131343054820063 0.60593220338983
-0.40984385563291 0.123807059698605 0.60593220338983
-0.401739943306103 0.123841091704926 0.60593220338983
-0.397283114512537 0.111542516873339 0.60593220338983
-0.385797536602443 0.10184641291723 0.60593220338983
-0.385592126499428 0.0955364715475377 0.60593220338983
-0.377135342030139 0.0905012711053474 0.60593220338983
-0.369202681504093 0.0848925565475093 0.60593220338983
-0.360223754337219 0.0722947976481097 0.60593220338983
-0.357266280338565 0.0665192558013048 0.60593220338983
-0.355942997370732 0.0631438735290406 0.60593220338983
-0.345725520153092 0.0529890126897044 0.60593220338983
-0.345353625048727 0.0495318594568247 0.60593220338983
-0.330132211983113 0.035935438257031 0.60593220338983
-0.322395784186703 0.0209914085447473 0.60593220338983
-0.32244091222523 0.0240202494316938 0.60593220338983
-0.306388165914753 0.00817587679253482 0.60593220338983
-0.305540468881172 0.00839644627392611 0.60593220338983
-0.299746591430012 -0.00434786678388254 0.60593220338983
-0.288318383399565 -0.0161755200086613 0.60593220338983
-0.277206583913487 -0.0219859206699622 0.60593220338983
-0.281410460103996 -0.0287571010711144 0.60593220338983
-0.273502349948706 -0.0328024007887314 0.60593220338983
-0.259066933367932 -0.045537843405584 0.60593220338983
-0.258403549562539 -0.0540116002773572 0.60593220338983
-0.249147521191291 -0.0606245363053568 0.60593220338983
-0.234261768607691 -0.0714031774630956 0.60593220338983
-0.224589030232828 -0.0845168353278383 0.60593220338983
-0.224214205342049 -0.08909006454778 0.60593220338983
-0.213239543401389 -0.108129413328611 0.60593220338983
-0.20559244559227 -0.118008487463868 0.60593220338983
-0.201505873280424 -0.119013658662251 0.60593220338983
-0.196723299167247 -0.123570944452884 0.60593220338983
-0.183765905576228 -0.134905633480078 0.60593220338983
-0.17727716650302 -0.147973053393572 0.60593220338983
-0.165128915654006 -0.156466235225253 0.60593220338983
-0.157500776850433 -0.166595465720461 0.60593220338983
-0.154426290164043 -0.172042180199266 0.60593220338983
-0.137743889757348 -0.189676075000549 0.60593220338983
-0.14088989875985 -0.193885088616376 0.60593220338983
-0.126947042518522 -0.206672790680427 0.60593220338983
-0.11142299414201 -0.215291891839755 0.60593220338983
-0.106365323636001 -0.221711761920736 0.60593220338983
-0.0980873854143184 -0.240621605022347 0.60593220338983
-0.0965182221532662 -0.241734848884197 0.60593220338983
-0.0814953435507528 -0.260575401708876 0.60593220338983
-0.0793306706047159 -0.25984637485155 0.60593220338983
-0.0664881081989277 -0.276320742277502 0.60593220338983
-0.0515783189702719 -0.286448606451198 0.60593220338983
-0.0381222136437969 -0.304621896554362 0.60593220338983
-0.0306917863603856 -0.308604568170263 0.60593220338983
-0.0306556487153765 -0.319547818850231 0.60593220338983
-0.0184152490529 -0.325083636097642 0.60593220338983
-0.0119453712382807 -0.344811823108231 0.60593220338983
0.00531769408548484 -0.359189098328377 0.60593220338983
0.00314963825122847 -0.358940456238343 0.60593220338983
0.0173193034550452 -0.371348928767313 0.60593220338983
0.0303706191569259 -0.391726249801289 0.60593220338983
0.0436904596967384 -0.40245419496331 0.60593220338983
0.0503099375865214 -0.411766521775919 0.60593220338983
0.0618536769398219 -0.430484214889848 0.60593220338983
0.0780259335662538 -0.442057285338103 0.60593220338983
0.0754533725133493 -0.44174119785991 0.60593220338983
0.0876589496091847 -0.459791238397998 0.60593220338983
0.107558529519505 -0.474228992587755 0.60593220338983
0.110737044679458 -0.487230498679165 0.60593220338983
0.116863634125496 -0.492140168426265 0.60593220338983
-0.5 0.239287147511592 0.514156960170379
-0.5 0.24430150310068 0.532336630161744
-0.5 0.235783508739228 0.531603989562753
-0.5 0.242103019878093 0.544774766914196
-0.5 0.24071671808086 0.545147774513183
-0.5 0.248266030361625 0.563157147354563
-0.5 0.242584015815896 0.569009145661506
-0.5 0.237583729875364 0.573490638474785
-0.5 0.243041519829784 0.576804827493713
-0.5 0.241635637606982 0.587572156951522
-0.5 0.245049669645901 0.601936526742685
-0.495352214651226 0.236848674040293 0.60593220338983
-0.495276208406158 0.232723230613512 0.60593220338983
-0.493418574247204 0.228598241319936 0.60593220338983
-0.475967338667388 0.222089439385548 0.60593220338983
-0.473402031798735 0.216414161867524 0.60593220338983
-0.467171886169145 0.211351980909202 0.60593220338983
-0.465062976381178 0.205333426801315 0.60593220338983
-0.458595785675226 0.197089938508641 0.60593220338983
-0.454014643541402 0.185517921298448 0.60593220338983
-0.447480901089407 0.176440944957938 0.60593220338983
-0.445119071612367 0.181381484435229 0.60593220338983
-0.431513340832262 0.160132216013711 0.60593220338983
-0.430034937787184 0.160096902441398 0.60593220338983
-0.423308469510837 0.153610422977342 0.60593220338983
-0.421045518338407 0.152445322609311 0.60593220338983
-0.415621228565416 0.142310326398571 0.60593220338983
-0.401789077521514 0.127661716452374 0.60593220338983
-0.396967833006345 0.132115765864279 0.60593220338983
-0.391907226666804 0.116967901332736 0.60593220338983
-0.38312984287172 0.111101851262884 0.60593220338983
-0.380056731255621 0.100622947494347 0.60593220338983
-0.377155011037772 0.0969641621382305 0.60593220338983
-0.363250283796739 0.086823155638792 0.60593220338983
-0.358295514558311 0.0813087172581169 0.60593220338983
-0.356180411214075 0.0692559060309538 0.60593220338983
-0.350843648413748 0.0683047292763538 0.60593220338983
-0.334336793609609 0.0561991094193246 0.60593220338983
-0.32787003804846 0.0472138364076926 0.60593220338983
-0.323389192111781 0.0380372368415725 0.60593220338983
-0.32294607158992 0.0376011933384375 0.60593220338983
-0.310098488047157 0.0233523637519046 0.60593220338983
-0.301120112251068 0.0159703469379634 0.60593220338983
-0.294558240464054 0.00504131978402061 0.60593220338983
-0.293951171934487 0.00467262675447326 0.60593220338983
-0.283126606975832 -0.00202107565084114 0.60593220338983
-0.278965493063549 -0.0183634557746475 0.60593220338983
-0.26618154842764 -0.0268039931848512 0.60593220338983
-0.258383960764692 -0.0368663973692327 0.60593220338983
-0.253678731297319 -0.0344822862569196 0.60593220338983
-0.249436528384629 -0.0531025897354774 0.60593220338983
-0.240403789515789 -0.0547538819679624 0.60593220338983
-0.224002844896515 -0.0687894391792515 0.60593220338983
-0.221179565163434 -0.0811103346251456 0.60593220338983
-0.219950446794397 -0.0779663498177594 0.60593220338983
-0.213662445177309 -0.0866151496141291 0.60593220338983
-0.201254689446424 -0.108670785306882 0.60593220338983
-0.192470975470915 -0.111834699501899 0.60593220338983
-0.181730572532466 -0.129474343337036 0.60593220338983
-0.17149020319479 -0.13255609908706 0.60593220338983
-0.16964940302902 -0.139319553797429 0.60593220338983
-0.157683283480413 -0.145584661494619 0.60593220338983
-0.149253056498159 -0.163647881756557 0.60593220338983
-0.147116601856712 -0.164393241942168 0.60593220338983
-0.137377780548435 -0.181291051680425 0.60593220338983
-0.121249823987892 -0.189214868714983 0.60593220338983
-0.123003784592873 -0.197196189326304 0.60593220338983
-0.116635276335226 -0.206867767946131 0.60593220338983
-0.106142535716736 -0.221907402128544 0.60593220338983
-0.0981455099268826 -0.231753859937777 0.60593220338983
-0.0866920227685587 -0.243630225904195 0.60593220338983
-0.0810262930699192 -0.247049969141966 0.60593220338983
-0.0684715220481258 -0.259005477947134 0.60593220338983
-0.0599493616583556 -0.268101471747329 0.60593220338983
-0.0499042273552985 -0.283309942031339 0.60593220338983
-0.0302517712455016 -0.297563537904276 0.60593220338983
-0.0317025222934611 -0.295179713955318 0.60593220338983
-0.0176938948245108 -0.312520534839157 0.60593220338983
-0.00665702300859957 -0.329086151693586 0.60593220338983
0.00701123849911309 -0.342584375648719 0.60593220338983
0.00999938260765963 -0.345979121047308 0.60593220338983
0.0185823435281836 -0.355087523286409 0.60593220338983
0.0348787010787332 -0.368155489880344 0.60593220338983
0.0433876676125919 -0.385377754034315 0.60593220338983
0.0450324691083285 -0.385480590655313 0.60593220338983
0.0532219591252713 -0.401983628259783 0.60593220338983
0.0601204027050297 -0.410607696662846 0.60593220338983
0.0843470188967516 -0.42935710279091 0.60593220338983
0.0825892898003189 -0.432054765762905 0.60593220338983
0.095355266633985 -0.449536912741843 0.60593220338983
0.106379877026481 -0.459044332706011 0.60593220338983
0.11572089013654 -0.471434820951247 0.60593220338983
0.132559281442579 -0.489099156253583 0.60593220338983
0.138530892914848 -0.491247550908276 0.60593220338983
-0.5 0.254717421743663 0.532200243383416
-0.5 0.257352543664222 0.535578831404901
-0.5 0.25369809056003 0.539950572754729
-0.5 0.25634568712974 0.54627129316353
-0.5 0.260313513024536 0.560420272369518
-0.5 0.259088998039461 0.572631699015609
-0.5 0.256052853630317 0.572743666710203
-0.499834438683377 0.257109249371725 0.591101694915254
-0.498650960223139 0.253027339003186 0.591101694915254
-0.5 0.257130740464402 0.604512309671737
-0.499444347412071 0.251822306822412 0.60593220338983
-0.490102273207218 0.247879852382171 0.60593220338983
-0.485243855975546 0.246052539268237 0.60593220338983
-0.482635979978963 0.234686420258161 0.60593220338983
-0.474101802975378 0.228291965956158 0.60593220338983
-0.472661253340819 0.2202620430819 0.60593220338983
-0.460684891248665 0.210591815300771 0.60593220338983
-0.453892388483619 0.20464074349614 0.60593220338983
-0.455269291403926 0.201747304331909 0.60593220338983
-0.444942702022891 0.192822330140764 0.60593220338983
-0.436953752939162 0.188070583444119 0.60593220338983
-0.435751797703301 0.186799084597385 0.60593220338983
-0.430804513862762 0.178978968823698 0.60593220338983
-0.418875630156895 0.160100386811727 0.60593220338983
-0.421242889837707 0.159770818653943 0.60593220338983
-0.414499877408491 0.149138761786721 0.60593220338983
-0.402839592844121 0.147805990001243 0.60593220338983
-0.39427751440113 0.133472507652185 0.60593220338983
-0.394903934288378 0.129571845769648 0.60593220338983
-0.388164936289448 0.12578846508245 0.60593220338983
-0.380705235662843 0.11410177895048 0.60593220338983
-0.375426364313482 0.106938148686483 0.60593220338983
-0.361028562839547 0.0954054937933658 0.60593220338983
-0.356018600347993 0.0953614552174742 0.60593220338983
-0.353553649129932 0.0851847251113886 0.60593220338983
-0.346067719898036 0.0819074365819974 0.60593220338983
-0.344747701564545 0.0736273639400733 0.60593220338983
-0.335378401416788 0.059980813901152 0.60593220338983
-0.325844124615603 0.0575849811501259 0.60593220338983
-0.323297895270269 0.0517916032391388 0.60593220338983
-0.31070445006054 0.0419907552712647 0.60593220338983
-0.302959461100917 0.0287731820160475 0.60593220338983
-0.294674935154089 0.0228988130230064 0.60593220338983
-0.294372210004895 0.0134533239826458 0.60593220338983
-0.286918172578571 0.0156479345471381 0.60593220338983
-0.27454983538289 -0.00686450476202276 0.60593220338983
-0.272019447807029 -0.0111295788314328 0.60593220338983
-0.268065981719348 -0.019537979396342 0.60593220338983
-0.256030464938922 -0.0216690470223568 0.60593220338983
-0.248112468855675 -0.0389834762095419 0.60593220338983
-0.237135558557651 -0.0432380374308982 0.60593220338983
-0.231380619806823 -0.0554371821515471 0.60593220338983
-0.223050935870382 -0.0602696469257625 0.60593220338983
-0.216538965929025 -0.0718433097745903 0.60593220338983
-0.206562694952632 -0.0867690251291869 0.60593220338983
-0.199267861690603 -0.0869104818084996 0.60593220338983
-0.199393830136039 -0.0945771102280663 0.60593220338983
-0.190185246816671 -0.101738951268042 0.60593220338983
-0.176352605072042 -0.117684719029872 0.60593220338983
-0.170584521185326 -0.126374259254328 0.60593220338983
-0.162446027555579 -0.134302601660645 0.60593220338983
-0.154964170009346 -0.139963566537506 0.60593220338983
-0.146014624361441 -0.151312322521605 0.60593220338983
-0.14221174332272 -0.153453537540608 0.60593220338983
-0.128823414481752 -0.170607219899976 0.60593220338983
-0.117188128213935 -0.183471720376396 0.60593220338983
-0.111432596102834 -0.195481343142973 0.60593220338983
-0.101354616403952 -0.198295610507297 0.60593220338983
-0.0958463321158641 -0.208010273483547 0.60593220338983
-0.0927879452721017 -0.21673170859201 0.60593220338983
-0.0804430558925612 -0.235561122399353 0.60593220338983
-0.0648203541837055 -0.237678934142101 0.60593220338983
-0.0557500167938668 -0.253900231167515 0.60593220338983
-0.0539343444980672 -0.26277857953192 0.60593220338983
-0.0404961378047319 -0.272835869006246 0.60593220338983
-0.0293134030344381 -0.292539975531262 0.60593220338983
-0.0191476187077915 -0.295078078191418 0.60593220338983
-0.0137484428434806 -0.309429454964095 0.60593220338983
-0.00485659042289329 -0.3111507445601 0.60593220338983
0.000935662606793398 -0.325134359025908 0.60593220338983
0.0208113573934198 -0.334672225876712 0.60593220338983
