ply
format ascii 1.0
element vertex 848
property float x
property float y
property float z
end_header
-0.2642147385802 -0.0443070983118485 0.379032258064516
-0.26171382282691 -0.0547345421293968 0.379032258064516
-0.263393835083063 -0.0758135855647546 0.379032258064516
-0.265313273650729 -0.0829231424076815 0.379032258064516
-0.264555816854331 -0.100387812491321 0.379032258064516
-0.268753889691377 -0.103588696187955 0.379032258064516
-0.273993930678019 -0.125362922373956 0.379032258064517
-0.267349164600341 -0.136069209473483 0.379032258064516
-0.273777363839408 -0.134978034119025 0.379032258064516
-0.27265995859808 -0.156685930588902 0.379032258064516
-0.276411113352628 -0.169195242678538 0.379032258064516
-0.274096359271109 -0.185233342795165 0.379032258064516
-0.277508422560002 -0.188431282942899 0.379032258064516
-0.280692389309914 -0.201157423834209 0.379032258064516
-0.27920929533363 -0.231497366531009 0.379032258064517
-0.281052609991704 -0.236211688525501 0.379032258064516
-0.282437199258309 -0.243675528876281 0.379032258064516
-0.285712881595202 -0.258059503226721 0.381720430107527
-0.235727851687218 0.166306807865678 0.155913978494624
-0.235877070719032 0.149646671220037 0.155913978494623
-0.233468325185078 0.142124507763982 0.155913978494624
-0.240612933077592 0.140161460944445 0.155913978494624
-0.23701993229553 0.132808127245158 0.155913978494624
-0.242854095905929 0.12507203511261 0.155913978494624
-0.24296893672813 0.100488861691737 0.155913978494624
-0.240372827439164 0.101159046816303 0.155913978494624
-0.24059192090757 0.0810065706560633 0.155913978494623
-0.239845770028783 0.0759655598025128 0.155913978494624
-0.246851431530671 0.069826947971998 0.155913978494623
-0.22888472400057 0.258064516129032 0.356742775557775
-0.228477494570894 0.258064516129032 0.351153776411177
-0.231088386982797 0.258064516129032 0.365526244242888
-0.231151474993647 0.257851120504334 0.381720430107527
-0.2255679662996 0.248764386861254 0.381720430107527
-0.226339025534915 0.239495525092767 0.379032258064516
-0.235698798224973 0.223572346738164 0.379032258064516
-0.229792199320877 0.224064740311735 0.379032258064516
-0.236136360556568 0.215199870917286 0.379032258064516
-0.22942854712072 0.203126522571598 0.379032258064516
-0.233547688374658 0.188120144332674 0.379032258064517
-0.231820867625511 0.173872773605459 0.379032258064516
-0.23161193732914 0.170403697585385 0.379032258064516
-0.231591774865488 0.161909483815989 0.379032258064516
-0.239211589216835 0.153311356901519 0.379032258064516
-0.237001839845363 0.140788032282268 0.379032258064517
-0.240925804692037 0.130463116807622 0.379032258064516
-0.23916920422377 0.122391409424992 0.379032258064516
-0.243179228445548 0.105594438644649 0.379032258064516
-0.244043575906646 0.0979367810012874 0.379032258064516
-0.243928457304924 0.086250508786746 0.379032258064516
-0.240463773426403 0.0742842837395944 0.379032258064516
-0.241843131756729 0.068446541049549 0.379032258064516
-0.249156631545006 0.0574191200242402 0.379032258064516
-0.242899271051641 0.0482053176873276 0.379032258064516
-0.248099572593693 0.0364299792795293 0.379032258064516
-0.244645548558119 0.0126477295239276 0.379032258064516
-0.252005126272265 0.0191145466584066 0.379032258064516
-0.2492097457778 0.00423845161089341 0.379032258064517
-0.249396185455739 -0.0185540781525294 0.379032258064516
-0.251028696325234 -0.0243293080586591 0.379032258064516
-0.256676801845885 -0.0275290307571364 0.379032258064516
-0.25108523851383 -0.0439220605666235 0.379032258064516
-0.250330473073825 -0.054065754739256 0.379032258064516
-0.257782180753876 -0.0686599801949242 0.379032258064516
-0.253192588114748 -0.0904022491042126 0.379032258064516
-0.261121872605641 -0.0998167496127537 0.379032258064516
-0.255562104346799 -0.113074289751298 0.379032258064516
-0.259305983662542 -0.119429032874176 0.379032258064516
-0.265611384774625 -0.127983448169755 0.379032258064516
-0.265136068396677 -0.142982037226217 0.379032258064516
-0.267466805358056 -0.159543709998723 0.379032258064516
-0.269125738185797 -0.169788431570559 0.379032258064516
-0.267385697222897 -0.178329541484919 0.379032258064516
-0.266469264561736 -0.195838063895045 0.379032258064516
-0.268731929910521 -0.21152755263895 0.379032258064516
-0.27171315376038 -0.212983225812111 0.379032258064516
-0.26980227644589 -0.229149973968342 0.379032258064516
-0.27034931073372 -0.254781491799169 0.381720430107527
-0.228095896709209 0.167357617640866 0.155913978494624
-0.223612791692938 0.154262992072365 0.155913978494624
-0.22407193097595 0.139820425499299 0.155913978494624
-0.229083037464382 0.133200482808265 0.155913978494624
-0.233412604343726 0.123502296014078 0.155913978494624
-0.234057979262532 0.124270147982606 0.155913978494624
-0.235487125169969 0.100396364121496 0.155913978494623
-0.229717723764932 0.0995736114667804 0.155913978494624
-0.231353206420884 0.0967301598097906 0.155913978494624
-0.235433296183935 0.0719404305707967 0.155913978494623
-0.219860434662282 0.258064516129032 0.346227046741453
-0.218121279013578 0.258064516129032 0.349063605503199
-0.22317088351446 0.258064516129032 0.355020087894876
-0.221110719382582 0.258064516129032 0.372307180707479
-0.218964700038843 0.258064516129032 0.379315653025584
-0.217287692891097 0.253120152343208 0.381720430107527
-0.221537183395467 0.234141342854421 0.379032258064516
-0.218132443079348 0.233820243092417 0.379032258064516
-0.226809475224849 0.219664073834302 0.379032258064516
-0.22184226435332 0.209557560656371 0.379032258064516
-0.223608841587122 0.198432016882653 0.379032258064516
-0.22566795136705 0.196008419938209 0.379032258064516
-0.230182474191482 0.183960612465219 0.379032258064516
-0.224235300725529 0.170796242056014 0.379032258064516
-0.227428826444746 0.163697818934127 0.379032258064516
-0.230523603473435 0.151674281229092 0.379032258064516
-0.227210560925288 0.143975811339463 0.379032258064516
-0.227026977134405 0.129971194822482 0.379032258064516
-0.23212407582636 0.118222870455558 0.379032258064516
-0.22680226294554 0.113096708352538 0.379032258064516
-0.23044480879643 0.0921001021971677 0.379032258064516
-0.236139383409012 0.0936268829636628 0.379032258064516
-0.235252320743088 0.0760724770560463 0.379032258064516
-0.237388652956034 0.0658795265788775 0.379032258064516
-0.234104313068595 0.0507527823916097 0.379032258064516
-0.239950785513734 0.0488769693333942 0.379032258064517
-0.234820552724974 0.0323498488179684 0.379032258064516
-0.236476238987873 0.0212997753620846 0.379032258064516
-0.243229541167883 0.0110078729605963 0.379032258064516
-0.241547526890122 -0.00583615995136488 0.379032258064516
-0.240552602725913 -0.0200003550944927 0.379032258064516
-0.243496988449425 -0.0269341106006339 0.379032258064516
-0.242084848323981 -0.0294512564680948 0.379032258064516
-0.242906897635954 -0.0480905232617165 0.379032258064516
-0.247054257971849 -0.0548443727528155 0.379032258064516
-0.250435807000382 -0.0780691059195432 0.379032258064516
-0.250671668716655 -0.0849500122146717 0.379032258064517
-0.242829669687581 -0.0910646797782023 0.379032258064516
-0.248478556792018 -0.101229526584163 0.379032258064516
-0.25010759207003 -0.111182819586844 0.379032258064517
-0.255074497558928 -0.125990518557901 0.379032258064516
-0.256957715587084 -0.15264914534218 0.379032258064516
-0.248206175088054 -0.15680467714883 0.379032258064516
-0.249300941431199 -0.168616424244102 0.379032258064517
-0.259306481985514 -0.188125071558623 0.379032258064516
-0.251768495823938 -0.191787563521271 0.379032258064516
-0.258535027186529 -0.213670502180515 0.379032258064516
-0.254573794287992 -0.21866789272658 0.379032258064516
-0.25502904143896 -0.233221483543895 0.379032258064516
-0.256120740682294 -0.24731182795699 0.379546343033059
-0.215295594755376 0.170254800557196 0.155913978494624
-0.217897230987339 0.156897695994829 0.155913978494624
-0.214132508581541 0.14700069410636 0.155913978494624
-0.222387031140315 0.133235203191167 0.155913978494624
-0.21806503990147 0.125047689877138 0.155913978494624
-0.225354395561124 0.117302207236716 0.155913978494623
-0.218432834300122 0.108160024941307 0.155913978494623
-0.222652416403896 0.104142049040406 0.155913978494624
-0.223113838614271 0.0858331484665375 0.155913978494623
-0.222357982957296 0.0772626180093124 0.155913978494624
-0.22088022976631 0.0700207743413905 0.155913978494624
-0.210783358853717 0.258064516129032 0.342415263422079
-0.209202447348798 0.258064516129032 0.362187871563699
-0.205587656786193 0.258064516129033 0.367961437727684
-0.209344384440507 0.258064516129032 0.377177911552418
-0.211161688780957 0.244112183210509 0.379032258064516
-0.212310620356748 0.240356136169133 0.379032258064516
-0.211562195221861 0.231604659589203 0.379032258064516
-0.212614693294213 0.221700650010123 0.379032258064516
-0.217391643645106 0.21414532642205 0.379032258064516
-0.213582726481887 0.198445711751441 0.379032258064516
-0.21428746049041 0.187313488257821 0.379032258064516
-0.220876633408622 0.17763704825394 0.379032258064517
-0.218694103073942 0.173788616680475 0.379032258064516
-0.222508952571507 0.156484836580596 0.379032258064516
-0.221749271288909 0.149834476960004 0.379032258064516
-0.223101578482648 0.143956009235503 0.379032258064517
-0.216823405825348 0.132912098308613 0.379032258064516
-0.219305563622281 0.121683907314056 0.379032258064516
-0.223874003358887 0.113345454749529 0.379032258064516
-0.22076806590974 0.0934914398821778 0.379032258064516
-0.227778351397131 0.0929963502964404 0.379032258064516
-0.226945408282693 0.0839749960602934 0.379032258064516
-0.220408089460324 0.070752133604497 0.379032258064516
-0.228507012034918 0.0617455182909704 0.379032258064516
-0.228812869829091 0.0453312088949034 0.379032258064517
-0.22538493372464 0.0308168501967578 0.379032258064517
-0.225292467874589 0.0213938000711758 0.379032258064516
-0.227069594930036 0.0129986728592683 0.379032258064516
-0.23322627882611 0.00450333017628683 0.379032258064516
-0.232557738705268 -0.0182091807463866 0.379032258064516
-0.234660195763853 -0.0236995497358171 0.379032258064516
-0.230873551236007 -0.0405614771209767 0.379032258064516
-0.236167314105812 -0.0402141954232932 0.379032258064516
-0.230939805841171 -0.0621835440256255 0.379032258064516
-0.237311830754203 -0.0715907147084892 0.379032258064516
-0.236560865247625 -0.0801890933096552 0.379032258064516
-0.232906194681418 -0.0975835138792 0.379032258064516
-0.234091383546977 -0.116960216868843 0.379032258064516
-0.242560964218871 -0.116059403037327 0.379032258064516
-0.243475363637757 -0.139337849459894 0.379032258064516
-0.237588315452867 -0.146002090411457 0.379032258064516
-0.243263226264611 -0.156663219171388 0.379032258064516
-0.247320486178647 -0.167746741924172 0.379032258064516
-0.246837293602955 -0.18202197608237 0.379032258064516
-0.245519493763841 -0.191395158724682 0.379032258064516
-0.246282664714074 -0.215658221456354 0.379032258064516
-0.248421338734165 -0.220423124847649 0.379032258064516
-0.246544038664664 -0.235538193551206 0.379032258064516
-0.253288409929488 -0.242326794834904 0.379032258064516
-0.203163581813958 0.165400807300977 0.155913978494624
-0.209471978316248 0.151620099482586 0.155913978494624
-0.209992358947914 0.154300010133402 0.155913978494623
-0.210566851529456 0.138459686082707 0.155913978494624
-0.208001501544155 0.131277875422993 0.155913978494624
-0.208800399724925 0.110197352415843 0.155913978494624
-0.210449080070632 0.102170057670675 0.155913978494624
-0.216191341016504 0.0990601970437516 0.155913978494624
-0.215187533928498 0.0945749188399578 0.155913978494624
-0.216192056926994 0.0797951897892685 0.155913978494624
-0.201740565883179 0.258064516129032 0.348027946764551
-0.20283249641575 0.258064516129033 0.348837160762782
-0.200528220656198 0.258064516129033 0.350765170243902
-0.204286646675632 0.258064516129032 0.365319981141319
-0.197525352512239 0.258064516129032 0.375080907042824
-0.205440692723668 0.250622632905613 0.381720430107527
-0.198522747660126 0.247805263513805 0.381720430107527
-0.207178722279859 0.229613931495787 0.379032258064516
-0.206189034297695 0.221261840833756 0.379032258064516
-0.208405565355639 0.213048932928935 0.379032258064516
-0.208777000289724 0.204845173729163 0.379032258064516
-0.202977180503435 0.192513179647527 0.379032258064517
-0.202177345937681 0.186891045168261 0.379032258064517
-0.204558489905646 0.169320578067826 0.379032258064516
-0.212627001768425 0.161661249040619 0.379032258064516
-0.206769573496144 0.152523048520712 0.379032258064516
-0.211924432488791 0.139043374381608 0.379032258064516
-0.214417912725 0.127085683245383 0.379032258064517
-0.209309459370319 0.118143876037208 0.379032258064516
-0.209332473434618 0.105158956318387 0.379032258064516
-0.207746216314147 0.0985911294239674 0.379032258064516
-0.210634594542528 0.0950850085115489 0.379032258064516
-0.211772755603045 0.0741318735503316 0.379032258064516
-0.215634298166079 0.0666427823866979 0.379032258064516
-0.212370779953442 0.0541846466677942 0.379032258064516
-0.213769818652391 0.047660687622387 0.379032258064516
-0.217402597441247 0.0306146046417076 0.379032258064516
-0.215776467042793 0.0212541361658885 0.379032258064516
-0.224117947488765 0.00949267942863908 0.379032258064516
-0.216677958250236 -0.00293269538201095 0.379032258064517
-0.220138824318966 -0.00911893677683946 0.379032258064516
-0.224884873092264 -0.0212816527797558 0.379032258064517
-0.221822927441116 -0.03694772448992 0.379032258064516
-0.223456799089227 -0.0485244695532386 0.379032258064517
-0.228816079629392 -0.065392039048277 0.379032258064516
-0.226104622641436 -0.0724303392301739 0.379032258064516
-0.228824002147655 -0.0906598543340091 0.379032258064516
-0.228012522991046 -0.0971885704516212 0.379032258064516
-0.228791182893091 -0.114093030074048 0.379032258064516
-0.226241517059502 -0.128689296164415 0.379032258064516
-0.22946627262484 -0.125237587488241 0.379032258064516
-0.235822208480656 -0.145965847613333 0.379032258064516
-0.235731201473213 -0.157312668667032 0.379032258064516
-0.231501327390989 -0.17353274467709 0.379032258064516
-0.237189286946461 -0.188093355032822 0.379032258064516
-0.238172011489884 -0.196674102528598 0.379032258064516
-0.23383699811616 -0.21436220414009 0.379032258064516
-0.232772791359628 -0.219422192636008 0.379032258064516
-0.233010338707814 -0.239624082613617 0.379032258064516
-0.234525820282111 -0.256675132616344 0.381720430107527
-0.237601274367974 -0.252265754980352 0.381720430107527
-0.196015068418294 0.16359431933024 0.155913978494624
-0.20223534890532 0.160618202612289 0.155913978494624
-0.199924350407608 0.150813462356774 0.155913978494624
-0.203445364345474 0.138601209554443 0.155913978494624
-0.205424623219568 0.131379393200475 0.155913978494624
-0.203044007135795 0.112553813583862 0.155913978494624
-0.199981724809328 0.110963765923465 0.155913978494624
-0.199630728280984 0.0970758757375522 0.155913978494624
-0.202732328001891 0.0898225954773283 0.155913978494624
-0.206203757874818 0.0789437200161938 0.155913978494623
-0.190967430284396 0.258064516129032 0.345517260861688
-0.188394978462249 0.258064516129032 0.350618929638778
-0.194761839028466 0.258064516129032 0.353272738325556
-0.191016221569585 0.258064516129032 0.375484040539838
-0.194509012364927 0.258064516129032 0.378002431458172
-0.192688298489585 0.248991272680242 0.381720430107527
-0.193086847814158 0.240289734438421 0.379032258064516
-0.192163682265286 0.229312977507352 0.379032258064516
-0.196625653376001 0.220426258769064 0.379032258064516
-0.198292614305092 0.208409029856642 0.379032258064516
-0.195119142493884 0.196065161999834 0.379032258064516
-0.192074794036443 0.184088753488681 0.379032258064516
-0.199321233703415 0.18607021270721 0.379032258064516
-0.202913958824825 0.17313563183798 0.379032258064516
-0.19946984391942 0.169122071434392 0.379032258064516
-0.202691992315391 0.15162837188273 0.379032258064516
-0.204661518254023 0.138152948184068 0.379032258064516
-0.203200885713831 0.123741070715621 0.379032258064516
-0.202568000509986 0.124670274982042 0.379032258064516
-0.201027600918283 0.109761987900432 0.379032258064516
-0.208186640038871 0.10028396159544 0.379032258064516
-0.202369304129737 0.0780402471869416 0.379032258064516
-0.201517203669457 0.0730390401669746 0.379032258064516
-0.206200076437895 0.0721150081920973 0.379032258064516
-0.205333185178825 0.0607319481559812 0.379032258064516
-0.205437247584984 0.0424826794955048 0.379032258064516
-0.20902319269035 0.0352901498872339 0.379032258064516
-0.212093924830439 0.0220518790425642 0.379032258064516
-0.204503832628368 0.0125021114772448 0.379032258064516
-0.209628939129792 -0.00397065046246789 0.379032258064516
-0.208628975803532 -0.0110787177523253 0.379032258064516
-0.215989130207061 -0.0245181832195479 0.379032258064516
-0.21174540795692 -0.0435715414094911 0.379032258064516
-0.215006684061245 -0.0510110672324929 0.379032258064516
-0.217861128533365 -0.054944640236175 0.379032258064516
-0.217107964035934 -0.0760666374862899 0.379032258064516
-0.219507351115235 -0.0834237666902547 0.379032258064516
-0.21738253117597 -0.0913583983886363 0.379032258064516
-0.214200585725596 -0.117827561130669 0.379032258064516
-0.218044756799679 -0.11324592119739 0.379032258064516
-0.219941492181692 -0.129576589595175 0.379032258064516
-0.222987801236844 -0.152929713554175 0.379032258064516
-0.216381649998724 -0.155429431664555 0.379032258064516
-0.224852604252282 -0.168978238521509 0.379032258064517
-0.218186475640304 -0.18494677912112 0.379032258064516
-0.222308295471783 -0.198547332835927 0.379032258064516
-0.222586442538939 -0.214024935451203 0.379032258064516
-0.221455264480549 -0.221156750803056 0.379032258064516
-0.226832992069556 -0.238516661513696 0.379032258064516
-0.227870044480878 -0.245716312966911 0.379032258064516
-0.184868199680398 0.160698778840927 0.155913978494624
-0.190554400534202 0.16228845814748 0.155913978494624
-0.18858868271633 0.146468187624988 0.155913978494624
-0.195491768814406 0.13359109542867 0.155913978494623
-0.192596905437066 0.122379808062139 0.155913978494624
-0.187284463086743 0.117058425356704 0.155913978494624
-0.188724658377983 0.101591451338153 0.155913978494624
-0.192709075823906 0.0970930276812406 0.155913978494624
-0.195425772991677 0.0829318588827492 0.155913978494624
-0.198433903769483 0.0725830963503766 0.155913978494624
-0.192562720245898 0.0737787451507036 0.155913978494624
-0.179201553173292 0.258064516129033 0.350292833901008
-0.179686932860378 0.258064516129032 0.354627057774288
-0.184122513277293 0.258064516129032 0.371429014417765
-0.18592950475248 0.258064516129032 0.373232117892619
-0.18717316580927 0.258064516129032 0.377654784063123
-0.184071935560395 0.241869913865591 0.379032258064516
-0.180596206464728 0.229647696384249 0.379032258064516
-0.183789680392242 0.217008210637648 0.379032258064516
-0.183303924982781 0.207354889753152 0.379032258064516
-0.182555859963138 0.210035224393805 0.379032258064516
-0.183867582247945 0.194671336688103 0.379032258064516
-0.187723330740975 0.183050949414427 0.379032258064516
-0.184763391110037 0.171894179020721 0.379032258064517
-0.192590714897624 0.159867323133296 0.379032258064517
-0.191422079736754 0.1564212993784 0.379032258064516
-0.18937423972671 0.139842220527356 0.379032258064516
-0.193964695035954 0.127523670799401 0.379032258064516
-0.187246102998545 0.121899001197807 0.379032258064516
-0.190246052231357 0.109511386013342 0.379032258064516
-0.189658071705819 0.0955393138619909 0.379032258064516
-0.191592196613299 0.0908070488092645 0.379032258064516
-0.193819257228925 0.0771080247843234 0.379032258064516
-0.193460306607353 0.0583677183887063 0.379032258064516
-0.201039066500716 0.0554587187869909 0.379032258064517
-0.192629998897736 0.0465636818822486 0.379032258064516
-0.196223376015013 0.0328093632836984 0.379032258064516
-0.197838380324919 0.0203326749602833 0.379032258064516
-0.198744982907194 0.0123682679764088 0.379032258064517
-0.204564035657663 0.00165931383436253 0.379032258064516
-0.197299788668453 -0.00603984031238127 0.379032258064516
-0.199087031571801 -0.0227317442378827 0.379032258064517
-0.20400811790402 -0.0344076850959803 0.379032258064517
-0.198975455403335 -0.0525965951954044 0.379032258064516
-0.201737770417118 -0.0550698834881207 0.379032258064516
-0.203113184350569 -0.0702783735795294 0.379032258064516
-0.207471777899806 -0.0797280903937458 0.379032258064516
-0.210790091197015 -0.0994799765281355 0.379032258064516
-0.207149268128024 -0.10119615111796 0.379032258064516
-0.210555596363645 -0.126714202919575 0.379032258064516
-0.209569535812493 -0.127987631412506 0.379032258064517
-0.209948528955928 -0.143152881779163 0.379032258064516
-0.207247214956163 -0.162184953063944 0.379032258064516
-0.216186793029724 -0.174234773209345 0.379032258064516
-0.215645003456484 -0.17927086037015 0.379032258064517
-0.20861823306703 -0.191356261954951 0.379032258064517
-0.216274373490379 -0.210925704200763 0.379032258064516
-0.219191492491855 -0.22368456547111 0.379032258064517
-0.216647912436569 -0.237590255433107 0.379032258064516
-0.212769146690313 -0.245397079231478 0.379032258064516
-0.1820446637666 0.170912751613208 0.155913978494624
-0.180492239143853 0.151300072032503 0.155913978494623
-0.183295766408383 0.143589998417453 0.155913978494624
-0.179028488815453 0.134767104430558 0.155913978494624
-0.181551250548306 0.130074229072535 0.155913978494624
-0.185595684770479 0.115753891370161 0.155913978494624
-0.18271535470228 0.10488449698578 0.155913978494624
-0.18287441888122 0.10159920708653 0.155913978494624
-0.1877830699288 0.0823660995706649 0.155913978494624
-0.181754728534327 0.080831736937185 0.155913978494624
-0.175141650644049 0.258064516129033 0.342120915929314
-0.177226534720015 0.258064516129032 0.346896403396081
-0.176946696221513 0.258064516129032 0.355211923457634
-0.173166670339838 0.258064516129032 0.367973253518272
-0.172698234865949 0.258064516129032 0.375061893032467
-0.172708198593352 0.249062226120733 0.381720430107527
-0.173195114271373 0.23757110293584 0.379032258064517
-0.178053103028032 0.231425629696078 0.379032258064516
-0.175839715657978 0.218483940401394 0.379032258064516
-0.177957713999869 0.21233508222844 0.379032258064516
-0.180948119982843 0.205071913073707 0.379032258064516
-0.176556544424751 0.199546888098603 0.379032258064516
-0.181850546173911 0.173853933756698 0.379032258064516
-0.179534207902329 0.177264961760905 0.379032258064517
-0.18052844520583 0.160848204118251 0.379032258064516
-0.181747170292186 0.15518981087363 0.379032258064516
-0.183388297093312 0.144152773871725 0.379032258064516
-0.18208287314364 0.133892184627647 0.379032258064516
-0.181377494913846 0.122955012025806 0.379032258064517
-0.182070202513276 0.111791003343465 0.379032258064516
-0.18844135933172 0.0963596357713532 0.379032258064516
-0.185410340414441 0.0909991750968946 0.379032258064516
-0.183912421477539 0.0776212110251473 0.379032258064516
-0.184611357493277 0.0715576760272636 0.379032258064517
-0.188240566332119 0.0566994840684516 0.379032258064516
-0.18897994493975 0.0447629586564063 0.379032258064516
-0.187809614131182 0.0331616724490705 0.379032258064516
-0.191217361493129 0.0271053001191589 0.379032258064516
-0.19179558599433 0.00912042936511328 0.379032258064516
-0.186280981721582 0.00361855017947008 0.379032258064516
-0.185993177457564 -0.0104399388107479 0.379032258064516
-0.191070862750689 -0.0195923570792695 0.379032258064516
-0.190102239067939 -0.031639595034647 0.379032258064516
-0.192343189346524 -0.0442681426437884 0.379032258064516
-0.192432142867254 -0.0554671917390775 0.379032258064516
-0.196302447806153 -0.0786047561764141 0.379032258064516
-0.195350916775563 -0.0792785962627325 0.379032258064517
-0.193087691885242 -0.0987266769630639 0.379032258064516
-0.199879457488604 -0.108665929461107 0.379032258064516
-0.193535746335386 -0.121052192134948 0.379032258064516
-0.197966490162826 -0.137403552897462 0.379032258064516
-0.199972171450835 -0.136240183796159 0.379032258064516
-0.201516531911885 -0.156462248633305 0.379032258064516
-0.195926213167586 -0.171973534886577 0.379032258064516
-0.205297846519569 -0.179037424128268 0.379032258064516
-0.203370854577034 -0.201729263851015 0.379032258064516
-0.207984119757933 -0.212930770113428 0.379032258064517
-0.202323269278135 -0.226095613335013 0.379032258064516
-0.208280973817815 -0.237341865365722 0.379032258064516
-0.210071308717178 -0.249772118714334 0.381720430107527
-0.16817689711527 0.159533440198103 0.155913978494624
-0.168217565239629 0.150467251180491 0.155913978494624
-0.167245136327472 0.144011610882231 0.155913978494624
-0.169103788489437 0.134058245740227 0.155913978494624
-0.171467333930352 0.125549336388942 0.155913978494624
-0.168362037143878 0.113205400183255 0.155913978494624
-0.17751016237686 0.106164507083099 0.155913978494623
-0.172766725093856 0.096946351026977 0.155913978494624
-0.171146490874245 0.0849189036953913 0.155913978494623
-0.174845813222867 0.0824944530441269 0.155913978494623
-0.164080745129282 0.258064516129032 0.345974707245862
-0.162014108792154 0.258064516129032 0.34466658672238
-0.168057327094281 0.258064516129032 0.36041516053263
-0.165818050554649 0.258064516129032 0.364518590057172
-0.16350547885582 0.258064516129033 0.380860558449217
-0.160648437512513 0.252565615848783 0.381720430107527
-0.166579464840982 0.249262645054012 0.381720430107527
-0.165916016279433 0.229364087472226 0.379032258064517
-0.16655237026391 0.214471152106164 0.379032258064516
-0.169296570745467 0.20295528791363 0.379032258064516
-0.164467396789305 0.202469629871984 0.379032258064516
-0.167673939190874 0.196914356342523 0.379032258064516
-0.17181315659712 0.188161930584107 0.379032258064516
-0.168095197274332 0.170837940736569 0.379032258064516
-0.174194913722105 0.15791327615648 0.379032258064516
-0.172138993401405 0.148892061089715 0.379032258064516
-0.169793943156575 0.144645911655651 0.379032258064516
-0.173906929859047 0.135208764868087 0.379032258064516
-0.173046470796627 0.117888651979878 0.379032258064516
-0.172848549235648 0.11129344038817 0.379032258064516
-0.172702020953769 0.105611435322548 0.379032258064516
-0.173369557118794 0.0846036998625885 0.379032258064516
-0.179259985922794 0.0757953375295506 0.379032258064516
-0.173315701975126 0.0595107578995767 0.379032258064516
-0.173774486443029 0.0598499010384 0.379032258064516
-0.178250865403994 0.0467536287193254 0.379032258064516
-0.17505022111392 0.0367190963226697 0.379032258064517
-0.176374925934586 0.026278371664281 0.379032258064517
-0.177797074486685 0.015870174449362 0.379032258064516
-0.18119219214522 0.00123122510013623 0.379032258064516
-0.184265528803077 -0.0192858481426834 0.379032258064516
-0.179682695572003 -0.0167542573460664 0.379032258064516
-0.181990081687719 -0.0426331071919159 0.379032258064516
-0.181745974370264 -0.0422806085311984 0.379032258064516
-0.184984810628151 -0.0569533441599038 0.379032258064516
-0.182949392682326 -0.0730987458671466 0.379032258064516
-0.187769025228403 -0.0925616305014956 0.379032258064516
-0.180746651435388 -0.089128335765879 0.379032258064516
-0.185993905617719 -0.108438701419429 0.379032258064516
-0.186065803440566 -0.1172456197438 0.379032258064516
-0.188897444100589 -0.13418328273706 0.379032258064516
-0.187493349984577 -0.141115257060257 0.379032258064516
-0.188028660164546 -0.155559100280996 0.379032258064516
-0.191736932801285 -0.173214387731746 0.379032258064517
-0.1919557918436 -0.175390068514488 0.379032258064516
-0.190662515768134 -0.198128796234889 0.379032258064516
-0.195424697097428 -0.217453602626639 0.379032258064516
-0.193958008356376 -0.226348710045934 0.379032258064516
-0.196867783290176 -0.229249395781643 0.379032258064516
-0.199841456439663 -0.247311827956989 0.379840713582909
-0.199828477450634 -0.252117860516947 0.381720430107527
-0.164889020232749 0.166895132150253 0.155913978494624
-0.164858423014194 0.155654791126719 0.155913978494624
-0.162265573204854 0.139976913084876 0.155913978494624
-0.16496080055324 0.140215516912617 0.155913978494624
-0.160088584931523 0.121468087528031 0.155913978494624
-0.158300565476951 0.117533005757997 0.155913978494623
-0.168549981457142 0.108974721599897 0.155913978494623
-0.166868501420331 0.100693984574618 0.155913978494624
-0.166170061849955 0.0871310775589246 0.155913978494623
-0.161984009907519 0.0757984095890501 0.155913978494624
-0.167015748232895 0.0678835816062629 0.155913978494623
-0.154256140623066 0.258064516129032 0.348486003168343
-0.151067454583614 0.258064516129032 0.359688613715557
-0.15739880086339 0.258064516129033 0.364227457718842
-0.157605950912552 0.258064516129033 0.374478206111497
-0.154095474322467 0.257385452615435 0.381720430107527
-0.154926620699305 0.250276896596133 0.381720430107527
-0.155944827070524 0.231591227657146 0.379032258064516
-0.159127873113542 0.2168470725258 0.379032258064516
-0.159720444168546 0.208414664475118 0.379032258064516
-0.160725006037657 0.206000940641869 0.379032258064516
-0.155168242592364 0.190295043819995 0.379032258064516
-0.157337467137316 0.175316161014759 0.379032258064516
-0.16355967369446 0.163573577084492 0.379032258064517
-0.162580841823537 0.159959963442249 0.379032258064516
-0.164612670626525 0.155459644886897 0.379032258064516
-0.16197349791202 0.142234098808263 0.379032258064517
-0.167250986662127 0.128311789983021 0.379032258064516
-0.162738517965554 0.126822200235303 0.379032258064516
-0.163075811587607 0.115518011888692 0.379032258064516
-0.16537478549154 0.0986147376348752 0.379032258064516
-0.161952035796159 0.0957022379284101 0.379032258064516
-0.170604445988311 0.0715754541010876 0.379032258064516
-0.166992049131026 0.0672209860415742 0.379032258064516
-0.169895360512017 0.058708160690378 0.379032258064516
-0.163662777189424 0.0381317982079635 0.379032258064517
-0.164114253234507 0.0360316387128908 0.379032258064516
-0.167717835639291 0.0221613240734433 0.379032258064516
-0.167969800932004 0.00570039473535838 0.379032258064516
-0.172369806870899 -0.00216261765038109 0.379032258064516
-0.167109558332432 -0.0172823239638454 0.379032258064516
-0.170958408153868 -0.0258814015267922 0.379032258064516
-0.176357729547617 -0.038229256979211 0.379032258064516
-0.17482941364355 -0.0485443928840024 0.379032258064516
-0.176551075251243 -0.0546882546269202 0.379032258064516
-0.168743796107704 -0.0640045420246734 0.379032258064516
-0.173090722181471 -0.0875523574428937 0.379032258064516
-0.178255079925311 -0.095098691770143 0.379032258064516
-0.180695644827651 -0.107679034877764 0.379032258064516
-0.18031094628002 -0.11554066679066 0.379032258064516
-0.182285726926746 -0.132505773550712 0.379032258064516
-0.177838004812662 -0.143627088757996 0.379032258064516
-0.179399962041029 -0.160970547804657 0.379032258064516
-0.179537905921682 -0.169042021670702 0.379032258064516
-0.176687982382126 -0.177216410287178 0.379032258064516
-0.177647634906128 -0.197336538592529 0.379032258064516
-0.183172153483072 -0.205112580373153 0.379032258064516
-0.18452197969664 -0.219221258514025 0.379032258064516
-0.179857648203943 -0.236919623130069 0.379032258064516
-0.182148697496172 -0.251816359074327 0.381720430107527
-0.184379674363036 -0.250771355058584 0.381720430107527
-0.149140355101672 0.16329085133273 0.155913978494624
-0.147520550286224 0.152617016834 0.155913978494624
-0.149096816339618 0.144141960017144 0.155913978494624
-0.153412425233265 0.129091751839001 0.155913978494624
-0.155651799568316 0.127743549579916 0.155913978494624
-0.154296683119998 0.12005255892576 0.155913978494624
-0.151202156753798 0.106898344765036 0.155913978494623
-0.159371547658088 0.0918295775231574 0.155913978494624
-0.150557134321349 0.0914217971618621 0.155913978494624
-0.156685158952451 0.0760682773623115 0.155913978494624
-0.156640727277842 0.0668848556543775 0.155913978494623
-0.142174564259916 0.258064516129032 0.348675306091991
-0.145201986545475 0.258064516129032 0.35811327908136
-0.142686361923797 0.258064516129033 0.368162681096034
-0.145861856608879 0.258064516129032 0.372263638099388
-0.148109141812662 0.249906295881833 0.381720430107527
-0.144296891955089 0.238436604213868 0.379032258064517
-0.151546358652632 0.228461940368767 0.379032258064516
-0.148318609895762 0.217749568269148 0.379032258064517
-0.149248012846204 0.217817036207813 0.379032258064516
-0.149095826263579 0.205530375880127 0.379032258064516
-0.150716907093028 0.188108131504732 0.379032258064516
-0.14755065628096 0.184640753644183 0.379032258064516
-0.149394292600292 0.166081282958141 0.379032258064517
-0.151927016432099 0.157337132161007 0.379032258064516
-0.149971199071491 0.153127069179851 0.379032258064516
-0.149820659941817 0.141892348719384 0.379032258064516
-0.153086274750883 0.128397893834994 0.379032258064516
-0.150573488501053 0.127123007033648 0.379032258064516
-0.149339455473969 0.116525539343749 0.379032258064516
-0.153349310913907 0.0916430961810807 0.379032258064516
-0.157223874508914 0.0797806829237837 0.379032258064516
-0.150954841606243 0.0797484790495536 0.379032258064516
-0.152240660346128 0.0649025442962231 0.379032258064516
-0.153445889541323 0.0475212612337595 0.379032258064516
-0.156608532601874 0.048880479232907 0.379032258064516
-0.158362741708211 0.0327164643477238 0.379032258064516
-0.15480303087947 0.0203521855411373 0.379032258064517
-0.161457563088664 0.00178750746876339 0.379032258064516
-0.164860272952785 0.00525517145966816 0.379032258064516
-0.164457696923333 -0.00653700220143222 0.379032258064516
-0.163994617565377 -0.0229603258097296 0.379032258064516
-0.164941771765404 -0.0373220204335464 0.379032258064516
-0.158538754385328 -0.052708472088187 0.379032258064517
-0.159335347929537 -0.0631650811434451 0.379032258064516
-0.16754612917776 -0.0747666929254679 0.379032258064516
-0.161298935852578 -0.0876234633264788 0.379032258064516
-0.161278448850528 -0.101051783199676 0.379032258064516
-0.165844504725679 -0.110110804482565 0.379032258064516
-0.170371212279164 -0.126413988996176 0.379032258064516
-0.16907790508714 -0.139797283000806 0.379032258064516
-0.168013144962978 -0.151709454508506 0.379032258064516
-0.166346185263337 -0.155996821882017 0.379032258064517
-0.169958611711349 -0.159496382491081 0.379032258064516
-0.166866942006976 -0.185641014702887 0.379032258064516
-0.169342154498784 -0.187747581829897 0.379032258064516
-0.170700018993744 -0.208341254683141 0.379032258064516
-0.171184228683144 -0.223633289972602 0.379032258064516
-0.171639564829902 -0.227807173496059 0.379032258064516
-0.170345221465491 -0.247311827956989 0.379590380592156
-0.169299337842694 -0.25468870713021 0.381720430107527
-0.145802961900756 0.172946731690685 0.155913978494624
-0.144902229977143 0.154975300271963 0.155913978494624
-0.147624870725014 0.147580426628457 0.155913978494623
-0.147354331296536 0.136000904330351 0.155913978494624
-0.14295918110252 0.124892392857616 0.155913978494624
-0.143309419372597 0.112714017480123 0.155913978494624
-0.144714055039284 0.102303526999649 0.155913978494624
-0.144352238482648 0.0999053398855506 0.155913978494624
-0.140819856771473 0.0917310970178946 0.155913978494624
-0.143855144403198 0.0749192868111573 0.155913978494624
-0.144772156679745 0.0684817984981188 0.155913978494624
-0.141097797329574 0.258064516129032 0.355895419561712
-0.134841362702484 0.258064516129032 0.359920586824432
-0.138687511206159 0.258064516129032 0.36722362973389
-0.132647437667681 0.258064516129032 0.372658698726687
-0.138434688033863 0.252522348285719 0.381720430107527
-0.136411875776994 0.236141659595486 0.379032258064516
-0.14003285988485 0.229833643065211 0.379032258064516
-0.135424965420159 0.22105775131627 0.379032258064516
-0.139906740952281 0.205326417756782 0.379032258064516
-0.143013112368081 0.199127843949478 0.379032258064516
-0.141391726454484 0.191283436640234 0.379032258064516
-0.137870737151788 0.18016590288619 0.379032258064516
-0.139699728713171 0.174437796452386 0.379032258064516
-0.145265923065272 0.160471544533497 0.379032258064516
-0.145943070963365 0.144421346206698 0.379032258064517
-0.139594193350942 0.139432941017053 0.379032258064516
-0.139236915892939 0.137628124056838 0.379032258064517
-0.146496752551194 0.121483180631984 0.379032258064516
-0.140016534807268 0.108824396371887 0.379032258064516
-0.142514531112628 0.102576604057362 0.379032258064516
-0.143153973674704 0.0836626457689852 0.379032258064516
-0.145231257261351 0.0778830057596298 0.379032258064517
-0.146812133960496 0.0678708311257045 0.379032258064517
-0.145338346848831 0.052287106690841 0.379032258064516
-0.150143057847279 0.0420656336767697 0.379032258064517
-0.145705126698588 0.028272904471196 0.379032258064516
-0.151213265388909 0.0207727705010617 0.379032258064516
-0.148059827861756 0.00245975621396084 0.379032258064516
-0.151776829764939 -0.00879689941992422 0.379032258064516
-0.150769082705746 -0.00717406251439028 0.379032258064517
-0.154123468683644 -0.03116690466426 0.379032258064516
-0.155725984798773 -0.0403022483349704 0.379032258064516
-0.153376493193997 -0.0415697451032446 0.379032258064517
-0.148407015587709 -0.0591883191606359 0.379032258064516
-0.150036938028692 -0.0725806877489218 0.379032258064516
-0.157921260566134 -0.079627133759611 0.379032258064517
-0.15157907833057 -0.0934877708609979 0.379032258064516
-0.151198387297889 -0.108735954410951 0.379032258064516
-0.151221652051272 -0.118554676083947 0.379032258064516
-0.156005337580743 -0.1340484738023 0.379032258064516
-0.162046904205457 -0.140215114863621 0.379032258064516
-0.159826884256563 -0.156813225550214 0.379032258064516
-0.162664675417787 -0.168019182968601 0.379032258064516
-0.162488505039472 -0.190364818783429 0.379032258064517
-0.162501620671555 -0.196314887038452 0.379032258064516
-0.158066575831227 -0.203074084486958 0.379032258064516
-0.156176490489944 -0.220649165946252 0.379032258064516
-0.166298774505116 -0.23891346664486 0.379032258064516
-0.157251626174794 -0.24873746505313 0.381720430107527
-0.160135314147218 -0.250724033086836 0.381720430107527
-0.136383911418596 0.168956430096939 0.155913978494624
-0.131323667535318 0.15868774580537 0.155913978494624
-0.136540489782244 0.147901480170794 0.155913978494624
-0.138047405942749 0.141238334407417 0.155913978494623
-0.136953761278727 0.134450327885016 0.155913978494623
-0.131557271308988 0.120575664459372 0.155913978494624
-0.138193992903136 0.105294115661434 0.155913978494624
-0.131106019089549 0.0975942290273758 0.155913978494624
-0.136194279333154 0.089992688536971 0.155913978494624
-0.141034307410537 0.0695146209940399 0.155913978494624
-0.136125430008912 0.0738207001517984 0.155913978494624
-0.131556086331464 0.258064516129032 0.35585180592754
-0.124513224734596 0.258064516129032 0.353212567822576
-0.13027972992778 0.258064516129032 0.360116974655535
-0.12917474791186 0.258064516129033 0.374535802045165
-0.127603471496878 0.258064516129033 0.379679674275303
-0.129537096006183 0.23759662310897 0.379032258064516
-0.12864545516518 0.23297807861637 0.379032258064516
-0.133600419501026 0.216827071095349 0.379032258064516
-0.130289119226459 0.218579020604855 0.379032258064516
-0.131973168850926 0.201344646683136 0.379032258064516
-0.130387374805088 0.187434889958844 0.379032258064516
-0.133202537937468 0.183899297863559 0.379032258064517
-0.130169569901403 0.176229501493931 0.379032258064517
-0.136869829859225 0.166984609776162 0.379032258064516
-0.132795251896218 0.155011906414046 0.379032258064517
-0.129190590636528 0.141100778268068 0.379032258064516
-0.131072699179664 0.128001701702762 0.379032258064516
-0.1320921636898 0.113152473772581 0.379032258064517
-0.130155348453221 0.111204006145609 0.379032258064516
-0.136402179806184 0.0989952693908203 0.379032258064516
-0.133037959022753 0.0844346845611231 0.379032258064516
-0.137358801304708 0.0775882346116253 0.379032258064516
-0.139970651300773 0.0629769863768768 0.379032258064516
-0.141368288788657 0.0628467093062188 0.379032258064516
-0.133480805727345 0.048968112281957 0.379032258064516
-0.137706847791363 0.0311439494309328 0.379032258064516
-0.134292250365412 0.0252774354278618 0.379032258064517
-0.13716911407098 0.0148136668353398 0.379032258064516
-0.142225281518351 -0.00463851264533213 0.379032258064516
-0.138123787433566 -0.0155055245747328 0.379032258064516
-0.135890917124845 -0.021054769807856 0.379032258064516
-0.144662994212823 -0.0352272106065748 0.379032258064516
-0.145706099916011 -0.0486460571504048 0.379032258064516
-0.142901542964717 -0.0551864140783683 0.379032258064516
-0.146405388026049 -0.071253529871114 0.379032258064516
-0.145981237441727 -0.0909755922347068 0.379032258064516
-0.147998893145654 -0.0920277881302601 0.379032258064517
-0.148597116827838 -0.110840604244948 0.379032258064516
-0.141409055186808 -0.114982244721719 0.379032258064516
-0.149764085852407 -0.140089415440508 0.379032258064517
-0.150379532048096 -0.152278544033673 0.379032258064516
-0.152384689994239 -0.155007356178779 0.379032258064516
-0.151867554413402 -0.171558836535024 0.379032258064516
-0.145425774782241 -0.180390288402594 0.379032258064516
-0.154332455337088 -0.201405898093722 0.379032258064516
-0.154816408455306 -0.210195486473279 0.379032258064516
-0.155459804859515 -0.213321609650239 0.379032258064516
-0.148143495570015 -0.227920578483471 0.379032258064516
-0.149392185694603 -0.247311827956989 0.379500171993469
-0.152461599152118 -0.253658958672609 0.381720430107527
-0.120436972440231 0.163623236389711 0.155913978494623
-0.125243512192228 0.159859179169395 0.155913978494624
-0.127286907563536 0.146403789717867 0.155913978494624
-0.128582832432654 0.13651733031742 0.155913978494623
-0.121369119899313 0.130942139503928 0.155913978494624
-0.120202753516226 0.110594810207338 0.155913978494624
-0.123641989197141 0.10795439305529 0.155913978494623
-0.128033198213844 0.10249412220483 0.155913978494624
-0.128317998795488 0.0821275458235733 0.155913978494624
-0.130679755026255 0.0783347312909387 0.155913978494624
-0.122865202571298 0.258064516129032 0.345277790716952
-0.120116075848513 0.258064516129032 0.350978821195634
-0.122617327752031 0.258064516129032 0.353475915323131
-0.122753097459851 0.258064516129033 0.372495627141459
-0.122898270545125 0.257538621921613 0.381720430107527
-0.118922639392581 0.243928448101125 0.379032258064516
-0.121737682821286 0.236187423322433 0.379032258064516
-0.121272727269474 0.230277780006952 0.379032258064516
-0.120604692360398 0.225240567926417 0.379032258064516
-0.117006980972311 0.203092159096686 0.379032258064517
-0.124094796241742 0.203866283331053 0.379032258064516
-0.123668833543664 0.191890807139546 0.379032258064516
-0.119533467995907 0.179337576467579 0.379032258064516
-0.126238051835222 0.175078026134242 0.379032258064516
-0.123791290991652 0.160255160939004 0.379032258064516
-0.125088916267408 0.144389528214911 0.379032258064516
-0.123246133979576 0.134008797024498 0.379032258064516
-0.120138404932507 0.134585996284243 0.379032258064516
-0.123426630159052 0.119241275402402 0.379032258064516
-0.125084547796639 0.1017753541636 0.379032258064516
-0.127965430857427 0.102550660943761 0.379032258064516
-0.126202048731627 0.0871037920436859 0.379032258064516
-0.130978972129245 0.0778851188411007 0.379032258064516
-0.126574906444689 0.0624194360608805 0.379032258064517
-0.126766088838998 0.0519392041311665 0.379032258064516
-0.132427215864868 0.0365197506679747 0.379032258064517
-0.130291497227789 0.0363587114794025 0.379032258064516
-0.124358689081667 0.0279185679637098 0.379032258064516
-0.131173678390888 0.00837360879370461 0.379032258064517
-0.130814331216414 -0.0032934987307383 0.379032258064516
-0.133469803044888 -0.0163203767104953 0.379032258064516
-0.136327029861398 -0.0329849009723508 0.379032258064517
-0.1364517959188 -0.0394885282646358 0.379032258064516
-0.136921091905361 -0.051048969075713 0.379032258064516
-0.133446265376407 -0.0584744497037953 0.379032258064516
-0.128679687260886 -0.0738788121540381 0.379032258064516
-0.13261061093939 -0.088525887841064 0.379032258064516
-0.129283797701333 -0.094422601438365 0.379032258064516
-0.131744533363188 -0.100502364080269 0.379032258064517
-0.132499610620974 -0.125090869673503 0.379032258064516
-0.136564396807956 -0.136263335946208 0.379032258064517
-0.137419343087518 -0.14161135308443 0.379032258064516
-0.140875538206567 -0.148452943847399 0.379032258064516
-0.137770612840241 -0.160928607020498 0.379032258064516
-0.140265680938697 -0.186809819295445 0.379032258064516
-0.14345646626298 -0.191358460778441 0.379032258064517
-0.137534421324432 -0.204708654094971 0.379032258064516
-0.137889488226297 -0.216623445735246 0.379032258064516
-0.14194792861952 -0.230504167485876 0.379032258064516
-0.143447657806866 -0.248469874466514 0.381720430107527
-0.117916086428533 0.165272299766264 0.155913978494624
-0.113108690163166 0.155993022068556 0.155913978494624
-0.110643409394189 0.143367238522322 0.155913978494624
-0.111617267448066 0.138305508162768 0.155913978494624
-0.112038862109684 0.125894161251386 0.155913978494624
-0.117915746307724 0.122550530577728 0.155913978494624
-0.118657970051106 0.110607301780539 0.155913978494624
-0.116697678455609 0.102332089095898 0.155913978494624
-0.116171888347043 0.0918459223536437 0.155913978494624
-0.114174700062322 0.0821163445035504 0.155913978494623
-0.113595089417279 0.0710100124366359 0.155913978494624
-0.113592669251545 0.258064516129032 0.354448757676892
-0.108593737360727 0.258064516129032 0.364093957604486
-0.10957535074378 0.258064516129032 0.363695715775681
-0.113591868566503 0.258064516129032 0.37791372757846
-0.114626701332699 0.249213160381381 0.381720430107527
-0.11120181188043 0.244372186156141 0.379032258064516
-0.111552254175012 0.223727370870336 0.379032258064516
-0.109674991822929 0.220113873698907 0.379032258064516
-0.109515331521981 0.210830344916018 0.379032258064516
-0.110059192033167 0.197153092554954 0.379032258064516
-0.110809094502426 0.18818756964424 0.379032258064516
-0.114135202174393 0.182623431140452 0.379032258064516
-0.10986681363573 0.168592953673405 0.379032258064516
-0.113912869156079 0.157265547688944 0.379032258064516
-0.115569014601604 0.15352074738098 0.379032258064516
-0.112245688659674 0.147333880140882 0.379032258064516
-0.115163061398914 0.127280227696729 0.379032258064516
-0.11533021246642 0.11091266696702 0.379032258064516
-0.113254800671318 0.109383338033572 0.379032258064516
-0.119822578437029 0.101325078810505 0.379032258064516
-0.116591475934057 0.0833989317677797 0.379032258064516
-0.116559517987598 0.0809539758721017 0.379032258064516
-0.120748120381041 0.0682757508300793 0.379032258064516
-0.12042194160403 0.0610403340186394 0.379032258064517
-0.118255894105774 0.0419943119968729 0.379032258064516
-0.119354112356474 0.0269728481033362 0.379032258064516
-0.115808260406406 0.0211508932976082 0.379032258064516
-0.11599785362626 0.0122790846374788 0.379032258064516
-0.116392142668488 -0.000509918698880426 0.379032258064516
-0.125160951686012 -0.0211612929565617 0.379032258064516
-0.125785168824179 -0.0255274922845598 0.379032258064516
-0.12579321513204 -0.0295227192452374 0.379032258064516
-0.121491494108896 -0.0455722312190336 0.379032258064516
