ply
format ascii 1.0
element vertex 937
property float x
property float y
property float z
end_header
0.270803134711789 0.401388536634293 0.60593220338983
0.258306641347828 0.410892651185735 0.60593220338983
0.257986693673805 0.41827943631069 0.60593220338983
0.242751986411012 0.431718997228076 0.60593220338983
0.229235095827176 0.450716440944376 0.60593220338983
0.231978220121045 0.451950717719232 0.60593220338983
0.219061492258392 0.468739096464793 0.60593220338983
0.21179574595816 0.480802522984843 0.60593220338983
0.200216764944022 0.492355380061677 0.60593220338983
0.5 0.0677575533688384 0.436050818347837
0.5 0.0733114085797449 0.452201539496556
0.5 0.0741040831348294 0.45441995855807
0.5 0.0763516182798857 0.462928757111724
0.5 0.0712385808383246 0.477566870171319
0.5 0.0682378222208898 0.487983747313116
0.5 0.0757998272482764 0.488808285595705
0.5 0.0723488737787773 0.498391175509662
0.5 0.0738541818016859 0.505517955697599
0.5 0.0713338514228549 0.522809092688425
0.5 0.0719706826609492 0.527040596083696
0.5 0.0753259329278087 0.529328182695149
0.5 0.0726512284685918 0.550669113987213
0.5 0.069412365843693 0.560744707712922
0.5 0.0715198177768187 0.560852846903393
0.5 0.0748084244399206 0.564992266648527
0.5 0.0736954847585733 0.582858923598307
0.499530990887995 0.0739493207841134 0.591101694915254
0.497434810296754 0.0828417681960462 0.591101694915254
0.495732275351523 0.080741992877747 0.60593220338983
0.490483559025692 0.0819636912227207 0.60593220338983
0.485349716409386 0.0899882844901494 0.60593220338983
0.480892403241007 0.098248127997939 0.60593220338983
0.46909669663637 0.112585297219834 0.60593220338983
0.462580732329914 0.116707889474114 0.60593220338983
0.45921663317631 0.123526673359043 0.60593220338983
0.454425230803923 0.136512494778538 0.60593220338983
0.450842866410734 0.137276924118005 0.60593220338983
0.442609875971984 0.15765426397088 0.60593220338983
0.435784607015501 0.161384017595626 0.60593220338983
0.433624032740696 0.170930895428383 0.60593220338983
0.422420140208011 0.179588370861371 0.60593220338983
0.414945715443518 0.190394847421396 0.60593220338983
0.413854573401851 0.196709655987641 0.60593220338983
0.399138877752409 0.203272973264236 0.60593220338983
0.395309516233033 0.219096517700248 0.60593220338983
0.388765288678256 0.220211501679666 0.60593220338983
0.381775909207824 0.230904729053887 0.60593220338983
0.377691011021378 0.23842452177411 0.60593220338983
0.364707421713389 0.257739134027158 0.60593220338983
0.353490030449801 0.265373004406689 0.60593220338983
0.347931372567528 0.272136195691175 0.60593220338983
0.339867789956088 0.290719175663726 0.60593220338983
0.33827175714585 0.288956624193202 0.60593220338983
0.338381429206873 0.300761866071498 0.60593220338983
0.321229139210351 0.31429586654391 0.60593220338983
0.314808369411222 0.323616819987003 0.60593220338983
0.304525533922712 0.332954536416901 0.60593220338983
0.306362492321912 0.345308300702265 0.60593220338983
0.292429273491848 0.353995993549591 0.60593220338983
0.284460386559802 0.365072048020034 0.60593220338983
0.273195214043687 0.378457112232313 0.60593220338983
0.270333260570003 0.383207579899173 0.60593220338983
0.255041945850187 0.399040459393423 0.60593220338983
0.249508581070754 0.411713527228549 0.60593220338983
0.245412222609805 0.413537768985054 0.60593220338983
0.236816219575314 0.432718734576192 0.60593220338983
0.221180301295385 0.44366774933169 0.60593220338983
0.223762838897289 0.457217176424762 0.60593220338983
0.206701820690462 0.466439418730528 0.60593220338983
0.202003090554685 0.474698852570057 0.60593220338983
0.198328412428048 0.480897213253944 0.60593220338983
0.17785492543492 0.498652486928794 0.60593220338983
0.5 0.0613942633457289 0.440123390159272
0.5 0.0617654451851217 0.442348512674693
0.5 0.0616532170510735 0.455551460257029
0.5 0.0609166209149352 0.466395815998101
0.5 0.0581499271041946 0.479318652492593
0.5 0.064050188215176 0.480047944948093
0.5 0.0634607037326237 0.484353927420517
0.5 0.0642432566202464 0.496955599401508
0.5 0.0611216080563795 0.503447621888986
0.5 0.0545199785439654 0.52721822649946
0.5 0.0495533151114416 0.534870841185062
0.5 0.0490724873801722 0.543129859226373
0.5 0.0529682087465394 0.548625086651743
0.5 0.0603938455567203 0.55212030731164
0.5 0.0539476747507891 0.567620751741393
0.5 0.0565614574581378 0.581989086584364
0.5 0.0523107876456249 0.58961496168396
0.5 0.0610948458032849 0.591107626575046
0.5 0.0620081613982638 0.596438189452639
0.495268850296496 0.0640378818332155 0.60593220338983
0.48755789255878 0.0733501949715871 0.60593220338983
0.483354242139826 0.0775265698600405 0.60593220338983
0.475300650740335 0.0840905895250595 0.60593220338983
0.471283280846568 0.0974796749039874 0.60593220338983
0.463709018895354 0.0975242241976126 0.60593220338983
0.468631502042474 0.108971374534626 0.60593220338983
0.461990572129052 0.111484172499592 0.60593220338983
0.448351171244488 0.130257533191703 0.60593220338983
0.441607793613833 0.139943521309227 0.60593220338983
0.432349750435822 0.141594776522138 0.60593220338983
0.42636038545267 0.158236875423206 0.60593220338983
0.423208773462953 0.161603171709685 0.60593220338983
0.417056820638225 0.165750980889522 0.60593220338983
0.406377660544828 0.181007680209704 0.60593220338983
0.39982545908361 0.186061692110746 0.60593220338983
0.399106927504306 0.19823523746213 0.60593220338983
0.383808594376266 0.205162464223542 0.60593220338983
0.379648693762158 0.215112228353974 0.60593220338983
0.377202391207339 0.222310459633227 0.60593220338983
0.372502229016587 0.23423844809997 0.60593220338983
0.360682485247069 0.251156185180309 0.60593220338983
0.356601944370573 0.257126477090795 0.60593220338983
0.346550658533765 0.271820547924442 0.60593220338983
0.33769913263567 0.274274408271895 0.60593220338983
0.327481707309826 0.286045041128299 0.60593220338983
0.328540736265112 0.292108248423073 0.60593220338983
0.311658631980979 0.310298032794237 0.60593220338983
0.305946760950333 0.31812343228046 0.60593220338983
0.305522437236757 0.319765500606655 0.60593220338983
0.292202336091722 0.330443635493764 0.60593220338983
0.280257516723856 0.350864798875357 0.60593220338983
0.285343062561422 0.34965095952581 0.60593220338983
0.263430676116042 0.372384369734177 0.60593220338983
0.260799842631971 0.386784978587312 0.60593220338983
0.252611870068757 0.382797090216789 0.60593220338983
0.243044689988273 0.392936573344115 0.60593220338983
0.236840404209765 0.40612483437079 0.60593220338983
0.22486128570277 0.420317008321253 0.60593220338983
0.222900247933131 0.438251347784166 0.60593220338983
0.207777918256545 0.446086929792381 0.60593220338983
0.201510085827119 0.464219166951141 0.60593220338983
0.196023494064666 0.468945245841931 0.60593220338983
0.186215235156666 0.480169831614915 0.60593220338983
0.178925282146362 0.493362866435796 0.60593220338983
0.5 0.0445376421141031 0.44635518232995
0.5 0.0365625250607629 0.457837182283488
0.5 0.037065366388594 0.467338424180457
0.5 0.0348329194624809 0.477494779885921
0.5 0.0394753353341411 0.479854413395844
0.5 0.050081044678262 0.47993597382093
0.5 0.0457883689118671 0.491274798298867
0.5 0.0389464522506613 0.506283165349479
0.5 0.0407399474389637 0.505779635505124
0.5 0.0442653062766685 0.517623122197862
0.5 0.0412294572689751 0.529059778377576
0.5 0.0460255102379549 0.538925673611683
0.5 0.0402010976809584 0.549092789767003
0.5 0.0480107445127145 0.554338159056511
0.5 0.0455952096149217 0.569338385534796
0.5 0.035702374448011 0.576950026595513
0.5 0.0399961575104509 0.585137380725947
0.5 0.0351114216447527 0.595590104381617
0.499390027393103 0.0427296566109838 0.60593220338983
0.492058626529185 0.0450381667732228 0.60593220338983
0.493254577225372 0.0594904446827036 0.60593220338983
0.486545323738601 0.0689871684564092 0.60593220338983
0.475090752468086 0.0719513530203625 0.60593220338983
0.473284090820133 0.0836322856085664 0.60593220338983
0.471975749235079 0.0833943283061818 0.60593220338983
0.463953143155436 0.0933991441546114 0.60593220338983
0.456199478763038 0.102857559151226 0.60593220338983
0.447375593325572 0.109356724069145 0.60593220338983
0.443702157622578 0.125015081084465 0.60593220338983
0.434952386534177 0.130878975954965 0.60593220338983
0.432244529655947 0.138843358916845 0.60593220338983
0.422590318462389 0.150694605275867 0.60593220338983
0.416766856792549 0.153201826247095 0.60593220338983
0.411596043938745 0.158822995734649 0.60593220338983
0.399528538448928 0.173175471337193 0.60593220338983
0.395343501096245 0.176267397040379 0.60593220338983
0.390571080336713 0.184927035668851 0.60593220338983
0.379590566840148 0.200756997811529 0.60593220338983
0.377507893612467 0.211245930180037 0.60593220338983
0.364847498045376 0.224634001973044 0.60593220338983
0.362672917444398 0.226168069182431 0.60593220338983
0.348337434221383 0.245774198709765 0.60593220338983
0.34996932536983 0.245748975301158 0.60593220338983
0.340300799521352 0.264281658344114 0.60593220338983
0.329104158683042 0.268879735291067 0.60593220338983
0.324072515338292 0.280253381888098 0.60593220338983
0.312100935506683 0.2914027888326 0.60593220338983
0.303332917506529 0.296570499349687 0.60593220338983
0.308436152162173 0.305565206457511 0.60593220338983
0.291263559932246 0.312639907416123 0.60593220338983
0.288170621001978 0.32782170118804 0.60593220338983
0.282909241157808 0.337457826554532 0.60593220338983
0.264248059100202 0.354329795343293 0.60593220338983
0.263853247086733 0.365846173845779 0.60593220338983
0.24581612341772 0.373190123198584 0.60593220338983
0.246194625055108 0.374847888164568 0.60593220338983
0.233134688452753 0.397544656137634 0.60593220338983
0.233109415038411 0.410010484627846 0.60593220338983
0.21997973911469 0.413971771475183 0.60593220338983
0.205587589810224 0.433019999223757 0.60593220338983
0.204881424575177 0.440758731687771 0.60593220338983
0.203662861359844 0.446313208337272 0.60593220338983
0.189117392803175 0.462553320096547 0.60593220338983
0.178720059801681 0.467108769493512 0.60593220338983
0.170999635229147 0.474830012754668 0.60593220338983
0.165269603600205 0.48512842434019 0.60593220338983
0.5 0.0287905338674397 0.4398495961502
0.5 0.0309484941098747 0.44982413797327
0.5 0.0221183433974023 0.45985106970352
0.5 0.0315482533658833 0.460970551109402
0.5 0.0356165525322075 0.471456728196825
0.5 0.0194179648160766 0.490836089981092
0.5 0.0281426604072266 0.499590607269293
0.5 0.0287412626374137 0.504601449859541
0.5 0.034811184991383 0.50466166521007
0.5 0.0275717201629966 0.516550078338895
0.5 0.0279595558734949 0.52087282548383
0.5 0.0327224424446359 0.537477494483004
0.5 0.0342006534348513 0.543282859468812
0.5 0.0304634271649038 0.550342883243957
0.5 0.0308333402162506 0.561902876810638
0.5 0.0327550756893041 0.566372822083867
0.5 0.0282955780744037 0.580093449581003
0.5 0.0321866343459392 0.588544279484128
0.497657294711785 0.0265623363900084 0.60593220338983
0.4951829012443 0.0262644609301431 0.60593220338983
0.494269005926483 0.0446373585159423 0.60593220338983
0.484409886631867 0.0541803853779446 0.60593220338983
0.476364672018102 0.0502690014737252 0.60593220338983
0.47189890578531 0.0664280272112009 0.60593220338983
0.46739813884818 0.0760571696239459 0.60593220338983
0.457096714620547 0.0888054461153738 0.60593220338983
0.457412191899554 0.0904686325536447 0.60593220338983
0.446142292874068 0.100541335692114 0.60593220338983
0.442364342476542 0.106412783041218 0.60593220338983
0.43231297839958 0.114248242429987 0.60593220338983
0.429974391983596 0.120673988708853 0.60593220338983
0.427236309661593 0.130444518725215 0.60593220338983
0.411430843254028 0.141117847672055 0.60593220338983
0.411752826833541 0.146849938003533 0.60593220338983
0.396297234549514 0.158353539106213 0.60593220338983
0.39241873642283 0.165979323804113 0.60593220338983
0.388732053416224 0.176241002621674 0.60593220338983
0.375589600659243 0.19078574156581 0.60593220338983
0.366932864613048 0.200152382171468 0.60593220338983
0.366191850100842 0.197889580989149 0.60593220338983
0.365701153142557 0.208252987908433 0.60593220338983
0.352351308153764 0.223436546591257 0.60593220338983
0.350459846258264 0.227224986287212 0.60593220338983
0.333645058118992 0.240588163562388 0.60593220338983
0.324406076713269 0.251081405821225 0.60593220338983
0.321399434355892 0.258773635779362 0.60593220338983
0.3097496791809 0.277432227289611 0.60593220338983
0.307907195158016 0.28578893363661 0.60593220338983
0.29766088194346 0.294621330372285 0.60593220338983
0.297371732338778 0.294191858619715 0.60593220338983
0.293963748486854 0.306427478039445 0.60593220338983
0.282622301835406 0.321981717145727 0.60593220338983
0.272723437146249 0.332803342429745 0.60593220338983
0.262776083083578 0.341766191973774 0.60593220338983
0.256141937363764 0.353772096329694 0.60593220338983
0.25069624529253 0.36769179520947 0.60593220338983
0.23738656091036 0.376185845690084 0.60593220338983
0.235246515007362 0.385833333286433 0.60593220338983
0.228832389742273 0.389019811233327 0.60593220338983
0.210380634223669 0.406398425380773 0.60593220338983
0.207414463123072 0.412118452277521 0.60593220338983
0.19508151201294 0.434804326325591 0.60593220338983
0.193402422904563 0.441662762212991 0.60593220338983
0.176014145688856 0.447147944250289 0.60593220338983
0.173528092208913 0.463195963555747 0.60593220338983
0.161835570286212 0.478320874096015 0.60593220338983
0.151791978494932 0.48686137693587 0.60593220338983
0.147035453380941 0.497461119976854 0.60593220338983
0.5 0.0140629172350197 0.445612297330427
0.5 0.00795363696736846 0.452184851362324
0.5 0.00880537415032902 0.458388659896847
0.5 0.0107637303247837 0.477028366080165
0.5 0.0162428310482083 0.469462642354863
0.5 0.0111843430660192 0.488081457403191
0.5 0.0174885790252021 0.492292541339268
0.5 0.0204977500219141 0.498824114147549
0.5 0.0123335419561863 0.514925744318214
0.5 0.0186736255868114 0.515190506432364
0.5 0.0127934026983732 0.532286138733531
0.5 0.00716940295695724 0.542328344879735
0.5 0.012730543627777 0.550737378156098
0.5 0.0136939960590244 0.55941386446391
0.5 0.0078210843047799 0.573524536227616
0.5 0.0153020491777769 0.57576455250604
0.5 0.0110181226669667 0.585437371254332
0.498177506582981 0.016443145044644 0.591101694915254
0.5 0.0123015081615438 0.597401772707325
0.498042103649247 0.0228435117688861 0.60593220338983
0.485017919285985 0.0247338841269342 0.60593220338983
0.483816639285531 0.0330726823346252 0.60593220338983
0.478621045390914 0.0403865118683814 0.60593220338983
0.472601048947925 0.0478038038740975 0.60593220338983
0.469927585197477 0.0512778430790298 0.60593220338983
0.458000310931794 0.0622761319321281 0.60593220338983
0.459393896709874 0.069133212083525 0.60593220338983
0.448729950258892 0.0831291840168893 0.60593220338983
0.44660117658422 0.088092172321742 0.60593220338983
0.430950278979842 0.104575838406312 0.60593220338983
0.431534676162596 0.105783910490755 0.60593220338983
0.420801595469035 0.117914717762933 0.60593220338983
0.416331070213555 0.121118688911938 0.60593220338983
0.410288975093727 0.140159314862862 0.60593220338983
0.403513423317755 0.145665183252357 0.60593220338983
0.394269702110504 0.151170674912264 0.60593220338983
0.391405593641959 0.159575321350172 0.60593220338983
0.38478716792581 0.165709747222077 0.60593220338983
0.376429464851011 0.183307606099948 0.60593220338983
0.365477319548588 0.191368045978651 0.60593220338983
0.35828177240795 0.190860218801504 0.60593220338983
0.350359825526685 0.209300668819773 0.60593220338983
0.342819730995636 0.220812636133802 0.60593220338983
0.339954150138468 0.226859719943303 0.60593220338983
0.332790366584608 0.233867488352801 0.60593220338983
0.319832157044609 0.244087456059245 0.60593220338983
0.317546432651315 0.254186865063702 0.60593220338983
0.301988722444475 0.268430889081163 0.60593220338983
0.301375849308475 0.270141666116865 0.60593220338983
0.290343659097163 0.284622428897807 0.60593220338983
0.287328206267688 0.294792841000267 0.60593220338983
0.275900987266641 0.310386748901197 0.60593220338983
0.270327065598507 0.310153276015922 0.60593220338983
0.264143677697568 0.320584487074612 0.60593220338983
0.253925528341803 0.33052659665007 0.60593220338983
0.249976126901934 0.34643182374236 0.60593220338983
0.243633829195065 0.359943127410353 0.60593220338983
0.227984401959907 0.364493037658229 0.60593220338983
0.221237526076384 0.376274208511727 0.60593220338983
0.219560414894121 0.386930164696566 0.60593220338983
0.213883542604681 0.395733963070073 0.60593220338983
0.204079592703062 0.409853760136161 0.60593220338983
0.190170467785909 0.422871409076449 0.60593220338983
0.181354641759982 0.429188680782021 0.60593220338983
0.174130708291033 0.441409533466612 0.60593220338983
0.159999698747743 0.454664610492457 0.60593220338983
0.157015531103229 0.460010816645137 0.60593220338983
0.151668821689554 0.477335646518759 0.60593220338983
0.139985550595773 0.491229826195454 0.60593220338983
0.128035736613135 0.494948736604575 0.60593220338983
0.5 -0.00533841171597552 0.436253598585396
0.5 -0.00604623320476 0.449631024290306
0.5 -0.00286506970610558 0.447696201458809
0.5 -0.00389799341307626 0.458054238255671
0.5 0.00419685703766429 0.466560338941283
0.5 -0.00617404081393291 0.475667144838678
0.5 0.00649816761910514 0.477330878233638
0.5 0.00060725626158047 0.493943452158152
0.5 -0.00341913739123236 0.507010907586515
0.5 -0.00256419208737572 0.51544535225122
0.5 0.00484721213551416 0.513641209676107
0.5 -0.00180707776499076 0.533639717875103
0.5 -0.00164626095012586 0.537395496026491
0.5 0.00832567533339292 0.540295842804144
0.5 8.80132452768918e-005 0.554535036524536
0.5 -0.0034609049597335 0.568153497072034
0.5 -0.00348338120845836 0.573502467474595
0.5 0.000269007479595379 0.588255039418994
0.5 0.000384421769872143 0.59009425554773
0.496824109796487 -0.00520842779836239 0.60593220338983
0.493510477567149 0.00838752704830758 0.60593220338983
0.488254780593871 0.0108449490517282 0.60593220338983
0.488680099996379 0.018005293273167 0.60593220338983
0.477747434395305 0.0288990641780263 0.60593220338983
0.471192958290685 0.0392470193331944 0.60593220338983
0.464833545630747 0.0367183240994492 0.60593220338983
0.46524616739648 0.0524577457553527 0.60593220338983
0.452580263256994 0.0520308676925223 0.60593220338983
0.446410871603021 0.0639839122375453 0.60593220338983
0.439553786084335 0.08254739640219 0.60593220338983
0.437769654988785 0.08703429767395 0.60593220338983
0.422778888475587 0.0948939343218364 0.60593220338983
0.423006539126171 0.101216587283138 0.60593220338983
0.417246223301981 0.108234240575624 0.60593220338983
0.408762528871149 0.120664538828778 0.60593220338983
0.397206796539057 0.129744295422042 0.60593220338983
0.38896145912549 0.143654332276678 0.60593220338983
0.389638728641584 0.150473784686005 0.60593220338983
0.383032837510841 0.146233443670547 0.60593220338983
0.374244329167536 0.165577810187225 0.60593220338983
0.363710822579475 0.172759574301755 0.60593220338983
0.359772208532211 0.185657254746631 0.60593220338983
0.352841965339452 0.196109635450631 0.60593220338983
0.350188905545108 0.199130623927707 0.60593220338983
0.337817755806656 0.214931419893303 0.60593220338983
0.332293460664183 0.219500715141589 0.60593220338983
0.321184841070834 0.23277069932111 0.60593220338983
0.316351495053691 0.235537269903708 0.60593220338983
0.312463786850432 0.24645183839894 0.60593220338983
0.308084527144583 0.252423339963145 0.60593220338983
0.292084669335025 0.261851726855296 0.60593220338983
0.290808199230974 0.272621794019792 0.60593220338983
0.282033506388378 0.295141032727076 0.60593220338983
0.26785028214087 0.295358893561671 0.60593220338983
0.262695681544786 0.306161835957709 0.60593220338983
0.255304552350425 0.324653821153858 0.60593220338983
0.246401335396201 0.329357874279588 0.60593220338983
0.23914390059748 0.332613520330715 0.60593220338983
0.23809242153911 0.347563107288676 0.60593220338983
0.225441094680282 0.356719946462935 0.60593220338983
0.221231289891753 0.367203048790167 0.60593220338983
0.209335590112658 0.382079240986668 0.60593220338983
0.199781976264082 0.385980952214383 0.60593220338983
0.19497198419703 0.395657725551812 0.60593220338983
0.18558092446867 0.410433337155008 0.60593220338983
0.172071525426327 0.422803091910546 0.60593220338983
0.160172874565757 0.446201957397419 0.60593220338983
0.148255774153713 0.44862504021781 0.60593220338983
0.154604241844781 0.459968461593858 0.60593220338983
0.145944995669871 0.469150130603568 0.60593220338983
0.132575703314779 0.482710784085683 0.60593220338983
0.5 -0.0206174305263665 0.440425976820767
0.5 -0.00614285291200259 0.434742542252006
0.5 -0.00643022823932017 0.449237669853418
0.5 -0.0108944328734277 0.459864367795284
0.5 -0.0147333946034097 0.469303390755519
0.5 -0.0184982253808545 0.481374831327677
0.5 -0.0178830906232885 0.491639342091232
0.5 -0.0156296260016674 0.49435646672099
0.5 -0.0203651320875477 0.510796151695541
0.5 -0.0121658121793548 0.510784236145755
0.5 -0.0180006860954618 0.528559483234264
0.5 -0.0181829868867495 0.533914344303072
0.5 -0.0127590813704959 0.540118725791265
0.5 -0.0200860920673307 0.553317192053666
0.5 -0.0141190419680921 0.561260295590179
0.5 -0.0157188343822629 0.564152651408136
0.5 -0.0149957523469376 0.573030359311291
0.5 -0.0109794103614645 0.586081746086294
0.498626905098862 -0.019240187512134 0.591101694915254
0.5 -0.0116546688635657 0.600353934295546
0.49300977279697 -0.0126836321506432 0.60593220338983
0.495365969846732 -0.0091573064963744 0.60593220338983
0.482105545761001 0.00437885372092312 0.60593220338983
0.482269648449498 0.00655185562002398 0.60593220338983
0.469153730556842 0.0186585114548069 0.60593220338983
0.466366057946498 0.0230625773442144 0.60593220338983
0.456107672739828 0.0430614460439876 0.60593220338983
0.454412415721512 0.0446853645312347 0.60593220338983
0.454379951425475 0.0526899036706746 0.60593220338983
0.442174678645351 0.0557843196179077 0.60593220338983
0.435045694858342 0.0665940257721192 0.60593220338983
0.426308300197147 0.0762525505089342 0.60593220338983
0.418492922382407 0.0901461961104256 0.60593220338983
0.418204275189595 0.0936849608942129 0.60593220338983
0.408329271335824 0.0986148177016306 0.60593220338983
0.396985777890503 0.11777351191651 0.60593220338983
0.396430385047449 0.120114252291599 0.60593220338983
0.391720771169118 0.124634248491635 0.60593220338983
0.380518621774462 0.139877952500931 0.60593220338983
0.374351875604834 0.1467488520719 0.60593220338983
0.370577040492309 0.151558917175543 0.60593220338983
0.361702304249678 0.163852858126189 0.60593220338983
0.351157978794169 0.174146196325994 0.60593220338983
0.350194112837093 0.184613280693781 0.60593220338983
0.335026621377711 0.194089635026722 0.60593220338983
0.33260631431267 0.205687326028939 0.60593220338983
0.325942134124262 0.212395269147174 0.60593220338983
0.318194412072774 0.213761539250493 0.60593220338983
0.312749385480241 0.22958076335818 0.60593220338983
0.298088360333449 0.239638034323842 0.60593220338983
0.297751420879273 0.249705919702699 0.60593220338983
0.288352810889737 0.25896724625763 0.60593220338983
0.283204874748659 0.2695387712097 0.60593220338983
0.27046587793882 0.276325923464316 0.60593220338983
0.26164584279716 0.29487095809855 0.60593220338983
0.25657103301149 0.303664726581814 0.60593220338983
0.249862594717673 0.307176744411656 0.60593220338983
0.239451481603455 0.326043402396552 0.60593220338983
0.234026205529463 0.331415604772109 0.60593220338983
0.230211212121506 0.335012270684243 0.60593220338983
0.215409094060881 0.346273603543405 0.60593220338983
0.209294391247762 0.361443565193388 0.60593220338983
0.207157076981166 0.373816654180398 0.60593220338983
0.194673379313112 0.379676873177102 0.60593220338983
0.184298069540564 0.396347171341277 0.60593220338983
0.175983517698518 0.414746346881029 0.60593220338983
0.159305509059875 0.418788518389584 0.60593220338983
0.159643782775438 0.418921884389709 0.60593220338983
0.146816903674667 0.438498111066108 0.60593220338983
0.139264846950856 0.450711764511769 0.60593220338983
0.128260300679122 0.474084051878895 0.60593220338983
0.130290770326018 0.472306108757289 0.60593220338983
0.112715515499753 0.483824795594656 0.60593220338983
0.104671530318058 0.489897360161335 0.60593220338983
0.5 -0.0352884184283542 0.440679496782805
0.5 -0.0259514693681866 0.439732868387607
0.5 -0.0234130989604751 0.450311061379691
0.5 -0.0230240386939811 0.45130760821228
0.5 -0.0349319445853257 0.475123054533911
0.5 -0.0351500919039672 0.482736373583968
0.5 -0.0329373065026336 0.489641000146163
0.5 -0.022278265604919 0.495291271091043
0.5 -0.032597639024316 0.50973780372924
0.5 -0.0294071519305412 0.51821393978909
0.5 -0.0235957245340537 0.515573511290645
0.5 -0.0289631071577166 0.537204979864254
0.5 -0.0284895428944057 0.539014009718955
0.5 -0.0238996901064244 0.545658034346784
0.5 -0.0288542024993777 0.560179644584008
0.5 -0.033155560464831 0.565760470171469
0.5 -0.0306746761979996 0.578280891098544
0.5 -0.0344520254496616 0.589029087214872
0.5 -0.0302310815106461 0.587357437297431
0.5 -0.0243218306204232 0.598147347713191
0.496420139564331 -0.0227868649670356 0.60593220338983
0.490648094051741 -0.0157477651259067 0.60593220338983
0.480051777103042 -0.00416923033494101 0.60593220338983
0.473753308209072 -0.00502133248646358 0.60593220338983
0.473708697975026 0.00585514031805819 0.60593220338983
0.469892527400179 0.00786663467441164 0.60593220338983
0.455927439022807 0.0201513572727836 0.60593220338983
0.451145862375926 0.0321054379570624 0.60593220338983
0.448417974637224 0.033917863047991 0.60593220338983
0.437083366610028 0.0499496179593915 0.60593220338983
0.432922398658631 0.0563247379569062 0.60593220338983
0.432379587153615 0.0589107246556553 0.60593220338983
0.426438796372468 0.0693554971123388 0.60593220338983
0.408969603833328 0.0801018249572871 0.60593220338983
0.408197483959304 0.0952777704199846 0.60593220338983
0.403711785774379 0.102213455967913 0.60593220338983
0.398017004620396 0.0988064952837451 0.60593220338983
0.388376575820635 0.116253429980509 0.60593220338983
0.384525425059081 0.121715930252485 0.60593220338983
0.369514843329814 0.138601774350522 0.60593220338983
0.365661966711296 0.139091954843131 0.60593220338983
0.360031562166364 0.14248558831726 0.60593220338983
0.354792652989845 0.153664385108427 0.60593220338983
0.345873278628897 0.166904397135727 0.60593220338983
0.343424577597043 0.176361929325674 0.60593220338983
0.334066132636945 0.186517385698913 0.60593220338983
0.327743062727299 0.196511611366205 0.60593220338983
0.322267264331423 0.20496020205175 0.60593220338983
0.312550087862206 0.214157648410913 0.60593220338983
0.30385095757896 0.223625061212908 0.60593220338983
0.300011199656786 0.228288056800794 0.60593220338983
0.288941234794798 0.241173507798828 0.60593220338983
0.280262288876639 0.255300561669541 0.60593220338983
0.27627600371456 0.259308003533523 0.60593220338983
0.272930895305921 0.272782660869689 0.60593220338983
0.254890712679838 0.290128519153305 0.60593220338983
0.253487847173386 0.29014589337181 0.60593220338983
0.243151944029061 0.307162749163297 0.60593220338983
0.226977889165359 0.313691759175603 0.60593220338983
0.21933347199832 0.322844051338824 0.60593220338983
0.222122386562772 0.326091262093683 0.60593220338983
0.211739330427059 0.343246354983698 0.60593220338983
0.208611190804687 0.355615188934474 0.60593220338983
0.196798733290786 0.361016467820887 0.60593220338983
0.185235803383557 0.381728546641481 0.60593220338983
0.175352678086416 0.379106479535341 0.60593220338983
0.17136014320898 0.398547284259755 0.60593220338983
0.165173474229904 0.408637262887692 0.60593220338983
0.153536167683574 0.420973665896017 0.60593220338983
0.13959454385852 0.435319279596366 0.60593220338983
0.126943061075282 0.446857458188653 0.60593220338983
0.121280558656544 0.460547995314903 0.60593220338983
0.11543869694534 0.461734277955274 0.60593220338983
0.103203508965507 0.480856372799214 0.60593220338983
0.0926386652011521 0.498251884989562 0.60593220338983
0.5 -0.0449955124046968 0.447595338689345
0.5 -0.0449770563004034 0.446248557040833
0.5 -0.0395441333079587 0.449661186438668
0.5 -0.0478143501203141 0.47041380679334
0.5 -0.0495639309531981 0.475992487704853
0.5 -0.0392149479494979 0.479589862019795
0.5 -0.0365762972183088 0.48510664890181
0.5 -0.0451465410880298 0.506085933265344
0.5 -0.0452143144279896 0.508832864127186
0.5 -0.0457975264265424 0.519286573585073
0.5 -0.0442154165156123 0.525236994777319
0.5 -0.0442095047512707 0.537307891307169
0.5 -0.0454077975895372 0.546400250235883
0.5 -0.0484651851874392 0.559020778099967
0.5 -0.0512210990695233 0.565310070773874
0.5 -0.0440923905525451 0.561627221112726
0.5 -0.0461611106111307 0.581264092225334
0.5 -0.0480970596325404 0.588918124712507
0.499311165030361 -0.0399311624024038 0.591101694915254
0.5 -0.0357705921561676 0.599311415575919
0.49667006114679 -0.0392652017420054 0.60593220338983
0.492685855201344 -0.0303539087480123 0.60593220338983
0.479629143394788 -0.0211187622471989 0.60593220338983
0.474697042096969 -0.0197679516415969 0.60593220338983
0.470802614349921 -0.00991170939829448 0.60593220338983
0.462826076151968 -0.000394318256035467 0.60593220338983
0.46233158723908 0.00538890096587379 0.60593220338983
0.459293153507667 0.0119668552317261 0.60593220338983
0.448611174542335 0.0218726537553703 0.60593220338983
0.446441479106777 0.0320306451778243 0.60593220338983
0.438844531069176 0.0395148207643783 0.60593220338983
0.426518160336941 0.0480502081807534 0.60593220338983
0.422507785012397 0.0640139520940594 0.60593220338983
0.416181097491408 0.0606175645912878 0.60593220338983
0.405610884048599 0.0767003299211529 0.60593220338983
0.40518511368396 0.0809115713224636 0.60593220338983
0.390733700636437 0.091729562759621 0.60593220338983
0.388298254365354 0.095504740620875 0.60593220338983
0.386576605196897 0.10565296930979 0.60593220338983
0.374957861958578 0.120185275781037 0.60593220338983
0.367116687831685 0.127393866123173 0.60593220338983
0.366715596144725 0.127644312724938 0.60593220338983
0.355719424334504 0.13631399334364 0.60593220338983
0.348472544547072 0.149296716203909 0.60593220338983
0.33906026741779 0.161133002625021 0.60593220338983
0.333838688223735 0.17454062229808 0.60593220338983
0.318508221139865 0.185381387394541 0.60593220338983
0.319018511238365 0.188644743022622 0.60593220338983
0.307859456008242 0.198206811364039 0.60593220338983
0.305894667981819 0.202292146257721 0.60593220338983
0.296019061854681 0.215763822044657 0.60593220338983
0.286315406379901 0.228672912568105 0.60593220338983
0.282981928577901 0.232348679955882 0.60593220338983
0.276169269916321 0.240882739101771 0.60593220338983
0.264579170177972 0.257281005740515 0.60593220338983
0.263996616451825 0.263905531303481 0.60593220338983
0.250227445404418 0.268010208453609 0.60593220338983
0.24117848692345 0.28251259204217 0.60593220338983
0.234546564495095 0.295522852923976 0.60593220338983
0.226379652642195 0.31176204592303 0.60593220338983
0.220397415714383 0.320595563757776 0.60593220338983
0.203067561084412 0.325663346335394 0.60593220338983
0.204695221673016 0.341294347166389 0.60593220338983
0.186361215160578 0.357931094609346 0.60593220338983
0.182615365128632 0.36670284478697 0.60593220338983
0.177265162489008 0.365913606843433 0.60593220338983
0.163576445253149 0.386557106305554 0.60593220338983
0.158014611941677 0.396894888197326 0.60593220338983
0.147022389804291 0.404073505174191 0.60593220338983
0.146827839952122 0.409905772174002 0.60593220338983
0.135119934637348 0.428239772664289 0.60593220338983
0.121483134042657 0.438321739228059 0.60593220338983
0.123819670822908 0.445391304170462 0.60593220338983
0.10026951492586 0.464113938388687 0.60593220338983
0.0999452165775412 0.469320810674738 0.60593220338983
0.0849800762712052 0.483907861156615 0.60593220338983
0.078397234580831 0.49804385789073 0.60593220338983
0.5 -0.0626410234037678 0.437252950812887
0.5 -0.0528474698894666 0.443696734300568
0.5 -0.0518812514211104 0.452405872082543
0.5 -0.056911248048248 0.46137258030995
0.5 -0.0497851094709935 0.462923808757013
0.5 -0.055378414014495 0.482199387077414
0.5 -0.0572316049142621 0.484522164704483
0.5 -0.0618262673817262 0.503443319425322
0.5 -0.0551024167078159 0.502417776902749
0.5 -0.056392254989266 0.512304376994176
0.5 -0.0540288622014332 0.517675697604812
0.5 -0.0588570753004453 0.540691717709817
0.5 -0.0597693338487845 0.545563736323693
0.5 -0.0555155515710874 0.546979175426397
0.5 -0.0560764955590766 0.562274134722486
0.5 -0.0543603320401124 0.563001348472133
0.5 -0.0558068607535752 0.576491747345669
0.5 -0.0557744938457044 0.588008350453345
0.5 -0.0653863723744705 0.597937621058294
0.5 -0.053729513045205 0.596325849630783
0.492699880168429 -0.0496667263575911 0.60593220338983
0.48494427463979 -0.0442723815295429 0.60593220338983
0.489350083882849 -0.0432537676645104 0.60593220338983
0.476490902763245 -0.0282138518719985 0.60593220338983
0.469384706756149 -0.0237732595948511 0.60593220338983
0.469043250148099 -0.014829673197057 0.60593220338983
0.459711994553627 -0.0093573054121658 0.60593220338983
0.451683748437006 0.00438995727161573 0.60593220338983
0.447507526613601 0.0155302048652683 0.60593220338983
0.445806153690443 0.0180443773551627 0.60593220338983
0.441166577229158 0.0258059851024079 0.60593220338983
0.428694018766923 0.0291415317562356 0.60593220338983
0.42015010146387 0.0454215117915448 0.60593220338983
0.416794557547968 0.0461406610862823 0.60593220338983
0.405969486951895 0.0637818414718054 0.60593220338983
0.405459275807693 0.0669638222298138 0.60593220338983
0.398247745525132 0.0766163237972217 0.60593220338983
0.391526575002271 0.0887984803875624 0.60593220338983
0.378256609099622 0.0968623123344105 0.60593220338983
0.376204194989525 0.100911815998504 0.60593220338983
0.370978203876321 0.109633887917409 0.60593220338983
0.361524648913759 0.112771829691573 0.60593220338983
0.359784727792698 0.129699872875711 0.60593220338983
0.349982841653771 0.129717864711424 0.60593220338983
0.338052119987528 0.146609082065621 0.60593220338983
0.32923483567469 0.152036496199125 0.60593220338983
0.328517784972507 0.160099319002698 0.60593220338983
0.32062470806889 0.178187858439806 0.60593220338983
0.316152673303603 0.184682441043403 0.60593220338983
0.299771746355813 0.191259822044571 0.60593220338983
0.296759132842528 0.195005992018054 0.60593220338983
0.288813219598791 0.207355046937248 0.60593220338983
0.287599522225571 0.214023001514902 0.60593220338983
0.279576301111108 0.223241735882813 0.60593220338983
0.264906058416627 0.240045395474017 0.60593220338983
0.259006083607407 0.248384878641117 0.60593220338983
0.251769465202152 0.257613171740671 0.60593220338983
0.248153187142448 0.266239224691711 0.60593220338983
0.23353995718686 0.285261686650967 0.60593220338983
0.229645727673774 0.288421324969348 0.60593220338983
0.215485096838342 0.298456548800996 0.60593220338983
0.211381412133563 0.307955368845096 0.60593220338983
0.201868567894555 0.320724526813656 0.60593220338983
0.198140959366063 0.327595238355611 0.60593220338983
0.186695232672406 0.332492362950187 0.60593220338983
0.17323602678661 0.359417925272013 0.60593220338983
0.17576000812759 0.360958465902387 0.60593220338983
0.160701218303415 0.371954439046596 0.60593220338983
0.15441867373902 0.377032996032458 0.60593220338983
0.143515741499383 0.395145476366575 0.60593220338983
0.140695062992203 0.400934723498485 0.60593220338983
0.126763768474787 0.417157033165971 0.60593220338983
0.11506049785564 0.43015447918148 0.60593220338983
0.113019735130019 0.44026576001097 0.60593220338983
0.105760443301694 0.442400949992274 0.60593220338983
0.0949269611219163 0.463066247840603 0.60593220338983
0.0861661364639633 0.479121354979269 0.60593220338983
0.0722856110695853 0.484314983153005 0.60593220338983
0.5 -0.0762944214712433 0.446030997185435
0.5 -0.0772583211103406 0.45466608037694
0.5 -0.0735552939247957 0.463609472234635
0.5 -0.0701404302310534 0.466826832862703
0.5 -0.0745510984220495 0.477764657502567
0.5 -0.0728310872880631 0.478290753502112
0.5 -0.0735507367449602 0.492802280438312
0.5 -0.0625258753775455 0.490348169083356
0.5 -0.0780637468470531 0.518253012628574
0.5 -0.0703266844390695 0.511662403008452
0.5 -0.0750713585016779 0.522375873592778
0.5 -0.0647966828439267 0.528657033004958
0.5 -0.071465240272581 0.543119423836746
0.5 -0.0667445829418254 0.551625185229267
0.5 -0.0651471943602634 0.551191058085877
0.5 -0.0703196531983187 0.566513245480203
0.5 -0.076313608572581 0.5740020560869
0.5 -0.0707181316769246 0.581926679934598
0.5 -0.0755281348338623 0.599016564730658
0.5 -0.0670215903966715 0.601418474244352
0.496292637049683 -0.0674146957003197 0.60593220338983
0.486329705073722 -0.0558999052017608 0.60593220338983
0.486132326530814 -0.0562707298686561 0.60593220338983
0.473762393090793 -0.0445681640244082 0.60593220338983
0.472508654147849 -0.0401307076765962 0.60593220338983
0.46567680393589 -0.0354541226930478 0.60593220338983
0.460766093507977 -0.0170435686141277 0.60593220338983
0.45463306767277 -0.0136970733996303 0.60593220338983
0.451166527910284 -0.00463612624353104 0.60593220338983
0.443084630795932 0.000432248488976938 0.60593220338983
0.437257270370493 0.0104425199279218 0.60593220338983
0.431276362965167 0.0184126624263069 0.60593220338983
0.423617017280937 0.0261805742452486 0.60593220338983
0.41191387864605 0.0359629185304642 0.60593220338983
0.408225093071371 0.0415546038092894 0.60593220338983
0.401875015561258 0.0516579844438932 0.60593220338983
0.397436432145319 0.0552318366489903 0.60593220338983
0.386986303044431 0.0676632076155684 0.60593220338983
0.377934169304164 0.077350213981296 0.60593220338983
0.371119362549426 0.0836616027820934 0.60593220338983
0.370793057335424 0.0883897005644263 0.60593220338983
0.361085731988259 0.0995843986141879 0.60593220338983
0.355351249802666 0.1157963942481 0.60593220338983
0.343192039934709 0.120569781295645 0.60593220338983
0.346584916788548 0.127533173196489 0.60593220338983
0.329233131578256 0.140116617344169 0.60593220338983
0.332200641083162 0.145247521200491 0.60593220338983
0.322507454423077 0.153153625361204 0.60593220338983
0.30727222499255 0.167149022053853 0.60593220338983
0.309618090713159 0.169383259077005 0.60593220338983
0.303021979144672 0.185427064356329 0.60593220338983
0.293757740229121 0.192337027342872 0.60593220338983
0.283109413817751 0.200008740613488 0.60593220338983
0.27633946106781 0.217644713316116 0.60593220338983
0.267540394326034 0.222113003995304 0.60593220338983
0.259917051849506 0.227897981632073 0.60593220338983
0.251521664565955 0.243596822432888 0.60593220338983
0.240264606248488 0.253459301422173 0.60593220338983
0.240057543370659 0.263226559120368 0.60593220338983
0.233686425330286 0.273221234027447 0.60593220338983
0.224204787848708 0.278721636625191 0.60593220338983
0.217666672320222 0.287919587175297 0.60593220338983
0.199860228980233 0.305583773178573 0.60593220338983
0.194970907358732 0.308289421744198 0.60593220338983
0.191505271043556 0.327575843412228 0.60593220338983
0.179618527412736 0.339536591661106 0.60593220338983
0.175779144513313 0.345943913654201 0.60593220338983
0.162340009179523 0.357084339080081 0.60593220338983
0.156683659044581 0.367389132634419 0.60593220338983
0.138504494198522 0.380663152769295 0.60593220338983
0.139991261349547 0.381851716580704 0.60593220338983
0.127818821853322 0.390179530985691 0.60593220338983
0.113226089808097 0.408955451684992 0.60593220338983
0.110055860218502 0.421325410343802 0.60593220338983
0.102647698007052 0.431270528027926 0.60593220338983
0.0816182290227379 0.445907532215791 0.60593220338983
0.0795093452360172 0.466145126982072 0.60593220338983
0.0688045292555983 0.467399506639471 0.60593220338983
0.0647312536797791 0.483375267305869 0.60593220338983
0.0587963500084173 0.484949495037425 0.60593220338983
0.5 -0.0901300512405778 0.447438747641097
0.5 -0.0909637499924624 0.463036066300478
0.5 -0.0899643471454804 0.466303094207604
0.5 -0.0916474578515589 0.479262355300614
0.5 -0.0849469412552031 0.484754238488251
0.5 -0.0892033738511515 0.49352596480667
0.5 -0.0933841384537081 0.51097847669265
0.5 -0.0824790257916898 0.506496731078925
0.5 -0.093864055409717 0.52534036107811
0.5 -0.0854733319909761 0.522137162747315
0.5 -0.0922525929159254 0.541303651414314
0.5 -0.0851636845496413 0.549196205171863
0.5 -0.0807125828520376 0.550523313626446
0.5 -0.0840033816473886 0.553793236088246
0.5 -0.0817176666515661 0.568115903885706
0.5 -0.0807417783694228 0.577369739843141
0.5 -0.0840431726929688 0.587887075931336
0.5 -0.0763655586734468 0.590299414447956
0.5 -0.0780819129731527 0.603855949959351
0.499720108496371 -0.0825469957320145 0.60593220338983
0.490482631157879 -0.0791296159541619 0.60593220338983
0.489374172277744 -0.0661009932891083 0.60593220338983
0.478929172402822 -0.057988642087031 0.60593220338983
0.476365253193072 -0.0549193330673434 0.60593220338983
0.464845117741291 -0.0430409746268153 0.60593220338983
0.462039336170679 -0.0308694325516124 0.60593220338983
0.458205256000656 -0.0283474106920838 0.60593220338983
0.449288228737384 -0.0176390501174218 0.60593220338983
0.439865326998203 -0.0177590035563868 0.60593220338983
0.434423320312872 -0.00195319039461594 0.60593220338983
0.433451239398715 0.0054309346747343 0.60593220338983
0.418638672551133 0.0201262581644846 0.60593220338983
0.420899430982814 0.0163978312546437 0.60593220338983
0.412672976095998 0.0307780086964018 0.60593220338983
0.404532368401 0.0419766323361504 0.60593220338983
0.395687401065645 0.0422469935039877 0.60593220338983
0.388186861276179 0.0481489635130921 0.60593220338983
0.388588532675255 0.0608954699573602 0.60593220338983
0.370090253415019 0.0760533397540147 0.60593220338983
0.366244262915507 0.0774795440457773 0.60593220338983
0.360950894490603 0.0877135436137316 0.60593220338983
0.358050616173268 0.0961376668208896 0.60593220338983
0.348038629183183 0.106404268160317 0.60593220338983
0.339883197901588 0.118507559419736 0.60593220338983
0.332991792315371 0.122727595210011 0.60593220338983
0.327976665838144 0.125550328063782 0.60593220338983
0.321513613727169 0.133075403359132 0.60593220338983
0.306511454247586 0.156694103875524 0.60593220338983
0.3052764752104 0.156761660855972 0.60593220338983
0.293179136099484 0.169433993010448 0.60593220338983
0.283208852306363 0.185746061884145 0.60593220338983
0.284613884576979 0.183160417864735 0.60593220338983
0.271598370355594 0.199783935469515 0.60593220338983
0.261800215612777 0.210559931253546 0.60593220338983
0.263381950343245 0.216139148085465 0.60593220338983
0.250744563501356 0.227352517164044 0.60593220338983
0.245116335675097 0.241842415313568 0.60593220338983
0.234538639280414 0.247322029491255 0.60593220338983
0.233286375828874 0.252423680320494 0.60593220338983
0.219741337317074 0.263459153722322 0.60593220338983
0.213718862961788 0.266206942008281 0.60593220338983
0.203681692832954 0.285254673204486 0.60593220338983
0.195503501482643 0.290758911978231 0.60593220338983
0.193681345188968 0.299925390143084 0.60593220338983
0.187956159741581 0.314355507653855 0.60593220338983
0.169201031361481 0.327542078456178 0.60593220338983
0.164936525445351 0.330022681324488 0.60593220338983
0.152002923085993 0.349755912731175 0.60593220338983
0.146610551267656 0.357182732418014 0.60593220338983
0.137148396939749 0.370636262786742 0.60593220338983
0.135378600019888 0.376679328611992 0.60593220338983
0.11525337591997 0.397824490294129 0.60593220338983
0.110671782831308 0.396742110187963 0.60593220338983
0.0985138127864827 0.413091866157404 0.60593220338983
0.0924631642750641 0.423588691674456 0.60593220338983
0.0787233170441501 0.440196303764467 0.60593220338983
0.0686398015279999 0.45086784409743 0.60593220338983
0.0582644943258748 0.463860824116305 0.60593220338983
0.0566494556615733 0.481025073360042 0.60593220338983
0.0456934206909434 0.478956857988439 0.60593220338983
0.0442816238207002 0.492834613775726 0.60593220338983
0.5 -0.102087285178277 0.435609712016011
0.5 -0.1019656822098 0.444396389931048
0.5 -0.102742067373383 0.452467693794262
0.5 -0.098327147954156 0.451463188852446
0.5 -0.0989928858835325 0.471419336141848
0.5 -0.101300993009662 0.475816579799502
0.5 -0.1035221500972 0.485456977287165
0.5 -0.0979348161850005 0.492503791489076
0.5 -0.0993979410878409 0.501526002468513
0.5 -0.098199134708778 0.515965702548203
0.5 -0.106493432854711 0.521440350285115
0.5 -0.0972150664918082 0.524402452450281
0.5 -0.101984071396071 0.540804348606919
0.5 -0.096327398591045 0.545941111398242
0.5 -0.0999245516563622 0.552815857898689
0.5 -0.0976045388929766 0.559327513516928
0.5 -0.102396344011705 0.571989549590923
0.5 -0.0982023578764852 0.580460961855877
0.5 -0.10357699453434 0.595439407575637
0.5 -0.102529302347076 0.598611720611956
0.5 -0.102359129005656 0.60266546852559
0.5 -0.0970440013711179 0.605808451121331
0.489393643990104 -0.0815381277859362 0.60593220338983
0.481263976607148 -0.081117244525923 0.60593220338983
0.474325415302475 -0.0704439917514278 0.60593220338983
0.473186353017938 -0.0608684362270564 0.60593220338983
0.46303651190595 -0.0612242673697304 0.60593220338983
0.461590565616202 -0.044602641657641 0.60593220338983
0.451641777984804 -0.0399248796913253 0.60593220338983
0.449683070824977 -0.0356492233289564 0.60593220338983
0.443260220751288 -0.0254325524882079 0.60593220338983
0.438629697921462 -0.0222930317709773 0.60593220338983
0.430745100090344 -0.0133073357194573 0.60593220338983
0.418581127277998 0.000707568641132157 0.60593220338983
0.417097875585751 0.00430295032442984 0.60593220338983
0.408686141357716 0.00822424609829157 0.60593220338983
0.399711937090569 0.0187562827077821 0.60593220338983
0.393684593600519 0.0286199184352767 0.60593220338983
0.394057331601202 0.0350972886103126 0.60593220338983
0.381495101623736 0.0495835940002986 0.60593220338983
0.375957857969672 0.0576880342598885 0.60593220338983
0.366617315791168 0.0666533729612483 0.60593220338983
0.357810889050767 0.0760176270358617 0.60593220338983
0.353192312733816 0.0867039448289664 0.60593220338983
0.342589729054439 0.093165699524405 0.60593220338983
0.343598709381385 0.0942052207782035 0.60593220338983
0.335535352922569 0.103232828649548 0.60593220338983
0.32475143255466 0.112422487868589 0.60593220338983
0.322196171380476 0.125702440519788 0.60593220338983
0.309530424512352 0.134639449756104 0.60593220338983
0.305970133752556 0.142697434669784 0.60593220338983
0.298764625968751 0.153383821722381 0.60593220338983
0.290551622370923 0.159569406821934 0.60593220338983
0.286231178018634 0.165552800774045 0.60593220338983
0.278541848482794 0.181244447192727 0.60593220338983
0.270701766595044 0.18983559350123 0.60593220338983
0.260450920439698 0.197869718682137 0.60593220338983
0.256126488712636 0.204882833103353 0.60593220338983
0.246995169254507 0.221181352558349 0.60593220338983
0.234037306451162 0.228645771217661 0.60593220338983
0.233170949542993 0.239859817745121 0.60593220338983
