ply
format ascii 1.0
element vertex 867
property float x
property float y
property float z
end_header
0.3794279418223 -0.0730731058900389 0.313953488372093
0.378422136975827 -0.0762571093932128 0.313953488372093
0.386983627860071 -0.0611650503887675 0.313953488372093
0.382603497312746 -0.0427083701357348 0.313953488372093
0.387965099905126 -0.0332236268831481 0.313953488372093
0.388564580505389 -0.0350834695413372 0.313953488372093
0.385832754255734 -0.0100548018806602 0.313953488372093
0.386557758052284 -0.0027865317848758 0.313953488372093
0.390036209705776 0.0116858449944893 0.313953488372093
0.392229952142903 0.018015238237736 0.313953488372093
0.39397473943388 0.0289815812450875 0.313953488372093
0.400761724467682 0.0455071029346519 0.313953488372093
0.397673531073056 0.0463445051761657 0.313953488372093
0.400294726724039 0.0672934079664151 0.313953488372093
0.394562274974798 0.0741753283300413 0.313953488372093
0.400138156388211 0.0864994638111991 0.313953488372093
0.398332512626812 0.100445283851 0.313953488372093
0.40052299638867 0.108105533515332 0.313953488372093
0.402765292401904 0.122928104800021 0.313953488372093
0.404020217818232 0.130068345384142 0.313953488372093
0.408456137414392 0.140620695402166 0.313953488372093
0.406358303561793 0.157185786997343 0.313953488372093
0.413187784903519 0.1765297767994 0.313953488372093
0.417699617539166 0.175521162904659 0.313953488372093
0.410577111014537 0.197295444808382 0.313953488372093
0.417046716515605 0.204790588255985 0.313953488372093
0.423563783119623 0.229023587526435 0.313953488372093
0.424483553615415 0.241312957043638 0.313953488372093
0.426009847435964 0.251650555371352 0.313953488372093
0.427246406280203 0.262683532940308 0.313953488372093
0.424699435191696 0.273390252921706 0.313953488372093
0.423788584528173 0.294823202599639 0.313953488372093
0.426744890313504 0.296305696606981 0.313953488372093
0.435368796696358 0.317012020211209 0.313953488372093
0.43453667598723 0.32769582426487 0.313953488372093
0.433037938890678 0.345411755194531 0.313953488372093
0.436911142233594 0.356820488423706 0.313953488372093
0.435992502034171 0.380110449122271 0.313953488372093
0.442612933231487 0.39581588132776 0.313953488372093
0.443176266536026 0.395638735825308 0.313953488372093
0.444157400669096 0.41436190525405 0.313953488372093
0.442362441733997 0.428446703835496 0.313953488372093
0.448913435643264 0.446536499152917 0.313953488372093
0.44763458550628 0.455248192036933 0.313953488372093
0.457082652228426 0.476490970268844 0.313953488372093
0.450397092583723 0.489834159387786 0.313953488372093
0.353168950843623 -0.32636909608998 0.313953488372093
0.360863017074662 -0.313228112317352 0.313953488372093
0.357584810414221 -0.302065617560491 0.313953488372093
0.363593081963406 -0.294377689750996 0.313953488372093
0.366075668582082 -0.284120595790756 0.313953488372093
0.365695873875061 -0.282764447076231 0.313953488372093
0.363166546765095 -0.267558696740493 0.313953488372093
0.368028928010008 -0.264789299538493 0.313953488372093
0.369522836962321 -0.248820336125993 0.313953488372093
0.369457328076268 -0.237151513681721 0.313953488372093
0.373161880729698 -0.228691928433773 0.313953488372093
0.374091991290018 -0.221599513940745 0.313953488372093
0.369379645265066 -0.213363577903851 0.313953488372093
0.37649144190644 -0.201510869469317 0.313953488372093
0.373352735274956 -0.191527555561847 0.313953488372093
0.377823722511559 -0.181208280020963 0.313953488372093
0.377565758275741 -0.178980617825383 0.313953488372093
0.380599125007038 -0.157684637255492 0.313953488372093
0.37613887688929 -0.153970765850765 0.313953488372093
0.378116034690049 -0.147453283799084 0.313953488372093
0.386117107160231 -0.134724751529193 0.313953488372093
0.386393159151441 -0.116764674945692 0.313953488372093
0.384873219765438 -0.112824294511454 0.313953488372093
0.383908645266057 -0.0983035695972102 0.313953488372093
0.385390271418394 -0.0910577510236522 0.313953488372093
0.388308402542059 -0.0775051032277264 0.313953488372093
0.388031695879613 -0.0708514131358498 0.313953488372093
0.389943486889969 -0.0569818901877501 0.313953488372093
0.390292797446311 -0.0526052114816803 0.313953488372093
0.396285353273031 -0.0396526131588081 0.313953488372093
0.391650636468865 -0.0272107168414263 0.313953488372093
0.401908475176266 -0.00698671284539485 0.313953488372093
0.398764963310184 -0.0140035420575957 0.313953488372093
0.39654768510949 0.00195147914267059 0.313953488372093
0.404418913068607 0.0224924279684389 0.313953488372093
0.404811546383035 0.0356629612365518 0.313953488372093
0.402478921600802 0.0382365652645425 0.313953488372093
0.40809433301022 0.0581456526545466 0.313953488372093
0.406267450383916 0.064000089277996 0.313953488372093
0.408558424589036 0.0683262470233254 0.313953488372093
0.408191709402594 0.0891776062828737 0.313953488372093
0.413798064361325 0.0959527532632627 0.313953488372093
0.416152534318867 0.108935899595118 0.313953488372093
0.413642943851803 0.116651622526387 0.313953488372093
0.416163469795306 0.128193443564548 0.313953488372093
0.415783939553488 0.148321969714262 0.313953488372093
0.425311599098528 0.15799316741224 0.313953488372093
0.421315476774826 0.173804132588649 0.313953488372093
0.423346959089373 0.188962136369309 0.313953488372093
0.421836756875219 0.203126137771641 0.313953488372093
0.429602784008648 0.20604905268709 0.313953488372093
0.43450510219602 0.226899747460912 0.313953488372093
0.434799495954071 0.233585551637044 0.313953488372093
0.430739163599849 0.250865118755302 0.313953488372093
0.430348731912227 0.261257262169865 0.313953488372093
0.43883933255943 0.266191805888419 0.313953488372093
0.443860268222493 0.295443470808433 0.313953488372093
0.434906934375502 0.308443428686312 0.313953488372093
0.445427026585622 0.309790065144293 0.313953488372093
0.446652890851523 0.337227192991632 0.313953488372093
0.443257176971525 0.342908733028696 0.313953488372093
0.448306450383297 0.349104099126011 0.313953488372093
0.450281596126433 0.371704034107582 0.313953488372093
0.454947165555247 0.38082255213366 0.313953488372093
0.450047329417818 0.393552662956739 0.313953488372093
0.454422146112503 0.406484601545714 0.313953488372093
0.455020250184962 0.427787343828327 0.313953488372093
0.459396320749735 0.435450684775158 0.313953488372093
0.456215759480979 0.449437457272714 0.313953488372093
0.460742593363598 0.463966706979445 0.313953488372093
0.46987361890003 0.47815245308111 0.313953488372093
0.462737686379234 0.496741576356772 0.313953488372093
0.36879362470901 -0.322602720352186 0.313953488372093
0.363961949030841 -0.317277679685015 0.313953488372093
0.367228129428205 -0.304263082886738 0.313953488372093
0.369865078990245 -0.295013600825081 0.313953488372093
0.368541681963005 -0.2859519123819 0.313953488372093
0.3693914361057 -0.282123991062712 0.313953488372093
0.373411193259315 -0.262066956743126 0.313953488372093
0.373074043281598 -0.262711007092483 0.313953488372093
0.380393318094116 -0.24457591175228 0.313953488372093
0.378717141013431 -0.243385058782514 0.313953488372093
0.379339265692357 -0.226934572601821 0.313953488372093
0.380307195937716 -0.218733259150952 0.313953488372093
0.384771874728266 -0.215241678884177 0.313953488372093
0.38229913507374 -0.201562081996039 0.313953488372093
0.383183339157637 -0.190495617699672 0.313953488372093
0.383532419144803 -0.179782316160912 0.313953488372093
0.385176548461232 -0.167372718721788 0.313953488372093
0.386472404100869 -0.162903988047525 0.313953488372093
0.386430108057755 -0.147297749221081 0.313953488372093
0.387616583182152 -0.138353406866308 0.313953488372093
0.393084439675509 -0.134063006140106 0.313953488372093
0.394652631231422 -0.128441767352085 0.313953488372093
0.397185853875864 -0.110073768422228 0.313953488372093
0.393666492015305 -0.10029016464548 0.313953488372093
0.393149016762954 -0.0896801088399658 0.313953488372093
0.396380077455875 -0.0850824081092925 0.313953488372093
0.405537564713713 -0.0680611825874854 0.313953488372093
0.403358209332897 -0.0496403561732701 0.313953488372093
0.40668501488094 -0.0499432992365217 0.313953488372093
0.402157670777412 -0.0439930322439663 0.313953488372093
0.403639093757795 -0.0197533039721774 0.313953488372093
0.404828374416397 -0.0126616104014529 0.313953488372093
0.413815091767294 -0.000171705578604084 0.313953488372093
0.41357185628217 0.00986828310694172 0.313953488372093
0.415159843706096 0.0117742351969952 0.313953488372093
0.416661932362379 0.0322917020334876 0.313953488372093
0.419391921494247 0.0492649569283015 0.313953488372093
0.412918569155659 0.0478564426512355 0.313953488372093
0.4209830021834 0.0598655390107367 0.313953488372093
0.417128049049146 0.0724023717097299 0.313953488372093
0.420207738308981 0.0810625390921848 0.313953488372093
0.421806456170136 0.0973593559879135 0.313953488372093
0.430325049129885 0.107286976845872 0.313953488372093
0.429738633753426 0.117524819869792 0.313953488372093
0.427749660861885 0.137519576266221 0.313953488372093
0.433342583624804 0.137701590047578 0.313953488372093
0.431664823220531 0.163225674928123 0.313953488372093
0.435807776069219 0.173723646205477 0.313953488372093
0.430379810934098 0.180614143027128 0.313953488372093
0.437677526789866 0.198907598542317 0.313953488372093
0.438403479347087 0.201933637064353 0.313953488372093
0.440283503473396 0.218995530033923 0.313953488372093
0.444060541462775 0.230873618649354 0.313953488372093
0.443740355154535 0.247751131952227 0.313953488372093
0.45060614895774 0.262903056071619 0.313953488372093
0.449783874019797 0.281916523448874 0.313953488372093
0.451485921985882 0.283941752261181 0.313953488372093
0.456821922103635 0.305435935016012 0.313953488372093
0.453256550489746 0.318541699796142 0.313953488372093
0.45260842579408 0.335311363882065 0.313953488372093
0.452842578579417 0.336418916819746 0.313953488372093
0.455519743499125 0.360295316797633 0.313953488372093
0.464395286683311 0.3764288483498 0.313953488372093
0.46601703097333 0.389520650657612 0.313953488372093
0.462339523201306 0.400626861884637 0.313953488372093
0.464536672868375 0.413049389015344 0.313953488372093
0.465446578158338 0.433080503068215 0.313953488372093
0.464731555363228 0.438436504394861 0.313953488372093
0.46960116350138 0.458057504744085 0.313953488372093
0.477067967480251 0.475866392244967 0.313953488372093
0.475639246791217 0.493287871460284 0.313953488372093
0.378355825518854 -0.323515531452048 0.313953488372093
0.373138737387431 -0.313952577797501 0.313953488372093
0.374076560458643 -0.306174998703027 0.313953488372093
0.378577529846786 -0.296007453616433 0.313953488372093
0.381515410300791 -0.282136787585913 0.313953488372093
0.380474838588208 -0.282281684899815 0.313953488372093
0.387002148215393 -0.268402829010749 0.313953488372093
0.385938800942163 -0.253635495936852 0.313953488372093
0.380952777731891 -0.248860392313672 0.313953488372093
0.385453334769976 -0.235634067490609 0.313953488372093
0.390565095238201 -0.236598083566753 0.313953488372093
0.387221039646447 -0.213706406582951 0.313953488372093
0.387323191257121 -0.205470854256189 0.313953488372093
0.392378153237047 -0.199492064561707 0.313953488372093
0.397101144650537 -0.186650990451279 0.313953488372093
0.394645901042486 -0.189300067968467 0.313953488372093
0.39153727340104 -0.178754379524436 0.313953488372093
0.400146423896892 -0.166509700011127 0.313953488372093
0.402358501811401 -0.155625553937437 0.313953488372093
0.397885510548085 -0.141727866717669 0.313953488372093
0.404736594572782 -0.128951046600051 0.313953488372093
0.403027057440647 -0.127449822499325 0.313953488372093
0.406699380928997 -0.11005087763626 0.313953488372093
0.402175451270728 -0.102078765088473 0.313953488372093
0.404705774374661 -0.0913049039145426 0.313953488372093
0.407067341475857 -0.0823732745157271 0.313953488372093
0.409242380405695 -0.0733854467793471 0.313953488372093
0.409893217735781 -0.0612815745929448 0.313953488372093
0.417163581186312 -0.0545492271154605 0.313953488372093
0.410595363975828 -0.0324058990120998 0.313953488372093
0.411704044724629 -0.0258501856439584 0.313953488372093
0.414605953281271 -0.0210033203769642 0.313953488372093
0.421075166239535 -0.0065508200129127 0.313953488372093
0.423114809886084 0.00536485474194046 0.313953488372093
0.418150494168221 0.0130964354670902 0.313953488372093
0.427862844567771 0.0373595998204301 0.313953488372093
0.421817766492668 0.0407098523117085 0.313953488372093
0.424077200421562 0.045238059736861 0.313953488372093
0.428435661911638 0.0679515657653068 0.313953488372093
0.428683080449554 0.0848333827440444 0.313953488372093
0.426588755575964 0.080549474393838 0.313953488372093
0.435850250359252 0.0979639887208982 0.313953488372093
0.432090596336304 0.109089790792913 0.313953488372093
0.435728610886428 0.129346254157936 0.313953488372093
0.435289714780911 0.131699231107907 0.313953488372093
0.435273237022046 0.147101212049733 0.313953488372093
0.437128896368442 0.151603385567262 0.313953488372093
0.440988059222735 0.168513705173786 0.313953488372093
0.449169831909706 0.185527527842841 0.313953488372093
0.449611238877047 0.193338806897883 0.313953488372093
0.451730867855944 0.207238507216271 0.313953488372093
0.450142385716513 0.228400481446059 0.313953488372093
0.447757578510586 0.234044890687784 0.313953488372093
0.460572373230559 0.252750346135637 0.313953488372093
0.458991748723888 0.260281530973328 0.313953488372093
0.45784667092538 0.27753581312113 0.313953488372093
0.462883380333075 0.294579681042615 0.313953488372093
0.466768308152177 0.307548756062217 0.313953488372093
0.46018574277563 0.315699635372125 0.313953488372093
0.464612868731097 0.325014357096594 0.313953488372093
0.472947330652862 0.345154960918646 0.313953488372093
0.467720033483888 0.355889303572216 0.313953488372093
0.476807973021586 0.369273594981868 0.313953488372093
0.469521863061216 0.377515627391077 0.313953488372093
0.475690211977637 0.40124094574566 0.313953488372093
0.47905574909007 0.421936584113002 0.313953488372093
0.483743978163758 0.429856771393512 0.313953488372093
0.480741940301985 0.436582937140824 0.313953488372093
0.482271559056572 0.463298611459554 0.313953488372093
0.481521306550169 0.474273693232025 0.313953488372093
0.48966472500262 0.496424870580004 0.313953488372093
0.383612061641977 -0.325396941374631 0.313953488372093
0.383883063752656 -0.31637785598364 0.313953488372093
0.386415951142729 -0.308226920093153 0.313953488372093
0.391460498124229 -0.291838590438496 0.313953488372093
0.390755871540235 -0.291664588720683 0.313953488372093
0.392204750183795 -0.27619022260296 0.313953488372093
0.395358151352376 -0.270387825440793 0.313953488372093
0.391050909015017 -0.265368676864756 0.313953488372093
0.389986978798365 -0.246402449533205 0.313953488372093
0.395965153277554 -0.242634445210107 0.313953488372093
0.394450952536453 -0.225402979914219 0.313953488372093
0.402637188610044 -0.219087256237803 0.313953488372093
0.398488404848067 -0.216944771111718 0.313953488372093
0.396644965490842 -0.204448162556698 0.313953488372093
0.401372587126149 -0.192066185573247 0.313953488372093
0.403870670306005 -0.179599275873592 0.313953488372093
0.404761547475725 -0.176084583622494 0.313953488372093
0.40609617166033 -0.170445273135268 0.313953488372093
0.405255146460286 -0.155476697461881 0.313953488372093
0.411409099820347 -0.142285169476711 0.313953488372093
0.411270787981817 -0.128396077846725 0.313953488372093
0.410523348115855 -0.120574149740828 0.313953488372093
0.409598014163657 -0.11105571034518 0.313953488372093
0.418219602400454 -0.102137596782388 0.313953488372093
0.421087980426432 -0.100110222605402 0.313953488372093
0.421027354007658 -0.0825343870864906 0.313953488372093
0.420383878302889 -0.0661296101939811 0.313953488372093
0.422792404564348 -0.0505494182497637 0.313953488372093
0.425366732065459 -0.0437477653154656 0.313953488372093
0.42587951503605 -0.0394195888557814 0.313953488372093
0.426482535482524 -0.0230089376415243 0.313953488372093
0.426644980234536 -0.0220553577787061 0.313953488372093
0.429211212002731 0.000770033266625644 0.313953488372093
0.435258088546648 0.00317250577693478 0.313953488372093
0.435001848859699 0.0210291192925212 0.313953488372093
0.433948469092178 0.0290383893496439 0.313953488372093
0.440757510745216 0.0487124516355958 0.313953488372093
0.434915007061768 0.0440257511853076 0.313953488372093
0.438673816512404 0.0654759969378403 0.313953488372093
0.444955369102072 0.0725537908045297 0.313953488372093
0.445589448715942 0.0898321374954165 0.313953488372093
0.444280906272338 0.0897190129814268 0.313953488372093
0.448818782813014 0.107879332124454 0.313953488372093
0.447132090403028 0.118848540467351 0.313953488372093
0.45391962682887 0.134923168547043 0.313953488372093
0.448594944265375 0.149338688946655 0.313953488372093
0.458052098588209 0.167099862832019 0.313953488372093
0.452768955463962 0.180448168388074 0.313953488372093
0.461344089534143 0.185346949306159 0.313953488372093
0.461218110385908 0.199396463035321 0.313953488372093
0.454669015889398 0.201260209491571 0.313953488372093
0.458286068989033 0.222448318876551 0.313953488372093
0.459848200930864 0.237452479566516 0.313953488372093
0.46985080849376 0.250876409896452 0.313953488372093
0.462602936773882 0.259508283492509 0.313953488372093
0.466995502204093 0.278068901563819 0.313953488372093
0.474184857080134 0.299396054466502 0.313953488372093
0.474617510672037 0.296839570467416 0.313953488372093
0.475138512679644 0.319498418335862 0.313953488372093
0.478257508384439 0.332360362172229 0.313953488372093
0.481297638280661 0.339401267835016 0.313953488372093
0.487057489675373 0.359216568905163 0.313953488372093
0.485273797000627 0.368691639609489 0.313953488372093
0.482800047882119 0.388998343379183 0.313953488372093
0.490659966239453 0.403397481315022 0.313953488372093
0.488286497691712 0.415803445510536 0.313953488372093
0.491129714274215 0.426332739799389 0.313953488372093
0.491869244415007 0.439472231592512 0.313953488372093
0.493159328078906 0.462996676796435 0.313953488372093
0.39582046708549 -0.316006100320653 0.313953488372093
0.38931523210089 -0.319007208122182 0.313953488372093
0.395178601638076 -0.306224311962796 0.313953488372093
0.396328307702779 -0.29992734744881 0.313953488372093
0.397158458208595 -0.285469057384576 0.313953488372093
0.395168767617144 -0.281292120355641 0.313953488372093
0.402447080039133 -0.26486410885906 0.313953488372093
0.40717149369985 -0.256409173755667 0.313953488372093
0.403080324488465 -0.24819814071086 0.313953488372093
0.409002417157583 -0.238211333005248 0.313953488372093
0.410171021650538 -0.229690579441195 0.313953488372093
0.407789779480449 -0.220110418235274 0.313953488372093
0.406044579963465 -0.212847902456034 0.313953488372093
0.410583732167664 -0.204415134268992 0.313953488372093
0.409804806217481 -0.188893293695389 0.313953488372093
0.413926050312317 -0.191226334579185 0.313953488372093
0.415451706478946 -0.179782813011914 0.313953488372093
0.418036539944274 -0.16575499408773 0.313953488372093
0.420854870198426 -0.160241536177491 0.313953488372093
0.417407247022305 -0.141800826249567 0.313953488372093
0.416771628686027 -0.128605683610499 0.313953488372093
0.417794719975575 -0.126336849592231 0.313953488372093
0.424379152746363 -0.120727673740102 0.313953488372093
0.424061997029552 -0.10972874860261 0.313953488372093
0.425670574858556 -0.0923646479361976 0.313953488372093
0.427682734268063 -0.0826329994007684 0.313953488372093
0.427899792136524 -0.0705267238276395 0.313953488372093
0.435360823378216 -0.0670532713166346 0.313953488372093
0.433729496495289 -0.0579681297580626 0.313953488372093
0.432370558490299 -0.0349086497902245 0.313953488372093
0.438954990111409 -0.025567018847052 0.313953488372093
0.439215440309542 -0.0207724212805223 0.313953488372093
0.437705112142845 -0.00523886623649542 0.313953488372093
0.439218469590239 0.0112152021965222 0.313953488372093
0.443395104769393 0.0174958710436873 0.313953488372093
0.448476056249819 0.0298947022743728 0.313953488372093
0.450624633225508 0.0433649585997774 0.313953488372093
0.450859442462309 0.053693192929291 0.313953488372093
0.45241420402369 0.0614102844645351 0.313953488372093
0.451808487175571 0.0727303781110253 0.313953488372093
0.448533119243624 0.0891014935054039 0.313953488372093
0.456903230133089 0.100524565900668 0.313953488372093
0.459155680903673 0.107139729308921 0.313953488372093
0.459531927748256 0.130300507231736 0.313953488372093
0.460039265241763 0.132402911873828 0.313953488372093
0.460337082306172 0.151895069181612 0.313953488372093
0.465627012710559 0.159508082212685 0.313953488372093
0.464733962958433 0.170518341873367 0.313953488372093
0.46550405457763 0.178738639157362 0.313953488372093
0.467712884906191 0.19974853792056 0.313953488372093
0.47147479644133 0.217223987572932 0.313953488372093
0.468152095323355 0.224103856158372 0.313953488372093
0.469831211567851 0.233573376283395 0.313953488372093
0.472050124414427 0.251505269198624 0.313953488372093
0.477817148033726 0.255918205153867 0.313953488372093
0.47916980349153 0.280135980755038 0.313953488372093
0.48711740761147 0.287637576633465 0.313953488372093
0.484245564836981 0.300400915111596 0.313953488372093
0.480611680418494 0.308175558820345 0.313953488372093
0.490403914567323 0.325016856105983 0.313953488372093
0.489416785798585 0.348123398642761 0.313953488372093
0.490923535289253 0.360672421933025 0.313953488372093
0.488996373522458 0.370254748392785 0.313953488372093
0.49161190732613 0.389538999989034 0.313953488372093
0.499024973065401 0.407321428148592 0.313953488372093
0.398038935118407 -0.319369413425781 0.313953488372093
0.404029760443266 -0.319013332974999 0.313953488372093
0.401449992514429 -0.304996619107492 0.313953488372093
0.40879956439343 -0.296997251864816 0.313953488372093
0.403897635290521 -0.288043974430784 0.313953488372093
0.410071947230613 -0.275256338675891 0.313953488372093
0.412096967027284 -0.266744143190384 0.313953488372093
0.414825721575597 -0.258177954475639 0.313953488372093
0.409947507588536 -0.247311923224715 0.313953488372093
0.411927704158784 -0.247688562370064 0.313953488372093
0.416889168407994 -0.230854654504094 0.313953488372093
0.41810290113188 -0.221361585321581 0.313953488372093
0.420467365429794 -0.211612821840983 0.313953488372093
0.415721275898201 -0.201547725981323 0.313953488372093
0.418973771035657 -0.195991617553272 0.313953488372093
0.422040218465981 -0.176349634323236 0.313953488372093
0.42535716105784 -0.174952041155087 0.313953488372093
0.423247752795705 -0.160357981118986 0.313953488372093
0.429673521974811 -0.158545552298519 0.313953488372093
0.424354767511063 -0.142400031509035 0.313953488372093
0.428080270585533 -0.137699518876543 0.313953488372093
0.426505087730351 -0.130609346890863 0.313953488372093
0.437525775951464 -0.115048460541114 0.313953488372093
0.431944345915275 -0.0977924387614925 0.313953488372093
0.437757355289194 -0.0933125360120055 0.313953488372093
0.434469287491881 -0.0855210078902137 0.313953488372093
0.442833136314619 -0.0684470288962906 0.313953488372093
0.436910604695287 -0.0595089770611789 0.313953488372093
0.441762201721461 -0.0478724096968667 0.313953488372093
0.438820020946153 -0.0430379260535275 0.313953488372093
0.448287771602511 -0.0232290729126666 0.313953488372093
0.445245280568414 -0.0165179107672832 0.313953488372093
0.447354485948102 -0.00782302599845681 0.313953488372093
0.453666463309101 0.00754629645078724 0.313953488372093
0.4552971931643 0.0120193560800242 0.313953488372093
0.456931060358663 0.026049223435473 0.313953488372093
0.454606873389829 0.04540779765905 0.313953488372093
0.453305029837515 0.0557060517385362 0.313953488372093
0.460434061082877 0.0640328445129252 0.313953488372093
0.455795357448674 0.0687290852638983 0.313953488372093
0.458461470677289 0.0889147578262965 0.313953488372093
0.468714019799982 0.101470573740787 0.313953488372093
0.471365289137249 0.119293280360548 0.313953488372093
0.468877387120931 0.125596886223909 0.313953488372093
0.465569903353437 0.136109556446233 0.313953488372093
0.469408984947289 0.151383756077827 0.313953488372093
0.478753365484359 0.162910766982107 0.313953488372093
0.473471363294362 0.172585944713938 0.313953488372093
0.474856021136807 0.188536988823085 0.313953488372093
0.480759072888689 0.206323886057732 0.313953488372093
0.486996479641484 0.218414461017973 0.313953488372093
0.481399524520543 0.224496886752847 0.313953488372093
0.487861391536453 0.235771676850904 0.313953488372093
0.486654681002232 0.254174253770761 0.313953488372093
0.487834879271181 0.264138526248809 0.313953488372093
0.494852861109693 0.267709301581109 0.313953488372093
0.494125060655733 0.295656102453547 0.313953488372093
0.498469497641423 0.304883862537826 0.313953488372093
0.409958803333953 -0.327318836847261 0.313953488372093
0.411050523099837 -0.312615678889923 0.313953488372093
0.414146607228852 -0.298650827858541 0.313953488372093
0.417236982671022 -0.288722191132523 0.313953488372093
0.412011457033593 -0.287377545377071 0.313953488372093
0.417337719810658 -0.284982889083937 0.313953488372093
0.414918314113125 -0.265661889574652 0.313953488372093
0.419111439849107 -0.257739037702807 0.313953488372093
0.42251571153706 -0.252652499606576 0.313953488372093
0.42782719874345 -0.237734968251367 0.313953488372093
0.429384704482713 -0.233610387031357 0.313953488372093
0.420757574438375 -0.22552806759198 0.313953488372093
0.431713788831913 -0.208364360701662 0.313953488372093
0.42637145537103 -0.198137931842675 0.313953488372093
0.434507285417848 -0.195578334906468 0.313953488372093
0.428340978414137 -0.187158194054019 0.313953488372093
0.437908820498971 -0.167198208320584 0.313953488372093
0.43587891152694 -0.155115359204203 0.313953488372093
0.44121216739789 -0.148055288568769 0.313953488372093
0.439760283895822 -0.138528073232604 0.313953488372093
0.44106155141184 -0.133277990702933 0.313953488372093
0.439409718895575 -0.118101589735028 0.313953488372093
0.447526097518641 -0.112791382868618 0.313953488372093
0.444373888291464 -0.0994811375486568 0.313953488372093
0.444630967306692 -0.0863094420124423 0.313953488372093
0.44845638973388 -0.0818234062674855 0.313953488372093
0.445069052441095 -0.0642530507661021 0.313953488372093
0.449631309226824 -0.0534215228106398 0.313953488372093
0.45303421063234 -0.0472728576503664 0.313953488372093
0.451412956562105 -0.0341985532003494 0.313953488372093
0.459739031086541 -0.0320687511516615 0.313953488372093
0.454400230630811 -0.0139377705574034 0.313953488372093
0.455593092616763 -0.00973394773788089 0.313953488372093
0.455764629380902 0.000548586639515227 0.313953488372093
0.466536419386585 0.017691006066939 0.313953488372093
0.458944625154774 0.0248583722368048 0.313953488372093
0.466095875437011 0.0342707578946665 0.313953488372093
0.470371690526624 0.0469915155242011 0.313953488372093
0.470271829455761 0.066077866664833 0.313953488372093
0.472727984194765 0.0782215697979011 0.313953488372093
0.475983642369809 0.0858541115716806 0.313953488372093
0.476350518291659 0.0999878219525977 0.313953488372093
0.476002284988082 0.11485371403687 0.313953488372093
0.482481828074273 0.125175853377591 0.313953488372093
0.479153921664351 0.132148193944217 0.313953488372093
0.487707653772018 0.151273022764614 0.313953488372093
0.478833507653383 0.159913503241724 0.313953488372093
0.491302663951696 0.173675103850837 0.313953488372093
0.49111571521716 0.184420602928377 0.313953488372093
0.495294878755643 0.20581016319721 0.313953488372093
0.488491986560419 0.216195942047745 0.313953488372093
0.496357878281696 0.224420240259184 0.313953488372093
0.493868454842674 0.244589828413976 0.313953488372093
0.494488660005735 0.252778375467681 0.313953488372093
0.495696844460973 0.2591214201406 0.313953488372093
0.415946574686024 -0.32649226823934 0.313953488372093
0.417741927848966 -0.315830980488268 0.313953488372093
0.419631350076164 -0.30096921728235 0.313953488372093
0.42321195778911 -0.295739077228141 0.313953488372093
0.429013869406233 -0.285224429835794 0.313953488372093
0.421767845043251 -0.277411911323768 0.313953488372093
0.431402287549131 -0.268867530569134 0.313953488372093
0.429706563286478 -0.259154031676313 0.313953488372093
0.43225382232046 -0.246440613641434 0.313953488372093
0.436110956483092 -0.248004819679204 0.313953488372093
0.433900502607405 -0.23253182357432 0.313953488372093
0.435211536256044 -0.220097810850474 0.313953488372093
0.435633938107268 -0.207073808291493 0.313953488372093
0.437670835345363 -0.202754181415033 0.313953488372093
0.440195156499933 -0.192635125413205 0.313953488372093
0.441283866693321 -0.180537103520582 0.313953488372093
0.444061824600356 -0.165071760381374 0.313953488372093
0.448504995905461 -0.167031039498563 0.313953488372093
0.44814911273291 -0.151151714112948 0.313953488372093
0.446419395561127 -0.143417376921074 0.313953488372093
0.444249396372308 -0.135262539870525 0.313953488372093
0.451124744273899 -0.123515953539545 0.313953488372093
0.453188074007597 -0.104458043290769 0.313953488372093
0.453026151972245 -0.0996450865403497 0.313953488372093
0.46082244520994 -0.0935806167306457 0.313953488372093
0.459757336046784 -0.0768395734872523 0.313953488372093
0.462983253923786 -0.0712749253907035 0.313953488372093
0.461619288171848 -0.0573291400398373 0.313953488372093
0.467227626513527 -0.0449409772262033 0.313953488372093
0.45901360352921 -0.0385462321477571 0.313953488372093
0.464001865589973 -0.0325452726429155 0.313953488372093
0.469135476309087 -0.0134322302683262 0.313953488372093
0.466425749710132 -0.00395522924051389 0.313953488372093
0.470259213898134 -3.80558621508978e-005 0.313953488372093
0.473103048691858 0.0135621244001253 0.313953488372093
0.476616268676309 0.0300750515747464 0.313953488372093
0.471877474827603 0.041222782542501 0.313953488372093
0.477171757811798 0.0507009743097048 0.313953488372093
0.48102494734392 0.0667973674488601 0.313953488372093
0.476395878356757 0.0688669659358212 0.313953488372093
0.486445455791902 0.0949650509797383 0.313953488372093
0.491083445253095 0.102394353916007 0.313953488372093
0.491598207027851 0.110109270633499 0.313953488372093
0.491771703133866 0.129522646850127 0.313953488372093
0.49376764499957 0.138789293466401 0.313953488372093
0.491167418237553 0.13684735343963 0.313953488372093
0.499764136559743 0.156777971984541 0.313953488372093
0.497310591823598 0.184506779999432 0.313953488372093
0.499251941788154 0.216841876747173 0.313953488372093
0.42810453903463 -0.323645963297093 0.313953488372093
0.432317663720534 -0.306936517374854 0.313953488372093
0.432299972798165 -0.29999665699688 0.313953488372093
0.43374017449627 -0.290411163469824 0.313953488372093
0.432382831976478 -0.285982867205751 0.313953488372093
0.43425316307258 -0.271327894007323 0.313953488372093
0.433342045047347 -0.267783805395565 0.313953488372093
0.436969618161305 -0.258644744627839 0.313953488372093
0.436343128673906 -0.249606901733547 0.313953488372093
0.440364250039481 -0.242716345406121 0.313953488372093
0.444233994029672 -0.23365664047344 0.313953488372093
0.44485558242358 -0.21688447484461 0.313953488372093
0.446665321682554 -0.219183976764845 0.313953488372093
0.446692816665518 -0.197474890067611 0.313953488372093
0.452006928002212 -0.194782560802575 0.313953488372093
0.452145639770023 -0.184800323311641 0.313953488372093
0.45342616126153 -0.171377307579858 0.313953488372093
0.45854798414679 -0.162610839326207 0.313953488372093
0.456895023376794 -0.151618500455354 0.313953488372093
0.461194058764549 -0.147210132259749 0.313953488372093
0.455891684137515 -0.135915418649742 0.313953488372093
0.461955498689298 -0.118531383082547 0.313953488372093
0.46244821557695 -0.108297362406398 0.313953488372093
0.460477564914632 -0.0934813644272156 0.313953488372093
0.460966506822842 -0.0913037445924181 0.313953488372093
0.464464488991795 -0.0821999052491333 0.313953488372093
0.471972313112597 -0.0660192417275383 0.313953488372093
0.474466989468355 -0.0620198908881895 0.313953488372093
0.471398572845214 -0.0530198655531154 0.313953488372093
0.478219383396257 -0.0376168863641345 0.313953488372093
0.475298030125655 -0.0267221156107573 0.313953488372093
0.477964158662569 -0.0128439043777339 0.313953488372093
0.476797523080202 0.0029428976525684 0.313953488372093
0.479501867106006 0.0134719243732329 0.313953488372093
0.478717386480961 0.0247403395627177 0.313953488372093
0.484339831341493 0.0286162702708899 0.313953488372093
0.490142543276913 0.0373544026931313 0.313953488372093
0.489429710521122 0.0453959716820338 0.313953488372093
0.487178406439294 0.0538607964941799 0.313953488372093
0.490270582847087 0.0813267574982224 0.313953488372093
0.491444674855651 0.0841948181558379 0.313953488372093
0.494927772146325 0.10398261056737 0.313953488372093
0.498953513717962 0.112148818010839 0.313953488372093
0.440157745999844 -0.326024960566014 0.313953488372093
0.435893937245582 -0.313596146434795 0.313953488372093
0.436717443149208 -0.304693250692742 0.313953488372093
0.444570970447697 -0.297756837330775 0.313953488372093
0.446755496357843 -0.279654341843945 0.313953488372093
0.443975342967837 -0.281957024080163 0.313953488372093
0.449383863427742 -0.274660505358294 0.313953488372093
0.448395568864943 -0.261481804851613 0.313953488372093
0.448143220192184 -0.24256368472896 0.313953488372093
0.451973576358937 -0.235546985140374 0.313953488372093
0.447798033913146 -0.235477122332623 0.313953488372093
0.451113375188563 -0.226549389774179 0.313953488372093
0.457295121795774 -0.218424913228909 0.313953488372093
0.457971658954599 -0.206722336662907 0.313953488372093
0.454635892205809 -0.184154901834122 0.313953488372093
0.461976569429684 -0.180227308584822 0.313953488372093
0.463844317580672 -0.177854968193337 0.313953488372093
0.466130392846365 -0.162415332199833 0.313953488372093
0.46838924938518 -0.153330699849549 0.313953488372093
0.471341946818113 -0.146816171023528 0.313953488372093
0.468790191018562 -0.140802692505169 0.313953488372093
0.470585782029435 -0.116726669143474 0.313953488372093
0.473306782981049 -0.106528418847636 0.313953488372093
0.477761783480944 -0.0937620644634943 0.313953488372093
0.472698588150606 -0.0878665554830706 0.313953488372093
0.477266603290974 -0.075094757632323 0.313953488372093
0.481345183709741 -0.0729261051153735 0.313953488372093
0.484924458305975 -0.0510252965462291 0.313953488372093
0.484261755603585 -0.0477318955813382 0.313953488372093
0.486295879491614 -0.0367217182269992 0.313953488372093
0.4875739230197 -0.0288299892979879 0.313953488372093
0.490924963001242 -0.017732340824266 0.313953488372093
0.485738344626513 -0.00512983122920713 0.313953488372093
0.496588966705803 0.00832032934037386 0.313953488372093
0.492966526770641 0.0194809108180499 0.313953488372093
0.496987346032828 0.0320536814769404 0.313953488372093
0.493500767675972 0.0394367857258026 0.313953488372093
0.499098916638288 0.0449042702144692 0.313953488372093
0.499999040826979 0.0559516256032319 0.313953488372093
0.44479955501926 -0.322302095989168 0.313953488372093
0.448906342885566 -0.318438614272807 0.313953488372093
0.448787624030809 -0.298704128323442 0.313953488372093
0.45357265305405 -0.293517620750304 0.313953488372093
0.454786273200067 -0.281689535915488 0.313953488372093
0.454145697789375 -0.276967934783752 0.313953488372093
0.456340409290966 -0.272327972320677 0.313953488372093
0.454594795062731 -0.265332111072608 0.313953488372093
0.461729368231773 -0.24647415404294 0.313953488372093
0.459802658445265 -0.244717445568836 0.313953488372093
0.45809018039827 -0.235989824617251 0.313953488372093
0.459335869330669 -0.221541359336246 0.313953488372093
0.466463998093232 -0.212800537298052 0.313953488372093
0.46342710857866 -0.201185567444515 0.313953488372093
0.469272273376801 -0.188335688610174 0.313953488372093
0.469511435755115 -0.183850341945723 0.313953488372093
0.471152833269394 -0.170081672700418 0.313953488372093
0.468191622702625 -0.169324740899929 0.313953488372093
0.477653722302589 -0.157604804436012 0.313953488372093
0.474106983840523 -0.1482615179154 0.313953488372093
0.477471306219475 -0.135746211980891 0.313953488372093
0.474652270283632 -0.127559315935001 0.313953488372093
0.482156742802549 -0.105113877370423 0.313953488372093
0.483337632708778 -0.110798925597262 0.313953488372093
0.482873111919102 -0.0940567395686821 0.313953488372093
0.490401231184129 -0.0805741110765857 0.313953488372093
0.485794710259338 -0.0739356381883122 0.313953488372093
0.493216087685801 -0.0692085123649922 0.313953488372093
0.492207085053037 -0.0441152452513817 0.313953488372093
0.49751799864257 -0.0390141301843889 0.313953488372093
0.499275352178009 -0.014726437502081 0.313953488372093
0.499344256148173 0.0171536279585665 0.313953488372093
0.45208994844772 -0.325744484003924 0.313953488372093
0.460823899520297 -0.307314977613183 0.313953488372093
0.458158251112735 -0.30785386727757 0.313953488372093
0.459410353675536 -0.293599791417854 0.313953488372093
0.459038270035126 -0.287922669741543 0.313953488372093
0.464620518490619 -0.278441313113562 0.313953488372093
0.459927032819063 -0.270540341657572 0.313953488372093
0.469120625573762 -0.259809361329142 0.313953488372093
0.471050275046894 -0.243723633345946 0.313953488372093
0.46382276918614 -0.248326773130144 0.313953488372093
0.474116946217056 -0.225956931330883 0.313953488372093
0.472456915958148 -0.221373889650805 0.313953488372093
0.477311917805575 -0.213504926575339 0.313953488372093
0.471368244620526 -0.208082548203517 0.313953488372093
0.480394894164979 -0.198756421647721 0.313953488372093
0.474816908176706 -0.181700536244326 0.313953488372093
0.484550144083447 -0.176296965049495 0.313953488372093
0.485049348245119 -0.161703021532924 0.313953488372093
0.480055851051895 -0.157006990016547 0.313953488372093
0.484672734170248 -0.141042325585337 0.313953488372093
0.492112958124141 -0.12625460787303 0.313953488372093
0.486156604993747 -0.123229603073834 0.313953488372093
0.487339409198102 -0.113304950934133 0.313953488372093
0.489065916958827 -0.0994260124775887 0.313953488372093
0.494323675879245 -0.0859952130687913 0.313953488372093
0.494642243011819 -0.0855187540373084 0.313953488372093
0.496498575846258 -0.0565574340562762 0.313953488372093
0.463449625861119 -0.328419044493581 0.313953488372093
0.460952161198826 -0.318891219376929 0.313953488372093
0.463600574920317 -0.308242768561921 0.313953488372093
0.470509764127348 -0.298225238792252 0.313953488372093
0.474870407584035 -0.287833245671055 0.313953488372093
0.469263086367145 -0.269844725914456 0.313953488372093
0.474123077199454 -0.261656924778381 0.313953488372093
0.471571755646162 -0.254853232752424 0.313953488372093
0.472468450799583 -0.250545369517629 0.313953488372093
0.482107407867285 -0.239995951774638 0.313953488372093
0.485103370238277 -0.229526558886498 0.313953488372093
0.477074038571796 -0.222906254505449 0.313953488372093
0.483559532071685 -0.218140383826182 0.313953488372093
0.486852496717439 -0.203762256326005 0.313953488372093
0.48634426346222 -0.189950477860034 0.313953488372093
0.485590113729227 -0.177223528465388 0.313953488372093
0.49171009151841 -0.164183142076042 0.313953488372093
0.495846701341648 -0.155101378297751 0.313953488372093
0.493372565167081 -0.148813791116238 0.313953488372093
0.494216919462397 -0.142630748259069 0.313953488372093
0.493194469657803 -0.124707543116727 0.313953488372093
0.497615168447212 -0.106107094850913 0.313953488372093
0.473708683477419 -0.320319036897183 0.313953488372093
0.473104140496453 -0.313945293184162 0.313953488372093
0.479770890868953 -0.307217729339185 0.313953488372093
0.477488589989088 -0.291198320917267 0.313953488372093
0.478217780653518 -0.285021886002353 0.313953488372093
0.483392637746596 -0.269742560944229 0.313953488372093
0.486722320427955 -0.259745695228093 0.313953488372093
0.483326752488509 -0.26296209017568 0.313953488372093
0.485899146758932 -0.253099358591031 0.313953488372093
0.490132263194268 -0.232893182843271 0.313953488372093
0.49050439190847 -0.232778090107982 0.313953488372093
0.491349649528162 -0.225984673871062 0.313953488372093
0.494884805919795 -0.207072670173481 0.313953488372093
0.494510137062471 -0.199854553659739 0.313953488372093
0.495584579666854 -0.1984727792159 0.313953488372093
0.495254092898547 -0.180181332775299 0.313953488372093
0.496505946909697 -0.166988676305141 0.313953488372093
0.483698847138726 -0.330150306445517 0.313953488372093
0.484541026722742 -0.315812557316732 0.313953488372093
0.488063312534682 -0.297599294899523 0.313953488372093
0.488508941898684 -0.297962407125363 0.313953488372093
0.48721920158728 -0.285382818072604 0.313953488372093
0.492704576600133 -0.276591896477187 0.313953488372093
0.490102601371522 -0.263750782740215 0.313953488372093
0.492326647347264 -0.260069187219806 0.313953488372093
0.494596118275318 -0.250933083403712 0.313953488372093
0.498579590990005 -0.240456192730976 0.313953488372093
0.495909578245417 -0.233285635098998 0.313953488372093
0.498811215557623 -0.204966561017976 0.313953488372093
0.494296715416448 -0.318768813653513 0.313953488372093
0.492520802391649 -0.315279348740561 0.313953488372093
0.492744232345174 -0.311028646467344 0.313953488372093
0.498401137596549 -0.299529283984316 0.313953488372093
0.495187474200199 -0.278913552116874 0.313953488372093
0.498895303883843 -0.266975860615421 0.313953488372093
0.5 0.475281736862106 0.166130621659756
0.5 0.496444265658761 0.16647640492511
0.496199681119053 0.490785247024874 0.174418604651163
0.496890515486642 0.480707606812786 0.313953488372093
0.497861511006602 0.49557866454673 0.313953488372093
0.489994115337697 0.496453350688256 0.313953488372093
0.5 0.459551933984985 0.142595207569467
0.5 0.470839213988616 0.148505732352444
0.5 0.465630444139377 0.161206285653493
0.5 0.464718421511598 0.172038102037424
0.495118790274466 0.472534488548888 0.174418604651163
0.489309423434777 0.479997982101216 0.174418604651163
0.481924476018147 0.489200438769588 0.174418604651163
0.5 0.470348885161532 0.308853474596676
0.496138379808167 0.468807183003805 0.313953488372093
0.491078788267672 0.48524353754944 0.313953488372093
0.488950201055083 0.489979645527189 0.313953488372093
0.5 0.459639483941735 0.152625305048578
0.5 0.46162340287159 0.15205625664066
0.5 0.452333152772283 0.173213419743702
0.498164691109762 0.459318500944076 0.174418604651163
0.486831523032069 0.472679561471337 0.174418604651163
0.480297856687569 0.473306225339869 0.174418604651163
0.477929517363506 0.480037471775652 0.174418604651163
0.469723396383259 0.49564176232457 0.174418604651163
0.490468706431226 0.461978062792603 0.313953488372093
0.490234304387472 0.471511123194903 0.313953488372093
0.487279541833319 0.476046258719668 0.313953488372093
0.475689222339527 0.493390190616447 0.313953488372093
0.47754562091954 0.492082871700218 0.313953488372093
0.5 0.428387689030146 0.139857795469789
0.5 0.433596871048256 0.145110480136063
0.5 0.437721169060821 0.148658030391189
0.499048394163708 0.433174358479867 0.174418604651163
0.499703957799749 0.432751826939775 0.174418604651163
0.491173549837781 0.440878249593078 0.174418604651163
0.488344998354261 0.450796683423475 0.174418604651163
0.483851110302594 0.463260952257824 0.174418604651162
0.469534742133635 0.468310291885078 0.174418604651162
0.466454714087585 0.478135727171439 0.174418604651163
0.464363201749232 0.496367263071752 0.174418604651163
0.463012798395236 0.493900435562593 0.174418604651163
0.497339599766097 0.432189240035999 0.313953488372093
0.493974587702387 0.439105239804466 0.313953488372093
0.485369127899142 0.450903712191459 0.313953488372093
0.485268878950272 0.455533558237908 0.313953488372093
0.477247676139367 0.467530079735511 0.313953488372093
0.471211658689864 0.470594017352249 0.313953488372093
0.463508390242179 0.483045910594688 0.313953488372093
0.455609653479814 0.493402552646247 0.313953488372093
0.5 0.419010384910474 0.141058895944405
0.5 0.411280441239759 0.157295408747784
0.496852935335007 0.413209040680556 0.174418604651163
0.499676826935774 0.412604011858619 0.174418604651163
0.491730629490083 0.426691931564076 0.174418604651162
0.482040183680193 0.441962701112631 0.174418604651163
0.480097117533861 0.450590668535492 0.174418604651163
0.475744548289475 0.453796414889173 0.174418604651163
0.466590715397927 0.454612775557973 0.174418604651163
0.459460528881589 0.478538373073112 0.174418604651163
0.461382156980413 0.477438871563174 0.174418604651163
0.445237814438324 0.491866671101043 0.174418604651163
0.449776503808253 0.499799734577121 0.174418604651163
0.495365497184492 0.419565784917773 0.313953488372093
0.489701446787105 0.428854514622051 0.313953488372093
0.486067338097089 0.437713352865797 0.313953488372093
0.48128548168374 0.45002441636964 0.313953488372093
0.477795701792282 0.460311025783517 0.313953488372093
0.466590450902022 0.466646210874885 0.313953488372093
0.468018363195049 0.467523193486196 0.313953488372093
0.453161215413007 0.484246181653513 0.313953488372093
0.44976272832181 0.490849848706552 0.313953488372093
0.5 0.385386052129938 0.14783874346703
0.5 0.395901713621247 0.153326576416872
0.5 0.396162320541909 0.157501797021687
0.497459528733699 0.390868134780163 0.174418604651163
0.498374207881357 0.404849567006891 0.174418604651163
0.4902576316658 0.408726383602757 0.174418604651163
0.490330464566549 0.422986815196219 0.174418604651163
0.480132219185511 0.430322374243566 0.174418604651163
0.478263827616915 0.434819561633098 0.174418604651163
0.46759393464459 0.440961026935876 0.174418604651163
0.466096189185407 0.450866296844732 0.174418604651163
0.458726996494927 0.462456803438525 0.174418604651163
0.44988450150262 0.47479989076836 0.174418604651163
0.438417040019199 0.483193040104793 0.174418604651163
0.445522233379087 0.492188859556645 0.174418604651163
0.499267036978802 0.396703610201901 0.313953488372093
0.500006530211845 0.398636049239171 0.313953488372093
0.495711574328795 0.408008141635684 0.313953488372093
0.488573143493529 0.420709597976188 0.313953488372093
0.480731638655678 0.424652882480843 0.313953488372093
0.476830878835189 0.434395383191404 0.313953488372093
0.464669359818888 0.452190714685185 0.313953488372093
0.467877831847863 0.455704040079159 0.313953488372093
0.456903366005654 0.473426089829723 0.313953488372093
0.453092122494171 0.477841484845951 0.313953488372093
0.437531978441604 0.485363326349865 0.313953488372093
0.437548464143288 0.49174972737307 0.313953488372093
0.5 0.373140887904948 0.144057560847319
0.5 0.375077757155181 0.148807212596692
0.5 0.373982955874224 0.154424727363319
0.5 0.385817309452026 0.157658655866586
0.496403732829408 0.37930781921485 0.174418604651163
0.492691759268561 0.381314592662976 0.174418604651163
0.491930596471652 0.394030832743538 0.174418604651163
0.484733795214793 0.399195887699022 0.174418604651163
0.48391007190148 0.40473337101951 0.174418604651163
0.474430834477291 0.427568814069114 0.174418604651163
0.468160202019423 0.427964727967928 0.174418604651163
0.46307799070027 0.441234254484708 0.174418604651163
0.453302764656307 0.439731474727916 0.174418604651163
0.449228058467881 0.460931759473468 0.174418604651163
