ply
format ascii 1.0
element vertex 847
property float x
property float y
property float z
end_header
-0.337567267992643 -0.00849592067114302 0.330483887651205
-0.339139802461191 -0.0259655384397593 0.330483887651205
-0.347825454851857 -0.0397703993239043 0.330483887651205
-0.340838002908646 -0.0468279547290205 0.330483887651205
-0.348705905699808 -0.0523905589859414 0.330483887651205
-0.345316923196699 -0.0691841196102738 0.330483887651205
-0.347582409315287 -0.0799528885246196 0.330483887651205
-0.346405195034249 -0.0930821831566171 0.330483887651205
-0.34676313042286 -0.104238888865327 0.330483887651205
-0.350562779264521 -0.125753406220098 0.330483887651205
-0.356200377457697 -0.129025030848552 0.330483887651205
-0.355201491245574 -0.14142625042777 0.330483887651205
-0.360356971548438 -0.153705393868745 0.330483887651205
-0.361470554200266 -0.165734228770366 0.330483887651205
-0.36447443967371 -0.176988877938469 0.330483887651204
-0.3581594060671 -0.195484530532334 0.330483887651205
-0.367395400198219 -0.208249504678099 0.330483887651205
-0.367503152954787 -0.210344496111271 0.330483887651205
-0.368403928492647 -0.225070169017975 0.330483887651205
-0.370719252832193 -0.241514036229503 0.330483887651205
-0.367945417042237 -0.2567402889534 0.330483887651205
-0.372448014392402 -0.269777011559511 0.330483887651205
-0.368139627366559 -0.281732941543693 0.330483887651205
-0.37037068713505 -0.291539612256454 0.330483887651205
-0.374636842988321 -0.311305157607978 0.330483887651205
-0.297437729935472 0.316698422701994 0.312033758761765
-0.297261669547615 0.276479778274004 0.268994227454983
-0.29802614204047 0.316674641655897 0.320955184080225
-0.292921772964017 0.313996486586726 0.330483887651205
-0.300786887671552 0.298196385609439 0.330483887651205
-0.297894291531796 0.300621661579115 0.330483887651205
-0.297823473346268 0.279303276713211 0.330483887651205
-0.297926945801675 0.278494376226535 0.330483887651205
-0.29993291071946 0.272678846027075 0.330483887651205
-0.297548101905879 0.262232420306998 0.330483887651205
-0.303740858962627 0.244728350517185 0.330483887651205
-0.306575720773684 0.244471138417141 0.330483887651205
-0.307358156463578 0.22963951532166 0.330483887651204
-0.307836884150673 0.21508754632719 0.330483887651205
-0.304029282439138 0.213255702041843 0.330483887651204
-0.306489612553284 0.200026100862454 0.330483887651204
-0.310027961782385 0.195831804570701 0.330483887651205
-0.306399032379608 0.181327080970581 0.330483887651205
-0.313262009696549 0.175861772579404 0.330483887651205
-0.314727499592326 0.159798103780673 0.330483887651205
-0.309612573979378 0.151254844019544 0.330483887651205
-0.311258015901356 0.133023433416464 0.330483887651205
-0.319348630260157 0.129432036129743 0.330483887651205
-0.319264562016241 0.119693052792246 0.330483887651205
-0.322523869692602 0.109621710755333 0.330483887651205
-0.322101438027455 0.100846565405643 0.330483887651205
-0.317591058814307 0.0915809410602661 0.330483887651205
-0.31748519141049 0.0762487330278892 0.330483887651205
-0.327128379683487 0.0748130023626779 0.330483887651205
-0.326657769308946 0.0573898606872073 0.330483887651205
-0.32999224293444 0.0452674832636167 0.330483887651205
-0.322337041691363 0.0345228012203896 0.330483887651205
-0.3328675583023 0.0141150865455132 0.330483887651205
-0.331406667284822 0.0151610126184995 0.330483887651205
-0.33397336199572 -0.00345183886124806 0.330483887651205
-0.326887304783832 -0.0133800790038529 0.330483887651205
-0.333702111785415 -0.0225589598870305 0.330483887651205
-0.331765295362657 -0.039360932979476 0.330483887651205
-0.333894869183933 -0.0385378776676363 0.330483887651205
-0.33616953897733 -0.0562568116527774 0.330483887651205
-0.332345922059139 -0.0702756828235783 0.330483887651205
-0.341933303080453 -0.0759423859808071 0.330483887651205
-0.336525929828774 -0.0816019269627477 0.330483887651204
-0.341700684600993 -0.105990019473671 0.330483887651205
-0.347417113989416 -0.116715924181923 0.330483887651204
-0.347585460799221 -0.121167399669095 0.330483887651205
-0.345902387683972 -0.135184159836864 0.330483887651205
-0.350368553272046 -0.148280388759839 0.330483887651205
-0.349986115094577 -0.168435481091145 0.330483887651205
-0.352217152397264 -0.185981587289078 0.330483887651205
-0.3454765362298 -0.185597845772279 0.330483887651205
-0.349491310627995 -0.204675706086383 0.330483887651205
-0.35154807723161 -0.215380134637213 0.330483887651205
-0.350645578318324 -0.231551773269996 0.330483887651205
-0.360513953369677 -0.238521761975546 0.330483887651205
-0.355776096170816 -0.25558412060619 0.330483887651205
-0.362499443430941 -0.2690914517049 0.330483887651205
-0.362801463163863 -0.279253399459835 0.330483887651205
-0.360338243386282 -0.295462600372337 0.330483887651205
-0.367376966198778 -0.306169434918132 0.330483887651205
-0.290058262965968 0.316674641655897 0.313479535582418
-0.283875503220615 0.316674641655897 0.31668825924238
-0.286814425121509 0.316674641655897 0.323033677409251
-0.282206956511823 0.316674641655897 0.330483887651205
-0.286432435020606 0.305974816626518 0.330483887651205
-0.286939411604662 0.296454323999573 0.330483887651205
-0.292134756885537 0.280947517762161 0.330483887651204
-0.291347964069942 0.276797775521756 0.330483887651205
-0.290519544759526 0.260104102366407 0.330483887651205
-0.295317787546798 0.260221343784085 0.330483887651205
-0.290674425883486 0.243775273537056 0.330483887651205
-0.291627997246621 0.242457770368383 0.330483887651205
-0.295208542724467 0.23525774697548 0.330483887651205
-0.295779594750359 0.226378985906561 0.330483887651205
-0.300404263766156 0.20553158161708 0.330483887651205
-0.299507610272502 0.199079915289151 0.330483887651204
-0.297819054301129 0.196713831060365 0.330483887651204
-0.299127700187931 0.180561410906896 0.330483887651205
-0.300619230848339 0.163868099634206 0.330483887651205
-0.304429283418553 0.161260932161029 0.330483887651205
-0.307916942142285 0.148906158297964 0.330483887651205
-0.306860195544879 0.146470920355892 0.330483887651205
-0.30300517048389 0.128565632338333 0.330483887651205
-0.308268722006821 0.118650183986923 0.330483887651205
-0.310843654473804 0.109396100954344 0.330483887651205
-0.308158592887593 0.0986373576024556 0.330483887651205
-0.308101222099036 0.0823987646620906 0.330483887651205
-0.31046574518485 0.0752979564406453 0.330483887651205
-0.313689678173545 0.0616177563431945 0.330483887651204
-0.314508484366234 0.0474854053749067 0.330483887651205
-0.318533376757407 0.0510144267148806 0.330483887651205
-0.318422569326057 0.0355916857351275 0.330483887651205
-0.320126432422282 0.0206713968047323 0.330483887651205
-0.318694754723177 0.0159646689449954 0.330483887651205
-0.31767569972997 0.00190528297958415 0.330483887651205
-0.318420514957476 -0.00551247218935358 0.330483887651205
-0.323102058476532 -0.020771211284133 0.330483887651205
-0.320208793173909 -0.0303690907071796 0.330483887651205
-0.323682331097196 -0.0398043389963597 0.330483887651205
-0.322775435610464 -0.064931651872588 0.330483887651205
-0.322592613069732 -0.0582082344268628 0.330483887651205
-0.325383669043329 -0.0719008077174361 0.330483887651205
-0.332850439755552 -0.0940082406969286 0.330483887651205
-0.328752361941121 -0.102220280850202 0.330483887651204
-0.331422242445368 -0.112114785491806 0.330483887651205
-0.337167187705398 -0.128089543746166 0.330483887651205
-0.333814133308576 -0.143324312127965 0.330483887651205
-0.340254969121799 -0.149039817254464 0.330483887651204
-0.339552913366032 -0.168585112714016 0.330483887651205
-0.334938556925152 -0.177559572889306 0.330483887651205
-0.343369457366106 -0.185577441790541 0.330483887651205
-0.344485089710635 -0.20216363614089 0.330483887651205
-0.341359326415337 -0.210310208490312 0.330483887651205
-0.340497248242609 -0.22296566641512 0.330483887651205
-0.346062906865595 -0.232111812130207 0.330483887651205
-0.34320538673304 -0.253610974781394 0.330483887651205
-0.347342760609416 -0.260068333710156 0.330483887651205
-0.348202392538991 -0.276006984820758 0.330483887651205
-0.348100965582339 -0.286636667159 0.330483887651204
-0.352043021680731 -0.31329975054414 0.330483887651205
-0.280945667917867 0.276491631550263 0.263751530948592
-0.277527922623468 0.316674641655897 0.321194931356625
-0.280010600339554 0.316674641655897 0.321412433625723
-0.273940623234364 0.31059206760935 0.330483887651205
-0.276478887963799 0.303685561442097 0.330483887651205
-0.281694970252749 0.294219201897425 0.330483887651205
-0.280509389603828 0.281889352431983 0.330483887651204
-0.283966261628024 0.276328198040473 0.330483887651205
-0.27863187649089 0.26745906911982 0.330483887651205
-0.281147998313177 0.251242048769437 0.330483887651205
-0.281921859756574 0.249001458837897 0.330483887651205
-0.286877176571392 0.235753604117273 0.330483887651205
-0.289043283790419 0.227679202544641 0.330483887651205
-0.288217401553975 0.221721603849121 0.330483887651205
-0.286696810119628 0.209777463704442 0.330483887651205
-0.293474897763469 0.201018626349715 0.330483887651205
-0.287745393888716 0.186905103291835 0.330483887651205
-0.293818328958125 0.17914552009817 0.330483887651205
-0.29406795889397 0.17227158041063 0.330483887651205
-0.292935720302006 0.159910285552849 0.330483887651205
-0.295210346491518 0.143966239334377 0.330483887651205
-0.297296490499052 0.131494259461236 0.330483887651204
-0.298988572227513 0.124910081898344 0.330483887651205
-0.299849559089203 0.122657075781331 0.330483887651205
-0.295550719761568 0.104222319403806 0.330483887651204
-0.304214811162603 0.0910365098168882 0.330483887651205
-0.29622849671111 0.0921541193570201 0.330483887651205
-0.298204585370078 0.0792422942574695 0.330483887651205
-0.302794556961905 0.0571830984200651 0.330483887651205
-0.306674882271345 0.0538386686917847 0.330483887651204
-0.301638009462621 0.0455604803972738 0.330483887651205
-0.303712363606026 0.0392200256223544 0.330483887651205
-0.310415286410297 0.0219370370414593 0.330483887651205
-0.305786178205237 0.015369012510486 0.330483887651205
-0.313481846595226 -0.00820641068024756 0.330483887651205
-0.306157954579452 -0.00318744041228034 0.330483887651204
-0.317287380732188 -0.0280860220286667 0.330483887651204
-0.30903977280272 -0.0380822683800067 0.330483887651205
-0.310638398879218 -0.0480757005634466 0.330483887651205
-0.320709593333875 -0.0511679931401348 0.330483887651205
-0.316758577014898 -0.0701513256287112 0.330483887651205
-0.316939480398449 -0.0788818090772161 0.330483887651205
-0.314978032084533 -0.0986565334330251 0.330483887651205
-0.32513038193132 -0.110936375121161 0.330483887651205
-0.319801112330565 -0.121735032671953 0.330483887651205
-0.325031359467402 -0.120028685170784 0.330483887651205
-0.328297811786348 -0.144208798832743 0.330483887651205
-0.320693824640009 -0.15245907446927 0.330483887651205
-0.330622330745175 -0.166455970257641 0.330483887651205
-0.330817705339177 -0.172580201412256 0.330483887651205
-0.330714627576489 -0.188811782606315 0.330483887651205
-0.329385674435977 -0.204392262531431 0.330483887651205
-0.335930207637993 -0.211322549073564 0.330483887651205
-0.336966449131372 -0.224820688030192 0.330483887651205
-0.339012503398098 -0.244897939266734 0.330483887651205
-0.340835684398205 -0.253434774974763 0.330483887651205
-0.339239936166095 -0.2699547401188 0.330483887651205
-0.334944866115163 -0.282856312031562 0.330483887651205
-0.345757204014483 -0.290501145957062 0.330483887651205
-0.34151315682311 -0.311823747553021 0.330483887651205
-0.268492364671129 0.316688278317816 0.312033758761764
-0.268896686707677 0.276577923757551 0.271294877858897
-0.265451656170416 0.316674641655897 0.32081885156883
-0.268988365793318 0.311134763060317 0.330483887651205
-0.270059836105504 0.307646211770183 0.330483887651205
-0.267034055675985 0.298851156492093 0.330483887651205
-0.272234378763666 0.28403829685235 0.330483887651205
-0.26812851177365 0.276721215315926 0.330483887651205
-0.270682514633998 0.263124480312451 0.330483887651205
-0.273715905064569 0.256626903136622 0.330483887651205
-0.277903341935805 0.246943486662022 0.330483887651205
-0.279043451147683 0.231616227716856 0.330483887651205
-0.280623892410232 0.2305507061981 0.330483887651205
-0.275607271602549 0.213743331745582 0.330483887651205
-0.278374909849625 0.213515625489971 0.330483887651205
-0.280920566225975 0.19981932461832 0.330483887651204
-0.279471396907356 0.193216466134047 0.330483887651205
-0.278792904993299 0.178594230570856 0.330483887651205
-0.283376411961366 0.168153920844549 0.330483887651205
-0.288256846357712 0.163450939877622 0.330483887651205
-0.287133888244851 0.149964339198695 0.330483887651205
-0.286030077894879 0.138507358712581 0.330483887651205
-0.282789794033017 0.125935406839407 0.330483887651205
-0.28415347301481 0.118824138481486 0.330483887651205
-0.288819244225811 0.112334517038344 0.330483887651205
-0.294112060235749 0.0991060084857886 0.330483887651205
-0.293147467736479 0.0889673702511531 0.330483887651204
-0.295636962454 0.0800554795461395 0.330483887651205
-0.291790734379125 0.0693070989420304 0.330483887651205
-0.29276473016961 0.050018357244565 0.330483887651204
-0.297948459880697 0.0398466613179781 0.330483887651204
-0.301157238001082 0.0349628797885649 0.330483887651204
-0.29506811684985 0.0236584220132801 0.330483887651205
-0.296979857610683 0.0101060102276371 0.330483887651204
-0.300964484912175 0.00865851649317994 0.330483887651205
-0.305145034012905 -0.00831621797751031 0.330483887651205
-0.305736429488935 -0.023969218707001 0.330483887651205
-0.307230626283303 -0.0325885711072495 0.330483887651205
-0.301291443950926 -0.0432912067966531 0.330483887651205
-0.31062666538917 -0.0579686901888372 0.330483887651205
-0.309615524357049 -0.0675944862278116 0.330483887651205
-0.305159129811393 -0.0860442234928993 0.330483887651205
-0.304893705633519 -0.0938434245806929 0.330483887651205
-0.305749210449814 -0.108679197118986 0.330483887651205
-0.316258879375983 -0.119179803215718 0.330483887651205
-0.307743925824348 -0.130024913817902 0.330483887651205
-0.311123214236725 -0.151603558857721 0.330483887651205
-0.31264056237401 -0.157727709766826 0.330483887651205
-0.319995368619838 -0.169466207238011 0.330483887651205
-0.321548220769644 -0.177151703810501 0.330483887651205
-0.319592186325032 -0.200312318077701 0.330483887651205
-0.325250087143925 -0.201073318749854 0.330483887651205
-0.322855311308564 -0.213178354860823 0.330483887651205
-0.3191746467283 -0.22754499484545 0.330483887651205
-0.32645401949199 -0.233801463602688 0.330483887651205
-0.327250035207258 -0.259123896182915 0.330483887651205
-0.329663591340907 -0.259715017194201 0.330483887651205
-0.33235904353718 -0.285543321392722 0.330483887651205
-0.325250603185622 -0.299300571501911 0.330483887651205
-0.331500976213299 -0.313285523440243 0.330483887651205
-0.259919994557068 0.276577923757551 0.266321110854108
-0.257758845865029 0.316674641655897 0.317538734117872
-0.257308786819924 0.316674641655897 0.327304540139876
-0.260338581648535 0.315961026929975 0.330483887651205
-0.259086046522438 0.303631809486045 0.330483887651205
-0.260024547615811 0.296209259242676 0.330483887651205
-0.262001796264829 0.285417426047371 0.330483887651205
-0.264053725557924 0.267656533097796 0.330483887651205
-0.262270696475052 0.264223570998442 0.330483887651205
-0.26909759297453 0.250925620984648 0.330483887651205
-0.26126769409026 0.247734307592667 0.330483887651205
-0.263545918065942 0.23981837562427 0.330483887651205
-0.271491224021723 0.236188357215524 0.330483887651205
-0.264237499807978 0.220034806703796 0.330483887651205
-0.272130986695995 0.204909084013146 0.330483887651204
-0.273201226115476 0.198021367144642 0.330483887651205
-0.276228593124663 0.187812591936391 0.330483887651205
-0.274871834739924 0.178505037724198 0.330483887651205
-0.275800652570609 0.169773821136483 0.330483887651205
-0.272662280064926 0.161093594244797 0.330483887651205
-0.273172024054608 0.155861710521457 0.330483887651205
-0.27211410329083 0.145005955818655 0.330483887651205
-0.278369238463821 0.132290370733593 0.330483887651205
-0.276168031856196 0.119932935354523 0.330483887651205
-0.278485157779422 0.102542549209462 0.330483887651205
-0.278045981442131 0.0990877971444035 0.330483887651205
-0.278917711259295 0.0888988217542707 0.330483887651204
-0.282561372021396 0.0807894597901244 0.330483887651205
-0.28357362364528 0.0718025782941883 0.330483887651205
-0.286323149015143 0.0549640002303214 0.330483887651205
-0.28758098153388 0.0477273174644453 0.330483887651205
-0.285396197853452 0.0289025043572187 0.330483887651205
-0.284905792234162 0.0256379083326258 0.330483887651204
-0.285283410836661 0.00539121304209641 0.330483887651205
-0.288343737703397 -0.0060353045423985 0.330483887651205
-0.296243942314782 -0.0128181214912101 0.330483887651205
-0.291281237640933 -0.0175715393324575 0.330483887651205
-0.292622823321597 -0.0355549609526343 0.330483887651204
-0.295437953687201 -0.0466200683145485 0.330483887651205
-0.294690971448867 -0.0562495309699588 0.330483887651205
-0.29937917472741 -0.0781173623948249 0.330483887651205
-0.301841449022703 -0.0806129120702108 0.330483887651205
-0.299856333158486 -0.0875446643345324 0.330483887651205
-0.297137178999355 -0.094879661103497 0.330483887651205
-0.300225424310479 -0.119882459362544 0.330483887651205
-0.297665247993583 -0.127198563206539 0.330483887651205
-0.308472670556557 -0.143048445759254 0.330483887651205
-0.307603139806786 -0.149454251683231 0.330483887651205
-0.303885267319933 -0.161656807803103 0.330483887651205
-0.302311067445509 -0.182757319823665 0.330483887651204
-0.310950108386321 -0.18773891381677 0.330483887651204
-0.309333365002956 -0.197079702459648 0.330483887651204
-0.309337695143274 -0.209584580491216 0.330483887651205
-0.315089235274187 -0.226366522524453 0.330483887651205
-0.314689024917215 -0.246655052098815 0.330483887651205
-0.31647769300494 -0.252412073723638 0.330483887651205
-0.311334688169281 -0.267828671097456 0.330483887651205
-0.315642739205814 -0.286849130397836 0.330483887651205
-0.318354457995316 -0.304092715100961 0.330483887651205
-0.249729925961337 0.276577923757551 0.268331858005972
-0.246853007011996 0.316674641655897 0.315921724118841
-0.247606356480474 0.316481442588683 0.330483887651205
-0.249622475079942 0.311710860746748 0.330483887651205
-0.250259020202111 0.304243268730625 0.330483887651205
-0.250038284833014 0.297028056240018 0.330483887651205
-0.250223975215119 0.286395793133567 0.330483887651205
-0.25727462308861 0.278430586006088 0.330483887651205
-0.255340129777571 0.263929349950478 0.330483887651205
-0.258478228119222 0.265407830467733 0.330483887651204
-0.260258015778526 0.250105367560732 0.330483887651205
-0.261999782889317 0.232881455694565 0.330483887651204
-0.262201840198394 0.236397911164808 0.330483887651205
-0.258085490845375 0.213299779244583 0.330483887651205
-0.259608160607246 0.206909557673931 0.330483887651204
-0.261991901388155 0.195677275842971 0.330483887651205
-0.264941431746396 0.189663120388348 0.330483887651205
-0.265225186655959 0.182416285717608 0.330483887651205
-0.263085243773335 0.172046154213657 0.330483887651205
-0.260857054984796 0.161384300459978 0.330483887651205
-0.266176091407458 0.152092241430357 0.330483887651205
-0.268039557892352 0.143453800823969 0.330483887651205
-0.26482854502248 0.13505366358859 0.330483887651205
-0.270727080156434 0.115936218222045 0.330483887651205
-0.274755609839966 0.102948500357724 0.330483887651205
-0.267373282996496 0.0921768904236915 0.330483887651205
-0.270293212480855 0.0869306717735588 0.330483887651205
-0.277774044243589 0.0736183643154684 0.330483887651205
-0.272727071393032 0.0727304359870532 0.330483887651205
-0.278845734453292 0.0540205492893732 0.330483887651205
-0.279862562107915 0.050745848132595 0.330483887651205
-0.281163228404797 0.039215504913676 0.330483887651205
-0.273454177381993 0.0199962779388805 0.330483887651205
-0.279183761237661 0.0192319721898151 0.330483887651205
-0.275856286395652 0.00372964939272297 0.330483887651205
-0.2816240419141 -0.00888628541496202 0.330483887651205
-0.284611707163185 -0.0201767505699443 0.330483887651205
-0.287767418227275 -0.0395334832019434 0.330483887651205
-0.289250131021562 -0.0439261722147424 0.330483887651205
-0.289759059006831 -0.0659689783354023 0.330483887651205
-0.282348935188793 -0.0789936569164282 0.330483887651205
-0.291806843066846 -0.078144403295292 0.330483887651205
-0.29267594484645 -0.0917265047936602 0.330483887651205
-0.28815240461082 -0.105775816215645 0.330483887651205
-0.287919996192227 -0.123099041802559 0.330483887651204
-0.29517957480418 -0.126319146353391 0.330483887651204
-0.290593647803179 -0.146485119074548 0.330483887651205
-0.29762257434497 -0.154092901539998 0.330483887651205
-0.291133099600594 -0.174223944322996 0.330483887651205
-0.297739191111387 -0.18124335273902 0.330483887651204
-0.300648547018181 -0.18901956646885 0.330483887651204
-0.299618741998565 -0.200988409115924 0.330483887651204
-0.294734644678254 -0.206963010608824 0.330483887651205
-0.305672132645038 -0.229922702120581 0.330483887651205
-0.307601961985653 -0.250900591991855 0.330483887651205
-0.303549551188083 -0.251071588578123 0.330483887651205
-0.304496620283671 -0.269668484707562 0.330483887651205
-0.300763373704971 -0.285620683506229 0.330483887651205
-0.307873465041007 -0.302526967728505 0.330483887651205
-0.306555880316197 -0.307415497775188 0.330483887651205
-0.239427777504024 0.316674641655897 0.314218389109312
-0.242669166508139 0.316682481238576 0.312033758761764
-0.241030989885976 0.316674641655897 0.323011113223084
-0.238537832513391 0.307847083382212 0.330483887651205
-0.239418924418247 0.299732040646165 0.330483887651205
-0.243419902162002 0.294429887533513 0.330483887651204
-0.241199753231197 0.282003714991683 0.330483887651205
-0.244556536331275 0.279589918019526 0.330483887651205
-0.243957515699705 0.26116251456778 0.330483887651205
-0.246725745938579 0.255196483671125 0.330483887651205
-0.249866036072997 0.246442154157546 0.330483887651204
-0.249807216928414 0.238366649636814 0.330483887651205
-0.249802244868259 0.233858747204678 0.330483887651204
-0.254392651198823 0.222731313795297 0.330483887651204
-0.254958652267376 0.204272770915448 0.330483887651205
-0.253820470005989 0.200369434207785 0.330483887651204
-0.248759440928984 0.191422199905073 0.330483887651205
-0.252253979230736 0.174128623281078 0.330483887651205
-0.254289301282048 0.169436567737555 0.330483887651204
-0.258736213124483 0.161514567242696 0.330483887651205
-0.260036361260329 0.153286776896697 0.330483887651205
-0.253937913545334 0.138757969409976 0.330483887651205
-0.259587792201886 0.125424197758393 0.330483887651205
-0.259866975842808 0.119648957806461 0.330483887651205
-0.259596563445589 0.108613914465948 0.330483887651205
-0.265013590506415 0.102233273883738 0.330483887651205
-0.257763890294596 0.0797089734807972 0.330483887651205
-0.259007154280167 0.0842036769281634 0.330483887651205
-0.260856856357281 0.0757741968519946 0.330483887651204
-0.269483684520821 0.0653259979294035 0.330483887651204
-0.262948481343969 0.040532907144594 0.330483887651205
-0.267187742197389 0.0316721213587194 0.330483887651205
-0.269824789631124 0.0220657346539294 0.330483887651205
-0.269656858212729 0.0162182746555551 0.330483887651205
-0.266392441632183 0.00817478133036603 0.330483887651205
-0.267036478009508 -0.0171241077017536 0.330483887651205
-0.26876733698354 -0.0261339468350997 0.330483887651205
-0.272574711610171 -0.0314460247420653 0.330483887651205
-0.275866333660819 -0.0380092976708363 0.330483887651205
-0.274553954371374 -0.0556397192343775 0.330483887651205
-0.271453444442343 -0.0612920813924218 0.330483887651205
-0.274161294279119 -0.0786295156512624 0.330483887651205
-0.276844646445916 -0.0856605509639385 0.330483887651205
-0.276988412930978 -0.0977776376853595 0.330483887651205
-0.277504718795465 -0.115084423584087 0.330483887651205
-0.28181486225114 -0.135219296102228 0.330483887651205
-0.279733638581003 -0.141268669762603 0.330483887651205
-0.287474602510051 -0.150409381389091 0.330483887651205
-0.280460487150503 -0.172803481229973 0.330483887651205
-0.284930460220477 -0.18305897182328 0.330483887651205
-0.286898229250007 -0.190241618281931 0.330483887651205
-0.286667640401006 -0.19892331437907 0.330483887651205
-0.287453727112797 -0.215635935346731 0.330483887651205
-0.288329497485254 -0.240721550646051 0.330483887651205
-0.289607496608253 -0.237118320082021 0.330483887651205
-0.297794671375513 -0.255126941824382 0.330483887651205
-0.296637127787557 -0.269858106480375 0.330483887651205
-0.289653385391871 -0.272744286287118 0.330483887651205
-0.297510694957739 -0.291135168311271 0.330483887651205
-0.299766843159631 -0.309730266868363 0.330483887651205
-0.234687784413455 0.276577923757551 0.262518673836399
-0.236241033772854 0.316674641655897 0.32180316676758
-0.237114309452334 0.316674641655897 0.329204881193466
-0.237183029982106 0.310647347715832 0.330483887651205
-0.229075632588672 0.303062604393449 0.330483887651205
-0.238718193695904 0.289178846042565 0.330483887651205
-0.238309129242817 0.289861373623441 0.330483887651205
-0.23928560577096 0.268805325384623 0.330483887651204
-0.239852586768258 0.262732528690791 0.330483887651205
-0.235257587278687 0.262794142139245 0.330483887651205
-0.242677716385951 0.243059261525819 0.330483887651205
-0.235078986383303 0.239893504759305 0.330483887651205
-0.235915991631533 0.225882622683534 0.330483887651205
-0.240991939315823 0.215344275416382 0.330483887651205
-0.240495665064484 0.209311051857787 0.330483887651205
-0.243256370167967 0.199095539763203 0.330483887651205
-0.242527504679615 0.187882053556768 0.330483887651205
-0.243795108641856 0.175083490168977 0.330483887651205
-0.249096649766498 0.170006062737146 0.330483887651205
-0.250462970049793 0.159023914845829 0.330483887651205
-0.244854838484385 0.151609213026835 0.330483887651205
-0.243517387297996 0.138821333462919 0.330483887651205
-0.246188921120272 0.127899622800917 0.330483887651204
-0.24714257436777 0.117870593052149 0.330483887651205
-0.249077931266746 0.115172470934282 0.330483887651205
-0.247990229542447 0.0921755151429621 0.330483887651205
-0.254674867076016 0.0911361668602659 0.330483887651205
-0.255570972195928 0.0785654064586639 0.330483887651205
-0.251124575393239 0.061541989746629 0.330483887651205
-0.258400831139309 0.0649767172716223 0.330483887651205
-0.259878760172841 0.0420008776419497 0.330483887651205
-0.258295200803015 0.041482961779708 0.330483887651205
-0.257714223754265 0.0291320274473638 0.330483887651204
-0.255584541405449 0.0053536697115292 0.330483887651205
-0.261093309726857 -0.00132210794100995 0.330483887651205
-0.264340154746275 -0.0101492088088764 0.330483887651205
-0.261024252547797 -0.026174248757307 0.330483887651205
-0.259483201918136 -0.0341791238385326 0.330483887651205
-0.26649292446152 -0.0398805187051128 0.330483887651205
-0.267405228484347 -0.054136424784844 0.330483887651205
-0.270296910798466 -0.0640604444529961 0.330483887651205
-0.268091902677326 -0.0748962676001652 0.330483887651205
-0.270722206098738 -0.0928670739183863 0.330483887651205
-0.268765179298048 -0.102290150312273 0.330483887651205
-0.266542447631925 -0.120620550387813 0.330483887651205
-0.269907701738871 -0.131241264766541 0.330483887651205
-0.266442977197134 -0.134462497512223 0.330483887651205
-0.27250256724054 -0.152049551615185 0.330483887651204
-0.279798624438758 -0.163683546904329 0.330483887651205
-0.270752251224897 -0.177987419858783 0.330483887651205
-0.28176949903341 -0.189954349897927 0.330483887651205
-0.277104769292639 -0.197839902661496 0.330483887651205
-0.277314895981328 -0.215939686759265 0.330483887651205
-0.274114016643432 -0.224457511574851 0.330483887651205
-0.280340604786173 -0.243751075082023 0.330483887651205
-0.28579943841547 -0.248588294933961 0.330483887651205
-0.280409719724559 -0.273752073686988 0.330483887651205
-0.281238175342364 -0.280028725678415 0.330483887651205
-0.28048523442977 -0.295080413635117 0.330483887651205
-0.284659309824182 -0.311196906341119 0.330483887651205
-0.224431208385835 0.316674641655896 0.313076823681758
-0.227997503731779 0.276577923757551 0.271795856041583
-0.220921026761283 0.316674641655897 0.325247298534748
-0.225348233462656 0.311661256693559 0.330483887651205
-0.220098145165695 0.301693659343014 0.330483887651205
-0.226947066663638 0.291334773542234 0.330483887651205
-0.229611812332999 0.287470133389351 0.330483887651205
-0.231269949386316 0.272314919870287 0.330483887651204
-0.227771592031236 0.266308269564593 0.330483887651205
-0.227835500355063 0.255191282634348 0.330483887651205
-0.227143958524783 0.251009117741822 0.330483887651205
-0.233027773729308 0.245095827644852 0.330483887651204
-0.226735912920254 0.22963238238332 0.330483887651205
-0.228395243107674 0.215651645122706 0.330483887651205
-0.232392972373106 0.212792819385699 0.330483887651205
-0.234293880189345 0.199254407837645 0.330483887651205
-0.234932221979218 0.194944648226301 0.330483887651205
-0.236221425478827 0.184459189794633 0.330483887651204
-0.234940082716025 0.169781245879949 0.330483887651205
-0.234500708818558 0.159576473164185 0.330483887651205
-0.242580916705355 0.143216893837086 0.330483887651205
-0.238890083084213 0.137362811403205 0.330483887651205
-0.236735586291182 0.128884163927901 0.330483887651205
-0.244323494288427 0.115576562433635 0.330483887651205
-0.2431591325097 0.112345148115696 0.330483887651205
-0.246783026162824 0.0899381406574093 0.330483887651205
-0.24605154587573 0.0853243150016188 0.330483887651204
-0.248205713382544 0.0695899691132193 0.330483887651205
-0.248867078044559 0.0628708578920503 0.330483887651205
-0.242880392566995 0.0521274384079602 0.330483887651205
-0.249844682882643 0.0509928438288538 0.330483887651205
-0.2510072278356 0.029918825122235 0.330483887651205
-0.245309419616336 0.0201408651023502 0.330483887651205
-0.246027593628125 0.0124878198123014 0.330483887651205
-0.246879727070054 2.97533858790388e-005 0.330483887651205
-0.247335556120016 -0.00661645613892294 0.330483887651205
-0.255587217785984 -0.0186436877869902 0.330483887651205
-0.256687715889911 -0.0390849830321262 0.330483887651205
-0.250832793483623 -0.0471070593972204 0.330483887651204
-0.252771497184335 -0.0608062991391998 0.330483887651205
-0.254715729782848 -0.0686264612420208 0.330483887651205
-0.260166622633573 -0.0834521696192796 0.330483887651205
-0.254179425369094 -0.0923240164172377 0.330483887651205
-0.261915458538358 -0.106442044233411 0.330483887651205
-0.264485864286455 -0.118000694929578 0.330483887651205
-0.265512285481217 -0.127730547061586 0.330483887651205
-0.259149296654288 -0.138081702617419 0.330483887651205
-0.257796622792615 -0.15607229881883 0.330483887651205
-0.261991415637999 -0.172736158914137 0.330483887651204
-0.260003510468938 -0.176473306489556 0.330483887651205
-0.268135926480036 -0.192651609189593 0.330483887651205
-0.263435770090773 -0.197768303466259 0.330483887651205
-0.272536151844162 -0.222733453187212 0.330483887651205
-0.274377418612722 -0.236343495043164 0.330483887651205
-0.274874719959801 -0.241299662446345 0.330483887651205
-0.266931578095347 -0.246371240920687 0.330483887651205
-0.268808171946653 -0.269183399896008 0.330483887651204
-0.270604176090373 -0.281631835587794 0.330483887651205
-0.279461049859483 -0.297642170548466 0.330483887651205
-0.280974916617984 -0.310955120789866 0.330483887651204
-0.213471617420915 0.276577923757551 0.269217355007197
-0.21098798406751 0.316674641655897 0.316624613350888
-0.212251424190808 0.316674641655897 0.322982785111321
-0.210356230542389 0.313858142107902 0.330483887651205
-0.214989013459314 0.305875451891696 0.330483887651205
-0.220474998920657 0.295369158362904 0.330483887651204
-0.214419092191576 0.284199858717205 0.330483887651205
-0.217310926215166 0.273298410076414 0.330483887651205
-0.215798997762932 0.271785985523956 0.330483887651205
-0.223503752690343 0.262258270143092 0.330483887651205
-0.222314072493757 0.251623541657745 0.330483887651205
-0.216694045297741 0.235471108857619 0.330483887651204
-0.225449163520243 0.229407324985182 0.330483887651205
-0.2191922084062 0.220663457103281 0.330483887651205
-0.219146438485001 0.206315310921746 0.330483887651205
-0.222607629237374 0.198111277621566 0.330483887651205
-0.220972277262215 0.1898765529819 0.330483887651205
-0.222188166048761 0.182241443646916 0.330483887651205
-0.230148478506838 0.164576917247911 0.330483887651205
-0.228624926651831 0.165016491467032 0.330483887651204
-0.229623173058419 0.15262443528564 0.330483887651204
-0.225031237737695 0.136663335282287 0.330483887651205
-0.228681866224576 0.130005104173862 0.330483887651205
-0.227725878702903 0.123979221862357 0.330483887651205
-0.228213008318672 0.109989026990937 0.330483887651204
-0.229270676953601 0.0898822700373588 0.330483887651205
-0.234400512004711 0.0949561062258755 0.330483887651204
-0.233879499242864 0.0750754540241263 0.330483887651205
-0.238335268200392 0.0668771829003018 0.330483887651205
-0.237597058615271 0.0605000260070256 0.330483887651205
-0.23657007698965 0.0500624564933523 0.330483887651205
-0.232043109522622 0.0363909904109673 0.330483887651204
-0.239972981931049 0.0151062819016847 0.330483887651205
-0.235374539297423 0.0105473460997819 0.330483887651205
-0.241182956928809 -0.000659955449385291 0.330483887651205
-0.241027995061316 -0.00754624409360626 0.330483887651205
-0.243740622534243 -0.0243471640674504 0.330483887651205
-0.240405605275634 -0.0411565423403458 0.330483887651205
-0.246762616141068 -0.0501898488230488 0.330483887651205
-0.24863085070063 -0.0620447122240323 0.330483887651205
-0.241528390234943 -0.0693229694447763 0.330483887651205
-0.241950572442645 -0.0772241814116078 0.330483887651205
-0.249437746597043 -0.0937853372860939 0.330483887651205
-0.249071991350924 -0.0985864043149028 0.330483887651205
-0.252359535054823 -0.121178631091179 0.330483887651204
-0.250670958565686 -0.132093053493877 0.330483887651205
-0.251429663433465 -0.145815665794596 0.330483887651204
-0.253717800497547 -0.153151982237354 0.330483887651204
-0.250153649269042 -0.1753743888766 0.330483887651204
-0.250237733933699 -0.171637439548409 0.330483887651205
-0.257724273394074 -0.194743966837272 0.330483887651205
-0.256431854835442 -0.195994825115603 0.330483887651205
-0.258124375373248 -0.212292232215631 0.330483887651204
-0.258416074034873 -0.225702762394639 0.330483887651205
-0.263474896414425 -0.245108358849514 0.330483887651205
-0.25753981808117 -0.254166143035377 0.330483887651205
-0.264079731740767 -0.272668423759455 0.330483887651205
-0.262102397673531 -0.276773258987584 0.330483887651205
-0.261395349302704 -0.288062278727463 0.330483887651205
-0.260091843831325 -0.314101313638141 0.330483887651204
-0.204515481745959 0.316674641655897 0.314149298353308
-0.205236150237413 0.316674641655897 0.313625656269706
-0.201916988222653 0.316674641655897 0.319958192438742
-0.206562302386596 0.309442758070929 0.330483887651205
-0.210706713459981 0.307963113305382 0.330483887651205
-0.210660177602482 0.299273233498601 0.330483887651205
-0.209641304190678 0.292776277064877 0.330483887651205
-0.20960622270588 0.280479220524294 0.330483887651205
-0.205967497019815 0.27311700853017 0.330483887651205
-0.212064113098643 0.262022530508279 0.330483887651204
-0.212530750728253 0.250391785935851 0.330483887651204
-0.211588346456449 0.236698144900994 0.330483887651205
-0.209817732051653 0.235402736520424 0.330483887651205
-0.213557696244533 0.224383232404339 0.330483887651205
-0.209162070350876 0.214942888663241 0.330483887651205
-0.211714810310298 0.195703103320622 0.330483887651205
-0.217833909176577 0.185756268346078 0.330483887651205
-0.216511985807401 0.178122383809208 0.330483887651205
-0.217400257919001 0.17544119185587 0.330483887651205
-0.220245984710751 0.154302693831106 0.330483887651205
-0.217297738977646 0.14389987027596 0.330483887651205
-0.217457038217149 0.14825452863957 0.330483887651205
-0.224157432965009 0.13622989080041 0.330483887651204
-0.221983354841947 0.112245447416059 0.330483887651205
-0.221036993635 0.113633068090769 0.330483887651205
-0.221922607374577 0.106033850211773 0.330483887651204
-0.227459505390028 0.0831545678159709 0.330483887651205
-0.22103454280444 0.0832928234255239 0.330483887651205
-0.222532495801165 0.0675983611850324 0.330483887651205
-0.223751526211383 0.0528144131459407 0.330483887651205
-0.221830776058179 0.0459096029164194 0.330483887651205
-0.22909719063555 0.0347045070414302 0.330483887651205
-0.231402807155191 0.0208532112283665 0.330483887651205
-0.227949727706569 0.0102172018731817 0.330483887651204
-0.228069904560538 0.00327053904371535 0.330483887651205
-0.234516302984548 -0.00892567974468447 0.330483887651205
-0.230889470138327 -0.0244266379520702 0.330483887651204
-0.234587392472594 -0.0386467767248355 0.330483887651205
-0.236317881601824 -0.0419404037012857 0.330483887651205
-0.238020224297207 -0.0480251564155423 0.330483887651205
-0.232898310076854 -0.0714324402286205 0.330483887651205
-0.23225426887215 -0.0790219120109729 0.330483887651205
-0.233658532953068 -0.0955645082418116 0.330483887651205
-0.2348534421095 -0.101887532252425 0.330483887651205
-0.242685966596572 -0.117280484002141 0.330483887651205
-0.240724061213667 -0.119076849811448 0.330483887651205
-0.235868416796952 -0.131694018798451 0.330483887651205
-0.245412300321255 -0.153164975616114 0.330483887651205
-0.240605212031756 -0.161240632244584 0.330483887651205
-0.247307045986468 -0.174013279988561 0.330483887651204
-0.248163349343545 -0.192102959460314 0.330483887651205
-0.247066517123028 -0.208711462629242 0.330483887651204
-0.241294544575677 -0.212645423291202 0.330483887651205
-0.252205703252007 -0.231144146480596 0.330483887651205
-0.246598545371081 -0.241512483086237 0.330483887651205
-0.253593681485096 -0.256646289438131 0.330483887651205
-0.249018229906272 -0.268302571063772 0.330483887651205
-0.24996693944961 -0.286523993011052 0.330483887651205
-0.253843601796048 -0.29085004775353 0.330483887651205
-0.200890868596541 0.272223796324565 0.265068094081279
-0.193641378361692 0.316674641655897 0.317401346503923
-0.196211785211244 0.316674641655897 0.327183712459862
-0.194575127098747 0.3161806682724 0.330483887651205
-0.195830385518729 0.306054441656302 0.330483887651205
-0.195589369084298 0.29590197792222 0.330483887651205
-0.198278871137994 0.285322373051432 0.330483887651205
-0.200715114314692 0.275702115614643 0.330483887651205
-0.19651545262951 0.259668606848001 0.330483887651205
-0.203616009476238 0.255566318448057 0.330483887651205
-0.202017425041284 0.245403266971509 0.330483887651204
-0.20543672861407 0.241394395125487 0.330483887651205
-0.203033732335816 0.229094903361339 0.330483887651204
-0.201332107370652 0.218637437878267 0.330483887651205
-0.20210208522974 0.208922089561698 0.330483887651205
-0.201458258558781 0.200496666097101 0.330483887651205
-0.205695759805989 0.188381407669577 0.330483887651205
-0.203142303010233 0.173512655674874 0.330483887651205
-0.206892490303182 0.176012988411566 0.330483887651205
-0.205136477542483 0.16169891069496 0.330483887651205
-0.208377639872348 0.148743183417457 0.330483887651205
-0.21170289327411 0.1402582354072 0.330483887651205
-0.206127358848402 0.130919631959959 0.330483887651205
-0.207308247385742 0.118434137934872 0.330483887651205
-0.215083453551177 0.106122213872169 0.330483887651205
-0.209605855784518 0.0967644417534018 0.330483887651205
-0.216621214736139 0.0911162893279517 0.330483887651205
-0.217108497617523 0.072105394702796 0.330483887651204
-0.213589735775788 0.0730389423170138 0.330483887651205
-0.218491108792726 0.0582492911371067 0.330483887651204
-0.21450689650156 0.0524058519542063 0.330483887651204
-0.221724783835731 0.0364336785471929 0.330483887651205
-0.222601775127548 0.0253777158573562 0.330483887651205
-0.219881691603484 0.0064525727111135 0.330483887651205
-0.222340409713162 0.00741635422988429 0.330483887651205
-0.224742679415326 -0.0158382702393814 0.330483887651205
-0.225186171015473 -0.0174037212623413 0.330483887651205
-0.224855812369142 -0.0331620180999713 0.330483887651205
-0.222918076535147 -0.0420266952939833 0.330483887651205
-0.219808552172206 -0.0615013271762552 0.330483887651205
-0.221704870493717 -0.0742346708771118 0.330483887651205
-0.223764418642151 -0.077492091075986 0.330483887651205
-0.222885747340131 -0.0902589398639363 0.330483887651205
-0.228411442156448 -0.10466408244226 0.330483887651205
-0.228594611013326 -0.108431284411107 0.330483887651205
-0.226395156746497 -0.129338219968645 0.330483887651205
-0.225510766865055 -0.141475521992018 0.330483887651205
-0.228759338576082 -0.148181335833478 0.330483887651205
-0.234748990816104 -0.16238992333091 0.330483887651205
-0.236971547994335 -0.184461640516796 0.330483887651205
-0.235879873072884 -0.200250686253278 0.330483887651205
-0.234662780349937 -0.203931392294943 0.330483887651204
-0.232401099381646 -0.215447710722941 0.330483887651205
-0.236932479856776 -0.230670485639771 0.330483887651204
-0.232504700375724 -0.239675595744328 0.330483887651204
-0.239773770936662 -0.253397608024466 0.330483887651205
-0.243708143338954 -0.278255207888207 0.330483887651205
-0.236377716737957 -0.281344783017265 0.330483887651205
-0.244236721075797 -0.292820305193207 0.330483887651205
-0.243896675533998 -0.313452106059377 0.330483887651205
-0.187298022931264 0.316674641655897 0.314071646915483
-0.187088302817689 0.316674641655897 0.317687262957546
-0.183791915403726 0.316674641655897 0.326205757295636
-0.188688979265875 0.316340250485907 0.330483887651205
-0.193264841453229 0.302874101884002 0.330483887651205
-0.191414339917264 0.286139898627856 0.330483887651205
-0.192818269741241 0.279734007419082 0.330483887651205
-0.190619537520206 0.271182094320825 0.330483887651204
-0.187133150516548 0.265299187784709 0.330483887651205
-0.195287466704633 0.261628803176055 0.330483887651205
-0.191060665123434 0.242467492957832 0.330483887651205
-0.191440661855979 0.246700889394153 0.330483887651205
-0.192854714149844 0.229588720292125 0.330483887651205
-0.197177919402601 0.216556671704696 0.330483887651205
-0.194734571304956 0.200958823645623 0.330483887651205
-0.191457043496895 0.206650148700898 0.330483887651205
-0.200874298719841 0.189083353873519 0.330483887651205
-0.201019927025507 0.175644598184007 0.330483887651205
-0.197144056378988 0.174984114866826 0.330483887651205
-0.199289273758092 0.155835116494397 0.330483887651205
-0.203958068956297 0.156843882229096 0.330483887651205
-0.19900329778437 0.138894483261731 0.330483887651205
-0.198151599372853 0.125989167817473 0.330483887651204
-0.202981372147497 0.122408875270359 0.330483887651205
-0.198278381725008 0.106919412495 0.330483887651205
-0.200911213567 0.0962702829207815 0.330483887651205
-0.203250510224619 0.0896117668855463 0.330483887651205
-0.201923181163098 0.0801957339120195 0.330483887651205
-0.202765678422523 0.0655669496851256 0.330483887651205
-0.203773862776663 0.0476489435183118 0.330483887651205
-0.206219026583276 0.043873624327153 0.330483887651205
-0.202440877927923 0.0366690767522767 0.330483887651205
-0.21254629505647 0.0241593467780631 0.330483887651204
-0.211995156522404 0.0106202299208905 0.330483887651205
-0.209588617886425 0.00742760709216918 0.330483887651205
-0.213226382719594 -0.0101273414848807 0.330483887651205
-0.209693483579527 -0.0190830824433901 0.330483887651205
-0.215082719054176 -0.0348762865040346 0.330483887651205
-0.21141214962687 -0.0503958315345291 0.330483887651205
-0.212254706739905 -0.0533229442966585 0.330483887651205
-0.218168883397827 -0.0715520061369894 0.330483887651205
-0.219229028594448 -0.0730807830411905 0.330483887651205
-0.211634013149104 -0.0822226901604521 0.330483887651205
-0.213771071050383 -0.104131437264161 0.330483887651205
-0.220630410710609 -0.115066681892743 0.330483887651205
-0.221507900760101 -0.127511332880359 0.330483887651205
-0.222275467716031 -0.130897334601091 0.330483887651204
-0.222942312852401 -0.162233687829746 0.330483887651205
-0.225603953074919 -0.162235298345225 0.330483887651205
-0.217530137213258 -0.174127075935852 0.330483887651205
-0.224492589590035 -0.192289289485012 0.330483887651204
-0.219018317426592 -0.210185190550604 0.330483887651205
-0.229201043477307 -0.217027602924268 0.330483887651205
-0.228022639570388 -0.224166770801481 0.330483887651205
-0.227861662189522 -0.246081694331609 0.330483887651205
-0.226648212183667 -0.253425421431151 0.330483887651205
-0.226820555736042 -0.275137600966596 0.330483887651205
-0.225731974131284 -0.271863529075103 0.330483887651205
-0.230072631151651 -0.295125709329339 0.330483887651205
-0.232031139928655 -0.31564168280045 0.330483887651205
-0.181598532370162 0.253435446464135 0.247115154112015
-0.176846795557637 0.316674641655897 0.31549713236677
-0.18015345746217 0.316674641655896 0.324216241845703
-0.183354523846762 0.316674641655897 0.328011435778226
-0.182803459426007 0.296298639345529 0.330483887651205
-0.17796304469708 0.298738778975391 0.330483887651204
-0.183933846289818 0.279066427276142 0.330483887651205
-0.179850665846999 0.270696274413165 0.330483887651205
-0.182872801067844 0.267782296447612 0.330483887651205
-0.18127066991254 0.262188938496836 0.330483887651205
-0.18026064648012 0.249189295209833 0.330483887651205
-0.188485172516374 0.230553860298178 0.330483887651205
-0.187273901699938 0.220861517204705 0.330483887651205
-0.186240619010733 0.215011526417536 0.330483887651205
-0.183039447319293 0.209433666565636 0.330483887651205
-0.182239784745019 0.202037553437006 0.330483887651205
-0.185025593848841 0.195866755862981 0.330483887651205
-0.190486824762298 0.178483191312736 0.330483887651205
-0.186881129717157 0.168746621971769 0.330483887651205
-0.184897378907572 0.161408875343776 0.330483887651205
-0.191510894710124 0.146399690293558 0.330483887651205
-0.192477028704819 0.143594496970684 0.330483887651205
-0.191493538471688 0.12901726563807 0.330483887651205
-0.192878344398867 0.114889016611894 0.330483887651205
-0.192242687027006 0.11038860477173 0.330483887651205
-0.194946502728333 0.096443743172427 0.330483887651204
-0.195485930593566 0.086957534916883 0.330483887651205
-0.193959175552368 0.077632639265202 0.330483887651205
-0.194791313726124 0.0689792290746898 0.330483887651205
-0.196406765222799 0.0568794142493558 0.330483887651205
-0.194189926433522 0.0444278249217237 0.330483887651205
-0.198619110572695 0.0431958682460228 0.330483887651205
-0.196901315504016 0.0260967198502015 0.330483887651205
-0.19843591427252 0.0158250298969851 0.330483887651205
-0.197635567539157 -0.00299030632982963 0.330483887651204
-0.19888113437999 -0.0110708630544276 0.330483887651204
-0.202827435918503 -0.0213422018698761 0.330483887651205
-0.19860834046454 -0.0330085429906082 0.330483887651204
-0.202012125186087 -0.0511991074316297 0.330483887651204
-0.205988294195422 -0.0487630623757996 0.330483887651205
-0.20595427194089 -0.0701055864397353 0.330483887651205
-0.209529640314616 -0.0769950262276678 0.330483887651205
-0.201050662412497 -0.088050017779993 0.330483887651205
-0.207593790808337 -0.0985179414981783 0.330483887651205
