ply
format ascii 1.0
element vertex 910
property float x
property float y
property float z
end_header
0.219505122567828 0.29331975816897 0.60593220338983
0.201381406221333 0.297452117875786 0.60593220338983
0.190129931842902 0.299943321498343 0.60593220338983
0.185866183343259 0.299624173152561 0.60593220338983
0.164211502478833 0.302702888578382 0.60593220338983
0.164550384430611 0.306705346120107 0.60593220338983
0.146822922282075 0.30586669911767 0.60593220338983
0.141923251390689 0.306925985913113 0.60593220338983
0.121530524235935 0.304154882347778 0.60593220338983
0.116915984871272 0.3074370146326 0.60593220338983
0.100574801581211 0.305413384526282 0.60593220338983
0.0873672110874747 0.314258821154053 0.60593220338983
0.0812490460550066 0.313162901102405 0.60593220338983
0.0659906958132463 0.310736799076986 0.60593220338983
0.0492269636306957 0.309628082980285 0.60593220338983
0.0510152774141933 0.316738091852719 0.60593220338983
0.0320733990648801 0.313946965650344 0.60593220338983
0.0234132283436421 0.313861102571523 0.60593220338983
0.010654875676551 0.318935539113121 0.60593220338983
-0.00471951466708466 0.315700319746637 0.60593220338983
-0.0139333505153117 0.325767398667494 0.60593220338983
-0.0315862255209644 0.318612816242212 0.60593220338983
-0.0332461305280743 0.326736024402832 0.60593220338983
-0.0607876865233824 0.32525764391079 0.60593220338983
-0.0756576405053418 0.329212953275011 0.60593220338983
-0.084056329667025 0.332772089272638 0.60593220338983
-0.0998795564326778 0.330886838181642 0.60593220338983
-0.113624863878358 0.330925798770847 0.60593220338983
-0.124228593132538 0.328924447662704 0.60593220338983
-0.143449460332597 0.332992811645887 0.60593220338983
-0.145073758180971 0.3332342645349 0.60593220338983
-0.157561511731982 0.332188374734649 0.60593220338983
-0.168888852957683 0.336415114055439 0.60593220338983
-0.182160465720212 0.343249998669391 0.60593220338983
-0.213913288015718 0.342023505588713 0.60593220338983
-0.219689511130704 0.344737917340397 0.60593220338983
-0.224044681563529 0.344877064893884 0.60593220338983
-0.257341390623086 0.346386983743933 0.60593220338983
-0.265207700342115 0.348392619520395 0.60593220338983
-0.284674539125748 0.347834824830795 0.60593220338983
-0.294967311748025 0.356658542097822 0.60593220338983
-0.313291395167747 0.353163926401241 0.60593220338983
-0.333153537056242 0.35483377923674 0.60593220338983
-0.335069874767616 0.36091209648474 0.60593220338983
-0.343612741846181 0.362315450187333 0.60593220338983
-0.360044688971613 0.362600547429137 0.60593220338983
-0.383047310166258 0.359272603746611 0.60593220338983
-0.406394135022832 0.367806058425672 0.60593220338983
-0.423379615427607 0.360984015653857 0.60593220338983
-0.442083382808606 0.363632392296539 0.60593220338983
-0.465660656289723 0.374001825837073 0.60593220338983
-0.467089407805642 0.364329504735854 0.60593220338983
-0.486254322696881 0.373914657019316 0.60593220338983
-0.499414387020512 0.376860386340151 0.60593220338983
0.5 0.273429197272234 0.489038798083482
0.5 0.276259904727962 0.501204258512861
0.5 0.273779958957141 0.511513532765085
0.5 0.275089652341331 0.513205042593612
0.5 0.276702614746393 0.528504949491637
0.5 0.271433857512956 0.537175112739529
0.5 0.278085421348315 0.542327799786877
0.5 0.276955618863789 0.544871683479989
0.5 0.275024377919314 0.555305139638736
0.5 0.272496191018211 0.563965809031227
0.5 0.271116776145152 0.573243990090884
0.5 0.270596222330497 0.581536218406607
0.495913050564074 0.275458001126298 0.591101694915254
0.5 0.270736143766308 0.601578506637797
0.5 0.278768490597243 0.605131012954208
0.491547708800875 0.272571873411702 0.60593220338983
0.479682078693802 0.280154651509761 0.60593220338983
0.475038500268332 0.279556376678945 0.60593220338983
0.464244399028301 0.275208615248785 0.60593220338983
0.454035334014751 0.280307233446612 0.60593220338983
0.442846338525328 0.282350741387749 0.60593220338983
0.434664569093944 0.286523644275455 0.60593220338983
0.422808463893562 0.279841602094693 0.60593220338983
0.420392766094039 0.286123777093373 0.60593220338983
0.40569526937683 0.283106838297661 0.60593220338983
0.397451677150002 0.287617557419904 0.60593220338983
0.386458542381672 0.289484879182326 0.60593220338983
0.375422928379042 0.284668493905577 0.60593220338983
0.366557368914067 0.285963572894653 0.60593220338983
0.357988897300605 0.293719524193937 0.60593220338983
0.356524001271504 0.291750808834347 0.60593220338983
0.341030650252526 0.294950758911629 0.60593220338983
0.329813292679102 0.292465854478254 0.60593220338983
0.31397301639553 0.294613564144813 0.60593220338983
0.306328459574739 0.299423272892175 0.60593220338983
0.298147685820177 0.299804750591604 0.60593220338983
0.292101799489725 0.297675690142721 0.60593220338983
0.282355456868107 0.297877599259654 0.60593220338983
0.272405405910349 0.30209148518442 0.60593220338983
0.251284011050552 0.303257934497112 0.60593220338983
0.251091491634105 0.303206234860624 0.60593220338983
0.242972457321655 0.30100825108467 0.60593220338983
0.233369676846871 0.306863907437494 0.60593220338983
0.223153730792638 0.303540198692282 0.60593220338983
0.20167225554073 0.309579022557527 0.60593220338983
0.189994842680667 0.305638344803644 0.60593220338983
0.17761548830595 0.309203129280383 0.60593220338983
0.168138954534956 0.306501842866018 0.60593220338983
0.160321998118178 0.309109464630153 0.60593220338983
0.148341927939675 0.310220936510179 0.60593220338983
0.144421550948656 0.311977149250641 0.60593220338983
0.126525044521005 0.312736458783514 0.60593220338983
0.119064987017426 0.315372861882524 0.60593220338983
0.098935238561878 0.321405563010556 0.60593220338983
0.089291243981146 0.318314396805525 0.60593220338983
0.0844147655994411 0.317501730431825 0.60593220338983
0.0624139090504213 0.325151627235476 0.60593220338983
0.0505763134975063 0.32112382995337 0.60593220338983
0.0423235337683584 0.32611946479367 0.60593220338983
0.0285406898623636 0.322474641855239 0.60593220338983
0.0160866860479195 0.324286582975514 0.60593220338983
0.00145552744639419 0.326299192272132 0.60593220338983
-0.00666956610573341 0.331644322264618 0.60593220338983
-0.021395469109411 0.33500210477553 0.60593220338983
-0.0250134939551239 0.335968796677569 0.60593220338983
-0.0455107681112787 0.337001244733971 0.60593220338983
-0.0553232977172605 0.332541104461248 0.60593220338983
-0.0772418411435159 0.338747597861106 0.60593220338983
-0.0752488283818241 0.337260869934095 0.60593220338983
-0.0988949614989613 0.345152384420457 0.60593220338983
-0.106853328396431 0.343253681542952 0.60593220338983
-0.123882670841095 0.345699303534502 0.60593220338983
-0.13232488419336 0.346964506623082 0.60593220338983
-0.152370746295943 0.35156032355778 0.60593220338983
-0.170802326849845 0.347678512573602 0.60593220338983
-0.167549792325639 0.348385073295988 0.60593220338983
-0.198527195776641 0.351803584777332 0.60593220338983
-0.199602173564681 0.350704025586459 0.60593220338983
-0.217911374814446 0.359062765577027 0.60593220338983
-0.239771472478929 0.360908214920965 0.60593220338983
-0.247341521018314 0.359795598496562 0.60593220338983
-0.254868952864039 0.358030550235299 0.60593220338983
-0.268122562317004 0.355659714942889 0.60593220338983
-0.284370122798985 0.358911843861594 0.60593220338983
-0.302910748940817 0.364406696832714 0.60593220338983
-0.32390464099239 0.361594033119321 0.60593220338983
-0.333996663839686 0.364541293611824 0.60593220338983
-0.359622659808923 0.366730076263 0.60593220338983
-0.369346570590875 0.365778870890232 0.60593220338983
-0.388114160485203 0.374700458991845 0.60593220338983
-0.415128862308702 0.376290042807319 0.60593220338983
-0.414165619512984 0.374416608939971 0.60593220338983
-0.441755310488935 0.377321875833505 0.60593220338983
-0.449932796987926 0.373569056065342 0.60593220338983
-0.471766004669348 0.380134272836899 0.60593220338983
-0.480223805595902 0.379199817582722 0.60593220338983
0.5 0.281466497846749 0.491525396721801
0.5 0.285830446909299 0.504638540829349
0.5 0.280254531045232 0.50625475644577
0.5 0.286473591794482 0.511381579179623
0.5 0.285276967006254 0.532569553085378
0.5 0.280204557760155 0.53390160610158
0.5 0.281380684046218 0.542572674299829
0.5 0.282755511574565 0.548537772411878
0.5 0.286225898950092 0.558712062159611
0.5 0.279834693813902 0.565207683938352
0.5 0.282207554450113 0.574143385182941
0.5 0.284212220950462 0.585746372190462
0.5 0.281928872892554 0.590004117704395
0.5 0.284913947950558 0.603311249201961
0.5 0.280540064732165 0.604125938402622
0.48243732920803 0.281873135901713 0.60593220338983
0.483181015945542 0.286003280977247 0.60593220338983
0.474854588227125 0.283723198796931 0.60593220338983
0.46540704994787 0.290577663913977 0.60593220338983
0.453505641654748 0.291139268655819 0.60593220338983
0.441760646429392 0.291320303888351 0.60593220338983
0.431717299376916 0.291212348027261 0.60593220338983
0.417661829435722 0.293137078899744 0.60593220338983
0.418648191325657 0.294153786133034 0.60593220338983
0.410220809753649 0.295913218776407 0.60593220338983
0.399412322463001 0.291265094862711 0.60593220338983
0.383346176194356 0.294245221754024 0.60593220338983
0.380392185633468 0.293530332197078 0.60593220338983
0.363592203711216 0.297464705683022 0.60593220338983
0.361697649545548 0.298331140756749 0.60593220338983
0.353727049463182 0.2971758776795 0.60593220338983
0.335594710841 0.303176901403748 0.60593220338983
0.331118021276315 0.30101793271813 0.60593220338983
0.317432214076975 0.304900825364374 0.60593220338983
0.311585332013272 0.304947665000765 0.60593220338983
0.30255878809864 0.302821223325087 0.60593220338983
0.291070528306689 0.306199988587333 0.60593220338983
0.275702739310598 0.311111179686551 0.60593220338983
0.273094762021185 0.310654493606256 0.60593220338983
0.26540722812617 0.313180550579844 0.60593220338983
0.244240239890506 0.311998725409244 0.60593220338983
0.240368448155533 0.310655061903421 0.60593220338983
0.230611296853053 0.310590602116936 0.60593220338983
0.22274045123708 0.318200666212647 0.60593220338983
0.200250537397572 0.315109125126159 0.60593220338983
0.191077246332749 0.321189977861935 0.60593220338983
0.175855579734724 0.321622741102653 0.60593220338983
0.16751901495629 0.320797763300572 0.60593220338983
0.164536752319714 0.324588813051678 0.60593220338983
0.155905105368489 0.320087467369761 0.60593220338983
0.139601959192768 0.327400702343336 0.60593220338983
0.131216381011338 0.328664300373746 0.60593220338983
0.113029214841606 0.328213377951519 0.60593220338983
0.105997087041692 0.329233664962084 0.60593220338983
0.0965430255559685 0.332789454017301 0.60593220338983
0.0860023604477849 0.333218947978413 0.60593220338983
0.0710498590802495 0.327168495898247 0.60593220338983
0.0610800037947767 0.337431096108733 0.60593220338983
0.0439188999698224 0.338051255671752 0.60593220338983
0.0305567530522196 0.333869577241657 0.60593220338983
0.0224212152576773 0.337913247713706 0.60593220338983
0.0101973685873071 0.342333271957158 0.60593220338983
-0.00634666681689879 0.337883796838095 0.60593220338983
-0.0176009096055921 0.339356373068695 0.60593220338983
-0.0319756763668934 0.343475809493742 0.60593220338983
-0.0455104825649849 0.343901473676741 0.60593220338983
-0.0575195863983285 0.341250364788537 0.60593220338983
-0.0733313183687937 0.344161597521176 0.60593220338983
-0.0796911005170536 0.352075147705292 0.60593220338983
-0.101871723934109 0.352000903920294 0.60593220338983
-0.10666288953669 0.35574296907209 0.60593220338983
-0.126664216301879 0.349897629765553 0.60593220338983
-0.134951359534964 0.358479325497153 0.60593220338983
-0.153455953407963 0.361771266328707 0.60593220338983
-0.161571695317669 0.362759009248252 0.60593220338983
-0.17819552104329 0.355804806969867 0.60593220338983
-0.202063132838612 0.363543666943667 0.60593220338983
-0.199071852275034 0.366703593087273 0.60593220338983
-0.215091236161326 0.369272209503057 0.60593220338983
-0.225628420348375 0.365128746964047 0.60593220338983
-0.241645634833352 0.364061334932218 0.60593220338983
-0.255929176256081 0.366601052252846 0.60593220338983
-0.267414596166532 0.367669267007308 0.60593220338983
-0.305863043426238 0.374577273148758 0.60593220338983
-0.309428471573302 0.370798150030503 0.60593220338983
-0.331138424891045 0.37920274330522 0.60593220338983
-0.340686875089652 0.375334774985161 0.60593220338983
-0.355133468680587 0.378330441326169 0.60593220338983
-0.365457415666732 0.382947342268656 0.60593220338983
-0.394638093602914 0.38778798309308 0.60593220338983
-0.397526687335047 0.383299279975413 0.60593220338983
-0.424260485927314 0.392425480894122 0.60593220338983
-0.439927165598802 0.386657957835405 0.60593220338983
-0.462182316830813 0.386635720130207 0.60593220338983
-0.464440213307888 0.395373081361658 0.60593220338983
-0.486896705097611 0.397631028253401 0.60593220338983
0.5 0.290298584286181 0.491058022054151
0.5 0.288342054188596 0.501026544036369
0.5 0.292659361041122 0.506088675640418
0.5 0.290441589216831 0.52440519937765
0.5 0.288574409089895 0.525229619477607
0.5 0.288721880558723 0.534306865048361
0.5 0.290780956846697 0.53672047183137
0.5 0.288095619760151 0.543893903454254
0.5 0.294028746218576 0.562929704336703
0.5 0.292780220969125 0.564936167564254
0.5 0.289658917900446 0.579768151373312
0.5 0.289972284404222 0.582616933077518
0.496527864173892 0.292908972534075 0.591101694915254
0.5 0.295525812212321 0.601184748996513
0.496363670840349 0.29523328948462 0.60593220338983
0.490744141656936 0.292451790799033 0.60593220338983
0.479130379264602 0.293481412315366 0.60593220338983
0.464333734978263 0.295344699139993 0.60593220338983
0.463374794305744 0.292286432969512 0.60593220338983
0.456695522662649 0.294538883963777 0.60593220338983
0.45017737316459 0.296379986617513 0.60593220338983
0.431499988649608 0.29655070639688 0.60593220338983
0.424225947516013 0.301364317005694 0.60593220338983
0.420201548154609 0.303568478390572 0.60593220338983
0.40964937508798 0.303898839312375 0.60593220338983
0.400127130353094 0.306674546092514 0.60593220338983
0.384212393968846 0.308731917633073 0.60593220338983
0.378930590914819 0.302027802133167 0.60593220338983
0.369931295975525 0.308294439680939 0.60593220338983
0.357887486413349 0.303946304838784 0.60593220338983
0.345261715115753 0.305123675604256 0.60593220338983
0.332901755654397 0.312403897689041 0.60593220338983
0.333792645436951 0.314795407463417 0.60593220338983
0.323480680234429 0.310480337522527 0.60593220338983
0.313629035448693 0.310680518341578 0.60593220338983
0.291744845772294 0.316956947104559 0.60593220338983
0.291334908813119 0.317439688906473 0.60593220338983
0.279847635551148 0.319429503066706 0.60593220338983
0.26557800793529 0.320826251545154 0.60593220338983
0.259782578395054 0.3209748413261 0.60593220338983
0.242269191373758 0.32574352945945 0.60593220338983
0.243721046666456 0.318344144838473 0.60593220338983
0.233092851616332 0.326420659841981 0.60593220338983
0.224350075352029 0.327677853076303 0.60593220338983
0.209194294151454 0.326205920383552 0.60593220338983
0.194401539844662 0.324348014956018 0.60593220338983
0.177155306923776 0.333036019450265 0.60593220338983
0.172231666736732 0.325699075931771 0.60593220338983
0.159567259366202 0.332267030646901 0.60593220338983
0.147997401952698 0.329751411251247 0.60593220338983
0.139650312443458 0.33501367876253 0.60593220338983
0.121099229787627 0.333440209977782 0.60593220338983
0.114851124109287 0.336238619631773 0.60593220338983
0.100578213621657 0.336726231405376 0.60593220338983
0.0981410412986145 0.338147765228373 0.60593220338983
0.0867757575661518 0.34255225549486 0.60593220338983
0.0661661006042093 0.338951827968013 0.60593220338983
0.0651475194817678 0.338010339206158 0.60593220338983
0.041381601349173 0.34563521911813 0.60593220338983
0.0275436932196064 0.349728000319143 0.60593220338983
0.0210791042951469 0.350742748448031 0.60593220338983
0.0122378226867852 0.344393083109951 0.60593220338983
1.2546582822143e-005 0.345624221835355 0.60593220338983
-0.0183205766151943 0.353104841867753 0.60593220338983
-0.0287648855216972 0.355125834816876 0.60593220338983
-0.0345966868102256 0.351188937350291 0.60593220338983
-0.0516821778908083 0.354097264628951 0.60593220338983
-0.0654822810065381 0.358256604392495 0.60593220338983
-0.0795347606186505 0.358916497896016 0.60593220338983
-0.0939586220924481 0.361567327659813 0.60593220338983
-0.101834846725929 0.365058317499423 0.60593220338983
-0.126051421587199 0.360631934396928 0.60593220338983
-0.141680860584885 0.368384111379252 0.60593220338983
-0.156387554135111 0.365459697810509 0.60593220338983
-0.164817163656942 0.367201850052099 0.60593220338983
-0.183238305050568 0.3760894352905 0.60593220338983
-0.187586074439359 0.373437290376595 0.60593220338983
-0.199413741559997 0.377290121055539 0.60593220338983
-0.214805301844318 0.371224828290921 0.60593220338983
-0.23865501252554 0.380591936872946 0.60593220338983
-0.259372826568324 0.380600427664093 0.60593220338983
-0.256812976044216 0.385031659885894 0.60593220338983
-0.28522876073331 0.378268779231496 0.60593220338983
-0.284801333563029 0.388581744077769 0.60593220338983
-0.30796907785543 0.389949820566088 0.60593220338983
-0.320194775358394 0.386944793379016 0.60593220338983
-0.339903262251245 0.385466187567879 0.60593220338983
-0.346821627754341 0.390682874940228 0.60593220338983
-0.37626907953598 0.391020749929931 0.60593220338983
-0.394072559155002 0.396876270378736 0.60593220338983
-0.408124218329006 0.393143781512315 0.60593220338983
-0.421983638054128 0.395813435653444 0.60593220338983
-0.432828512032075 0.39705010904953 0.60593220338983
-0.456154357826165 0.399677793236034 0.60593220338983
-0.461516921864299 0.402004939416788 0.60593220338983
-0.482447806971571 0.408268398666349 0.60593220338983
0.5 0.29824863544871 0.494899828860523
0.5 0.303703103259561 0.494907308616105
0.5 0.301147670752904 0.506049241009521
0.5 0.301588467086193 0.521308511082045
0.5 0.303479402003461 0.519504255070857
0.5 0.301715532121451 0.537662213917463
0.5 0.299755626805856 0.540172080391836
0.5 0.297120932085571 0.544622803545365
0.5 0.300651636914173 0.561639353910913
0.5 0.299307935271914 0.568540833806351
0.5 0.303704039750577 0.578904241193711
0.5 0.297507783127531 0.581254314537544
0.5 0.297279025880567 0.590504049971892
0.5 0.297225377745544 0.599096879016855
0.498492754943137 0.302691908495625 0.60593220338983
0.492240470022884 0.299963714857118 0.60593220338983
0.481422235887945 0.304604463375278 0.60593220338983
0.472925391483669 0.301457692969743 0.60593220338983
0.461814439283399 0.307007045281724 0.60593220338983
0.45125762294833 0.301911767966689 0.60593220338983
0.440956616570551 0.311285113808045 0.60593220338983
0.434049057627966 0.310184714798916 0.60593220338983
0.430957295793074 0.306001915741217 0.60593220338983
0.413061033093901 0.313808560772266 0.60593220338983
0.412139584680431 0.306905985391085 0.60593220338983
0.397765595183893 0.309356869608895 0.60593220338983
0.38331324789751 0.316965919261633 0.60593220338983
0.379737928677821 0.314387920753002 0.60593220338983
0.370933778142894 0.318151964487356 0.60593220338983
0.355952201192615 0.317938186006727 0.60593220338983
0.345158086837931 0.316202289079817 0.60593220338983
0.345216930861082 0.317167057287349 0.60593220338983
0.330442360864138 0.324072838691436 0.60593220338983
0.314626984757683 0.326125429378334 0.60593220338983
0.316038983580552 0.320559996173141 0.60593220338983
0.29466645522102 0.328955465157198 0.60593220338983
0.287327818366248 0.321199757461372 0.60593220338983
0.280252752760173 0.322017187988829 0.60593220338983
0.265738731248602 0.32397976908865 0.60593220338983
0.252165388020821 0.331513981062098 0.60593220338983
0.242982104277432 0.325719434915675 0.60593220338983
0.240165497469886 0.336128244358829 0.60593220338983
0.232038725686844 0.330632981437982 0.60593220338983
0.210770457977536 0.333771723701253 0.60593220338983
0.203776134849187 0.338748233553927 0.60593220338983
0.18758787654873 0.334073358640159 0.60593220338983
0.182588480874511 0.338443927420925 0.60593220338983
0.172096863385109 0.334055670781766 0.60593220338983
0.15851905499418 0.343103233021848 0.60593220338983
0.154634052036893 0.343226639388556 0.60593220338983
0.144074617093607 0.343679841303686 0.60593220338983
0.124503423425573 0.344875980973349 0.60593220338983
0.123169491739316 0.343513849491944 0.60593220338983
0.100503390432203 0.350057201333168 0.60593220338983
0.0960311027948939 0.353122358013318 0.60593220338983
0.0851208996038725 0.351080282227562 0.60593220338983
0.0604618260404741 0.350306869651964 0.60593220338983
0.0564272534256088 0.356332698574269 0.60593220338983
0.0475242868832715 0.356077725568199 0.60593220338983
0.0285214835695607 0.36130190790552 0.60593220338983
0.0268781928757466 0.352861959953659 0.60593220338983
0.0109942195415014 0.359960759688043 0.60593220338983
-0.00700409269925581 0.357188691255784 0.60593220338983
-0.022876569170476 0.361156911425875 0.60593220338983
-0.0255162044469593 0.359006814497694 0.60593220338983
-0.0415887700501439 0.36990569672086 0.60593220338983
-0.0551052240006028 0.36821115306911 0.60593220338983
-0.072161970430931 0.373199690519446 0.60593220338983
-0.0833551024992297 0.369946095263805 0.60593220338983
-0.100633641368219 0.372796494562715 0.60593220338983
-0.107131740692168 0.375135297113478 0.60593220338983
-0.115666048747886 0.376297072434249 0.60593220338983
-0.144393063973831 0.374304162303279 0.60593220338983
-0.142806800994908 0.379147068689788 0.60593220338983
-0.170676655201887 0.375361115603505 0.60593220338983
-0.17596024812479 0.376960173021851 0.60593220338983
-0.185110470308183 0.385679448379966 0.60593220338983
-0.200454160304143 0.384085443399796 0.60593220338983
-0.220740310295162 0.386198099740419 0.60593220338983
-0.238376478776364 0.384053265649675 0.60593220338983
-0.251107127024246 0.394808027820153 0.60593220338983
-0.254693776249725 0.389939064042638 0.60593220338983
-0.273766718405513 0.397000439777857 0.60593220338983
-0.297881418300151 0.399852461119024 0.60593220338983
-0.304849788008665 0.394622756298788 0.60593220338983
-0.324579266012113 0.398457175700876 0.60593220338983
-0.346891211348027 0.40668390521752 0.60593220338983
-0.359549343988424 0.403406750552776 0.60593220338983
-0.377636453256397 0.406656962157144 0.60593220338983
-0.382878212763449 0.404700149741847 0.60593220338983
-0.403510113683968 0.411058706415632 0.60593220338983
-0.41916838459204 0.408081994332435 0.60593220338983
-0.439370006541913 0.411389448919597 0.60593220338983
-0.454746953099229 0.409111639243265 0.60593220338983
-0.466425808364847 0.420024742812796 0.60593220338983
-0.486075597510897 0.42020460347245 0.60593220338983
0.5 0.310202326711291 0.492268393705405
0.5 0.308153309815125 0.494827397733858
0.5 0.305812833705429 0.509657833059344
0.5 0.31117874762096 0.517483580239663
0.5 0.306610269690377 0.531437969510696
0.5 0.304436978586911 0.537246260542237
0.5 0.306309517375403 0.544068217958476
0.5 0.310053458242687 0.551920752573879
0.5 0.308068055327313 0.559550312245917
0.5 0.307341199859749 0.573106277911368
0.5 0.305016829400356 0.574685101903595
0.5 0.307850345191224 0.579152357102561
0.5 0.308031901573613 0.595712967037335
0.5 0.312499249897726 0.599566236562822
0.499216770349825 0.309750719734634 0.60593220338983
0.491344128543861 0.306216498023534 0.60593220338983
0.476182081320338 0.313852632616341 0.60593220338983
0.478443651824004 0.307182321658326 0.60593220338983
0.466326233209477 0.310841634848545 0.60593220338983
0.455041030814765 0.312794187173963 0.60593220338983
0.44077368965053 0.318884303539881 0.60593220338983
0.435505969037451 0.314788511364019 0.60593220338983
0.425596917001184 0.320647965457336 0.60593220338983
0.417318093767231 0.320983061900869 0.60593220338983
0.402489076091651 0.320746359115399 0.60593220338983
0.403617408789542 0.316859230904676 0.60593220338983
0.388602906554667 0.326209890117426 0.60593220338983
0.376490403451895 0.326555199552182 0.60593220338983
0.369436071546719 0.322126262451245 0.60593220338983
0.356165461634854 0.32719867617571 0.60593220338983
0.352415485231257 0.32262742193917 0.60593220338983
0.339322237163353 0.323409033555044 0.60593220338983
0.32466431792935 0.326513774709938 0.60593220338983
0.322011995787051 0.327525216939127 0.60593220338983
0.306207596187405 0.333197002024047 0.60593220338983
0.295003252762366 0.332616284396363 0.60593220338983
0.288142646609741 0.334159910326277 0.60593220338983
0.28244349640489 0.332101535852748 0.60593220338983
0.267169054025698 0.341032479250825 0.60593220338983
0.254248902256747 0.337601975866355 0.60593220338983
0.24482666828734 0.335172866026559 0.60593220338983
0.242536095258081 0.341086199683782 0.60593220338983
0.223290418956401 0.346165849285367 0.60593220338983
0.219393782633524 0.346325071243851 0.60593220338983
0.200942015386828 0.348277386254112 0.60593220338983
0.19875175807676 0.345169303047106 0.60593220338983
0.181446396296598 0.351673458230812 0.60593220338983
0.171346073510662 0.34798000950705 0.60593220338983
0.164238525429656 0.347062202859474 0.60593220338983
0.158732428878859 0.35474979142782 0.60593220338983
0.142301579423067 0.351831537192215 0.60593220338983
0.125302484625367 0.359002897986871 0.60593220338983
0.114539326227302 0.355693895708282 0.60593220338983
0.0996630517623574 0.360924606202936 0.60593220338983
0.0991318019189804 0.356561911208235 0.60593220338983
0.0738265543898824 0.359117889697017 0.60593220338983
0.0632156095605431 0.366222792405547 0.60593220338983
0.0625540942310451 0.359243352358019 0.60593220338983
0.051858817302379 0.364784969820747 0.60593220338983
0.0363302788276181 0.368630315541643 0.60593220338983
0.0122466516909891 0.371010852567693 0.60593220338983
-0.00159710492532937 0.364650869539646 0.60593220338983
-0.007471218082844 0.369125721596167 0.60593220338983
-0.01858170718517 0.37283049229974 0.60593220338983
-0.034868166942574 0.371111561020008 0.60593220338983
-0.0389524381046784 0.378238556288249 0.60593220338983
-0.0614313977407609 0.375000973741599 0.60593220338983
-0.0762890518157936 0.380761728270899 0.60593220338983
-0.0810140709143084 0.3755371797835 0.60593220338983
-0.0978642909842769 0.38217270613326 0.60593220338983
-0.108590523053036 0.384053328437885 0.60593220338983
-0.129496078877383 0.380444879140632 0.60593220338983
-0.135521420853604 0.38698755712035 0.60593220338983
-0.153544678750454 0.383628226833212 0.60593220338983
-0.165089394135436 0.388155271381566 0.60593220338983
-0.169564178318783 0.393436783423472 0.60593220338983
-0.196165837262055 0.392327950566789 0.60593220338983
-0.202523178207696 0.400111791520109 0.60593220338983
-0.222865482235208 0.395980253543672 0.60593220338983
-0.230266631277245 0.394886680002594 0.60593220338983
-0.254431230158098 0.400462476581279 0.60593220338983
-0.265842730510958 0.399459929948136 0.60593220338983
-0.27752812744896 0.408179600541807 0.60593220338983
-0.299682900127776 0.404104539852615 0.60593220338983
-0.315981168884907 0.410979574638219 0.60593220338983
-0.326388378842088 0.408902425666959 0.60593220338983
-0.334964430106028 0.406795594847991 0.60593220338983
-0.349769247661985 0.408866662536284 0.60593220338983
-0.375106866868798 0.415700937134601 0.60593220338983
-0.388537342504087 0.413673018735328 0.60593220338983
-0.39528634479319 0.422906732062308 0.60593220338983
-0.422708227651803 0.427965491111231 0.60593220338983
-0.427877302381379 0.428238064294729 0.60593220338983
-0.449046419458528 0.425471011295566 0.60593220338983
-0.475506594072671 0.431118898064957 0.60593220338983
-0.475990261758327 0.429993865177374 0.60593220338983
-0.490801523998506 0.42627680802489 0.60593220338983
0.5 0.315949875224155 0.493797485361119
0.5 0.314231634195126 0.495363393453779
0.5 0.320144740308829 0.505771025293133
0.5 0.317721699569299 0.518271294217562
0.5 0.314609243140037 0.522125981356324
0.5 0.318346062199314 0.530002728101052
0.5 0.319173789572981 0.535076250738808
0.5 0.313015465110568 0.552863008712373
0.5 0.316235626131051 0.557617990667677
0.5 0.319182946707617 0.567518915774702
0.5 0.315459371840779 0.577558844302996
0.5 0.314562176692178 0.585465647507119
0.499471155712532 0.314028041601309 0.591101694915254
0.5 0.314196106513891 0.604310132580146
0.497557592250585 0.319155482358759 0.60593220338983
0.488016855081206 0.315902527807411 0.60593220338983
0.480882082778521 0.317561921743358 0.60593220338983
0.466606610294748 0.318996206540282 0.60593220338983
0.459919237748067 0.319494976942212 0.60593220338983
0.454613402902088 0.318907289530018 0.60593220338983
0.443969577075598 0.319587389842073 0.60593220338983
0.433249884668457 0.327286317035435 0.60593220338983
0.426541315254479 0.322059721761293 0.60593220338983
0.422540790085053 0.323286372590038 0.60593220338983
0.404259702541526 0.325005939946112 0.60593220338983
0.392467360724475 0.332656480189573 0.60593220338983
0.388630063478651 0.333102611989316 0.60593220338983
0.384797318446301 0.330670048487268 0.60593220338983
0.376283884311876 0.329025843817481 0.60593220338983
0.361166417993383 0.338514556162186 0.60593220338983
0.350638284725596 0.333014913791033 0.60593220338983
0.344397896470133 0.336824597710592 0.60593220338983
0.330040111621186 0.342431778791177 0.60593220338983
0.31949965978368 0.336862985423179 0.60593220338983
0.304750368165425 0.339280203044512 0.60593220338983
0.29383419595129 0.338483821948521 0.60593220338983
0.291077832383669 0.338880565845201 0.60593220338983
0.28226947097812 0.346266743125801 0.60593220338983
0.266053711552812 0.347958936638053 0.60593220338983
0.257618077439581 0.350669837521605 0.60593220338983
0.246878952936234 0.347566999048585 0.60593220338983
0.235603845289345 0.345715612664843 0.60593220338983
0.225949272829349 0.353121422945277 0.60593220338983
0.215957347911168 0.355561446469575 0.60593220338983
0.202472151881495 0.350785931758296 0.60593220338983
0.196002460684439 0.350938065937965 0.60593220338983
0.185077981291576 0.359726478280458 0.60593220338983
0.170939483606635 0.358932536879102 0.60593220338983
0.162226067543438 0.359942962649157 0.60593220338983
0.153297445668695 0.356596918171621 0.60593220338983
0.138340515937472 0.359975842988206 0.60593220338983
0.13213299728937 0.361361942885201 0.60593220338983
0.113102522200381 0.361253523460399 0.60593220338983
0.10449619040932 0.367703538393389 0.60593220338983
0.0902516354901749 0.370752556839602 0.60593220338983
0.0880994799033406 0.366151378421697 0.60593220338983
0.0661980482706897 0.375376767962647 0.60593220338983
0.0538168762567143 0.376556556298372 0.60593220338983
0.039713339769927 0.379248294880816 0.60593220338983
0.0329562845736325 0.37078766606776 0.60593220338983
0.0232483331919134 0.379411475255906 0.60593220338983
0.0134672603051704 0.379302971526481 0.60593220338983
-0.00565973547747318 0.37608525661775 0.60593220338983
-0.0252506098520804 0.387808994970236 0.60593220338983
-0.0381026594716987 0.386707169192004 0.60593220338983
-0.0368250817795303 0.390013392419866 0.60593220338983
-0.0574201206748144 0.387041323836506 0.60593220338983
-0.0618086100212948 0.389639480653528 0.60593220338983
-0.087401541575503 0.391576890934349 0.60593220338983
-0.0974364918281876 0.396006964621415 0.60593220338983
-0.103982211804855 0.390033185143069 0.60593220338983
-0.115021825083217 0.395967662968041 0.60593220338983
-0.132341381284668 0.400007034381116 0.60593220338983
-0.156423792671757 0.395327558169925 0.60593220338983
-0.163298339808091 0.403426551555325 0.60593220338983
-0.182449744726978 0.404894015556147 0.60593220338983
-0.192348476271753 0.405504568664472 0.60593220338983
-0.201793947536953 0.403847349985646 0.60593220338983
-0.209297545984588 0.405739829708444 0.60593220338983
-0.232422048861935 0.404023345030116 0.60593220338983
-0.242409469142731 0.408136853011021 0.60593220338983
-0.271553973396762 0.411326256720466 0.60593220338983
-0.281178582974363 0.414703590200159 0.60593220338983
-0.296541273256964 0.422671874202799 0.60593220338983
-0.310357559980467 0.418689318622426 0.60593220338983
-0.315252560326722 0.421845483088949 0.60593220338983
-0.345290126330858 0.424893878457494 0.60593220338983
-0.361609790456423 0.425419638043159 0.60593220338983
-0.371369471588971 0.423034126741452 0.60593220338983
-0.40092948263736 0.43542681317859 0.60593220338983
-0.402022828991846 0.430816964280791 0.60593220338983
-0.421119785362 0.43831246487377 0.60593220338983
-0.431619941162815 0.431262091803287 0.60593220338983
-0.457706544487995 0.433452977819616 0.60593220338983
-0.468367938968841 0.438723998555223 0.60593220338983
-0.478656620856768 0.435625338830848 0.60593220338983
0.5 0.328257033500929 0.492021595732862
0.5 0.323099283154604 0.495987905934788
0.5 0.328818710911128 0.508573204831517
0.5 0.323403351344941 0.519313349518634
0.5 0.326977258152039 0.526105678550382
0.5 0.324483663061891 0.53011032561791
0.5 0.327715900098992 0.540222841122888
0.5 0.328066882605579 0.549792572924157
0.5 0.326756697048115 0.553706882837102
0.5 0.32525761688972 0.568419471779005
0.5 0.327531999771017 0.575155476860882
0.5 0.327897776381848 0.58964805644241
0.498826285249122 0.324669792025405 0.591101694915254
0.5 0.325600243659595 0.605563325530856
0.49078533417155 0.329669313630063 0.60593220338983
0.487318445247984 0.323346939693675 0.60593220338983
0.481114170027939 0.329371288179097 0.60593220338983
0.46835573903817 0.324983898889873 0.60593220338983
0.460506368865021 0.329026319799817 0.60593220338983
0.453123383540267 0.33515654797316 0.60593220338983
0.440895995807788 0.334391014002842 0.60593220338983
0.431563866298604 0.33121526828901 0.60593220338983
0.425377982652913 0.332804457372624 0.60593220338983
0.411391713872632 0.336153708410944 0.60593220338983
0.408754312335445 0.340563533376384 0.60593220338983
0.394786590211513 0.337364179511161 0.60593220338983
0.392707775166437 0.336344949793099 0.60593220338983
0.385499880622459 0.340817064430304 0.60593220338983
0.373083385484772 0.339249494073134 0.60593220338983
0.361214410830215 0.345825122544273 0.60593220338983
0.352144954377025 0.347251436073637 0.60593220338983
0.348463226495823 0.348468712770849 0.60593220338983
0.330245891405326 0.350541279528407 0.60593220338983
0.31620597924081 0.345046576322987 0.60593220338983
0.313393602712401 0.345401473554783 0.60593220338983
0.300872150686348 0.353752269968443 0.60593220338983
0.289993331777103 0.349123747827431 0.60593220338983
0.286578287049014 0.351405444640592 0.60593220338983
0.27249086950458 0.35181244621018 0.60593220338983
0.263610164558587 0.355107776722047 0.60593220338983
0.247486503162799 0.357063875052634 0.60593220338983
0.232956396081001 0.356986272880541 0.60593220338983
0.230053180251635 0.359121871667683 0.60593220338983
0.212119678089109 0.365879117939977 0.60593220338983
0.20112615775415 0.365638736634589 0.60593220338983
0.196670373479817 0.365554042820864 0.60593220338983
0.189421481108768 0.365601861410652 0.60593220338983
0.1751270166753 0.364013601961145 0.60593220338983
0.159986987596453 0.370045821571129 0.60593220338983
0.150997956692869 0.373683532995465 0.60593220338983
0.134087548100565 0.373849428331966 0.60593220338983
0.126351241362576 0.377647982572924 0.60593220338983
0.120468447330746 0.371250370604938 0.60593220338983
0.111433042554498 0.374096483952213 0.60593220338983
0.0908685756828512 0.376498536293023 0.60593220338983
0.0737273621363212 0.381284699901594 0.60593220338983
0.0660705409139899 0.37947010023553 0.60593220338983
0.0616684108630723 0.386115518167951 0.60593220338983
0.052994198583847 0.386780753691316 0.60593220338983
0.0301799110881433 0.385893648336269 0.60593220338983
0.0215305347565644 0.388522603723655 0.60593220338983
0.00504611660715029 0.391922456008956 0.60593220338983
0.00119522784821582 0.391116866010272 0.60593220338983
-0.010614400155775 0.394251901590271 0.60593220338983
-0.0378456292288306 0.395028157772513 0.60593220338983
-0.0456317469199918 0.398842556320391 0.60593220338983
-0.0609550545025955 0.402931485817172 0.60593220338983
-0.0679013061087122 0.397182684655889 0.60593220338983
-0.0745209517310943 0.401780371150863 0.60593220338983
-0.089368776365848 0.399689794664638 0.60593220338983
-0.115016021330506 0.408990594419442 0.60593220338983
-0.126036639697949 0.404129816924743 0.60593220338983
-0.129513082180996 0.41034299172496 0.60593220338983
-0.153348516333078 0.413775079839726 0.60593220338983
-0.174890546971206 0.410372954313195 0.60593220338983
-0.169144892048935 0.414662382542257 0.60593220338983
-0.198439161823847 0.409890488689428 0.60593220338983
-0.203183702185474 0.418607564459761 0.60593220338983
-0.214943587848016 0.416431327802884 0.60593220338983
-0.235315499387004 0.424119222846549 0.60593220338983
-0.249882007172857 0.416763884294812 0.60593220338983
-0.263274984668428 0.423774026526499 0.60593220338983
-0.287021403673456 0.423403597696077 0.60593220338983
-0.289710947942865 0.424687235695983 0.60593220338983
-0.311042900805019 0.430431385987585 0.60593220338983
-0.332303105240381 0.437320058964366 0.60593220338983
-0.343575293351439 0.433677672946916 0.60593220338983
-0.357308188449548 0.435426172588414 0.60593220338983
-0.35891662546112 0.436621654428022 0.60593220338983
-0.382672990271472 0.438943259181089 0.60593220338983
-0.404457719399125 0.448563092290434 0.60593220338983
-0.41672826655288 0.444407070167404 0.60593220338983
-0.43107183628953 0.45066284329161 0.60593220338983
-0.45098184395031 0.447172323689933 0.60593220338983
-0.474133882123584 0.452889591814161 0.60593220338983
-0.485105713551508 0.452373741143691 0.60593220338983
0.5 0.331983886418001 0.495077388389718
0.5 0.332495471899834 0.505296432849657
0.5 0.3372376477815 0.511604657372152
0.5 0.329613066105415 0.516299584853148
0.5 0.334883411723719 0.521216239199628
0.5 0.329282173426187 0.535518235276552
0.5 0.33665550569314 0.542383240780212
0.5 0.329595789669248 0.551232195404912
0.5 0.330698462579799 0.557928554084463
0.5 0.3290563762558 0.567604575966189
0.5 0.330570108499763 0.574977779957353
0.5 0.329618636972469 0.582963845516069
0.5 0.336560173748094 0.588590764853629
0.5 0.333383056811518 0.604422886470731
0.4933463039712 0.330054200502645 0.60593220338983
0.493808402300363 0.337484189186042 0.60593220338983
0.478436839345086 0.332752574790039 0.60593220338983
0.470061110476495 0.334698420245417 0.60593220338983
0.458746211954459 0.342621034657449 0.60593220338983
0.451477833825274 0.338898647859842 0.60593220338983
0.442414357786925 0.341169665963004 0.60593220338983
0.436149705314726 0.337883048079885 0.60593220338983
0.427739994536443 0.34611571980459 0.60593220338983
0.413815781414365 0.348635368810885 0.60593220338983
0.410306758958833 0.342029669440323 0.60593220338983
0.395629778817224 0.344286344241153 0.60593220338983
0.383746944086816 0.348482719879 0.60593220338983
0.374341652842066 0.347904517665982 0.60593220338983
0.368856227840309 0.353539555603499 0.60593220338983
0.362878073391879 0.350351475434223 0.60593220338983
0.350621618305739 0.350564129454234 0.60593220338983
0.341316666111487 0.350570121503633 0.60593220338983
0.33162614459315 0.356886889661062 0.60593220338983
0.322431418177325 0.354162265998121 0.60593220338983
0.307444250099468 0.360723304368992 0.60593220338983
0.302184189389046 0.36369579296821 0.60593220338983
0.290285609086211 0.361591471647109 0.60593220338983
0.279108116606245 0.359780726397597 0.60593220338983
0.275571123337733 0.362128379596526 0.60593220338983
0.256664238428396 0.364778745368593 0.60593220338983
0.249317953641735 0.367239224934403 0.60593220338983
0.240252865827952 0.371718678686591 0.60593220338983
0.226086734267458 0.372416528948894 0.60593220338983
0.220312441346809 0.367501833898206 0.60593220338983
0.211574054939339 0.374042036800518 0.60593220338983
0.191116185044514 0.37328296553006 0.60593220338983
0.186684799081628 0.370765705578314 0.60593220338983
0.166791330377457 0.380991479913438 0.60593220338983
0.163056742951316 0.378501741481642 0.60593220338983
0.157143314152032 0.381439462177407 0.60593220338983
0.133423334610829 0.380374418072675 0.60593220338983
0.137452087767324 0.386449925312948 0.60593220338983
0.11181368084087 0.382563707322675 0.60593220338983
0.103401145442606 0.385272144353654 0.60593220338983
0.0946014689669223 0.390909227670912 0.60593220338983
0.0817544685200763 0.391190051240357 0.60593220338983
0.0659063137265275 0.388267191287578 0.60593220338983
0.0539301906889943 0.388262446957597 0.60593220338983
0.0460962680431125 0.392843124294695 0.60593220338983
0.0308863321395079 0.398807074465096 0.60593220338983
0.017745693101615 0.400182970677634 0.60593220338983
0.00264935488791825 0.40370038947303 0.60593220338983
-0.0052539577165389 0.399938799151255 0.60593220338983
-0.0242057430202017 0.404089316580078 0.60593220338983
-0.0309167423678816 0.400366494665741 0.60593220338983
-0.0538018603024833 0.411196613290741 0.60593220338983
-0.0590327055685045 0.40966898485433 0.60593220338983
-0.0699035884737575 0.409145148274903 0.60593220338983
-0.0792806158406054 0.412255793470982 0.60593220338983
-0.0976020444863043 0.408562510573554 0.60593220338983
-0.106538378697527 0.41850703026923 0.60593220338983
-0.122101591393548 0.416327159843179 0.60593220338983
-0.131214751999421 0.412693046401592 0.60593220338983
-0.15823377786698 0.417668567744037 0.60593220338983
-0.15652194919982 0.41738549274259 0.60593220338983
-0.17944295904717 0.426053752315564 0.60593220338983
-0.190432884530132 0.425202597996189 0.60593220338983
-0.197209388509672 0.426976030138309 0.60593220338983
-0.227705149867822 0.427468902467099 0.60593220338983
-0.240595966922535 0.431400944065532 0.60593220338983
-0.259870660051436 0.43585878996195 0.60593220338983
-0.261910147716167 0.431281179489723 0.60593220338983
-0.285995665172253 0.436750997053522 0.60593220338983
-0.302052263589634 0.440650945812544 0.60593220338983
-0.305496125727194 0.436029825154013 0.60593220338983
-0.32821957744693 0.448754030206569 0.60593220338983
-0.341262334094493 0.440818236665467 0.60593220338983
-0.35605852094488 0.444151568554206 0.60593220338983
-0.370065334393106 0.451873425520289 0.60593220338983
-0.396364705054138 0.447294665350262 0.60593220338983
-0.405866051007079 0.450127199006109 0.60593220338983
-0.420811658968675 0.459780188680187 0.60593220338983
-0.435778367032014 0.452865411994815 0.60593220338983
-0.448909001873149 0.455416337147089 0.60593220338983
-0.466634630477003 0.457034144735489 0.60593220338983
-0.477519130436229 0.468670947221999 0.60593220338983
0.5 0.343540347336474 0.492103526390071
0.5 0.342481034568342 0.499741926260761
0.5 0.343956502848759 0.503575842600492
0.5 0.342238743260885 0.512817570077764
0.5 0.344826045308327 0.523043449303658
0.5 0.338938843072733 0.531409740767007
0.5 0.34378234106525 0.541844839159655
0.5 0.338254582562415 0.548514094453244
0.5 0.344935950041189 0.558222491540838
0.5 0.344324696551295 0.563777012727082
0.5 0.344298354117289 0.572341609368782
0.5 0.338717507405441 0.585184113652366
0.497200469633609 0.343766438367465 0.591101694915254
0.5 0.339554257369291 0.599557436949117
0.5 0.34467665532629 0.60521261839453
0.489054064003596 0.341691310196166 0.60593220338983
0.483655663404292 0.341501504917756 0.60593220338983
0.470522906903082 0.344937329338956 0.60593220338983
0.458217577357846 0.34382916831293 0.60593220338983
0.444914929710929 0.350611772890721 0.60593220338983
0.44400543254761 0.347399049927299 0.60593220338983
0.433539552300167 0.350956397528338 0.60593220338983
0.425837464759872 0.353516487798393 0.60593220338983
0.417888679516326 0.352296833086282 0.60593220338983
0.401747204671233 0.359234367551675 0.60593220338983
0.406526895792813 0.353442016952715 0.60593220338983
0.39078008688788 0.359731858161448 0.60593220338983
0.37205970735092 0.361844664901714 0.60593220338983
0.366098115372137 0.36093341823893 0.60593220338983
0.361316728619033 0.357143240061589 0.60593220338983
0.34447789352216 0.363338486384491 0.60593220338983
0.343642587225778 0.358924597511622 0.60593220338983
0.335804140882877 0.360870393636233 0.60593220338983
0.318821162778157 0.365903857227735 0.60593220338983
0.310173064054714 0.371463374165746 0.60593220338983
0.301494457924975 0.36908801355151 0.60593220338983
0.287207234975332 0.366765655333667 0.60593220338983
0.275203712854904 0.374107792653076 0.60593220338983
0.260854388729705 0.371988488494166 0.60593220338983
0.252839050609971 0.371268198773436 0.60593220338983
0.243201287505132 0.377553259552651 0.60593220338983
0.24206226805863 0.381881136231768 0.60593220338983
0.224882158410468 0.383404263424754 0.60593220338983
0.222322928496051 0.382941452291593 0.60593220338983
0.212705682759843 0.377708377550865 0.60593220338983
0.193955864060157 0.384615647360434 0.60593220338983
0.178067966288906 0.384210532464378 0.60593220338983
0.168887315033831 0.385684312331392 0.60593220338983
0.159891750623787 0.391512272886743 0.60593220338983
0.144682438896431 0.387947725776103 0.60593220338983
0.137414490617842 0.391621178513028 0.60593220338983
0.128232829304652 0.389140132809614 0.60593220338983
0.118719808298438 0.398323532834205 0.60593220338983
0.105849161031938 0.392260578082583 0.60593220338983
0.0960395579430488 0.399706105886653 0.60593220338983
0.0816385712959518 0.403085592530359 0.60593220338983
0.0591354518097183 0.402298135796908 0.60593220338983
0.0595736084555302 0.398284955730384 0.60593220338983
0.0492801380654815 0.401252392848954 0.60593220338983
0.0268458065852843 0.40232678406656 0.60593220338983
0.0194696261246579 0.410647921693479 0.60593220338983
0.0119126526928932 0.404536653612085 0.60593220338983
-0.00491136904308262 0.408181680656757 0.60593220338983
-0.0171153457203308 0.415606223497981 0.60593220338983
-0.0374050563702095 0.413862556729664 0.60593220338983
-0.0539346779788132 0.414777452940051 0.60593220338983
-0.0486638833334417 0.421622476793864 0.60593220338983
-0.0679334537139694 0.416257877395882 0.60593220338983
-0.0881891699076057 0.423561949618007 0.60593220338983
-0.100393137793512 0.422536904938605 0.60593220338983
-0.116577264495798 0.426883527628214 0.60593220338983
-0.11791259552638 0.422361475259855 0.60593220338983
-0.138252477520402 0.432881601353293 0.60593220338983
-0.14640590899365 0.433578605427303 0.60593220338983
-0.155198732824387 0.431720161247307 0.60593220338983
-0.169122015184762 0.432641591173799 0.60593220338983
-0.196558793411773 0.441013034437415 0.60593220338983
-0.20434268631717 0.442437961710713 0.60593220338983
-0.222141592326961 0.435651681589254 0.60593220338983
-0.245223461548988 0.444129305029471 0.60593220338983
-0.247319538377096 0.447400493338072 0.60593220338983
-0.270165826983238 0.448223561420237 0.60593220338983
-0.280864152471814 0.447967224235844 0.60593220338983
-0.292567399695831 0.450044830632627 0.60593220338983
-0.302456223173902 0.44658226463009 0.60593220338983
-0.315590280683448 0.452964060240966 0.60593220338983
-0.331522207994509 0.456288910771699 0.60593220338983
