ply
format ascii 1.0
element vertex 864
property float x
property float y
property float z
end_header
0.175702217188668 0.45983191668036 0.313953488372093
0.156752892430147 0.465217830886386 0.313953488372093
0.148835983618564 0.468857658476831 0.313953488372093
0.145201648155186 0.466739925063082 0.313953488372093
0.13430398927623 0.465003148265059 0.313953488372093
0.127703525971022 0.467662705099679 0.313953488372093
0.116532726666721 0.467680362304853 0.313953488372093
0.102884474446802 0.472299416943074 0.313953488372093
0.0925134395009514 0.479688005190406 0.313953488372093
0.0821158614212391 0.481849979896154 0.313953488372093
0.0713153284344965 0.481173940773545 0.313953488372093
0.055324123303873 0.482645006301665 0.313953488372093
0.0471297699350419 0.477730823869815 0.313953488372093
0.0375695927043479 0.48139783189367 0.313953488372093
0.0193742613002201 0.489260163149055 0.313953488372093
0.0224413718298314 0.490682404787768 0.313953488372093
-0.00137911924115146 0.486244512190273 0.313953488372093
-0.0106448113997948 0.492492768917127 0.313953488372093
-0.0146822776275661 0.495579364303026 0.313953488372093
-0.0301450931234415 0.492845652515214 0.313953488372093
-0.0479245078342409 0.496866129368485 0.313953488372093
-0.0566643211179993 0.499102887486618 0.313953488372093
-0.0663978716985301 0.499142421951238 0.313953488372093
0.32498531311253 0.449556433025975 0.313953488372093
0.308694833945562 0.443524438032988 0.313953488372093
0.313535678594443 0.451087603243361 0.313953488372093
0.288603261375133 0.450628279595359 0.313953488372093
0.286338782918022 0.450906020748372 0.313953488372093
0.273592487911214 0.45348325972428 0.313953488372093
0.267065606623214 0.456025284491053 0.313953488372093
0.257659897296913 0.453341738036007 0.313953488372093
0.243893258743389 0.460281794250753 0.313953488372093
0.241898427791254 0.463862706947727 0.313953488372093
0.227998898628392 0.463861982874639 0.313953488372093
0.217706626581148 0.461308838465627 0.313953488372093
0.216191123952235 0.461404161009235 0.313953488372093
0.204800376871974 0.466743830813997 0.313953488372093
0.184513608669621 0.472705861633915 0.313953488372093
0.179034373881686 0.473302007782639 0.313953488372093
0.173495135352037 0.475465325857661 0.313953488372093
0.161994480809078 0.47319645625945 0.313953488372093
0.148942428480623 0.471944434999813 0.313953488372093
0.14356508635219 0.474972172021255 0.313953488372093
0.130425800515543 0.480391382586173 0.313953488372093
0.1211032667403 0.480354333819341 0.313953488372093
0.110180277782339 0.48157305398406 0.313953488372093
0.106033693224375 0.487338159825068 0.313953488372093
0.0922355563868262 0.482183537120535 0.313953488372093
0.0745893380975512 0.492191271587572 0.313953488372093
0.0713621949000054 0.489928843514081 0.313953488372093
0.0562234411489033 0.488254661150308 0.313953488372093
0.0561678054627114 0.494709420764226 0.313953488372093
0.0407798105575415 0.493973580472372 0.313953488372093
0.0272498344444245 0.497781629574411 0.313953488372093
0.00886527695974857 0.498635954825739 0.313953488372093
-0.00771139016417571 0.498597174853686 0.313953488372093
0.323603733001564 0.456821076213635 0.313953488372093
0.315550652434726 0.456636402724012 0.313953488372093
0.298713415019995 0.460775487696217 0.313953488372093
0.297776052176792 0.455990793425945 0.313953488372093
0.282539440928554 0.461913673614826 0.313953488372093
0.273619267518845 0.458540172227165 0.313953488372093
0.266680526261752 0.466724643299885 0.313953488372093
0.258292718173186 0.46876569587989 0.313953488372093
0.249693066146426 0.469606933046652 0.313953488372093
0.23947510501766 0.465605999016736 0.313953488372093
0.234813984207914 0.467113671556871 0.313953488372093
0.216384448339806 0.472310386566228 0.313953488372093
0.210341375115461 0.476381980100252 0.313953488372093
0.210705041608793 0.479327834751863 0.313953488372093
0.187349653759748 0.481506020224211 0.313953488372093
0.183258809836944 0.475880044590122 0.313953488372093
0.174032111782535 0.483468210043345 0.313953488372093
0.157260319052713 0.481114104323882 0.313953488372093
0.150071657702892 0.480267545954176 0.313953488372093
0.14407971180995 0.482420577552352 0.313953488372093
0.125413649918448 0.491862979341487 0.313953488372093
0.126270318284593 0.486933546330527 0.313953488372093
0.112737051459966 0.488951915438346 0.313953488372093
0.0984274581893112 0.488847004224114 0.313953488372093
0.0877243457138233 0.494592096103717 0.313953488372093
0.0828791726674002 0.496937539919569 0.313953488372093
0.0590062622295271 0.49772095047813 0.313953488372093
0.321304070995916 0.461733591339205 0.313953488372093
0.315653752653398 0.467973670223249 0.313953488372093
0.302244942887484 0.464571035946419 0.313953488372093
0.300150257640678 0.468324528928222 0.313953488372093
0.286159487212678 0.467654544274025 0.313953488372093
0.273895690293085 0.476237770523164 0.313953488372093
0.265895085135579 0.476558444874836 0.313953488372093
0.256110286812391 0.476757792719002 0.313953488372093
0.248783323081233 0.479378418805546 0.313953488372093
0.233807049768104 0.475104789539559 0.313953488372093
0.224380525895752 0.483816273070798 0.313953488372093
0.219493673914842 0.485319187300512 0.313953488372093
0.216662977379608 0.481199726202708 0.313953488372093
0.200472249832477 0.490237739260822 0.313953488372093
0.19237993386759 0.486464569401914 0.313953488372093
0.182928411316995 0.485733861608268 0.313953488372093
0.172469504855878 0.492228061587751 0.313953488372093
0.15405429517918 0.488925718989549 0.313953488372093
0.156228732059699 0.497616272167016 0.313953488372093
0.133928580963757 0.496623554014637 0.313953488372093
0.134023114546212 0.498146288875597 0.313953488372093
0.119732591741261 0.497706798001775 0.313953488372093
0.321529465190433 0.469969173021192 0.313953488372093
0.31944325126888 0.476872204251325 0.313953488372093
0.309658205021639 0.476760827865981 0.313953488372093
0.302476543232477 0.478587882223186 0.313953488372093
0.285544157121916 0.476714284025062 0.313953488372093
0.271798964193553 0.486070301764468 0.313953488372093
0.26219125350714 0.485053989352195 0.313953488372093
0.2633678810174 0.480821522731629 0.313953488372093
0.25330739779309 0.481480321754527 0.313953488372093
0.238217878466576 0.492537747128133 0.313953488372093
0.223409454655334 0.48677657213725 0.313953488372093
0.219850525011221 0.490445483809032 0.313953488372093
0.214969630749382 0.491342433428702 0.313953488372093
0.195657190398324 0.49973814751653 0.313953488372093
0.196194433400183 0.497350316811609 0.313953488372093
0.180216799624402 0.499357461530405 0.313953488372093
0.329011717122835 0.477324740449339 0.313953488372093
0.315920442277723 0.48473592307019 0.313953488372093
0.309493359638392 0.48659152648246 0.313953488372093
0.302874216572484 0.487270609278508 0.313953488372093
0.281363304394208 0.485898465880363 0.313953488372093
0.279866714013394 0.491650613749774 0.313953488372093
0.268364838029545 0.48760586580201 0.313953488372093
0.256899899108137 0.496573267224676 0.313953488372093
0.252289101671542 0.492304800375416 0.313953488372093
0.238799848842143 0.492523537982693 0.313953488372093
0.315885371564223 0.493596884539613 0.313953488372093
0.320895076683797 0.490796633752952 0.313953488372093
0.30421297237831 0.497276046146127 0.313953488372093
0.30053256707166 0.497069037327424 0.313953488372093
0.287072124561487 0.49425491703311 0.313953488372093
0.283769112821614 0.49535362861278 0.313953488372093
0.265442485147342 0.498218649681475 0.313953488372093
0.326074122675387 0.496131522840714 0.313953488372093
-0.493483918301463 0.499999999999999 0.167971899629811
-0.498407705457829 0.5 0.311119641968084
-0.49377564129643 0.499999999999999 0.142824738792403
-0.488172182942161 0.499999999999999 0.160568304369089
-0.483200292386747 0.499999999999999 0.169077031746271
-0.490459658708315 0.499795584799986 0.174418604651163
-0.478941923865322 0.5 0.310462819113812
-0.496347158652962 0.496296050557646 0.313953488372093
-0.464116177225931 0.499999999999999 0.146086384048286
-0.466374930178876 0.499999999999999 0.147519258719039
-0.460043235293945 0.499999999999999 0.169322647140189
-0.479195128747318 0.499999999999999 0.160426552157009
-0.481153889152898 0.492950283192906 0.174418604651163
-0.481782612144341 0.491526305862787 0.174418604651163
-0.493893967822814 0.479495998737519 0.174418604651163
-0.495924072561853 0.48380780687355 0.174418604651163
-0.466698549985211 0.5 0.3134398739715
-0.474657892406257 0.493706290981046 0.313953488372093
-0.484050508586671 0.493181816832625 0.313953488372093
-0.491314661817745 0.483065597865134 0.313953488372093
-0.441492228662078 0.499999999999999 0.163499224644161
-0.44386347034516 0.499999999999999 0.165331805393845
-0.446580214074966 0.496304007792795 0.174418604651162
-0.460848371287183 0.493421306518052 0.174418604651163
-0.466147142749084 0.484634819445626 0.174418604651163
-0.470027470572703 0.486009151222229 0.174418604651162
-0.49261172352797 0.479764282100001 0.174418604651163
-0.495994880554946 0.473550276703641 0.174418604651162
-0.45250476185195 0.5 0.311209573043122
-0.454661940044944 0.492067680298898 0.313953488372093
-0.465695996429228 0.490484967784372 0.313953488372093
-0.479376421337388 0.485945367780691 0.313953488372093
-0.488620690388034 0.483943217472374 0.313953488372093
-0.498445213935715 0.465552661242951 0.313953488372093
-0.422460782203197 0.499999999999999 0.148103017934939
-0.432478945058955 0.499999999999999 0.14392833294258
-0.426961899178941 0.499999999999999 0.158333174290116
-0.423626514764164 0.499999999999999 0.173407023303815
-0.43327228635332 0.496360741558113 0.174418604651163
-0.44045366692008 0.497404649512974 0.174418604651163
-0.453685243867206 0.490113871983944 0.174418604651163
-0.457240451188899 0.482492512172914 0.174418604651163
-0.468089247235551 0.471278850501214 0.174418604651163
-0.474929152146654 0.467931009277484 0.174418604651163
-0.484337963402121 0.466916781967172 0.174418604651163
-0.497145163950293 0.46132958099599 0.174418604651163
-0.428219073003088 0.5 0.309970301742152
-0.439579509317994 0.493311762645391 0.313953488372093
-0.448969492962365 0.488398985232375 0.313953488372093
-0.453970439228034 0.489277295250745 0.313953488372093
-0.461565200199098 0.480253196125782 0.313953488372093
-0.474448916755186 0.469722370311964 0.313953488372093
-0.477425329768208 0.468784644984785 0.313953488372093
-0.49628990799143 0.463502379006383 0.313953488372093
-0.495153152229437 0.463319397673618 0.313953488372093
-0.405444162223667 0.499999999999999 0.159365761156302
-0.410622885376535 0.499999999999999 0.163305352242387
-0.422287049001293 0.499999999999999 0.166684428932091
-0.418271655305505 0.499157413094173 0.174418604651163
-0.422663102920458 0.498308993724593 0.174418604651163
-0.43661133192906 0.48717940518755 0.174418604651163
-0.451399006479558 0.478953867431424 0.174418604651163
-0.450145253122814 0.471831335203576 0.174418604651162
-0.458454656917557 0.471085599823352 0.174418604651163
-0.477485448676205 0.460662586242741 0.174418604651163
-0.481816787583892 0.455783488032776 0.174418604651163
-0.493201886063457 0.451644043391717 0.174418604651163
-0.498907991824303 0.446038922284665 0.174418604651163
-0.415017868584299 0.499302518227624 0.313953488372093
-0.414400503302737 0.499666434806345 0.313953488372093
-0.421413934281858 0.497346261552976 0.313953488372093
-0.435153877655473 0.49005013926088 0.313953488372093
-0.442907949367754 0.478510158995111 0.313953488372093
-0.459143020070102 0.472497884692749 0.313953488372093
-0.458716711248759 0.470878695515796 0.313953488372093
-0.472296445870974 0.464091833175372 0.313953488372093
-0.474122917450984 0.460216169816458 0.313953488372093
-0.491516311550981 0.450879441782714 0.313953488372093
-0.397802854689348 0.499999999999999 0.141069674190924
-0.397115312241584 0.499999999999999 0.146784093188862
-0.405892427591505 0.499999999999999 0.156949391665236
-0.391171026677506 0.5000225387907 0.174418604651163
-0.396162255223726 0.496162205291712 0.174418604651162
-0.418547927156081 0.484193312143813 0.174418604651162
-0.41595141529711 0.486164994188998 0.174418604651163
-0.433372705513377 0.476196980526353 0.174418604651163
-0.435586611303765 0.470067354191755 0.174418604651163
-0.449234575965336 0.473664902189247 0.174418604651163
-0.448675146747517 0.469775733712457 0.174418604651162
-0.467525330618934 0.457501448057605 0.174418604651163
-0.473842137052957 0.450536131927195 0.174418604651163
-0.49195616502032 0.443399337007479 0.174418604651163
-0.498743685599541 0.439078238176123 0.174418604651163
-0.404899223528321 0.497698672797749 0.313953488372093
-0.40739654499892 0.486514448725995 0.313953488372093
-0.418838164450956 0.482494309651727 0.313953488372093
-0.429180825389875 0.480663179506665 0.313953488372093
-0.442807793293585 0.473586478898855 0.313953488372093
-0.444227132715801 0.471034892411602 0.313953488372093
-0.456284819335938 0.45812355171637 0.313953488372093
-0.460498985721652 0.459978519584128 0.313953488372093
-0.483109303865162 0.451444179230357 0.313953488372093
-0.480864533999653 0.442207121907154 0.313953488372093
-0.491301421228683 0.440076353309875 0.313953488372093
-0.499864542417555 0.43134175876716 0.313953488372093
-0.381336124296063 0.499999999999999 0.13988269670958
-0.378953423271899 0.499999999999999 0.143816250558003
-0.386229473187551 0.499999999999999 0.161670169496881
-0.373505893719954 0.499042168683512 0.174418604651163
-0.392134488309268 0.495615161830003 0.174418604651163
-0.395416145873408 0.491771942575288 0.174418604651163
-0.40232747393064 0.484654805184392 0.174418604651163
-0.411360047390293 0.482520999763458 0.174418604651163
-0.413428221242102 0.480118651720658 0.174418604651163
-0.437465574256049 0.468532837602544 0.174418604651163
-0.44287817165986 0.462379111191346 0.174418604651163
-0.447000042083369 0.458606398368037 0.174418604651162
-0.458973817634747 0.442738898701087 0.174418604651163
-0.459711480921412 0.447386966058632 0.174418604651163
-0.476005418032789 0.438250158010271 0.174418604651163
-0.487808780724389 0.426246819576704 0.174418604651163
-0.495906507851275 0.422469356808839 0.174418604651163
-0.375135634535426 0.5 0.313276333530438
-0.385591068667746 0.495988516255343 0.313953488372093
-0.392387115418649 0.493043265543135 0.313953488372093
-0.407853939779068 0.479444009675301 0.313953488372093
-0.414934690663661 0.473587964826072 0.313953488372093
-0.428072586985211 0.46738486919738 0.313953488372093
-0.427624916099109 0.468815377594037 0.313953488372093
-0.437553411880905 0.465391981871959 0.313953488372093
-0.455206069440977 0.448361668378684 0.313953488372093
-0.461063160756391 0.451102850540984 0.313953488372093
-0.46349466327945 0.44300608728851 0.313953488372093
-0.480418741657221 0.437478987997601 0.313953488372093
-0.492346075251972 0.42754067480074 0.313953488372093
-0.492656988585112 0.421482591338536 0.313953488372093
-0.355529892027767 0.499999999999999 0.154326714710963
-0.363341900891188 0.499999999999999 0.156284481032792
-0.367979025842222 0.499999999999999 0.15864047921099
-0.366324621304519 0.499999999999999 0.173287887817749
-0.368717432247499 0.495972903021842 0.174418604651163
-0.374827440389884 0.490643202293745 0.174418604651163
-0.388499122864356 0.483672379402331 0.174418604651163
-0.400821408428675 0.477664183091964 0.174418604651163
-0.402351246288288 0.473383803329349 0.174418604651163
-0.411891925729586 0.463449909590016 0.174418604651163
-0.426758776556835 0.460707793332485 0.174418604651163
-0.425018201828513 0.461397835609212 0.174418604651163
-0.448160078189179 0.446194762081074 0.174418604651162
-0.448032644121665 0.441275604107017 0.174418604651163
-0.454485733774816 0.435513851195642 0.174418604651163
-0.468395022778672 0.434225543164465 0.174418604651162
-0.478668426803903 0.426984669811805 0.174418604651162
-0.36364095740762 0.499752564235219 0.313953488372093
-0.371843350705286 0.49294000178443 0.313953488372093
-0.373404540425853 0.494453162995477 0.313953488372093
-0.385450405461431 0.481732482250185 0.313953488372093
-0.39620790389685 0.479622420362039 0.313953488372093
-0.400913866467538 0.470978789915566 0.313953488372093
-0.410738665477205 0.469638033511494 0.313953488372093
-0.423755711294407 0.454142107164703 0.313953488372093
-0.435602343787867 0.452150234997261 0.313953488372093
-0.440303618201317 0.440871525459237 0.313953488372093
-0.449273100752807 0.438829459211735 0.313953488372093
-0.462213802810208 0.430828727225177 0.313953488372093
-0.466267648371296 0.430153832350437 0.313953488372093
-0.48183270220724 0.423875471793838 0.313953488372093
-0.488438825045704 0.420067891552822 0.313953488372093
-0.338299253493655 0.499999999999999 0.165461547728157
-0.354549092297399 0.499999999999999 0.159575784619746
-0.34573624653703 0.500016388440828 0.174418604651163
-0.350087654932293 0.495504706508697 0.174418604651163
-0.364499960626056 0.485473118314374 0.174418604651163
-0.371079800429499 0.483047178902738 0.174418604651162
-0.378989764365293 0.47164636565324 0.174418604651162
-0.389219038818705 0.470292571631021 0.174418604651163
-0.399259245468606 0.460769811827229 0.174418604651163
-0.414081932712312 0.452891781691133 0.174418604651163
-0.415137123428569 0.451155794252503 0.174418604651163
-0.427192805977591 0.447623345826621 0.174418604651163
-0.437134889707147 0.436920042876985 0.174418604651163
-0.443751947878023 0.433101543692297 0.174418604651163
-0.451923817643556 0.429641508357004 0.174418604651163
-0.459565385214167 0.421467597369488 0.174418604651163
-0.467389275880468 0.41979074567173 0.174418604651163
-0.351594138452661 0.493290084871423 0.313953488372093
-0.361493569873806 0.489381024238681 0.313953488372093
-0.360860866181671 0.485664492927513 0.313953488372093
-0.379715010921973 0.480770993293727 0.313953488372093
-0.385708480656276 0.469281532572287 0.313953488372093
-0.398795077132534 0.4616704876182 0.313953488372093
-0.405011051949665 0.45677089849144 0.313953488372093
-0.413515483008125 0.45593365612014 0.313953488372093
-0.421239158931107 0.450834877685138 0.313953488372093
-0.438584754673312 0.435710325273393 0.313953488372093
-0.44302851249046 0.431992381369721 0.313953488372093
-0.451790569181836 0.429488228447591 0.313953488372093
-0.462261014795894 0.417270247654192 0.313953488372093
-0.471530554190089 0.417028252616563 0.313953488372093
-0.483393511367996 0.408487778517705 0.313953488372093
-0.493888355853724 0.401123864978768 0.313953488372093
-0.324840695063634 0.499999999999999 0.140003892508698
-0.327641917410496 0.499999999999999 0.141211043710696
-0.332197114877701 0.499999999999999 0.151026386465828
-0.331176334868166 0.499999999999999 0.163270615601375
-0.324285000492946 0.499999999999999 0.172699023933069
-0.334723846848794 0.499999999999999 0.17316300801794
-0.336105299346199 0.493095917824522 0.174418604651163
-0.343064783705427 0.489999529780064 0.174418604651163
-0.349350512176022 0.479400938063632 0.174418604651163
-0.366530070967519 0.478516975997421 0.174418604651163
-0.379769635099769 0.471514573637692 0.174418604651163
-0.383708920177979 0.465044199388444 0.174418604651163
-0.38888547426596 0.459787595356307 0.174418604651163
-0.404070454147831 0.451981364496791 0.174418604651163
-0.409993314812461 0.448089410733699 0.174418604651163
-0.410490860773358 0.445938597490486 0.174418604651163
-0.423151614656988 0.433562570539046 0.174418604651163
-0.433982094163257 0.425440155367844 0.174418604651163
-0.323896930071763 0.499911830482798 0.313953488372093
-0.325700997034185 0.498674012868123 0.313953488372093
-0.337266092834955 0.495948300668096 0.313953488372093
-0.339838914463948 0.484384386247266 0.313953488372093
-0.346601787540546 0.480499103181313 0.313953488372093
-0.362389454221693 0.47375986499619 0.313953488372093
-0.372623550670589 0.466718597702545 0.313953488372093
-0.382730463165714 0.46945404163355 0.313953488372093
-0.391471570405245 0.45968826751741 0.313953488372093
-0.399710381759959 0.451543978390907 0.313953488372093
-0.404485735742208 0.452949771955382 0.313953488372093
-0.413651496287087 0.43784803841745 0.313953488372093
-0.435657591509379 0.435474397910469 0.313953488372093
-0.442869401022949 0.430122847490704 0.313953488372093
-0.449385407464154 0.41562540783285 0.313953488372093
-0.450950794088592 0.422113067676767 0.313953488372093
-0.466562520440853 0.409901532801964 0.313953488372093
-0.473878835639639 0.401059563194917 0.313953488372093
-0.481950984974895 0.403083317710556 0.313953488372093
-0.491619837170235 0.389774824275565 0.313953488372093
-0.304295148623793 0.499999999999999 0.139886759491757
-0.307293629452134 0.499999999999999 0.153311956771533
-0.311497544306002 0.499999999999999 0.16761492722375
-0.311497293435821 0.499999999999999 0.171729247501211
-0.317891449274093 0.492310613482702 0.174418604651163
-0.32365254373305 0.489818296875998 0.174418604651163
-0.335074785964799 0.480528594659322 0.174418604651163
-0.344191890741428 0.476885626672028 0.174418604651163
-0.35348441721027 0.477872808054788 0.174418604651163
-0.356664532003906 0.46657811495401 0.174418604651163
-0.362310011655388 0.467217099530192 0.174418604651163
-0.381939780106086 0.45363242312793 0.174418604651163
-0.38428639297208 0.448312660905727 0.174418604651163
-0.392397675765601 0.447826435823401 0.174418604651163
-0.39824599270717 0.442867196246501 0.174418604651162
-0.408555030705627 0.437701136653534 0.174418604651163
-0.425528851015124 0.423490402317739 0.174418604651163
-0.427967303608465 0.425394813422703 0.174418604651163
-0.315703014565218 0.496663548721056 0.313953488372093
-0.3166722481955 0.496970370529658 0.313953488372093
-0.328607261028459 0.486856690692687 0.313953488372093
-0.330701496693629 0.484750045717154 0.313953488372093
-0.347436361251895 0.476297595224422 0.313953488372093
-0.361015289338995 0.465856102640029 0.313953488372093
-0.369662656009801 0.468442186514622 0.313953488372093
-0.378653726345459 0.454289806257972 0.313953488372093
-0.385238414879034 0.456258823935494 0.313953488372093
-0.39791409544357 0.444904631893707 0.313953488372093
-0.398083599228459 0.438014579077553 0.313953488372093
-0.412554025535308 0.4278862538294 0.313953488372093
-0.421626375411184 0.427957787900446 0.313953488372093
-0.424146008159459 0.424399637289403 0.313953488372093
-0.435129865266684 0.418264730312586 0.313953488372093
-0.452626856388553 0.40354686342084 0.313953488372093
-0.46161987055778 0.399514124204777 0.313953488372093
-0.462154519076385 0.402084488275514 0.313953488372093
-0.475292065159424 0.391392996592484 0.313953488372093
-0.482807808991191 0.386876284336887 0.313953488372093
-0.499491810025935 0.373978037332345 0.313953488372093
-0.296598019349302 0.499999999999999 0.146221933256601
-0.29327232806293 0.499999999999999 0.15395367150637
-0.28868184381997 0.499999999999999 0.167005310389851
-0.297714457760531 0.498815087773937 0.174418604651163
-0.304983443151754 0.498702410025843 0.174418604651163
-0.310633172309793 0.484763763288819 0.174418604651163
-0.319370819299829 0.482849087626914 0.174418604651163
-0.333189620554882 0.472475074447123 0.174418604651163
-0.333241136020724 0.470475838271532 0.174418604651163
-0.336682297232901 0.473111118862416 0.174418604651163
-0.355101342720987 0.46388747155053 0.174418604651163
-0.359948137562428 0.456399965756075 0.174418604651163
-0.371260196445905 0.452845202558523 0.174418604651163
-0.383895000771953 0.446338549396 0.174418604651163
-0.384153008916992 0.439439797859982 0.174418604651163
-0.401806360348772 0.429925216837067 0.174418604651163
-0.399377081831661 0.424543999878354 0.174418604651163
-0.295126034781751 0.5 0.312782469942214
-0.300230119927135 0.5 0.310347228871407
-0.304964631937622 0.496934798516151 0.313953488372093
-0.310108632987594 0.484160601391592 0.313953488372093
-0.320805781360251 0.482259036927283 0.313953488372093
-0.33165122898511 0.476710709019867 0.313953488372093
-0.336203290064434 0.469274497828804 0.313953488372093
-0.346076449034026 0.465224471229168 0.313953488372093
-0.365773756006413 0.45262707036176 0.313953488372093
-0.367139789539931 0.446860526505401 0.313953488372093
-0.372290799989286 0.443989531393133 0.313953488372093
-0.389087382003721 0.432646704098947 0.313953488372093
-0.394720692577794 0.434261758984491 0.313953488372093
-0.404724909714943 0.423061427656641 0.313953488372093
-0.413666952042636 0.41531802202399 0.313953488372093
-0.426162111644266 0.409995300140226 0.313953488372093
-0.434145257433814 0.399878236462312 0.313953488372093
-0.44152841080231 0.403055266195738 0.313953488372093
-0.45085597163547 0.400211877376878 0.313953488372093
-0.463344835134531 0.392359027462137 0.313953488372093
-0.472271150434661 0.387103996025802 0.313953488372093
-0.473802220919218 0.381016348775598 0.313953488372093
-0.486781642460486 0.368427128021009 0.313953488372093
-0.281401385808791 0.499999999999999 0.149736634268697
-0.2715199912725 0.499999999999999 0.162990181672484
-0.272486552487189 0.499999999999999 0.164518825897736
-0.28205299622811 0.494404773569824 0.174418604651163
-0.288551090114881 0.491262228996791 0.174418604651163
-0.290908315009854 0.490850512754863 0.174418604651163
-0.304443485518717 0.486570672419495 0.174418604651163
-0.318003074106075 0.469417508464725 0.174418604651163
-0.315130655237556 0.474008428805421 0.174418604651162
-0.332966928636896 0.459438651047608 0.174418604651163
-0.329421497899167 0.458571916040062 0.174418604651163
-0.345921086801758 0.455953501642741 0.174418604651163
-0.353740705180621 0.449388545158875 0.174418604651163
-0.364919491309584 0.439283082115625 0.174418604651163
-0.375780285461797 0.429611836572374 0.174418604651163
-0.381085297481472 0.427504485567349 0.174418604651163
-0.38873078399997 0.422547024533817 0.174418604651163
-0.272219672563012 0.498017755548693 0.313953488372093
-0.279847686307277 0.5 0.313846641749734
-0.290816579204512 0.488797829383248 0.313953488372093
-0.300941385117274 0.483299404032861 0.313953488372093
-0.31496601920998 0.477638234663692 0.313953488372093
-0.323028116528094 0.476317710389224 0.313953488372093
-0.329472350715132 0.464281405169756 0.313953488372093
-0.32825970083464 0.467544909156263 0.313953488372093
-0.344532851572967 0.454113105756041 0.313953488372093
-0.356305236098948 0.450033822991216 0.313953488372093
-0.358538840646505 0.44423385425401 0.313953488372093
-0.377340876948111 0.437425108046676 0.313953488372093
-0.380319156881641 0.426517559550701 0.313953488372093
-0.387106409645548 0.42696560871087 0.313953488372093
-0.397696618165783 0.41588984345234 0.313953488372093
-0.410498852485581 0.408278312963087 0.313953488372093
-0.416104526443101 0.402054205672199 0.313953488372093
-0.427474495835598 0.402900082800166 0.313953488372093
-0.434808542702644 0.387605982443621 0.313953488372093
-0.439370959900746 0.390903360702533 0.313953488372093
-0.45528242605528 0.385410156025804 0.313953488372093
-0.464448306223214 0.378309391696688 0.313953488372093
-0.475752290263902 0.362286596807608 0.313953488372093
-0.488409298616267 0.362190271966231 0.313953488372093
-0.499000045444963 0.352361378915123 0.313953488372093
-0.497210526314681 0.352508785768826 0.313953488372093
-0.265160379256016 0.499999999999999 0.159215264100465
-0.267104500431223 0.499999999999999 0.167613454354674
-0.259696510490951 0.493682333371253 0.174418604651162
-0.273517404825736 0.492987553463805 0.174418604651163
-0.287287679601349 0.486721873558252 0.174418604651162
-0.294207978747928 0.481424853623673 0.174418604651163
-0.295877859025714 0.477004655031136 0.174418604651162
-0.310878073429229 0.464915409853183 0.174418604651163
-0.308771850525565 0.463984893442291 0.174418604651163
-0.318988088171595 0.465200530897435 0.174418604651162
-0.326319502752847 0.456128305870449 0.174418604651163
-0.341805936974911 0.450478941850947 0.174418604651163
-0.352178172412905 0.439818745959007 0.174418604651163
-0.358579243723414 0.430209696493663 0.174418604651163
-0.372861498730088 0.429255087109499 0.174418604651162
-0.373245771800976 0.422930238031861 0.174418604651162
-0.38429661969858 0.420315499891589 0.174418604651163
-0.271199457494409 0.494806589221205 0.313953488372093
-0.280777377648397 0.486673909150463 0.313953488372093
-0.281366669246713 0.490715504028519 0.313953488372093
-0.294677559346598 0.474786351015285 0.313953488372093
-0.303150412156978 0.474578041161635 0.313953488372093
-0.307972258720933 0.465299953774847 0.313953488372093
-0.309430758312527 0.465346568362828 0.313953488372093
-0.323486044207997 0.450858370530969 0.313953488372093
-0.340756452815054 0.444244627567474 0.313953488372093
-0.346942127398991 0.440469800737478 0.313953488372093
-0.353717714196605 0.441212903522313 0.313953488372093
-0.357088180701283 0.434139256972246 0.313953488372093
-0.372045876221083 0.420492240362205 0.313953488372093
-0.373270880138419 0.416649935938782 0.313953488372093
-0.389846383769975 0.414081367664893 0.313953488372093
-0.403500785256433 0.401789426287242 0.313953488372093
-0.402793849277203 0.39642048877121 0.313953488372093
-0.412661155636968 0.392046709155494 0.313953488372093
-0.427105707907218 0.385206453696365 0.313953488372093
-0.441412609485013 0.375647402251881 0.313953488372093
-0.451758259102868 0.366879398996676 0.313953488372093
-0.460723453586939 0.363588409800328 0.313953488372093
-0.469709185007411 0.361156376471177 0.313953488372093
-0.471515052676528 0.353709634641521 0.313953488372093
-0.491587929971176 0.341693837290894 0.313953488372093
-0.497724458554177 0.340663879866632 0.313953488372093
-0.241152875049396 0.499999999999999 0.170976715080365
-0.242747943041128 0.498611206468564 0.174418604651163
-0.257538890193702 0.484591269758198 0.174418604651163
-0.260776491263499 0.484976226327336 0.174418604651162
-0.281003518791755 0.477022517725857 0.174418604651163
-0.276907106392145 0.476137098462852 0.174418604651163
-0.289995097785524 0.470127075761347 0.174418604651162
-0.298712314527944 0.462063603942454 0.174418604651163
-0.308495589564778 0.455405700328776 0.174418604651163
-0.316026324577217 0.452490125394077 0.174418604651163
-0.322632680546665 0.448156892706365 0.174418604651163
-0.323577649315272 0.440031057339361 0.174418604651163
-0.344922257543834 0.428558222847238 0.174418604651163
-0.346175753068343 0.431711560711599 0.174418604651163
-0.351998721992803 0.424888735224022 0.174418604651163
-0.244641494335098 0.499729240842974 0.313953488372093
-0.246530767343117 0.499318975521339 0.313953488372093
-0.253464706326065 0.496068829096923 0.313953488372093
-0.263910172045029 0.479566688414574 0.313953488372093
-0.282951399414653 0.479616335794978 0.313953488372093
-0.280435209404521 0.472412097099079 0.313953488372093
-0.295277659127969 0.463574021225703 0.313953488372093
-0.299816818948191 0.465641100431403 0.313953488372093
-0.313402712646585 0.448349606508129 0.313953488372093
-0.324062840728845 0.446228137116846 0.313953488372093
-0.32943020801886 0.439138413746469 0.313953488372093
-0.341232352585543 0.436421703070201 0.313953488372093
-0.350175838468292 0.42827433574087 0.313953488372093
-0.358101164237321 0.42402595009291 0.313953488372093
-0.360427048096488 0.418311607753013 0.313953488372093
-0.370673924599268 0.417048614674994 0.313953488372093
-0.380208536154378 0.402958974103638 0.313953488372093
-0.392742048259601 0.393722121179026 0.313953488372093
-0.39752130875141 0.392370495170877 0.313953488372093
-0.411775946040718 0.390913068652544 0.313953488372093
-0.423538766580606 0.3840753499529 0.313953488372093
-0.429306685918284 0.371981251892889 0.313953488372093
-0.44223922805343 0.364868104943342 0.313953488372093
-0.452786163452682 0.351920491555784 0.313953488372093
-0.459934124956364 0.353014253619343 0.313953488372093
-0.472781852918363 0.344345813704497 0.313953488372093
-0.478842213414845 0.336171971095412 0.313953488372093
-0.494154717598304 0.331949469906505 0.313953488372093
-0.238977284024462 0.495913693274873 0.174418604651163
-0.24213846042795 0.493410812965804 0.174418604651163
-0.250930770129487 0.477893892407352 0.174418604651163
-0.263992447673667 0.478734042007794 0.174418604651163
-0.261751471840646 0.473787696052939 0.174418604651162
-0.268724478327695 0.474132702736315 0.174418604651163
-0.280144118372805 0.459910572377995 0.174418604651163
-0.294586859287063 0.453962160052354 0.174418604651162
-0.29681126071847 0.454129539384124 0.174418604651163
-0.307442768523602 0.449252434523668 0.174418604651163
-0.322979136817488 0.435216119143291 0.174418604651163
-0.326552927233844 0.435468168323778 0.174418604651163
-0.332368407216334 0.431988549083226 0.174418604651163
-0.226460325239609 0.5 0.310254562890369
-0.23737065240559 0.5 0.310126543815807
-0.241362580664 0.495371487250104 0.313953488372093
-0.24589332505707 0.486699496570029 0.313953488372093
-0.247114251343237 0.481713788234749 0.313953488372093
-0.266298511051608 0.478373877839961 0.313953488372093
-0.27337689872035 0.471378841595981 0.313953488372093
-0.278564346531284 0.461841005685326 0.313953488372093
-0.286425220945888 0.461133829078381 0.313953488372093
-0.295965193026729 0.45657295696582 0.313953488372093
-0.303655534108701 0.441785411654319 0.313953488372093
-0.312968772618624 0.438933159489453 0.313953488372093
-0.319856827269979 0.434930965842113 0.313953488372093
-0.334370830152885 0.424222012781069 0.313953488372093
-0.341296888224659 0.42174911894255 0.313953488372093
-0.353140898848342 0.41651416448757 0.313953488372093
-0.352643358695827 0.412642352834385 0.313953488372093
-0.359238969552839 0.409938324649635 0.313953488372093
-0.374867500472198 0.397928930803324 0.313953488372093
-0.387430990448787 0.390097244849918 0.313953488372093
-0.397929352950178 0.387486704025838 0.313953488372093
-0.405834930457624 0.376679726918725 0.313953488372093
-0.414704292555171 0.373884145180377 0.313953488372093
-0.428739881186112 0.363223805189443 0.313953488372093
-0.432524531201487 0.355198921689337 0.313953488372093
-0.443495154953268 0.357190166308036 0.313953488372093
-0.454186256872986 0.343468516195611 0.313953488372093
-0.461721239175238 0.336621408043519 0.313953488372093
-0.466860130337467 0.335200086761417 0.313953488372093
-0.480267343429022 0.323286247643275 0.313953488372093
-0.486002470410882 0.322297969946485 0.313953488372093
-0.229048985946861 0.487146756633364 0.174418604651163
-0.232670426751634 0.482968836588689 0.174418604651163
-0.240758531156938 0.476070621052666 0.174418604651163
-0.250908525839904 0.470320169248231 0.174418604651162
-0.25870564117267 0.464047193735215 0.174418604651163
-0.272586696320488 0.45989431865902 0.174418604651163
-0.276751548868935 0.449482672168144 0.174418604651162
-0.282483363564836 0.452672923541227 0.174418604651163
-0.291280518071278 0.44860750772376 0.174418604651163
-0.302296201542046 0.44069690225973 0.174418604651163
-0.307878602434853 0.429581676929868 0.174418604651163
-0.318453579349611 0.423730868617468 0.174418604651163
-0.20507124192597 0.5 0.312372671803916
-0.219917208382487 0.5 0.310490560895212
-0.228341850455068 0.492311508876114 0.313953488372093
-0.226360897355189 0.487344487489791 0.313953488372093
-0.23966332975881 0.479197447971469 0.313953488372093
-0.247032784359145 0.479785934843082 0.313953488372093
-0.248978824437607 0.475830342171705 0.313953488372093
-0.261900194865503 0.458975187836957 0.313953488372093
-0.269218276644339 0.465040716642105 0.313953488372093
-0.28622737165136 0.449266614328179 0.313953488372093
-0.291151167921555 0.449051107049736 0.313953488372093
-0.291493860437861 0.437927483124955 0.313953488372093
-0.299879681441219 0.437843196596244 0.313953488372093
-0.310740810095154 0.430569096608154 0.313953488372093
-0.325742308318254 0.423723481341593 0.313953488372093
-0.332366018662999 0.414434919463791 0.313953488372093
-0.344547522784544 0.412917859791439 0.313953488372093
-0.352504347283425 0.401860558556892 0.313953488372093
-0.36261842828283 0.396061958669526 0.313953488372093
-0.360601514362831 0.390770714448512 0.313953488372093
-0.381727844627947 0.384373501367895 0.313953488372093
-0.385093797632355 0.383005607228934 0.313953488372093
-0.39433543079735 0.378849595918684 0.313953488372093
-0.405866395387171 0.359410522715148 0.313953488372093
-0.415214016543789 0.357776614141059 0.313953488372093
-0.425837489926315 0.348413038612888 0.313953488372093
-0.42573082095647 0.347515972166323 0.313953488372093
-0.446879042868473 0.341221660384821 0.313953488372093
-0.4637597501517 0.323312415315682 0.313953488372093
-0.46349649720284 0.318054319096626 0.313953488372093
-0.471438873896473 0.322877429251815 0.313953488372093
-0.482573931628698 0.31148672204405 0.313953488372093
-0.491749222324229 0.306018515991013 0.313953488372093
-0.220431747332086 0.488187249435719 0.174418604651163
-0.231829891246349 0.479955465843983 0.174418604651163
-0.237506254896183 0.470872953717061 0.174418604651162
-0.244339237620882 0.469828769272447 0.174418604651163
-0.250802087322165 0.455266171527262 0.174418604651163
-0.254759300302141 0.453560232869982 0.174418604651163
-0.264498464748326 0.448273838266895 0.174418604651163
-0.276604362738393 0.438338218826875 0.174418604651163
-0.282235352336694 0.436778728245099 0.174418604651163
-0.295574626445648 0.425764789030319 0.174418604651163
-0.298034398053797 0.431557337927814 0.174418604651163
-0.189446279753747 0.5 0.312533364886396
-0.194547143829075 0.49922885346127 0.313953488372093
-0.206748342750845 0.486298150416093 0.313953488372093
-0.209869760992685 0.486431932426791 0.313953488372093
-0.230007301818701 0.476276200095729 0.313953488372093
-0.227370587169257 0.477096127157766 0.313953488372093
-0.24405702871498 0.463030450901332 0.313953488372093
-0.241630638185581 0.462571014830147 0.313953488372093
-0.259410656876019 0.452399842849816 0.313953488372093
-0.26791730081789 0.446273822401036 0.313953488372093
-0.269575920564765 0.449230177597315 0.313953488372093
-0.27522086847628 0.440810554241896 0.313953488372093
-0.290752333031138 0.430935352325806 0.313953488372093
-0.296918392276065 0.424204310679864 0.313953488372093
-0.310577992890814 0.420399309591252 0.313953488372093
-0.3183263963482 0.41523879449878 0.313953488372093
-0.324116919848619 0.407815434291217 0.313953488372093
-0.332534299872303 0.403837203227263 0.313953488372093
-0.343238036150994 0.395349508818124 0.313953488372093
-0.348434146802002 0.395209630630456 0.313953488372093
-0.362855914880854 0.378712524422153 0.313953488372093
-0.375472231954896 0.370749530414972 0.313953488372093
-0.378417819480759 0.367637913162538 0.313953488372093
-0.381422720058535 0.362439423724401 0.313953488372093
-0.397804872108828 0.364025113878148 0.313953488372093
-0.406739151118722 0.347545840646781 0.313953488372093
-0.423173743912374 0.342732163289681 0.313953488372093
-0.422612994301022 0.342231438676884 0.313953488372093
-0.432552546499826 0.331836871536639 0.313953488372093
-0.447531067663264 0.326572206111366 0.313953488372093
-0.459716427553938 0.314567394032523 0.313953488372093
-0.469041559202368 0.310873604870518 0.313953488372093
-0.47882122562018 0.307210678927006 0.313953488372093
-0.488371238672997 0.295595960381266 0.313953488372093
-0.49470265904699 0.283424261828158 0.313953488372093
-0.218030350357219 0.469953258358104 0.174418604651163
-0.229610590827473 0.465328991718706 0.174418604651163
-0.231237223055019 0.460413797103441 0.174418604651163
-0.236739034282549 0.462586992900693 0.174418604651163
-0.250381804043028 0.455276632453818 0.174418604651163
-0.249057558575394 0.450188502810187 0.174418604651163
-0.259047776411584 0.444945342413507 0.174418604651163
-0.276283315832118 0.433436249541482 0.174418604651163
-0.278716700513078 0.432583834384321 0.174418604651163
-0.281692917705972 0.425659801747332 0.174418604651162
-0.296527804491088 0.423231128335776 0.174418604651163
-0.181547196864084 0.49727322920619 0.313953488372093
-0.19427895206818 0.48631697196673 0.313953488372093
-0.195094420206227 0.490321247976726 0.313953488372093
-0.207909405930191 0.476563600573194 0.313953488372093
-0.218267622335742 0.477747900134323 0.313953488372093
-0.222438507097231 0.465728098021645 0.313953488372093
-0.235219640404871 0.461424980709621 0.313953488372093
-0.240326794752015 0.451242793040982 0.313953488372093
-0.243908549323085 0.450870512023041 0.313953488372093
-0.259836694856714 0.440239448317434 0.313953488372093
-0.261268981099382 0.443294707571026 0.313953488372093
-0.275888297434745 0.430532766113349 0.313953488372093
-0.283050633982287 0.421976981433538 0.313953488372093
-0.292692174023787 0.421456418044416 0.313953488372093
-0.29612915486294 0.415227532426739 0.313953488372093
-0.31264516225483 0.412309958657934 0.313953488372093
-0.313004637701882 0.408147185970019 0.313953488372093
-0.331416305173572 0.391297377176814 0.313953488372093
-0.345326749972013 0.384327752856357 0.313953488372093
-0.347661310393408 0.384265800170125 0.313953488372093
-0.360582077927733 0.376674362832689 0.313953488372093
-0.36706591356379 0.368475333313925 0.313953488372093
-0.36915436210455 0.363703350699756 0.313953488372093
-0.379165127694272 0.355658289834995 0.313953488372093
-0.387132626897364 0.349721108358773 0.313953488372093
-0.399014120517475 0.346289031131293 0.313953488372093
-0.416919038522376 0.337796337222575 0.313953488372093
-0.422579883699126 0.326644440221981 0.313953488372093
-0.422357507459198 0.328364224870869 0.313953488372093
-0.438157215470716 0.312124317428572 0.313953488372093
-0.448594536996708 0.304958917289388 0.313953488372093
-0.464789678931439 0.306742263699073 0.313953488372093
-0.472294666552037 0.296858762088287 0.313953488372093
-0.479011040976213 0.293279803098593 0.313953488372093
-0.484133101833008 0.278405711512547 0.313953488372093
-0.211682554496188 0.462721665034379 0.174418604651162
-0.21596719089746 0.46214247072684 0.174418604651163
-0.224776477174076 0.459683315420918 0.174418604651163
-0.235732595077525 0.448527179045112 0.174418604651163
-0.243596836271622 0.438904305591499 0.174418604651162
-0.248092071105532 0.438962750798867 0.174418604651163
-0.252423383856997 0.434223591572164 0.174418604651163
-0.264370581189814 0.430485745380677 0.174418604651163
-0.160208352732607 0.5 0.311595886121209
-0.279196688955466 0.42257216639962 0.174418604651163
-0.168524999640297 0.5 0.313156100945464
-0.175151797802267 0.489332985422381 0.313953488372093
-0.18070003240598 0.490869485819602 0.313953488372093
-0.199397081389646 0.474181504994499 0.313953488372093
-0.195307042228659 0.477986325378463 0.313953488372093
-0.207827091370371 0.463371267447835 0.313953488372093
-0.211582548185757 0.462460868214136 0.313953488372093
-0.227267013382784 0.456797075728671 0.313953488372093
-0.229269292739743 0.454900394450354 0.313953488372093
-0.244812512648676 0.440163998463983 0.313953488372093
-0.255416105174279 0.437594305634898 0.313953488372093
-0.259165504712582 0.431990461584596 0.313953488372093
-0.273361128121755 0.428973883439281 0.313953488372093
-0.280242175987727 0.416425272776884 0.313953488372093
-0.283066014659404 0.416852910368504 0.313953488372093
-0.290280591201997 0.404751598611726 0.313953488372093
-0.301630281376061 0.403842331731261 0.313953488372093
-0.316692859643884 0.393215540869759 0.313953488372093
-0.315894712895142 0.386885666754615 0.313953488372093
-0.339085205944415 0.377936197092209 0.313953488372093
-0.333573204702867 0.377283871683578 0.313953488372093
-0.342980614881013 0.371823962171703 0.313953488372093
-0.357024550445296 0.35825682720617 0.313953488372093
-0.368914154625389 0.356886081748405 0.313953488372093
-0.373893155312321 0.349912397082238 0.313953488372093
-0.391333275882453 0.336392290678073 0.313953488372093
-0.393844828336879 0.329040954381629 0.313953488372093
-0.403656062990376 0.330981043858719 0.313953488372093
-0.420902787214363 0.324849587182639 0.313953488372093
-0.421481313356102 0.31546594641992 0.313953488372093
-0.432495345675997 0.315202980805205 0.313953488372093
-0.441869905313118 0.305545474438713 0.313953488372093
-0.449841959107435 0.29459874128612 0.313953488372093
-0.462950381252084 0.285382943601537 0.313953488372093
-0.465236912783773 0.283425893760323 0.313953488372093
-0.477927268559096 0.272628632975144 0.313953488372093
-0.495127986273195 0.264122552673978 0.313953488372093
-0.194992645113173 0.464071605995392 0.174418604651162
-0.20394991445978 0.462140545238142 0.174418604651163
-0.219014137564707 0.448223297326114 0.174418604651163
-0.22665857231162 0.442561176661972 0.174418604651163
-0.23079090618542 0.435658082631201 0.174418604651163
-0.236196880687972 0.436339627632911 0.174418604651163
-0.250936879005355 0.42507708833618 0.174418604651163
-0.253134432778313 0.427494138230673 0.174418604651162
-0.146846113909621 0.5 0.309819087089722
-0.157212738190616 0.494238599719763 0.313953488372093
-0.160916808213575 0.494709939617093 0.313953488372093
-0.175873304217344 0.482174224418143 0.313953488372093
-0.178345437404915 0.480161613380709 0.313953488372093
-0.185700113064447 0.4711755924026 0.313953488372093
-0.19165011578807 0.470338543631531 0.313953488372093
-0.202401860240864 0.463035651762267 0.313953488372093
-0.210465253111929 0.459725468434312 0.313953488372093
-0.222468591576291 0.446848549380409 0.313953488372093
-0.225038603703385 0.443281202245854 0.313953488372093
-0.229689620641875 0.440568601626113 0.313953488372093
-0.240949755160082 0.432319891615419 0.313953488372093
-0.254658042003791 0.419224400626362 0.313953488372093
-0.258625258488969 0.421659670890291 0.313953488372093
-0.265180786833101 0.414402720471221 0.313953488372093
-0.277573270785227 0.405283939786803 0.313953488372093
-0.28429371341249 0.405528616202255 0.313953488372093
-0.294122881509644 0.395305214013571 0.313953488372093
-0.304034684828397 0.390459466760601 0.313953488372093
-0.315820684640319 0.379839427894877 0.313953488372093
-0.317588033425813 0.377288426609569 0.313953488372093
-0.3320665370213 0.364922755195071 0.313953488372093
-0.339048340488674 0.362561113855654 0.313953488372093
-0.347240045150683 0.360933977882964 0.313953488372093
-0.357332170163971 0.354938665424268 0.313953488372093
-0.369613588795724 0.344968334067904 0.313953488372093
-0.375389301524848 0.332630811950232 0.313953488372093
-0.389787467055424 0.330576606899258 0.313953488372093
-0.398759934777933 0.321828209810739 0.313953488372093
-0.405461988324396 0.313404300569579 0.313953488372093
-0.422442195242309 0.307383877250397 0.313953488372093
-0.427672994817415 0.295997864367336 0.313953488372093
-0.444276539306498 0.290681482051171 0.313953488372093
-0.447377153722549 0.288925714789786 0.313953488372093
-0.45438261671603 0.278695535748 0.313953488372093
-0.471652190759561 0.274507482807973 0.313953488372093
-0.472610077531818 0.267405902640529 0.313953488372093
-0.485883823155983 0.260671900977061 0.313953488372093
-0.491113039462135 0.25427140290945 0.313953488372093
-0.49741898602571 0.247238021989679 0.313953488372093
-0.199280731964992 0.459393314974067 0.174418604651163
