ply
format ascii 1.0
element vertex 868
property float x
property float y
property float z
end_header
0.375105958660421 -0.5 0.312801263215367
0.381983828525936 -0.495659635463888 0.313953488372093
0.389375795569466 -0.488663340631155 0.313953488372093
0.396397373504965 -0.491964152719547 0.313953488372093
0.408492651813635 -0.478693126899752 0.313953488372093
0.419261330652908 -0.474103405800935 0.313953488372093
0.432607419699209 -0.469387511408559 0.313953488372093
0.439638351433316 -0.466245127334389 0.313953488372093
0.449816218020343 -0.45726852630184 0.313953488372093
0.458797552622181 -0.454205757598922 0.313953488372093
0.461646080977618 -0.443193672118054 0.313953488372093
0.476592864126419 -0.440397854576007 0.313953488372093
0.494439136357683 -0.42878539810393 0.313953488372093
0.497809179104798 -0.424209646284896 0.313953488372093
0.36865339883834 -0.5 0.144578663117261
0.360655494276083 -0.5 0.148448730624528
0.366493898209983 -0.5 0.166919850781399
0.36299813005361 -0.494936964205096 0.174418604651163
0.366577908695283 -0.495213968470834 0.174418604651163
0.382724991200041 -0.488739292511766 0.174418604651163
0.382241108434662 -0.485235942450065 0.174418604651163
0.396745553151893 -0.47904897097599 0.174418604651163
0.4006748189734 -0.469006739540911 0.174418604651162
0.420536916765295 -0.463758031545069 0.174418604651163
0.419384128017477 -0.458818580813504 0.174418604651163
0.429959450297178 -0.451945922570759 0.174418604651163
0.438412732768685 -0.445034306837833 0.174418604651163
0.448472822597288 -0.442004267806591 0.174418604651163
0.456023445215887 -0.440078346335986 0.174418604651163
0.469717830419683 -0.426104902603935 0.174418604651163
0.357990920410524 -0.5 0.309285692559823
0.361951482450874 -0.5 0.313686650708469
0.369203930617686 -0.5 0.309977077796735
0.371912090810835 -0.495202564990056 0.313953488372093
0.382276299422024 -0.490151498345505 0.313953488372093
0.391556846599042 -0.475955794251702 0.313953488372093
0.408294155379277 -0.47088092064763 0.313953488372093
0.416674271422908 -0.470065564301573 0.313953488372093
0.418368713349877 -0.463082755021412 0.313953488372093
0.425520486010885 -0.454571095364365 0.313953488372093
0.442769869249362 -0.450018858526542 0.313953488372093
0.445062270351567 -0.444077985343315 0.313953488372093
0.465356905486483 -0.431579621089073 0.313953488372093
0.472450281441128 -0.422686681322001 0.313953488372093
0.48878375320362 -0.420151526212183 0.313953488372093
0.488066396686955 -0.414727303464856 0.313953488372093
0.345916266327397 -0.5 0.140681498843845
0.339635085069257 -0.5 0.153082180077023
0.349314812723969 -0.5 0.14818127087774
0.343874457088362 -0.49762290668066 0.174418604651162
0.349662801769199 -0.496732505979037 0.174418604651163
0.353493747487161 -0.487085378994995 0.174418604651163
0.359360690715386 -0.492834790556497 0.174418604651163
0.373108563066713 -0.482921001952974 0.174418604651163
0.383235673023399 -0.472394269278984 0.174418604651163
0.38341325127023 -0.473536417227615 0.174418604651163
0.39298429816329 -0.465135631872104 0.174418604651163
0.410214278573959 -0.459175682438378 0.174418604651163
0.418673924693762 -0.449728222562619 0.174418604651163
0.43014830002724 -0.448299366075701 0.174418604651163
0.43045321301017 -0.443359608828659 0.174418604651163
0.450237799428133 -0.433541327714465 0.174418604651163
0.450919040241443 -0.431725476721519 0.174418604651163
0.460789465068287 -0.427751516040647 0.174418604651163
0.336781534108779 -0.5 0.311832955392055
0.348137655143041 -0.498751985909594 0.313953488372093
0.362079412186802 -0.486935448136011 0.313953488372093
0.368119912281811 -0.48515236954592 0.313953488372093
0.383612923456297 -0.478131580324421 0.313953488372093
0.378505682332938 -0.472856082825991 0.313953488372093
0.391885918258658 -0.461610967094326 0.313953488372093
0.404069213627863 -0.459491253151239 0.313953488372093
0.418222013408709 -0.454410861260919 0.313953488372093
0.422852070989584 -0.445543622225928 0.313953488372093
0.432545555390502 -0.445119347783167 0.313953488372093
0.442403300427535 -0.428018451162452 0.313953488372093
0.451189238084585 -0.429818026246696 0.313953488372093
0.464722904406562 -0.420589732464595 0.313953488372093
0.473926310209735 -0.420157295494592 0.313953488372093
0.477987504741592 -0.416286619371391 0.313953488372093
0.498658552262422 -0.398155358481456 0.313953488372093
0.499406181683461 -0.398838692096936 0.313953488372093
0.324384156091052 -0.5 0.145494073747142
0.322349963732882 -0.5 0.157625587105563
0.319851308684974 -0.5 0.168035644519893
0.319631529338317 -0.5 0.172701817656145
0.332473205248192 -0.493563679661618 0.174418604651163
0.337815339465427 -0.493664339131764 0.174418604651163
0.353663521620739 -0.48315063485371 0.174418604651163
0.353901682179247 -0.483215605861309 0.174418604651163
0.360443883108367 -0.470603822212045 0.174418604651163
0.377910954854905 -0.469978776310576 0.174418604651163
0.382149897784807 -0.462899737762677 0.174418604651163
0.391234411060603 -0.459454377451745 0.174418604651163
0.406675175146315 -0.449373343954879 0.174418604651163
0.410165402553582 -0.444373984707664 0.174418604651163
0.417269428863429 -0.441818258023655 0.174418604651162
0.427073489228388 -0.435607079861569 0.174418604651163
0.438814119271737 -0.424638356541946 0.174418604651163
0.32354440761056 -0.5 0.30890525614499
0.324285740240084 -0.499256008745196 0.313953488372093
0.341196638865935 -0.49405567228968 0.313953488372093
0.349625923912131 -0.485161453037192 0.313953488372093
0.356987516966987 -0.482691013116029 0.313953488372093
0.35897131902099 -0.483670530535124 0.313953488372093
0.366945312971341 -0.471350508612391 0.313953488372093
0.380837253535558 -0.469883137735232 0.313953488372093
0.386244906888459 -0.462754260907532 0.313953488372093
0.398807770288589 -0.448383663899904 0.313953488372093
0.407348468973417 -0.451811407793893 0.313953488372093
0.410138223543785 -0.44596592141278 0.313953488372093
0.434320549281209 -0.431100414739271 0.313953488372093
0.44080690561432 -0.432059701790069 0.313953488372093
0.446641177160247 -0.42670483516397 0.313953488372093
0.44638654622119 -0.42267836195519 0.313953488372093
0.461992773608134 -0.407794040289771 0.313953488372093
0.480744224995038 -0.403749229749247 0.313953488372093
0.487995630282389 -0.390110169923449 0.313953488372093
0.4981240222935 -0.385218641240133 0.313953488372093
0.301311368429713 -0.5 0.146115012396494
0.311323583928871 -0.5 0.141581255027716
0.309354708191745 -0.5 0.160255127452737
0.313605151198157 -0.5 0.164807826794665
0.315911461835865 -0.5 0.17126462482248
0.31752817122006 -0.493832083082105 0.174418604651163
0.325079215874537 -0.490060617156519 0.174418604651163
0.330210466752826 -0.484278093378766 0.174418604651163
0.342793858177789 -0.483675554299131 0.174418604651163
0.34545246313842 -0.475239134230371 0.174418604651162
0.36045006444702 -0.463216508442571 0.174418604651163
0.37129745925605 -0.465092289057926 0.174418604651163
0.377052219926508 -0.454298633389664 0.174418604651163
0.385760095428745 -0.446752923138425 0.174418604651162
0.395066267621922 -0.442000382200333 0.174418604651163
0.399009835802246 -0.434142657923761 0.174418604651163
0.412293813692392 -0.426511874212491 0.174418604651163
0.423471508043237 -0.426072631530781 0.174418604651163
0.315675008259152 -0.5 0.308152862640618
0.443050218923802 -0.419776662077741 0.174418604651163
0.321993393730408 -0.493739481553617 0.313953488372093
0.332674339388067 -0.491538756207384 0.313953488372093
0.337657397060717 -0.476449642594904 0.313953488372093
0.353153620125654 -0.475371586374684 0.313953488372093
0.359336816866062 -0.470528264373949 0.313953488372093
0.364506793491793 -0.459910979511622 0.313953488372093
0.38061927032677 -0.460041139310921 0.313953488372093
0.385721047139601 -0.448488331678705 0.313953488372093
0.394175302855485 -0.449497006048915 0.313953488372093
0.395393938770807 -0.441614857104774 0.313953488372093
0.417067558629176 -0.436185593376007 0.313953488372093
0.416475064413011 -0.425943854375628 0.313953488372093
0.429424284993082 -0.41459866220988 0.313953488372093
0.433792014572356 -0.414147917495058 0.313953488372093
0.454809878912913 -0.401339819222464 0.313953488372093
0.458855792766757 -0.40392850109778 0.313953488372093
0.474000413977069 -0.396700676283912 0.313953488372093
0.476995916862698 -0.389964622774791 0.313953488372093
0.482921978272329 -0.385659316836685 0.313953488372093
0.493606042143959 -0.37456909409265 0.313953488372093
0.290483925217262 -0.5 0.146368895739928
0.290197956988863 -0.5 0.156166288442096
0.298185595354361 -0.5 0.157625324949482
0.297594279692502 -0.499964398540382 0.174418604651163
0.304230937153468 -0.495249506328708 0.174418604651163
0.308614402195307 -0.494668605376804 0.174418604651163
0.314580597481088 -0.487934131489861 0.174418604651163
0.325708013972743 -0.474995496389759 0.174418604651163
0.334206354234271 -0.469445949474582 0.174418604651163
0.335784583921779 -0.469393739706905 0.174418604651163
0.354116088154682 -0.455454752716692 0.174418604651163
0.355098626541534 -0.454124354208 0.174418604651163
0.370909547756317 -0.448380486648833 0.174418604651163
0.377183742090039 -0.438672535209334 0.174418604651163
0.388746130149606 -0.433371564981345 0.174418604651163
0.398342032499707 -0.434396219964763 0.174418604651163
0.401094715499508 -0.428909971666892 0.174418604651163
0.414186876610836 -0.420085657952295 0.174418604651162
0.296525615201116 -0.493197924931796 0.313953488372093
0.312303455394809 -0.493708618613443 0.313953488372093
0.308168549110175 -0.492570438302493 0.313953488372093
0.318200432321907 -0.487834642655336 0.313953488372093
0.329379022796244 -0.478514401490931 0.313953488372093
0.335072866712979 -0.469278097771993 0.313953488372093
0.353823470465282 -0.464662686320968 0.313953488372093
0.359471777987839 -0.451408628458255 0.313953488372093
0.3656868517263 -0.448698072400555 0.313953488372093
0.374947264948049 -0.447087859942644 0.313953488372093
0.391566795039723 -0.434577625522441 0.313953488372093
0.394850237243792 -0.428507854265862 0.313953488372093
0.408346908927542 -0.420551192594963 0.313953488372093
0.41598823691421 -0.414998720760731 0.313953488372093
0.420353875532574 -0.411830819056224 0.313953488372093
0.436750922277557 -0.400986190603894 0.313953488372093
0.448990411731351 -0.399028670230662 0.313953488372093
0.451523486069427 -0.388100253374347 0.313953488372093
0.46144176218789 -0.382757459805191 0.313953488372093
0.479171687007611 -0.378424606654546 0.313953488372093
0.485156455660111 -0.368781593592356 0.313953488372093
0.488847557390055 -0.369722986872355 0.313953488372093
0.277393448826073 -0.5 0.145800803270036
0.275108113292903 -0.5 0.162176621901798
0.276715972449898 -0.5 0.172564919812846
0.279213156759626 -0.496895080720238 0.174418604651163
0.288237804924358 -0.497237822980468 0.174418604651163
0.294078792283852 -0.485638401017327 0.174418604651163
0.297443921022636 -0.478987002396358 0.174418604651163
0.311686381011005 -0.482419494041442 0.174418604651163
0.322432592834458 -0.465585436330764 0.174418604651163
0.321634776144542 -0.469487497783365 0.174418604651163
0.333978526215862 -0.463214365296493 0.174418604651163
0.346176095077138 -0.459123557162135 0.174418604651163
0.35830743586182 -0.449457577589985 0.174418604651163
0.363097865191365 -0.443093343948935 0.174418604651162
0.370807698097043 -0.432088710883846 0.174418604651163
0.375010215940005 -0.43395116351665 0.174418604651163
0.386210339398515 -0.429025945089721 0.174418604651163
0.39005619609174 -0.42064834726834 0.174418604651162
0.278076293185465 -0.497951398146201 0.313953488372093
0.28630443661478 -0.49064080500851 0.313953488372093
0.298967831826115 -0.487546241472138 0.313953488372093
0.308671585482544 -0.479318296769207 0.313953488372093
0.322996197326595 -0.471314333516742 0.313953488372093
0.320719426516885 -0.469491098259422 0.313953488372093
0.333030628908042 -0.462236897519309 0.313953488372093
0.339276499975784 -0.456626536920323 0.313953488372093
0.345067064023565 -0.45452128718872 0.313953488372093
0.361431978836384 -0.44619107156418 0.313953488372093
0.370594113069759 -0.43663218379399 0.313953488372093
0.371356480144882 -0.431510274963278 0.313953488372093
0.388884094895613 -0.427266049211808 0.313953488372093
0.395495074871203 -0.418765990252435 0.313953488372093
0.415480916852988 -0.413491236560965 0.313953488372093
0.413030090188219 -0.409858999222624 0.313953488372093
0.425581828059698 -0.401506407584836 0.313953488372093
0.427232468981342 -0.39489872334467 0.313953488372093
0.439243997903521 -0.390872766865503 0.313953488372093
0.460627606116723 -0.374802051897378 0.313953488372093
0.466760811546428 -0.375896742511436 0.313953488372093
0.477656799807935 -0.362717622688687 0.313953488372093
0.484367028022227 -0.360289635203247 0.313953488372093
0.491412675813209 -0.354333684326285 0.313953488372093
0.264960483321021 -0.5 0.154769801321381
0.252961189913056 -0.5 0.171616349467262
0.263988838748816 -0.498519836412475 0.174418604651163
0.274218256592589 -0.493654454237505 0.174418604651163
0.275813763429681 -0.486302561133624 0.174418604651163
0.294897699256208 -0.478277249053834 0.174418604651163
0.302991784714163 -0.475135252753739 0.174418604651163
0.307731073689851 -0.464950774153276 0.174418604651163
0.315199141488617 -0.466711377290627 0.174418604651163
0.324311951805775 -0.460014403627139 0.174418604651163
0.33115562142499 -0.452313763830829 0.174418604651163
0.343256129796046 -0.446519570548081 0.174418604651163
0.352133966454433 -0.442799741770541 0.174418604651163
0.361428730786406 -0.433158850132376 0.174418604651163
0.364447431599388 -0.435926428962465 0.174418604651163
0.376937310275411 -0.424638919104529 0.174418604651163
0.382534932251474 -0.422002551673981 0.174418604651163
0.266678008406913 -0.5 0.311279351780298
0.277174074078627 -0.486756598443178 0.313953488372093
0.291033688108055 -0.480521638074877 0.313953488372093
0.296839776731334 -0.47960126282399 0.313953488372093
0.298399297158661 -0.476610320811995 0.313953488372093
0.305698730003513 -0.465079511429237 0.313953488372093
0.317822953296543 -0.459977096243375 0.313953488372093
0.324196814261138 -0.451507814189065 0.313953488372093
0.328098454417318 -0.453354908985049 0.313953488372093
0.345261295175802 -0.44106937646486 0.313953488372093
0.350214645313482 -0.438162629106994 0.313953488372093
0.356766594811496 -0.436876183265878 0.313953488372093
0.370161106889643 -0.426958826504612 0.313953488372093
0.375186450491474 -0.419748996980896 0.313953488372093
0.398802834621471 -0.413317083265618 0.313953488372093
0.396721011539545 -0.402926474409457 0.313953488372093
0.407729393878148 -0.399104998252088 0.313953488372093
0.422878193392265 -0.389309332012467 0.313953488372093
0.429569035398998 -0.38334619539044 0.313953488372093
0.439755135030931 -0.37620932554857 0.313953488372093
0.442777839136401 -0.369427154943584 0.313953488372093
0.452308587086064 -0.366645259947052 0.313953488372093
0.469312541662559 -0.358697215648438 0.313953488372093
0.473189266561505 -0.356211939492298 0.313953488372093
0.481703995453934 -0.348667034323912 0.313953488372093
0.499873846299272 -0.336140047272164 0.313953488372093
0.242150370097262 -0.5 0.173701000637693
0.24917052703904 -0.499643871845078 0.174418604651163
0.252151844331987 -0.490053240773025 0.174418604651163
0.266071640701979 -0.479763544397381 0.174418604651163
0.272093485876677 -0.477883503208558 0.174418604651163
0.276000025105609 -0.47825910073505 0.174418604651163
0.290983038373393 -0.474353952322339 0.174418604651162
0.294822363443802 -0.461134648431397 0.174418604651163
0.308358894233179 -0.456009686599907 0.174418604651162
0.319574435004952 -0.445098479396877 0.174418604651163
0.314355408138552 -0.443676566276999 0.174418604651163
0.332032553166188 -0.443628623778432 0.174418604651163
0.343964425943737 -0.435842898008134 0.174418604651163
0.351006952293358 -0.426745671927682 0.174418604651163
0.3541316517379 -0.429442616441534 0.174418604651163
0.361888661662306 -0.421081301033311 0.174418604651163
0.254579557428347 -0.49456557044649 0.313953488372093
0.263927699258253 -0.486581767097772 0.313953488372093
0.266024469938123 -0.488831588429321 0.313953488372093
0.27733568998374 -0.472637721464772 0.313953488372093
0.282170153998718 -0.4765522686012 0.313953488372093
0.289165986107903 -0.465508514898538 0.313953488372093
0.29425371911486 -0.46150864018448 0.313953488372093
0.308691148089504 -0.455330158678052 0.313953488372093
0.324906022025614 -0.444299362213558 0.313953488372093
0.326544576450905 -0.445035696601938 0.313953488372093
0.345348362880118 -0.432236499888745 0.313953488372093
0.352998642569389 -0.430966428206774 0.313953488372093
0.356459669239968 -0.42575839690892 0.313953488372093
0.365368612578087 -0.421812086335456 0.313953488372093
0.37726729396161 -0.410794913319449 0.313953488372093
0.379806731565479 -0.409647789888211 0.313953488372093
0.393780710339403 -0.397979831451788 0.313953488372093
0.40214319512545 -0.39588571234798 0.313953488372093
0.411136778618147 -0.386536084768544 0.313953488372093
0.421879581362624 -0.380746673822511 0.313953488372093
0.431411560181632 -0.374629046789078 0.313953488372093
0.442596413152769 -0.361341966523662 0.313953488372093
0.44822503805334 -0.354282155039392 0.313953488372093
0.459511362381345 -0.350193824049837 0.313953488372093
0.471409566547774 -0.347136645924768 0.313953488372093
0.480708752810113 -0.338772052986938 0.313953488372093
0.490911257812131 -0.333880805530917 0.313953488372093
0.493390235078578 -0.325649281862836 0.313953488372093
0.235726021402869 -0.490838544225546 0.174418604651163
0.235192405019174 -0.493481369205953 0.174418604651163
0.255315898897959 -0.481741914132525 0.174418604651163
0.255037789265226 -0.476254623546909 0.174418604651163
0.268543742423733 -0.46940805211315 0.174418604651163
0.268989532065511 -0.46546554797354 0.174418604651163
0.275877537821917 -0.466645700480606 0.174418604651163
0.295770660392215 -0.458813576306794 0.174418604651163
0.306687311328833 -0.449805018764217 0.174418604651163
0.314151203792672 -0.446716593289537 0.174418604651163
0.315606522563001 -0.440595797976041 0.174418604651163
0.326750030515166 -0.427951536287332 0.174418604651162
0.326917443370616 -0.429110928857408 0.174418604651163
0.218850518316674 -0.5 0.308237918148075
0.229245840951315 -0.5 0.313661599071911
0.239936993955512 -0.495151084214459 0.313953488372093
0.247457750613286 -0.486517645679426 0.313953488372093
0.252445003626722 -0.48319381024739 0.313953488372093
0.258725418083261 -0.477720279097463 0.313953488372093
0.264813731152698 -0.470335621203502 0.313953488372093
0.282605131948379 -0.463102536685352 0.313953488372093
0.280740412010891 -0.461893712962038 0.313953488372093
0.290064545413766 -0.456910830882286 0.313953488372093
0.301515324121713 -0.45074404865307 0.313953488372093
0.312867900138511 -0.442896115352288 0.313953488372093
0.320932840307057 -0.434744002324575 0.313953488372093
0.326939320071022 -0.42875043491998 0.313953488372093
0.344166590413411 -0.424620881566663 0.313953488372093
0.351701321239425 -0.417367348891015 0.313953488372093
0.361618995000143 -0.413348275933902 0.313953488372093
0.369321367157276 -0.40120753418837 0.313953488372093
0.378706475403832 -0.403917017937319 0.313953488372093
0.381899580736358 -0.39339184889889 0.313953488372093
0.398130197987757 -0.381457570134821 0.313953488372093
0.401706685514499 -0.385794737200964 0.313953488372093
0.416887168512419 -0.36932864835294 0.313953488372093
0.426742766192551 -0.360021658557048 0.313953488372093
0.430654462138432 -0.361083042760492 0.313953488372093
0.441041855167963 -0.349091590346265 0.313953488372093
0.443348938985387 -0.343797349173676 0.313953488372093
0.464294458315335 -0.340323558568131 0.313953488372093
0.470955300706659 -0.33500257790931 0.313953488372093
0.472923521282644 -0.332219821768198 0.313953488372093
0.499175831177398 -0.310713647753116 0.313953488372093
0.496930325473755 -0.312527266955144 0.313953488372093
0.230129138729453 -0.484405046693469 0.174418604651163
0.23394540565921 -0.487240392660247 0.174418604651163
0.244037423132792 -0.479970492835414 0.174418604651163
0.258828897426508 -0.465599314514043 0.174418604651162
0.257545057033013 -0.464945396643288 0.174418604651163
0.266964952226113 -0.457029801673145 0.174418604651163
0.281412438820765 -0.456357787651936 0.174418604651162
0.287066429949521 -0.451748879190074 0.174418604651163
0.294532731372375 -0.444339238133805 0.174418604651163
0.298638910795048 -0.441659456334129 0.174418604651163
0.305262832751891 -0.432501480107583 0.174418604651163
0.315675817389286 -0.432361372515432 0.174418604651163
0.32974928393429 -0.422354828108924 0.174418604651163
0.209735400243676 -0.49873955594431 0.313953488372093
0.219612844384542 -0.491297372210885 0.313953488372093
0.234512348796557 -0.484516110830824 0.313953488372093
0.242239375987915 -0.483553191109307 0.313953488372093
0.244969871840937 -0.478397325096547 0.313953488372093
0.253224830052985 -0.468811126739534 0.313953488372093
0.263429150428927 -0.460629515143733 0.313953488372093
0.26990460238766 -0.461645215003713 0.313953488372093
0.285636744145702 -0.448051809471024 0.313953488372093
0.28896116273057 -0.44497423385 0.313953488372093
0.292712458556726 -0.442754374734484 0.313953488372093
0.309903193733838 -0.43708881795931 0.313953488372093
0.313221434462406 -0.43444081903452 0.313953488372093
0.32427431483512 -0.422956720300035 0.313953488372093
0.324670008824336 -0.41952411807757 0.313953488372093
0.345306090968276 -0.406490888758991 0.313953488372093
0.356754355656565 -0.403592856963646 0.313953488372093
0.361429453366915 -0.395352123122829 0.313953488372093
0.365213716181338 -0.389666408074413 0.313953488372093
0.379280836484789 -0.389465502819707 0.313953488372093
0.382990469451834 -0.383492467859212 0.313953488372093
0.393319125854276 -0.373197307369929 0.313953488372093
0.407549073176192 -0.36156173662703 0.313953488372093
0.421846728695237 -0.356299991174304 0.313953488372093
0.423977258791712 -0.354031311070821 0.313953488372093
0.441037414004166 -0.342232531391396 0.313953488372093
0.450310889206332 -0.335740112357868 0.313953488372093
0.45894478957681 -0.334398184130229 0.313953488372093
0.469804592364707 -0.319862958814061 0.313953488372093
0.470950581747669 -0.315727548095608 0.313953488372093
0.479844682134884 -0.31271173354906 0.313953488372093
0.495514421623396 -0.299610314782195 0.313953488372093
0.219053411319804 -0.477737495106929 0.174418604651163
0.229844751458957 -0.477915666236986 0.174418604651163
0.241369602903683 -0.472657249567962 0.174418604651163
0.243444782275567 -0.460745354353001 0.174418604651163
0.250953066462913 -0.460090567818211 0.174418604651162
0.259670765087993 -0.454635072869483 0.174418604651162
0.270472523742516 -0.447748664797978 0.174418604651163
0.278036378741373 -0.441820877445705 0.174418604651163
0.28451134362407 -0.438889851842605 0.174418604651163
0.288262698806642 -0.429787282957927 0.174418604651163
0.302229287042221 -0.430550448200162 0.174418604651162
0.194504515061395 -0.5 0.310974498618809
0.196106236296685 -0.496836851131875 0.313953488372093
0.207670833294429 -0.487837522171982 0.313953488372093
0.212319023179276 -0.485415281812607 0.313953488372093
0.217875749141226 -0.483082233543952 0.313953488372093
0.230430149966224 -0.470585720486486 0.313953488372093
0.241932132379857 -0.472797257422689 0.313953488372093
0.241730269937013 -0.464124276061593 0.313953488372093
0.257681143154101 -0.455604838327246 0.313953488372093
0.271598651533091 -0.451120741157615 0.313953488372093
0.270670011267964 -0.448019959999912 0.313953488372093
0.277193809610039 -0.43963127118646 0.313953488372093
0.291063545771641 -0.432899094369805 0.313953488372093
0.301506017519757 -0.424212425433236 0.313953488372093
0.311565341387095 -0.424354939052219 0.313953488372093
0.319800164395705 -0.414939256993154 0.313953488372093
0.329100635952253 -0.405274670104315 0.313953488372093
0.327823630850711 -0.40241314228618 0.313953488372093
0.343580174118364 -0.395527437362434 0.313953488372093
0.347152294859071 -0.395484361056139 0.313953488372093
0.360743661213703 -0.384803921283576 0.313953488372093
0.366395361341858 -0.377758856360179 0.313953488372093
0.380807533319905 -0.367151582248077 0.313953488372093
0.390715988885227 -0.366199683595761 0.313953488372093
0.395553539071024 -0.363611657651927 0.313953488372093
0.406816876125044 -0.348267024196637 0.313953488372093
0.426972883648288 -0.338957961187476 0.313953488372093
0.421217578179116 -0.342249586177666 0.313953488372093
0.439291374612611 -0.328518356547377 0.313953488372093
0.447766736138286 -0.323519331491788 0.313953488372093
0.458877406509566 -0.31723794450702 0.313953488372093
0.474484430581689 -0.307759778956133 0.313953488372093
0.474990013178936 -0.307418981753258 0.313953488372093
0.489749173371586 -0.298976657638648 0.313953488372093
0.492429821543161 -0.2908882963686 0.313953488372093
0.211188992414794 -0.478873481680941 0.174418604651163
0.225894336831026 -0.468451772085968 0.174418604651163
0.224539740061824 -0.469131055614087 0.174418604651163
0.238812272481319 -0.452942926369194 0.174418604651163
0.250559653406748 -0.453662038752458 0.174418604651162
0.256943446131331 -0.444828205194535 0.174418604651163
0.264005398707079 -0.441784840799922 0.174418604651163
0.269791888821502 -0.435061291821552 0.174418604651163
0.279838395141589 -0.425603939145225 0.174418604651163
0.289311988708766 -0.420724541270648 0.174418604651163
0.173406061606821 -0.5 0.312452539459453
0.18734701290388 -0.496809942541877 0.313953488372093
0.189967588006083 -0.497940115911837 0.313953488372093
0.203222207101559 -0.489153906852752 0.313953488372093
0.208205342712078 -0.475417859323999 0.313953488372093
0.217888736093516 -0.473305579418678 0.313953488372093
0.222868993931401 -0.469573629576504 0.313953488372093
0.230963619837592 -0.4695853574491 0.313953488372093
0.241256444052694 -0.459175558581125 0.313953488372093
0.255488115321545 -0.44587434549993 0.313953488372093
0.26246505854367 -0.445654578116333 0.313953488372093
0.268859641080234 -0.440759911021344 0.313953488372093
0.266782737378938 -0.438424535249539 0.313953488372093
0.291058750889273 -0.428407231787416 0.313953488372093
0.296142984982186 -0.42111891854291 0.313953488372093
0.300014453665191 -0.411800388189773 0.313953488372093
0.305212108180141 -0.406075786527673 0.313953488372093
0.311955743276869 -0.406908717227134 0.313953488372093
0.322777905572835 -0.396289679562929 0.313953488372093
0.337989371953531 -0.393880615344748 0.313953488372093
0.348173898601525 -0.379471371822917 0.313953488372093
0.349194147613195 -0.375715353745921 0.313953488372093
0.359686889865619 -0.372933483792523 0.313953488372093
0.378632083445979 -0.366107730456549 0.313953488372093
0.380703898854833 -0.355671631288281 0.313953488372093
0.396818314222025 -0.345739643551557 0.313953488372093
0.397066204581776 -0.344473268771761 0.313953488372093
0.41119308982857 -0.338435819734143 0.313953488372093
0.418528888453851 -0.336024122928902 0.313953488372093
0.426935677648007 -0.323127181252935 0.313953488372093
0.434862722435859 -0.315983405752264 0.313953488372093
0.456756576061144 -0.302089564466026 0.313953488372093
0.457784405060604 -0.308011247213475 0.313953488372093
0.461850471477122 -0.297373723559422 0.313953488372093
0.479154477110646 -0.284109792461839 0.313953488372093
0.484887034316898 -0.284624588106516 0.313953488372093
0.49946189071467 -0.268542825165159 0.313953488372093
0.216632334518983 -0.466208395820154 0.174418604651163
0.215780418240928 -0.464250199739187 0.174418604651162
0.221379060398424 -0.459187531863356 0.174418604651163
0.233251667686994 -0.457004155203248 0.174418604651163
0.242575207310312 -0.441819346916771 0.174418604651163
0.243822779470891 -0.441150660649459 0.174418604651163
0.257702130380616 -0.431393591097206 0.174418604651162
0.258376372026383 -0.432793493485547 0.174418604651163
0.276776026283561 -0.424283085402164 0.174418604651163
0.27900578188584 -0.422898296790889 0.174418604651163
0.171883997906362 -0.4946378338225 0.313953488372093
0.180495742275893 -0.486610171788163 0.313953488372093
0.186626234964814 -0.485402614104195 0.313953488372093
0.191466201003853 -0.478069528212866 0.313953488372093
0.198693493502087 -0.468864622484173 0.313953488372093
0.209789050366726 -0.467760248178764 0.313953488372093
0.223326152012781 -0.462593273160432 0.313953488372093
0.222339862110571 -0.458396697473401 0.313953488372093
0.234717678982328 -0.447006360937457 0.313953488372093
0.241939342837181 -0.443981325186454 0.313953488372093
0.246479692250379 -0.437868312608394 0.313953488372093
0.265805320248139 -0.428350265986966 0.313953488372093
0.266439928909434 -0.424974531191427 0.313953488372093
0.275472299341702 -0.422052779603716 0.313953488372093
0.288788503664443 -0.409223945536257 0.313953488372093
0.285759463168806 -0.414171351206956 0.313953488372093
0.303115530069173 -0.402694865429156 0.313953488372093
0.308448600406017 -0.39780816627684 0.313953488372093
0.316627970325061 -0.393100278138033 0.313953488372093
0.327267954609477 -0.384232574847962 0.313953488372093
0.338913663139804 -0.373225995856621 0.313953488372093
0.341204382062096 -0.369478001603947 0.313953488372093
0.356086160748575 -0.3690966854912 0.313953488372093
0.366910277013252 -0.355799048038375 0.313953488372093
0.375911692111136 -0.352509486969861 0.313953488372093
0.388713398433949 -0.33857767210415 0.313953488372093
0.397499116021354 -0.337077493027548 0.313953488372093
0.399039970314796 -0.326271073693391 0.313953488372093
0.414143976403613 -0.323328404998677 0.313953488372093
0.4268548642944 -0.312652498643348 0.313953488372093
0.429732816336007 -0.317409487061797 0.313953488372093
0.44062082429276 -0.298504239464723 0.313953488372093
0.450309126828642 -0.297440650511167 0.313953488372093
0.459026046776291 -0.293805729466592 0.313953488372093
0.467720414840327 -0.27798895065064 0.313953488372093
0.48142527232985 -0.279807856176202 0.313953488372093
0.495645578518086 -0.258677947510446 0.313953488372093
0.204481348364557 -0.463526173598358 0.174418604651163
0.210596584967085 -0.45446587339927 0.174418604651163
0.211910953879388 -0.44751474027359 0.174418604651163
0.221270043241455 -0.447614313053576 0.174418604651162
0.22819270820765 -0.437297146127324 0.174418604651163
0.245493076401142 -0.433859042354794 0.174418604651163
0.252347672788237 -0.432297557395312 0.174418604651163
0.254571020613069 -0.422944933703618 0.174418604651163
0.14826474726971 -0.496001590168268 0.313953488372093
0.157041526851585 -0.493936194334718 0.313953488372093
0.16751901815392 -0.48734215395217 0.313953488372093
0.17072824166719 -0.48384338917814 0.313953488372093
0.175622419278718 -0.474251042293069 0.313953488372093
0.18458364174491 -0.475924179530734 0.313953488372093
0.199359269413297 -0.463090158882795 0.313953488372093
0.198810936256325 -0.45673271457473 0.313953488372093
0.206481577307595 -0.454832273530986 0.313953488372093
0.215852476771576 -0.446833474904241 0.313953488372093
0.220757697906332 -0.448342576200185 0.313953488372093
0.235294523310653 -0.433842692242642 0.313953488372093
0.244985720254642 -0.435160717586628 0.313953488372093
0.250596228903442 -0.423951363586133 0.313953488372093
0.262750996871786 -0.41888694679245 0.313953488372093
0.271007958323218 -0.416423180506784 0.313953488372093
0.276339647241746 -0.405072211883947 0.313953488372093
0.291044850355405 -0.394952774231651 0.313953488372093
0.297196695618584 -0.392625623586016 0.313953488372093
0.307294045921427 -0.390380782655191 0.313953488372093
0.313976526869377 -0.387837346172739 0.313953488372093
0.325920516735671 -0.372393312344428 0.313953488372093
0.330847617706386 -0.373676564078823 0.313953488372093
0.337973666756019 -0.365412210034796 0.313953488372093
0.348761012693367 -0.358332221562156 0.313953488372093
0.357767524454804 -0.354193683441988 0.313953488372093
0.375530068476048 -0.344594679368352 0.313953488372093
0.377854965146873 -0.341670884064672 0.313953488372093
0.388984379453112 -0.325051434939589 0.313953488372093
0.390579132020965 -0.324137888816422 0.313953488372093
0.406036258647833 -0.316502661681832 0.313953488372093
0.414181350375263 -0.308120445937498 0.313953488372093
0.419147217855853 -0.307254756355264 0.313953488372093
0.438237297125049 -0.287093561996544 0.313953488372093
0.437389693200986 -0.290988749391413 0.313953488372093
0.45465986027272 -0.276178766553376 0.313953488372093
0.462838786154261 -0.278626105172044 0.313953488372093
0.471207121736042 -0.271061345590455 0.313953488372093
0.486052607441837 -0.252405832067096 0.313953488372093
0.486808905400838 -0.254518992074637 0.313953488372093
0.191270852020751 -0.452613852228053 0.174418604651163
0.204007164997778 -0.449771839632518 0.174418604651162
0.213820843524338 -0.438302278301713 0.174418604651163
0.223474095943879 -0.439132337730037 0.174418604651162
0.229029867793773 -0.436878015616125 0.174418604651163
0.236399633146626 -0.422480059472002 0.174418604651163
0.239657063797667 -0.419893752092828 0.174418604651162
0.13184701622307 -0.49903218432203 0.313953488372093
0.144904860609858 -0.49668352234109 0.313953488372093
0.149171669435697 -0.49026907256051 0.313953488372093
0.15148128572786 -0.483142800194843 0.313953488372093
0.1698281023902 -0.479406255094946 0.313953488372093
0.173395598570544 -0.471179198929325 0.313953488372093
0.184002612254331 -0.461170310420974 0.313953488372093
0.183664036434226 -0.462178400935259 0.313953488372093
0.19458655051524 -0.451415526550547 0.313953488372093
0.200692305607327 -0.448615220915902 0.313953488372093
0.214652535977938 -0.436959470367416 0.313953488372093
0.218954589390451 -0.44050958795823 0.313953488372093
0.233282293612567 -0.429287580762272 0.313953488372093
0.237410808260895 -0.422892371815164 0.313953488372093
0.245710741134659 -0.41800684401939 0.313953488372093
0.257002399490433 -0.413092225196056 0.313953488372093
0.25885255140542 -0.406397869165983 0.313953488372093
0.269578410129734 -0.401388967227009 0.313953488372093
0.285506949820584 -0.393850844544933 0.313953488372093
0.289138749355859 -0.385159159818873 0.313953488372093
0.294610978320026 -0.382969798719609 0.313953488372093
0.298544965641925 -0.372571187732149 0.313953488372093
0.312089835926805 -0.366301661572581 0.313953488372093
0.319199657835945 -0.359265518050855 0.313953488372093
0.334207576326567 -0.350074262031515 0.313953488372093
0.345579899108815 -0.348960217353761 0.313953488372093
0.349333136344444 -0.346138233100516 0.313953488372093
0.356428947482182 -0.332590044559225 0.313953488372093
0.370709665272585 -0.333420180647953 0.313953488372093
0.380650511899448 -0.32485665005327 0.313953488372093
0.388902309473541 -0.316371853978046 0.313953488372093
0.400910337379074 -0.305044491705679 0.313953488372093
0.410463788479144 -0.302879965319428 0.313953488372093
0.415108456347503 -0.295037831163064 0.313953488372093
0.421407124403996 -0.286159259095203 0.313953488372093
0.438009910626008 -0.284200737724641 0.313953488372093
0.446981662426468 -0.277922263712427 0.313953488372093
0.461476587636589 -0.263676160952067 0.313953488372093
0.467044091442215 -0.263788976580133 0.313953488372093
0.476918266170813 -0.255998826790109 0.313953488372093
0.497986982906605 -0.243340477560472 0.313953488372093
0.18868269694082 -0.449955762982598 0.174418604651163
0.202157169141729 -0.437735926817012 0.174418604651162
0.20662041274542 -0.441148206221096 0.174418604651163
0.21174832202714 -0.429007360703487 0.174418604651163
0.222519316489452 -0.421158025946945 0.174418604651163
0.119171445860775 -0.5 0.311315824063493
0.235061794991074 -0.420616221190866 0.174418604651163
0.130451682328371 -0.493725742904344 0.313953488372093
0.130558846984518 -0.485639706476961 0.313953488372093
0.143260242131198 -0.486272838651676 0.313953488372093
0.156513973773869 -0.475732958041892 0.313953488372093
0.153642323849696 -0.468582975552136 0.313953488372093
0.161137609535518 -0.465419971708822 0.313953488372093
0.180028816323079 -0.455686663351436 0.313953488372093
0.176508238801314 -0.450908208035345 0.313953488372093
0.185896356748759 -0.444169044961732 0.313953488372093
0.201063256866246 -0.438529486620265 0.313953488372093
0.203170039056874 -0.435262378125272 0.313953488372093
0.211958792618194 -0.426963205490598 0.313953488372093
0.223520013659917 -0.420874261777129 0.313953488372093
0.230285073171913 -0.419830020637791 0.313953488372093
0.236532415426832 -0.413173670798438 0.313953488372093
0.250928894687974 -0.403140349111883 0.313953488372093
0.25697413599255 -0.39601873806612 0.313953488372093
0.265286613643141 -0.397581247010053 0.313953488372093
0.274820974337552 -0.384478681090235 0.313953488372093
0.278129526518847 -0.380687094909444 0.313953488372093
0.29205398164281 -0.374300433938797 0.313953488372093
0.298218187295353 -0.369840587911179 0.313953488372093
0.303891137682601 -0.364646757780082 0.313953488372093
0.320572496565357 -0.348818244557096 0.313953488372093
0.331141839203824 -0.343280610117682 0.313953488372093
0.332281444704493 -0.34400568407253 0.313953488372093
0.34545175858276 -0.340973935359537 0.313953488372093
0.35874609025551 -0.329021425122559 0.313953488372093
0.362517495369513 -0.321525178307183 0.313953488372093
0.374820912292199 -0.312373287603739 0.313953488372093
0.384917629732262 -0.307152059531963 0.313953488372093
0.394820112381982 -0.303408647884262 0.313953488372093
0.404640498568467 -0.294640322083535 0.313953488372093
0.411422990403836 -0.286756434925339 0.313953488372093
0.42624086636453 -0.28057352207232 0.313953488372093
0.434147242270161 -0.269464318424889 0.313953488372093
0.449204100531009 -0.257849722982267 0.313953488372093
0.447580926695764 -0.254843855683466 0.313953488372093
0.453061053938463 -0.249116586879778 0.313953488372093
0.472768439111708 -0.242402969477399 0.313953488372093
0.479570660759698 -0.24298355418423 0.313953488372093
0.49437419607821 -0.233103486914592 0.313953488372093
0.497887012213753 -0.22075046068953 0.313953488372093
0.177059721116867 -0.444667859944577 0.174418604651163
0.188541537172066 -0.435861846047142 0.174418604651163
0.192999491737328 -0.432070498406699 0.174418604651163
0.200506983163562 -0.424119637795551 0.174418604651163
0.10874393903512 -0.5 0.309492050416415
0.105990456828995 -0.495207783648122 0.313953488372093
0.111683753163701 -0.49335666430851 0.313953488372093
0.124635411381838 -0.48561736946977 0.313953488372093
0.129480842318264 -0.480063044673253 0.313953488372093
0.139623110975622 -0.478274126648787 0.313953488372093
0.142982320362279 -0.468916748140243 0.313953488372093
0.152069815274341 -0.464793713334331 0.313953488372093
0.163482619812379 -0.454816608963162 0.313953488372093
0.164137238894218 -0.4540164669421 0.313953488372093
0.176465120347824 -0.444977119966646 0.313953488372093
0.188936222152614 -0.444027009474897 0.313953488372093
0.193810468389421 -0.434909110051948 0.313953488372093
0.197764154134725 -0.428031398565538 0.313953488372093
0.206449650187833 -0.416898748108111 0.313953488372093
0.217973747320113 -0.417578336359908 0.313953488372093
0.226265344093028 -0.409316169174447 0.313953488372093
0.231746262044597 -0.399080250043281 0.313953488372093
0.249038087488413 -0.399642722903627 0.313953488372093
0.254284581351503 -0.391597688334271 0.313953488372093
0.261446620315024 -0.388112828244419 0.313953488372093
0.270836825084208 -0.380958640245454 0.313953488372093
0.275464485762125 -0.368736158068069 0.313953488372093
0.287054076161163 -0.369352741195604 0.313953488372093
0.30209332077239 -0.353329260233819 0.313953488372093
0.301316296929898 -0.350942285438883 0.313953488372093
0.306756379350152 -0.351869953402524 0.313953488372093
0.325188077082441 -0.344217250760104 0.313953488372093
0.332003450928175 -0.337975044468701 0.313953488372093
0.33550112684617 -0.329597768041706 0.313953488372093
0.344056373554212 -0.322398843092347 0.313953488372093
0.355760759465792 -0.315846208252126 0.313953488372093
0.365026755536595 -0.314186881122446 0.313953488372093
0.379628000858178 -0.297100786228457 0.313953488372093
0.381773596238497 -0.290013020717242 0.313953488372093
0.398948295642135 -0.286677733281211 0.313953488372093
0.403554290115354 -0.284382911008177 0.313953488372093
0.418836024332934 -0.272510960420026 0.313953488372093
0.418908343557815 -0.272277052830081 0.313953488372093
0.435079016595889 -0.255007643662106 0.313953488372093
0.446455545050636 -0.256201033331852 0.313953488372093
0.459839318223899 -0.237324888300852 0.313953488372093
0.45661413442431 -0.240708480485363 0.313953488372093
0.466955629956368 -0.226833563699838 0.313953488372093
0.487422797718259 -0.21942002160519 0.313953488372093
0.494984672528419 -0.21716970703915 0.313953488372093
0.498228318467975 -0.211934827526698 0.313953488372093
0.174923583006181 -0.431910663000606 0.174418604651163
0.182820402183453 -0.425723820720874 0.174418604651162
0.188970627294801 -0.426195128241059 0.174418604651163
0.0888353213868521 -0.496630667513826 0.313953488372093
0.0913154591959085 -0.499537667992402 0.313953488372093
0.101247336861685 -0.492203186650388 0.313953488372093
0.104804357313383 -0.488334667328674 0.313953488372093
0.120380131489402 -0.473395581525145 0.313953488372093
0.125614034433081 -0.469246818459434 0.313953488372093
0.132866883913088 -0.470911320936804 0.313953488372093
0.142378824903513 -0.464357649415872 0.313953488372093
0.145914445731929 -0.455734937499563 0.313953488372093
0.150986080422739 -0.447093749246002 0.313953488372093
0.164695624037596 -0.449083977543814 0.313953488372093
0.172504815195144 -0.435609737078577 0.313953488372093
0.176948506800477 -0.432463023838318 0.313953488372093
0.182125625720533 -0.424543280894879 0.313953488372093
0.199869868134219 -0.419461380279319 0.313953488372093
0.197270709088402 -0.419346174920192 0.313953488372093
0.204570250340101 -0.412090999774329 0.313953488372093
0.221402884231836 -0.406886387004936 0.313953488372093
0.227376169095024 -0.397188094407598 0.313953488372093
0.233640722498082 -0.398842370953927 0.313953488372093
0.242576790619355 -0.389210590704492 0.313953488372093
0.250981434270747 -0.377526047128834 0.313953488372093
0.258092644172947 -0.380171976054727 0.313953488372093
0.2687085072364 -0.364368146287557 0.313953488372093
0.285677213522898 -0.356249699356877 0.313953488372093
0.282490316795195 -0.354656724378303 0.313953488372093
0.297275610450339 -0.347159441424399 0.313953488372093
0.300217662757258 -0.341316877350407 0.313953488372093
0.316481992892286 -0.337918505582562 0.313953488372093
0.326185469447089 -0.326183236696241 0.313953488372093
0.330074898958477 -0.32433126682371 0.313953488372093
0.342828559616202 -0.314291154829086 0.313953488372093
0.352661790870083 -0.304348933807737 0.313953488372093
0.359302391625454 -0.303268089440735 0.313953488372093
0.36801705265084 -0.295727225274663 0.313953488372093
0.37559237534435 -0.28614135952469 0.313953488372093
0.388800320491397 -0.278385648368738 0.313953488372093
0.401191746368616 -0.274318560634431 0.313953488372093
0.406580100086901 -0.268920006971852 0.313953488372093
0.417668968144729 -0.253910837907629 0.313953488372093
0.421845562843277 -0.249585191058645 0.313953488372093
0.435136520225432 -0.251192418899317 0.313953488372093
0.455125375917166 -0.23701404023745 0.313953488372093
0.448472766327017 -0.23299012098724 0.313953488372093
0.467562360158773 -0.220184852654759 0.313953488372093
0.479333809874627 -0.211478825320405 0.313953488372093
0.491446596407054 -0.206405871069176 0.313953488372093
0.49748362667539 -0.198779053005099 0.313953488372093
0.168711153684101 -0.425470067103834 0.174418604651163
0.177135858273069 -0.422151350520907 0.174418604651163
0.067965038608187 -0.499056563563284 0.313953488372093
0.0744928834685243 -0.5 0.313003602686977
0.0820964131142503 -0.491188208012848 0.313953488372093
0.095834203758881 -0.479615387787304 0.313953488372093
0.101076154148528 -0.476567218847037 0.313953488372093
0.102820362498995 -0.472726397165423 0.313953488372093
0.11217363993122 -0.474354717761104 0.313953488372093
0.127964336889856 -0.460603199524649 0.313953488372093
0.130613728408769 -0.453929605472811 0.313953488372093
0.138729913983758 -0.446148892438932 0.313953488372093
0.145800140075333 -0.444903148257159 0.313953488372093
0.153258157339567 -0.439873853033886 0.313953488372093
0.169596920823899 -0.432346247799181 0.313953488372093
0.164753841935115 -0.426779941806565 0.313953488372093
0.173039133269747 -0.422268275314676 0.313953488372093
0.186656631471493 -0.415626746220704 0.313953488372093
0.191611796361859 -0.409466166091305 0.313953488372093
0.202693969430603 -0.405258734038181 0.313953488372093
0.211918219396953 -0.396354412105887 0.313953488372093
0.221330449127985 -0.393127399382163 0.313953488372093
0.226006924151987 -0.385972410268651 0.313953488372093
0.235860853733364 -0.377294328683522 0.313953488372093
0.246762622889732 -0.366788591040278 0.313953488372093
0.251222232865373 -0.366910840238296 0.313953488372093
0.261603541921831 -0.361013633028878 0.313953488372093
0.270883458232792 -0.351051230186295 0.313953488372093
0.276283561109494 -0.342897509096409 0.313953488372093
0.285759381129586 -0.340586650172889 0.313953488372093
0.292232995755418 -0.339641207891614 0.313953488372093
0.300072659649836 -0.330180549320686 0.313953488372093
0.31521878443252 -0.321036668291625 0.313953488372093
0.322445133346895 -0.309878968385266 0.313953488372093
0.326896763892383 -0.309628436020092 0.313953488372093
0.344217207905215 -0.301521946790514 0.313953488372093
0.349970323501296 -0.295417329257047 0.313953488372093
0.358506611727565 -0.285938393114962 0.313953488372093
0.373203495666737 -0.280098575485593 0.313953488372093
0.381789385292072 -0.273143251492797 0.313953488372093
0.391944605225586 -0.265718995450598 0.313953488372093
0.402048803039378 -0.251160620632565 0.313953488372093
0.407384286702767 -0.256801015367854 0.313953488372093
0.418236946811542 -0.247817695204006 0.313953488372093
0.425995760729506 -0.236911305272933 0.313953488372093
0.439209941750846 -0.23063669030813 0.313953488372093
0.448570464660336 -0.221265757646534 0.313953488372093
0.455170329664756 -0.209289551188811 0.313953488372093
0.461092766310755 -0.210209685925296 0.313953488372093
0.477044652086225 -0.197596666079677 0.313953488372093
0.491345972381665 -0.187475692931782 0.313953488372093
0.5 -0.184926677243157 0.313953488372093
0.15874391549275 -0.425560145348973 0.174418604651163
0.16372335443926 -0.420649286442786 0.174418604651162
0.0592024360628129 -0.5 0.312210168074979
0.0729088188820315 -0.487766171487298 0.313953488372093
0.0723044632946453 -0.485517635870116 0.313953488372093
0.089369460911405 -0.481903566868361 0.313953488372093
0.0931295828828304 -0.471911817056353 0.313953488372093
0.10348312815955 -0.463991282232617 0.313953488372093
0.101724862920205 -0.46639091477399 0.313953488372093
0.110940500374176 -0.45916642364661 0.313953488372093
