ply
format ascii 1.0
element vertex 907
property float x
property float y
property float z
end_header
-0.0666512277692455 0.216205833082428 0.60593220338983
-0.0537113711613955 0.211784507744676 0.60593220338983
-0.0409020374925072 0.212050162658408 0.60593220338983
-0.0227017070124281 0.2217548298168 0.60593220338983
-0.0304240204820019 0.221654162220126 0.60593220338983
-0.0093442314572721 0.223460663246796 0.60593220338983
0.0125387815231698 0.220665716860643 0.60593220338983
0.0259016159552803 0.220483139920949 0.60593220338983
0.0385402761823447 0.226745899151029 0.60593220338983
0.0375078469414802 0.218915319581794 0.60593220338983
0.0539081527187154 0.222517881746733 0.60593220338983
0.0744923164566644 0.223024851021448 0.60593220338983
0.0841793141735498 0.221660428952308 0.60593220338983
0.0996037448387351 0.229226050345943 0.60593220338983
0.101281550215814 0.230766257206322 0.60593220338983
0.117523356016747 0.224265847156224 0.60593220338983
0.131918956951595 0.22565887188625 0.60593220338983
0.158838931796617 0.229322262077995 0.60593220338983
0.171859669729778 0.235689301569094 0.60593220338983
0.18364456679226 0.236824060436355 0.60593220338983
0.185609940851179 0.238758777571228 0.60593220338983
0.214617016297878 0.234342473117507 0.60593220338983
0.215715667942474 0.240080355941441 0.60593220338983
0.244651308007903 0.233863220711171 0.60593220338983
0.248847742573402 0.23899371429478 0.60593220338983
0.26278641361316 0.242124142261425 0.60593220338983
0.291396154682889 0.24580470743655 0.60593220338983
0.294740076377119 0.244008666794942 0.60593220338983
0.30152809637832 0.241218501164108 0.60593220338983
0.326058305513753 0.244797458210943 0.60593220338983
0.347787303226102 0.241435938644899 0.60593220338983
0.353939539497893 0.244501041589155 0.60593220338983
0.370216645547937 0.247727881936621 0.60593220338983
0.396603952630338 0.252470204265193 0.60593220338983
0.396134545598203 0.246801185498627 0.60593220338983
0.423715965345924 0.253468344366436 0.60593220338983
0.432171239241485 0.248607786839676 0.60593220338983
0.449549900936281 0.250710255371986 0.60593220338983
0.471715670999858 0.255759819848209 0.60593220338983
0.490838324969741 0.260077998063861 0.60593220338983
0.499312743902583 0.25149508732004 0.60593220338983
-0.5 0.194490314158498 0.491599697616365
-0.5 0.188695868980356 0.495207830535843
-0.5 0.188334141057016 0.506164940819133
-0.5 0.19524923237605 0.51489507679842
-0.5 0.18824514713205 0.525958370422127
-0.5 0.190976840889312 0.533109978256241
-0.5 0.192774768791751 0.544538467988823
-0.5 0.195361476826863 0.557468023075636
-0.5 0.193059061270288 0.560546153632807
-0.5 0.194892562164872 0.570274432545163
-0.5 0.188047282694057 0.575371397251236
-0.5 0.189298546539142 0.578952094643374
-0.496714729292658 0.190328543776315 0.591101694915254
-0.5 0.195571485704975 0.599069865258694
-0.491299909731179 0.19632077354433 0.60593220338983
-0.484782306247523 0.192708587741229 0.60593220338983
-0.478615595421013 0.197087563727204 0.60593220338983
-0.472558721663663 0.192950884366234 0.60593220338983
-0.462117162969457 0.196433640583861 0.60593220338983
-0.453657254654493 0.197488820323312 0.60593220338983
-0.439566477977639 0.195628901475121 0.60593220338983
-0.431389960812029 0.193624761840565 0.60593220338983
-0.42213148762165 0.201708094918562 0.60593220338983
-0.416460435595029 0.196058681071318 0.60593220338983
-0.412142226360481 0.202275703175983 0.60593220338983
-0.398014791536312 0.202682581476793 0.60593220338983
-0.38833194411741 0.202247329075954 0.60593220338983
-0.379861040441368 0.200507900594161 0.60593220338983
-0.377088554207291 0.200428601933812 0.60593220338983
-0.358364784445823 0.203605106108846 0.60593220338983
-0.34924269253711 0.205308254238047 0.60593220338983
-0.339425508182522 0.204968231765383 0.60593220338983
-0.330250667123834 0.205593934102885 0.60593220338983
-0.320168801713912 0.2048675557336 0.60593220338983
-0.311718821896875 0.203883022264859 0.60593220338983
-0.306089876895978 0.205735632754853 0.60593220338983
-0.297670871752805 0.209244666647545 0.60593220338983
-0.273212291823625 0.212390879692213 0.60593220338983
-0.270685070897351 0.213255108996964 0.60593220338983
-0.265096310226586 0.213763714435632 0.60593220338983
-0.243863246456777 0.207669083047165 0.60593220338983
-0.233754531710571 0.212257815696413 0.60593220338983
-0.226197019524483 0.207871440281207 0.60593220338983
-0.212840334063413 0.2155086984907 0.60593220338983
-0.201162075316172 0.213498624670539 0.60593220338983
-0.19229674637981 0.217973791193031 0.60593220338983
-0.184682082313467 0.214066331851817 0.60593220338983
-0.176848532423766 0.213735990045939 0.60593220338983
-0.168897420356411 0.220251058904858 0.60593220338983
-0.155433288668002 0.219859569283647 0.60593220338983
-0.13868921804788 0.221496100166228 0.60593220338983
-0.12801208918802 0.223509200570912 0.60593220338983
-0.119186654344339 0.220315438778318 0.60593220338983
-0.0994668682744094 0.218947958861632 0.60593220338983
-0.0888277983371408 0.225471996963962 0.60593220338983
-0.0744812855096118 0.225421580121578 0.60593220338983
-0.0737577212223261 0.223413662912045 0.60593220338983
-0.0585289737191695 0.225353441356005 0.60593220338983
-0.0426657991390088 0.224011603850232 0.60593220338983
-0.0249422460108091 0.231938916257783 0.60593220338983
-0.0193356666236516 0.226158077216023 0.60593220338983
-0.00655475358289415 0.227472488285333 0.60593220338983
0.00327136975659682 0.226070746228112 0.60593220338983
0.0161404580068579 0.231988482991141 0.60593220338983
0.0328587549610963 0.234296035811885 0.60593220338983
0.0450423345074535 0.228602766533008 0.60593220338983
0.0508162725084825 0.229128886290075 0.60593220338983
0.0746927054944865 0.236271953291013 0.60593220338983
0.0822867100050278 0.239342768888715 0.60593220338983
0.0926260929837588 0.238292003030577 0.60593220338983
0.110992579660737 0.24175124362512 0.60593220338983
0.127568203243347 0.238513522698741 0.60593220338983
0.132694797123985 0.23858874515496 0.60593220338983
0.146687450622053 0.237823984991257 0.60593220338983
0.155023984157106 0.245690455937106 0.60593220338983
0.167736908959941 0.24024336960591 0.60593220338983
0.20265856000726 0.247853323692793 0.60593220338983
0.210498253020922 0.246030546954649 0.60593220338983
0.218718650860701 0.244222802945751 0.60593220338983
0.226801982063462 0.247264417255698 0.60593220338983
0.243009774421192 0.245687043086514 0.60593220338983
0.257238618320839 0.244642125670947 0.60593220338983
0.27452866274637 0.255417285144131 0.60593220338983
0.303465772642743 0.24771548367755 0.60593220338983
0.312610052395692 0.254182704006037 0.60593220338983
0.332667032458797 0.259841596627584 0.60593220338983
0.332819650919627 0.259642460879354 0.60593220338983
0.345758774093506 0.255698721047799 0.60593220338983
0.373526184259564 0.259732233511308 0.60593220338983
0.390787548316742 0.262064200637213 0.60593220338983
0.404861001630557 0.265867389996987 0.60593220338983
0.424920310228074 0.262539290427907 0.60593220338983
0.436687811812394 0.259776260585986 0.60593220338983
0.444637358279469 0.260433171962498 0.60593220338983
0.47161350120718 0.264645180291109 0.60593220338983
0.475714275271066 0.260974225634356 0.60593220338983
-0.5 0.200167084948775 0.491618221400578
-0.5 0.197879236690131 0.504755889845801
-0.5 0.202336739995044 0.507281977844411
-0.5 0.196182885599138 0.519535458733952
-0.5 0.196182185057647 0.52031158656137
-0.5 0.198365576320956 0.535604745962659
-0.5 0.20157797714367 0.540059986363308
-0.5 0.202861764166076 0.554566647107066
-0.5 0.201558024841648 0.554991595905218
-0.5 0.200466253688549 0.56434531322317
-0.5 0.204246359878349 0.573880758696365
-0.5 0.201449173966103 0.587779220657769
-0.5 0.200639763950258 0.590445870851515
-0.5 0.199140707469421 0.600395164194397
-0.498725311954871 0.200289786313991 0.60593220338983
-0.482144047141195 0.199014143316985 0.60593220338983
-0.481231130772287 0.198645266504683 0.60593220338983
-0.464511868375485 0.204671164442989 0.60593220338983
-0.460824748110615 0.200381029372864 0.60593220338983
-0.457838814739847 0.200314174772769 0.60593220338983
-0.447635549490756 0.200994581535851 0.60593220338983
-0.438309257986276 0.207516939719738 0.60593220338983
-0.427222011791082 0.207826759470416 0.60593220338983
-0.412703448848866 0.209265977822885 0.60593220338983
-0.406973225836921 0.205418937036292 0.60593220338983
-0.392622172649587 0.210963729952157 0.60593220338983
-0.391356688595876 0.209898962413711 0.60593220338983
-0.386181999144695 0.208797794673924 0.60593220338983
-0.367845924976735 0.211236066470542 0.60593220338983
-0.361519227567638 0.214578417078792 0.60593220338983
-0.351182509615706 0.207803340389742 0.60593220338983
-0.337380839868604 0.21591659997446 0.60593220338983
-0.331949375668448 0.212271531816743 0.60593220338983
-0.313856998673314 0.213912145689857 0.60593220338983
-0.313801054778049 0.211571180362389 0.60593220338983
-0.299360796845577 0.21691484382618 0.60593220338983
-0.295095925293401 0.217768405124961 0.60593220338983
-0.274825977173541 0.213418736461606 0.60593220338983
-0.261884870950305 0.220332063657343 0.60593220338983
-0.264645596372675 0.218469445813688 0.60593220338983
-0.246300956251766 0.216166429499993 0.60593220338983
-0.245587962414263 0.22215988195468 0.60593220338983
-0.220627017234563 0.225122079254621 0.60593220338983
-0.222336473076276 0.226054787067591 0.60593220338983
-0.210519402811789 0.221024087630631 0.60593220338983
-0.199680569705199 0.226896813181196 0.60593220338983
-0.185907070358038 0.227541458864929 0.60593220338983
-0.172852626129697 0.228279249856039 0.60593220338983
-0.15928244548699 0.23177719169098 0.60593220338983
-0.152376874326303 0.224687772363796 0.60593220338983
-0.135869069995399 0.226130009052708 0.60593220338983
-0.119929253395648 0.225680328839809 0.60593220338983
-0.113975616615374 0.227117077262373 0.60593220338983
-0.0986133644156158 0.232338850129003 0.60593220338983
-0.0974906746063347 0.227600692618297 0.60593220338983
-0.0834371749132047 0.231096502178751 0.60593220338983
-0.0636812638473796 0.237423107590359 0.60593220338983
-0.0587229865026167 0.231262377472615 0.60593220338983
-0.0390084398347953 0.233447019679194 0.60593220338983
-0.0269707606627347 0.234359975651943 0.60593220338983
-0.0272617603622666 0.233591187574408 0.60593220338983
-0.00369066973625218 0.24229648047158 0.60593220338983
-0.00106693468533493 0.237502967264613 0.60593220338983
0.0221275902957794 0.24504777724667 0.60593220338983
0.0290985327142601 0.242482220573442 0.60593220338983
0.0330919642957367 0.239345179976545 0.60593220338983
0.0631919024833403 0.241528767136593 0.60593220338983
0.0738357162105792 0.250647422653676 0.60593220338983
0.0760957218265342 0.243631515690763 0.60593220338983
0.0942239635836909 0.249371819187899 0.60593220338983
0.117817031278089 0.248777086397696 0.60593220338983
0.12851878847747 0.250446487426751 0.60593220338983
0.130767289640818 0.25397178335145 0.60593220338983
0.1551279099147 0.256307515630222 0.60593220338983
0.154040573751361 0.254352243610294 0.60593220338983
0.16937469174043 0.25862284455708 0.60593220338983
0.194816414278813 0.254426648794571 0.60593220338983
0.198930394490423 0.251464239363843 0.60593220338983
0.216778663387 0.258969755022429 0.60593220338983
0.236566399420342 0.253808115067578 0.60593220338983
0.25849818231547 0.260709503919965 0.60593220338983
0.26862769866183 0.260973499070266 0.60593220338983
0.286894993072684 0.258413069046852 0.60593220338983
0.288763687432679 0.268063059516409 0.60593220338983
0.302803161505806 0.267998466924867 0.60593220338983
0.321488225280559 0.267035624459697 0.60593220338983
0.331220534122324 0.26275079516824 0.60593220338983
0.355119676608178 0.26371079472919 0.60593220338983
0.367866965655815 0.265514253388014 0.60593220338983
0.38639467356225 0.267157386351514 0.60593220338983
0.395002593218534 0.273291855827436 0.60593220338983
0.424456356269188 0.273788942192907 0.60593220338983
0.436759106134519 0.276161331976621 0.60593220338983
0.458907163505135 0.27839757072869 0.60593220338983
0.47774211137083 0.275399450687234 0.60593220338983
0.486368041236563 0.273659559655129 0.60593220338983
-0.5 0.205662144930479 0.487862443414034
-0.5 0.20734691734462 0.501179640209407
-0.5 0.204916562341555 0.510423999213994
-0.5 0.209387974895259 0.518462852592065
-0.5 0.211148436747559 0.517456687388891
-0.5 0.212574280080924 0.53253986141249
-0.5 0.211067034492697 0.540242653225426
-0.5 0.205654118778714 0.551696810525253
-0.5 0.208829188466286 0.559647995282549
-0.5 0.211118857046479 0.566577208922422
-0.5 0.212165717456231 0.571648137071277
-0.5 0.206150496941769 0.581158364797259
-0.5 0.205327662259945 0.590648821410919
-0.5 0.207648541737883 0.603351217109054
-0.5 0.208905738156331 0.605708399973461
-0.490020987389538 0.2095045853102 0.60593220338983
-0.479068472685553 0.208720405810035 0.60593220338983
-0.474701103362797 0.208346968149255 0.60593220338983
-0.460180651635607 0.210506607088235 0.60593220338983
-0.450218982244283 0.213462161342586 0.60593220338983
-0.439080259732456 0.211919784136915 0.60593220338983
-0.442323519647372 0.210339698929863 0.60593220338983
-0.422580785103844 0.217224137972937 0.60593220338983
-0.422789375754745 0.213140341826573 0.60593220338983
-0.407226515497859 0.218896177164508 0.60593220338983
-0.393393776644165 0.219966442603895 0.60593220338983
-0.389407123833013 0.220055389500272 0.60593220338983
-0.382714759659554 0.222546728256687 0.60593220338983
-0.367723610700106 0.215566575292496 0.60593220338983
-0.354341345874326 0.216428996965876 0.60593220338983
-0.355460620860799 0.224627155287601 0.60593220338983
-0.335301716071337 0.226261128889592 0.60593220338983
-0.330280494382883 0.221048340468487 0.60593220338983
-0.317057063166499 0.220226440469006 0.60593220338983
-0.315093966468897 0.225395901898452 0.60593220338983
-0.293893604092955 0.223076685033739 0.60593220338983
-0.285395561236713 0.227229917642616 0.60593220338983
-0.284860510619376 0.226789092688724 0.60593220338983
-0.264622974310977 0.230538312637126 0.60593220338983
-0.25820175789234 0.227677439189382 0.60593220338983
-0.244896013859776 0.233344550547597 0.60593220338983
-0.232231198990281 0.233182326690726 0.60593220338983
-0.226384326616127 0.235460496793424 0.60593220338983
-0.211859364162904 0.229559850614431 0.60593220338983
-0.205039504627999 0.235133272306856 0.60593220338983
-0.192582034019558 0.234459382688755 0.60593220338983
-0.186478316616373 0.234099369498561 0.60593220338983
-0.177577931552801 0.231330085232165 0.60593220338983
-0.160431530523185 0.241523073456734 0.60593220338983
-0.14437930310206 0.240777411362333 0.60593220338983
-0.133906844159925 0.234513455392362 0.60593220338983
-0.129025880585114 0.240426499898847 0.60593220338983
-0.119032642483567 0.237182781607018 0.60593220338983
-0.0981031034746721 0.245113387911668 0.60593220338983
-0.0864990189531596 0.244346150297493 0.60593220338983
-0.08862315916879 0.242946552695931 0.60593220338983
-0.0625314117996567 0.243350071117886 0.60593220338983
-0.0545357303268306 0.242219920014562 0.60593220338983
-0.041283671900136 0.246364337478126 0.60593220338983
-0.0227255974871304 0.249453783979457 0.60593220338983
-0.0209386080333428 0.24470149453612 0.60593220338983
-0.0146767419298304 0.250552176472714 0.60593220338983
0.0139706983544768 0.252709006948241 0.60593220338983
0.00881640084733125 0.24982520786423 0.60593220338983
0.035708429176261 0.250331851942654 0.60593220338983
0.0360686365270224 0.25476611189961 0.60593220338983
0.0572711316477085 0.255162102512699 0.60593220338983
0.0723307677028968 0.260034102119851 0.60593220338983
0.080563060367405 0.253102597831527 0.60593220338983
0.0881808599517746 0.262662619305243 0.60593220338983
0.112411748053429 0.256687572999054 0.60593220338983
0.132255126457023 0.258644946852654 0.60593220338983
0.12738277945879 0.264115536838825 0.60593220338983
0.153610247163992 0.263268772935224 0.60593220338983
0.173026184619206 0.263661702861098 0.60593220338983
0.174757035358729 0.268633809314758 0.60593220338983
0.181188321259961 0.26954899246318 0.60593220338983
0.200762878830038 0.26468509355832 0.60593220338983
0.210667822292739 0.267749188798299 0.60593220338983
0.229403205135664 0.274511537797202 0.60593220338983
0.249063405336647 0.2685715828518 0.60593220338983
0.275227353334696 0.275319014313119 0.60593220338983
0.277768029552161 0.271222763623727 0.60593220338983
0.289973398435315 0.279322386007812 0.60593220338983
0.30568748825125 0.270680627589212 0.60593220338983
0.326532508741714 0.276069918102123 0.60593220338983
0.336420444772006 0.283536453673185 0.60593220338983
0.359659335525137 0.279236651265295 0.60593220338983
0.370628600407279 0.28316645419272 0.60593220338983
0.386978609295329 0.28072534586783 0.60593220338983
0.396329282616368 0.280737059966735 0.60593220338983
0.42433124582401 0.289339892583715 0.60593220338983
0.445060595732628 0.287577206012395 0.60593220338983
0.450038269416388 0.286328018573073 0.60593220338983
0.481517508671897 0.289345290300524 0.60593220338983
0.483043740705881 0.294086943773867 0.60593220338983
-0.5 0.219167287010529 0.491739068424275
-0.5 0.214306832481948 0.500983880993604
-0.5 0.217626256940887 0.50337546907533
-0.5 0.217386302036078 0.516443646515153
-0.5 0.213641939014315 0.529006707708596
-0.5 0.215301760193234 0.532670105245726
-0.5 0.217760235366547 0.538627806676164
-0.5 0.214290121854588 0.551728846770638
-0.5 0.217686752793983 0.560620589907928
-0.5 0.216657259988219 0.570331258345158
-0.5 0.218051570635917 0.576542943466895
-0.5 0.212361131423655 0.584603251206237
-0.5 0.215274473647627 0.587246274918785
-0.5 0.216016927153356 0.59726644885576
-0.5 0.217215187832722 0.604956676691807
-0.482677232733837 0.220858122970671 0.60593220338983
-0.479561373885992 0.221261003419386 0.60593220338983
-0.478990456935683 0.223037607522907 0.60593220338983
-0.460695088917607 0.221949721411604 0.60593220338983
-0.449107693543097 0.224015520917617 0.60593220338983
-0.444657305170105 0.220633965943175 0.60593220338983
-0.435273027011601 0.220741538195277 0.60593220338983
-0.429086168776457 0.226973452676097 0.60593220338983
-0.408507537549327 0.223479695315205 0.60593220338983
-0.404940702771041 0.225821284897375 0.60593220338983
-0.389282614275432 0.227150631989423 0.60593220338983
-0.390208780719461 0.229725771307076 0.60593220338983
-0.381198870108899 0.228267879057925 0.60593220338983
-0.368827838518415 0.224850788336054 0.60593220338983
-0.356984608307986 0.227546443587871 0.60593220338983
-0.350588749893128 0.231138069670861 0.60593220338983
-0.33833397115168 0.227812853465849 0.60593220338983
-0.331656130953944 0.230088705659835 0.60593220338983
-0.325574239945356 0.232709724990569 0.60593220338983
-0.305896662298935 0.236556218321777 0.60593220338983
-0.301019211506239 0.234060144581339 0.60593220338983
-0.283905793194565 0.239058759027624 0.60593220338983
-0.272952656474818 0.240672906206925 0.60593220338983
-0.262449448312809 0.239336520713563 0.60593220338983
-0.252115251324793 0.239499483253615 0.60593220338983
-0.24976301757141 0.239344146796697 0.60593220338983
-0.241979536270892 0.239542176776392 0.60593220338983
-0.224841328816835 0.235889952072155 0.60593220338983
-0.21962433930503 0.239265199924811 0.60593220338983
-0.205690965765067 0.242284535460475 0.60593220338983
-0.194696076522791 0.241208654875928 0.60593220338983
-0.178686118872559 0.241003938516068 0.60593220338983
-0.170584082770316 0.242291499794301 0.60593220338983
-0.169692370346762 0.246487092750954 0.60593220338983
-0.149726613058381 0.248401080961477 0.60593220338983
-0.133217102064363 0.249046307281918 0.60593220338983
-0.120345098497072 0.246952031418211 0.60593220338983
-0.115912967442991 0.245995583252337 0.60593220338983
-0.0997923699351261 0.247321576217277 0.60593220338983
-0.0969408312938394 0.254336571235911 0.60593220338983
-0.0757071207558963 0.25062603201557 0.60593220338983
-0.0665655147075233 0.254690062518236 0.60593220338983
-0.0628620289801304 0.255598705195037 0.60593220338983
-0.053154372363632 0.254688736299968 0.60593220338983
-0.029219703421368 0.254548376549094 0.60593220338983
-0.0256288787401526 0.259136132204555 0.60593220338983
-0.0154693917364903 0.258010297897256 0.60593220338983
0.00743361712951717 0.257644598298096 0.60593220338983
0.0249831676881733 0.262095019451115 0.60593220338983
0.0334153337763802 0.262437614471749 0.60593220338983
0.0388276135378216 0.259012679263785 0.60593220338983
0.0589104186408686 0.266498626910003 0.60593220338983
0.0738896673771823 0.270696199963293 0.60593220338983
0.0731487806969323 0.264419058935014 0.60593220338983
0.0940515787944906 0.265927295253355 0.60593220338983
0.105204719702748 0.271877208976769 0.60593220338983
0.123104068600447 0.266138553019216 0.60593220338983
0.126055660885539 0.27317121197523 0.60593220338983
0.142342829165733 0.277575369103658 0.60593220338983
0.169820172007734 0.272675315155373 0.60593220338983
0.176343254847736 0.273096624616838 0.60593220338983
0.191213080667676 0.280010917607175 0.60593220338983
0.207527395568964 0.281338873435446 0.60593220338983
0.228683662405536 0.278971278870356 0.60593220338983
0.233468611224778 0.282474003733639 0.60593220338983
0.245256221654925 0.280498517004586 0.60593220338983
0.264444480218842 0.283931279193953 0.60593220338983
0.280167700995894 0.29002421925856 0.60593220338983
0.29090280798859 0.288097718130319 0.60593220338983
0.304506439547086 0.282466890978911 0.60593220338983
0.32529151571659 0.29336384429223 0.60593220338983
0.338564656037917 0.283992094803137 0.60593220338983
0.359890166467612 0.290967242333959 0.60593220338983
0.375434625479297 0.290558731021624 0.60593220338983
0.387111873954889 0.291414692368809 0.60593220338983
0.412053210149359 0.297869452607026 0.60593220338983
0.413404887174168 0.294631632084115 0.60593220338983
0.442124309899474 0.302443144210119 0.60593220338983
0.46055731817454 0.296374314410472 0.60593220338983
0.475294425645834 0.300457851415713 0.60593220338983
0.497639455599001 0.303638005477743 0.60593220338983
-0.5 0.227049136527903 0.493973933056929
-0.5 0.222780692926551 0.500080424399567
-0.5 0.223667102682907 0.511792465866061
-0.5 0.223367879789192 0.519643047733231
-0.5 0.228010482127474 0.522377339473444
-0.5 0.226195853435317 0.528962095756035
-0.5 0.227755636208284 0.539001868901085
-0.5 0.223190259453676 0.55672534216042
-0.5 0.228290110350336 0.556182813772303
-0.5 0.226289038998378 0.567725739051336
-0.5 0.225662745167058 0.578434378899885
-0.5 0.228303430678903 0.588257151495928
-0.5 0.223657773965289 0.589423891067948
-0.5 0.224402073605785 0.595911627435498
-0.49583679443895 0.224322629271256 0.60593220338983
-0.481320523094601 0.230649192997995 0.60593220338983
-0.479924775065711 0.226871020851862 0.60593220338983
-0.472446250706093 0.223142290252634 0.60593220338983
-0.465033798805537 0.22389628832494 0.60593220338983
-0.458166568320198 0.226186290222448 0.60593220338983
-0.439697509166773 0.228849859128255 0.60593220338983
-0.437398447842302 0.232162055373038 0.60593220338983
-0.425868135829572 0.230227931102204 0.60593220338983
-0.422005762741866 0.229982096367634 0.60593220338983
-0.406722956997002 0.2314433222956 0.60593220338983
-0.395211454853674 0.229876753990569 0.60593220338983
-0.384244199525412 0.233905807411923 0.60593220338983
-0.379235136429767 0.239175011214701 0.60593220338983
-0.366587249774236 0.24078728993302 0.60593220338983
-0.362452534058618 0.236267053626863 0.60593220338983
-0.358176221225968 0.241243246499818 0.60593220338983
-0.345597204518507 0.241917594102583 0.60593220338983
-0.329386077786857 0.238644821939396 0.60593220338983
-0.320495289314572 0.240734235643857 0.60593220338983
-0.316020924205411 0.23924858950888 0.60593220338983
-0.305433661028081 0.243764362557092 0.60593220338983
-0.287881728450026 0.242882694279216 0.60593220338983
-0.281217103732804 0.247773002319727 0.60593220338983
-0.265062812751549 0.245106632698712 0.60593220338983
-0.25919219370672 0.25061541195396 0.60593220338983
-0.250246059241119 0.249532394028215 0.60593220338983
-0.240865898057914 0.250074871585726 0.60593220338983
-0.230814149323788 0.247109820601587 0.60593220338983
-0.215519901096472 0.253643400630764 0.60593220338983
-0.206510783753221 0.248241913681153 0.60593220338983
-0.189142642667024 0.248555116989554 0.60593220338983
-0.183497267149891 0.252155876234677 0.60593220338983
-0.175463006131426 0.254791262092265 0.60593220338983
-0.17086927357862 0.258817264727408 0.60593220338983
-0.153128336447373 0.252547532139718 0.60593220338983
-0.140630892717844 0.257496961892278 0.60593220338983
-0.11912421919578 0.261194046901246 0.60593220338983
-0.115508670758852 0.256046358131098 0.60593220338983
-0.102067538625186 0.264319187885765 0.60593220338983
-0.0931108722208261 0.260685142802344 0.60593220338983
-0.0866950510848071 0.258246516679031 0.60593220338983
-0.0660170702360328 0.264680498063707 0.60593220338983
-0.0557380343026637 0.261972637943128 0.60593220338983
-0.0392035000517184 0.266105107232097 0.60593220338983
-0.0259955204066102 0.271125031886449 0.60593220338983
-0.0129845479186794 0.26985335296637 0.60593220338983
-0.0117565360182505 0.270132443491539 0.60593220338983
0.00206947463316552 0.268780364079248 0.60593220338983
0.0243112621871671 0.275666685409734 0.60593220338983
0.0377779633467499 0.271996204278873 0.60593220338983
0.0373319019293933 0.274442529514851 0.60593220338983
0.0591152181922075 0.27678720814411 0.60593220338983
0.0607082952846708 0.277981786362974 0.60593220338983
0.0870777231370474 0.273487139727528 0.60593220338983
0.103246436282064 0.281517263436068 0.60593220338983
0.112280057603698 0.283207968052512 0.60593220338983
0.117501359296696 0.280591208029874 0.60593220338983
0.135762924026661 0.280962300345095 0.60593220338983
0.148439025262461 0.282071002650755 0.60593220338983
0.160777574461564 0.285617930828943 0.60593220338983
0.17787760229417 0.284022430471082 0.60593220338983
0.188738844363316 0.289911727789843 0.60593220338983
0.209525915061531 0.288334180644249 0.60593220338983
0.224855636072053 0.294853917447003 0.60593220338983
0.234078406024376 0.287831049814148 0.60593220338983
0.254549893978871 0.29648866877623 0.60593220338983
0.254010088063676 0.294333224855705 0.60593220338983
0.292198199285341 0.296104339757598 0.60593220338983
0.295728778187178 0.294946383878729 0.60593220338983
0.310092449009536 0.30305718384136 0.60593220338983
0.326104209124343 0.29385889066818 0.60593220338983
0.338643145580582 0.298983030233313 0.60593220338983
0.353954991807046 0.304939770577615 0.60593220338983
0.365339101889816 0.297915896693457 0.60593220338983
0.390225210356676 0.300215520929963 0.60593220338983
0.398706382023657 0.301248030566964 0.60593220338983
0.420797417747674 0.30458530469451 0.60593220338983
0.428089882946375 0.312442114774927 0.60593220338983
0.44499216304043 0.310767175322244 0.60593220338983
0.480121943193532 0.314026064557963 0.60593220338983
0.487938542791447 0.311754017415558 0.60593220338983
-0.5 0.237374189932813 0.492501129114397
-0.5 0.235575290775081 0.502261468147355
-0.5 0.233597041291997 0.503058996238516
-0.5 0.231163167241616 0.51892225792441
-0.5 0.237631660235826 0.521806016224556
-0.5 0.235303887321212 0.5329781783638
-0.5 0.233313305754179 0.546676267885522
-0.5 0.232199901717316 0.550253295865223
-0.5 0.233761208791388 0.561132488628336
-0.5 0.235170363235946 0.572231877493057
-0.5 0.233986104393082 0.572681199665429
-0.5 0.231978186540091 0.576988797845391
-0.499929986286761 0.23425506919454 0.591101694915254
-0.5 0.237171090329498 0.597900746279063
-0.496282412521336 0.234533778879441 0.60593220338983
-0.487908820773901 0.233538525941656 0.60593220338983
-0.477758452919014 0.238226004927876 0.60593220338983
-0.471806545878876 0.238467363340299 0.60593220338983
-0.458314843032084 0.23836877386159 0.60593220338983
-0.448236090860387 0.240761899751551 0.60593220338983
-0.44622603363482 0.237197115268172 0.60593220338983
-0.434720581768552 0.243595705295083 0.60593220338983
-0.427313090703488 0.238499483724387 0.60593220338983
-0.41592143395002 0.242546493108196 0.60593220338983
-0.405054875275967 0.239837845569146 0.60593220338983
-0.402843153588744 0.242920070369651 0.60593220338983
-0.39075519418532 0.245286768253732 0.60593220338983
-0.382913648112486 0.242472084337396 0.60593220338983
-0.369863168225391 0.243776528776091 0.60593220338983
-0.361708878795495 0.249711698940848 0.60593220338983
-0.354894752758979 0.247462965089586 0.60593220338983
-0.343023100030466 0.247258000427001 0.60593220338983
-0.333064397073714 0.251574924507814 0.60593220338983
-0.32416717202912 0.253170303261831 0.60593220338983
-0.312278291852292 0.251861807664759 0.60593220338983
-0.297753907655115 0.2543910562022 0.60593220338983
-0.298093190870802 0.250625214220114 0.60593220338983
-0.275954485216228 0.258486614072231 0.60593220338983
-0.263715410396651 0.257284234681641 0.60593220338983
-0.258562725330405 0.255437823250339 0.60593220338983
-0.249955869714957 0.257100157137093 0.60593220338983
-0.241035611457071 0.260824060212492 0.60593220338983
-0.217725647493397 0.256104049966816 0.60593220338983
-0.21629309386196 0.263404288094838 0.60593220338983
-0.214213991713773 0.256951665179206 0.60593220338983
-0.202469717861926 0.260416463445719 0.60593220338983
-0.190043975470327 0.262334262492455 0.60593220338983
-0.17228571425396 0.260895822819902 0.60593220338983
-0.163925494073626 0.265455059673745 0.60593220338983
-0.152602271927915 0.262060782986893 0.60593220338983
-0.14364568726604 0.265615019200439 0.60593220338983
-0.124900058134838 0.264690841373894 0.60593220338983
-0.119305047831062 0.267630140595017 0.60593220338983
-0.10269402930757 0.269465560670587 0.60593220338983
-0.0907959495105983 0.270782786540151 0.60593220338983
-0.086399324328703 0.277091235021396 0.60593220338983
-0.0740437939169288 0.270751147392484 0.60593220338983
-0.0661721417860478 0.27888681113225 0.60593220338983
-0.0423436506985531 0.272687803046236 0.60593220338983
-0.0350284524662 0.281017290397992 0.60593220338983
-0.0151727148248744 0.274108312588158 0.60593220338983
-0.0164549698060038 0.274725170653716 0.60593220338983
0.00104226478685605 0.281642416610956 0.60593220338983
0.0167961712917208 0.28636460275327 0.60593220338983
0.0308128252789298 0.283769479296334 0.60593220338983
0.0401758555321359 0.281549994411213 0.60593220338983
0.0549114150201086 0.289488078938355 0.60593220338983
0.0687769842058131 0.287457515545494 0.60593220338983
0.0792417020633042 0.286302067812402 0.60593220338983
0.0986550964280911 0.293561842440885 0.60593220338983
0.106745969521182 0.291574221349481 0.60593220338983
0.119749383591167 0.29528911043711 0.60593220338983
0.133012725279123 0.289701910642536 0.60593220338983
0.160390895068058 0.299670987652668 0.60593220338983
0.157955508138327 0.289833088624405 0.60593220338983
0.177934319737452 0.294870419611168 0.60593220338983
0.182887534230446 0.302232159731187 0.60593220338983
0.196893159133384 0.299609517363514 0.60593220338983
0.218265333917325 0.298353038984534 0.60593220338983
0.236779000555435 0.298467598581145 0.60593220338983
0.246061387907331 0.307098528610675 0.60593220338983
0.263557538970789 0.308360539650106 0.60593220338983
0.282834233267718 0.306731037431281 0.60593220338983
0.287715434845209 0.311325156532127 0.60593220338983
0.309720293056706 0.308099498910574 0.60593220338983
0.322436568057553 0.30518318698094 0.60593220338983
0.338449632852639 0.308958063927298 0.60593220338983
0.35653078567489 0.316180634657473 0.60593220338983
0.36512777600872 0.309832088185727 0.60593220338983
0.394772309764703 0.31437538845604 0.60593220338983
0.40952994163452 0.322530067946497 0.60593220338983
0.417079467309181 0.321600958678743 0.60593220338983
0.442630653026269 0.320879201602188 0.60593220338983
0.454926488807907 0.319983885762131 0.60593220338983
0.475896843452614 0.328288183496781 0.60593220338983
0.48857667287521 0.330979022019689 0.60593220338983
-0.5 0.242863001971433 0.494484238836962
-0.5 0.242683160890253 0.495963588421854
-0.5 0.242178453218758 0.50483301855625
-0.5 0.244786070358391 0.518653033769934
-0.5 0.239955922511315 0.519002934347777
-0.5 0.237877698073403 0.540535326336306
-0.5 0.24536202363738 0.542544139861093
-0.5 0.24188443455538 0.547532178371881
-0.5 0.239395810992375 0.557695645976769
-0.5 0.240140226694177 0.567926906664342
-0.5 0.241838246000721 0.579760679226649
-0.5 0.243433833182048 0.580465216487089
-0.5 0.238439709290283 0.588193444409783
-0.5 0.240827002238064 0.60154617240693
-0.499740072258313 0.237835490762876 0.60593220338983
-0.48888471336911 0.239072249031384 0.60593220338983
-0.476872591392753 0.241810016483093 0.60593220338983
-0.471837520385673 0.248486563445841 0.60593220338983
-0.46304605235766 0.24925692691987 0.60593220338983
-0.454535585055384 0.247674181044077 0.60593220338983
-0.44150831931721 0.244308430802871 0.60593220338983
-0.435043058355668 0.251982316909555 0.60593220338983
-0.424363222468281 0.24531256027544 0.60593220338983
-0.411937352288781 0.248139942021775 0.60593220338983
-0.399479349833234 0.249848355291385 0.60593220338983
-0.39877167162686 0.255066984297016 0.60593220338983
-0.382953700101602 0.249342813431038 0.60593220338983
-0.377237072224853 0.250760634067125 0.60593220338983
-0.368005812791577 0.254621091046894 0.60593220338983
-0.35950277232769 0.256709065002115 0.60593220338983
-0.341745324897682 0.259965498784614 0.60593220338983
-0.339070524876713 0.255076941670927 0.60593220338983
-0.323700926427857 0.254581027415546 0.60593220338983
-0.319468096805159 0.263304213104743 0.60593220338983
-0.313265659176677 0.257887130762922 0.60593220338983
-0.295457132669339 0.263035905097546 0.60593220338983
-0.285382371169146 0.261326645136403 0.60593220338983
-0.279001381336525 0.264966825207782 0.60593220338983
-0.270749755924433 0.26113549371839 0.60593220338983
-0.263699624108332 0.260282778111917 0.60593220338983
-0.245062459503177 0.266152060366423 0.60593220338983
-0.236338445601945 0.271187917800511 0.60593220338983
-0.232072431026587 0.265072953963698 0.60593220338983
-0.214611165850776 0.268142286688812 0.60593220338983
-0.203320085036805 0.271910163156348 0.60593220338983
-0.191329591646702 0.272915351594288 0.60593220338983
-0.17819155805333 0.270075309327835 0.60593220338983
-0.172470899974197 0.270320261928484 0.60593220338983
-0.155665875979746 0.277124192550482 0.60593220338983
-0.149506509771802 0.276585371604299 0.60593220338983
-0.13694603678676 0.281512092452127 0.60593220338983
-0.122726100245161 0.279762975299635 0.60593220338983
-0.121421668995537 0.278359546095979 0.60593220338983
-0.104787031551274 0.28249473454007 0.60593220338983
-0.0934988584313615 0.27924166229611 0.60593220338983
-0.089008982699387 0.284724562065894 0.60593220338983
-0.0630048682751439 0.283511930168309 0.60593220338983
-0.063100977773005 0.288183903846011 0.60593220338983
-0.0534807579361249 0.286667838045992 0.60593220338983
-0.0293847865976101 0.285356884570212 0.60593220338983
-0.0231149944986348 0.290675805752938 0.60593220338983
-0.0103974880796821 0.293734158803765 0.60593220338983
0.00296782882978019 0.285879735895904 0.60593220338983
0.0130385234230037 0.29254682472861 0.60593220338983
0.0329025928175372 0.294091662603734 0.60593220338983
0.0432405510092699 0.295023340747313 0.60593220338983
0.0520832778303332 0.291827545624745 0.60593220338983
0.0692476646325104 0.298652581294598 0.60593220338983
0.0888047775671642 0.294822468755198 0.60593220338983
0.101035084468369 0.302755677901497 0.60593220338983
0.112101486385566 0.30029538993349 0.60593220338983
0.122919274122674 0.298287713684592 0.60593220338983
0.144408735700354 0.307886085357868 0.60593220338983
0.153502216174317 0.308838826049713 0.60593220338983
0.165555727051207 0.303362399932314 0.60593220338983
0.169480545544995 0.304324968212111 0.60593220338983
0.194199569695103 0.304834920201237 0.60593220338983
0.207422904839585 0.315493071204658 0.60593220338983
0.221531640670303 0.308303223349845 0.60593220338983
0.228100130698759 0.313270784594921 0.60593220338983
0.253720459459025 0.311169668624881 0.60593220338983
0.265932448389516 0.311841436944145 0.60593220338983
0.274362579560088 0.312234376635935 0.60593220338983
0.288841093559208 0.323748505978527 0.60593220338983
0.312465946035366 0.315618748729187 0.60593220338983
0.316877105305193 0.323295137566379 0.60593220338983
0.345058775928044 0.32203278930732 0.60593220338983
0.361562023059387 0.322673588610762 0.60593220338983
0.37524590901865 0.329934305734796 0.60593220338983
0.378351694158514 0.32496239417636 0.60593220338983
0.397209782945023 0.333606043919657 0.60593220338983
0.433562530987959 0.336688156851651 0.60593220338983
0.437097449792816 0.326545618752149 0.60593220338983
0.448647772738306 0.338455259598879 0.60593220338983
0.464934256147352 0.33429986017645 0.60593220338983
0.484928682602217 0.341442776936437 0.60593220338983
-0.5 0.25249833711719 0.488934298920851
-0.5 0.245598619405565 0.505708751514759
-0.5 0.253247621161031 0.508076670238062
-0.5 0.247700764235676 0.516482976493771
-0.5 0.251399422386709 0.531565888966861
-0.5 0.251992004969607 0.530847207796958
-0.5 0.250800982636671 0.539859736424973
-0.5 0.246172240578222 0.552109755586862
-0.5 0.249867117403777 0.558229658985462
-0.5 0.252161091016185 0.568924389493344
-0.5 0.245910764112987 0.578566279912577
-0.5 0.250495319667734 0.589101074470049
-0.499302523330814 0.250882218107738 0.591101694915254
-0.5 0.252572219938489 0.60116272100148
-0.5 0.247994611805073 0.604603185938146
-0.488992583558828 0.255426852957595 0.60593220338983
-0.473796949855807 0.249446770207733 0.60593220338983
-0.471043308243896 0.249522469396578 0.60593220338983
-0.460417680762899 0.258026874779748 0.60593220338983
-0.450012395780048 0.256141578858575 0.60593220338983
-0.445807786953826 0.257731063620766 0.60593220338983
-0.432866489682732 0.254198452618927 0.60593220338983
-0.419787978840621 0.256683634625195 0.60593220338983
-0.412850529149004 0.260550075451794 0.60593220338983
-0.404600750055424 0.25620258601691 0.60593220338983
-0.400377228198348 0.256941074996862 0.60593220338983
-0.392072323371876 0.26268219591779 0.60593220338983
-0.377394188943271 0.263299420522581 0.60593220338983
-0.37082013979507 0.265835552908856 0.60593220338983
-0.354557047630625 0.261072149739063 0.60593220338983
-0.353868784949619 0.268663152617739 0.60593220338983
-0.337759829327026 0.270102367316534 0.60593220338983
-0.329870980040679 0.265327102233043 0.60593220338983
-0.317923908224577 0.270231384845005 0.60593220338983
-0.310521849149677 0.273132221135731 0.60593220338983
-0.306991090051537 0.26730859971909 0.60593220338983
-0.288062361899388 0.266523761589159 0.60593220338983
-0.270242170472286 0.271924235648201 0.60593220338983
-0.273807334055025 0.27464916479616 0.60593220338983
-0.25361477277716 0.275672511112955 0.60593220338983
-0.249242026738735 0.274370743397031 0.60593220338983
-0.233931445621272 0.278571815685462 0.60593220338983
-0.225124321517277 0.277390090381046 0.60593220338983
-0.216556281571005 0.275490683992297 0.60593220338983
-0.212455003182798 0.283321144119179 0.60593220338983
-0.194307845686923 0.278205410034973 0.60593220338983
-0.183720403457118 0.280537192594726 0.60593220338983
-0.172850727274968 0.28519307547367 0.60593220338983
-0.160908527795614 0.281762611069288 0.60593220338983
-0.141281677523591 0.28964768142376 0.60593220338983
-0.146799602295924 0.290118681821538 0.60593220338983
-0.119642009839272 0.286828421911438 0.60593220338983
-0.119910649672202 0.290707701357053 0.60593220338983
-0.0990556046470892 0.292266529143745 0.60593220338983
-0.08848779189807 0.291108376512762 0.60593220338983
-0.0781416391092738 0.294190245471283 0.60593220338983
-0.0683596761230877 0.288658378985931 0.60593220338983
-0.0542362215746078 0.291522723509062 0.60593220338983
-0.0482573474145311 0.291759814925526 0.60593220338983
-0.029739403530235 0.301858853470116 0.60593220338983
-0.0158246798520081 0.302508044062677 0.60593220338983
-0.00725362126419782 0.297073896007349 0.60593220338983
0.0120699598641838 0.305295851687208 0.60593220338983
0.0187183034381156 0.297069790697039 0.60593220338983
0.027964917187132 0.298922896496907 0.60593220338983
0.0443034644643764 0.306714602992564 0.60593220338983
0.0638415373300921 0.301110493067753 0.60593220338983
0.0627974542758349 0.308579314531278 0.60593220338983
0.0750694999936553 0.304293101726777 0.60593220338983
0.0957238363568675 0.308388179438688 0.60593220338983
0.117879772784503 0.315643814057678 0.60593220338983
0.124961410795061 0.316986378679374 0.60593220338983
0.135937647953504 0.314197004340326 0.60593220338983
0.147816104619497 0.318920215974576 0.60593220338983
0.171124842046633 0.312018033598782 0.60593220338983
0.18140498894823 0.316723267825444 0.60593220338983
0.192368034159233 0.315854298937308 0.60593220338983
0.200458594744991 0.318412721129976 0.60593220338983
0.218013994401908 0.317188638170728 0.60593220338983
0.22992402298858 0.32644872747679 0.60593220338983
0.242195110117698 0.328059694251453 0.60593220338983
0.261876292639084 0.330313475730963 0.60593220338983
0.272159747901758 0.32992750320421 0.60593220338983
0.297858797129155 0.327541672140079 0.60593220338983
0.314080318907615 0.330748439159951 0.60593220338983
0.327004324103471 0.33444461089659 0.60593220338983
0.331860577300534 0.336236056997225 0.60593220338983
0.358962806853047 0.334181815737659 0.60593220338983
0.380636917027382 0.33694112521108 0.60593220338983
0.381956409266973 0.337083179759519 0.60593220338983
0.404911618283383 0.344236863558664 0.60593220338983
0.421139077428352 0.336824673063805 0.60593220338983
0.434167323573449 0.347486599784832 0.60593220338983
0.462018077270482 0.346482896379337 0.60593220338983
0.466872933416689 0.345793178717428 0.60593220338983
0.477415744374461 0.34723483532346 0.60593220338983
-0.5 0.257222162779277 0.489498265986225
-0.5 0.258232863544917 0.495256911085044
-0.5 0.257962883172521 0.51180191255807
-0.5 0.262053864244765 0.521047897180564
-0.5 0.258285749689275 0.52913977703302
-0.5 0.261675677689789 0.529911978087707
-0.5 0.261901012426736 0.535057743510268
-0.5 0.259700081194423 0.546682914761518
-0.5 0.257715714253827 0.558265302834264
-0.5 0.256511921689718 0.562595708114962
-0.5 0.257957755526682 0.578892394902739
-0.5 0.257792435539481 0.58043399791917
-0.495854152997477 0.255236197410968 0.591101694915254
-0.5 0.255700175849365 0.604814163363011
-0.497687696695522 0.259277333010107 0.60593220338983
-0.48247696165518 0.258852807644001 0.60593220338983
-0.479831262960848 0.258088915801338 0.60593220338983
-0.477255343863207 0.263449809672026 0.60593220338983
-0.46513020869572 0.261767235232047 0.60593220338983
-0.451431051870393 0.266020212926601 0.60593220338983
-0.440938426303936 0.260463319214294 0.60593220338983
-0.43665533653145 0.261845678932537 0.60593220338983
-0.420046386825423 0.268218299912428 0.60593220338983
-0.415954140598116 0.270033851589889 0.60593220338983
-0.406932294334627 0.264930909473692 0.60593220338983
-0.402766117854226 0.272028825205218 0.60593220338983
-0.390247006924254 0.267062651599694 0.60593220338983
-0.384707571456589 0.273572485542334 0.60593220338983
-0.366682604986223 0.268133708664054 0.60593220338983
-0.359782768463842 0.276820937650634 0.60593220338983
-0.352979826351685 0.269721459192502 0.60593220338983
-0.337724267439478 0.274823439952803 0.60593220338983
-0.328115605585687 0.275315017983348 0.60593220338983
-0.319117229928332 0.280039629721973 0.60593220338983
-0.304607553218216 0.282197428394212 0.60593220338983
-0.298412605215311 0.282005964527871 0.60593220338983
-0.290737019891151 0.283457081344816 0.60593220338983
-0.272873321314442 0.280387163543303 0.60593220338983
-0.273756244968818 0.282988400392777 0.60593220338983
-0.255087387699762 0.287251121244203 0.60593220338983
-0.248621255345321 0.286385673499353 0.60593220338983
-0.238253277769884 0.288941544791695 0.60593220338983
-0.223742211797732 0.282533797895273 0.60593220338983
-0.219075340526507 0.290126616488584 0.60593220338983
-0.20489042164336 0.292054022950874 0.60593220338983
-0.195594083108606 0.285743280548095 0.60593220338983
-0.184406625146101 0.28862163975288 0.60593220338983
-0.171246157605912 0.290958062718339 0.60593220338983
-0.170157197492212 0.292100029473973 0.60593220338983
-0.142855121433424 0.297895286002206 0.60593220338983
-0.14352648346671 0.292367367918699 0.60593220338983
-0.123073124422213 0.293149924892657 0.60593220338983
-0.119265302019575 0.295715921732041 0.60593220338983
-0.0949061032981308 0.302306000185597 0.60593220338983
-0.0926144051189587 0.299590016138108 0.60593220338983
-0.077961690281765 0.2988289156426 0.60593220338983
-0.0624820418511065 0.304071871270446 0.60593220338983
-0.0632860131901837 0.308777282725991 0.60593220338983
-0.0467827454947985 0.301310199798403 0.60593220338983
-0.0401499313992557 0.30468065507052 0.60593220338983
-0.0116990550021837 0.311367228643692 0.60593220338983
-0.0168774582333107 0.313316785062658 0.60593220338983
0.00735950850911306 0.309703533832948 0.60593220338983
0.0201098100792816 0.31465623703431 0.60593220338983
0.0301685650158421 0.315513324921699 0.60593220338983
0.0396432642518818 0.314759109048792 0.60593220338983
0.0527266117626407 0.312953626311844 0.60593220338983
0.0664388618009415 0.315183197154878 0.60593220338983
0.0799678111408247 0.31757562425515 0.60593220338983
0.10130091845234 0.320346608478266 0.60593220338983
0.10800838781205 0.322393236990865 0.60593220338983
0.114713994221204 0.320441823339292 0.60593220338983
0.140816276275033 0.323355826968283 0.60593220338983
0.152640164896545 0.323036144209601 0.60593220338983
0.162262342298587 0.328223113770527 0.60593220338983
0.166626277973987 0.324930162046531 0.60593220338983
0.197693352266852 0.335364228872226 0.60593220338983
0.205080934466499 0.335188928910043 0.60593220338983
0.212497167972525 0.335397709398719 0.60593220338983
0.239883936367565 0.33146969753518 0.60593220338983
0.241606192070202 0.336879986948234 0.60593220338983
0.270523154944216 0.339474299076178 0.60593220338983
0.28276366356631 0.340562230707153 0.60593220338983
0.297689227652297 0.336210195631783 0.60593220338983
0.304531342434775 0.339552036695663 0.60593220338983
0.332599721181927 0.345740890414136 0.60593220338983
0.331931354205384 0.340780247802304 0.60593220338983
0.367013834420576 0.344513277730361 0.60593220338983
0.369507445610437 0.348896505041692 0.60593220338983
0.398308659514981 0.349845124501419 0.60593220338983
0.396100422020905 0.354412172776067 0.60593220338983
0.41324672230967 0.347324139268866 0.60593220338983
0.442596311651825 0.356037583360034 0.60593220338983
0.448160221867431 0.359089917359366 0.60593220338983
0.462610890910839 0.361702493691025 0.60593220338983
0.497105135465184 0.366012144755478 0.60593220338983
-0.5 0.264523185702921 0.491468673033387
-0.5 0.267727047585317 0.497799032655223
