ply
format ascii 1.0
element vertex 889
property float x
property float y
property float z
end_header
0.499999999999999 -0.0712346859675334 0.342687496089581
0.499999999999999 -0.0642427113670379 0.348660581999404
0.499999999999999 -0.0671453759240458 0.363118163333749
0.499999999999999 -0.0766885721497499 0.361344763284006
0.498984202169089 -0.0785200815615851 0.366666666666666
0.490340689395069 -0.0807179438708421 0.366666666666666
0.48809668931142 -0.0927375458276706 0.366666666666666
0.477610170007744 -0.103048209421246 0.366666666666667
0.468654732054763 -0.116374185224965 0.366666666666666
0.46358736650205 -0.111754782758179 0.366666666666666
0.456972144229588 -0.121835145774907 0.366666666666666
0.455842189053195 -0.137371305613666 0.366666666666666
0.454547458803668 -0.140149060843334 0.366666666666666
0.445738860909262 -0.150278193265271 0.366666666666666
0.441865071711563 -0.15513698149546 0.366666666666667
0.43111143848932 -0.163920717432259 0.366666666666666
0.425875531507186 -0.171159487585863 0.366666666666667
0.420587138524792 -0.186213682499012 0.366666666666666
0.411359586565395 -0.184201241517382 0.366666666666666
0.405876320602978 -0.202599272565564 0.366666666666666
0.398367628724416 -0.208808413529444 0.366666666666666
0.394275897347509 -0.218427236252459 0.366666666666666
0.386091933461184 -0.220892794740505 0.366666666666666
0.378294062425147 -0.228217291063266 0.366666666666666
0.370903263197852 -0.23931347938256 0.366666666666666
0.370965338117603 -0.248955892449963 0.366666666666666
0.499999999999999 -0.0819519945339629 0.32821640876994
0.499999999999999 -0.0949382043466123 0.329934860855622
0.499999999999999 -0.0867056523495179 0.351626485264123
0.499999999999999 -0.0864533110051838 0.362843076351506
0.49665426128365 -0.0886601732060227 0.366666666666666
0.491641888762562 -0.0907392447298284 0.366666666666666
0.486034826268743 -0.100760919498906 0.366666666666667
0.480034168696647 -0.113492278682408 0.366666666666666
0.478613719327457 -0.116580280671372 0.366666666666666
0.474781126128998 -0.124802311404218 0.366666666666667
0.466112008191507 -0.131481486376694 0.366666666666666
0.463472696995852 -0.140862452919887 0.366666666666666
0.458534836570337 -0.144399552746137 0.366666666666666
0.446023538305675 -0.157861862548015 0.366666666666666
0.447475097651597 -0.15902385803318 0.366666666666666
0.441348783945091 -0.166764274404573 0.366666666666667
0.425660970392336 -0.180161327018966 0.366666666666666
0.423024258968829 -0.189122612657267 0.366666666666666
0.420951742618685 -0.191721235831585 0.366666666666666
0.412589159253872 -0.209523460674456 0.366666666666666
0.408412309231187 -0.210880045497895 0.366666666666666
0.402586542130542 -0.220632733677379 0.366666666666666
0.397281852347449 -0.228503866763186 0.366666666666666
0.394324029235503 -0.237006395791219 0.366666666666666
0.377507043093196 -0.245537455679021 0.366666666666666
0.499999999999999 -0.105949879296295 0.321140399980174
0.499999999999999 -0.105163317669059 0.332319646968787
0.499999999999999 -0.111792033092426 0.34028358268555
0.499999999999999 -0.0942519813129711 0.359263795871031
0.499999999999999 -0.100616449616853 0.358217184557796
0.495658344351082 -0.0994239152371787 0.366666666666666
0.487990910436458 -0.113304279051597 0.366666666666666
0.48650945298571 -0.118167760045404 0.366666666666666
0.478815640051134 -0.128650417932135 0.366666666666666
0.473378126126841 -0.139265238370824 0.366666666666666
0.465280329396621 -0.143019528385579 0.366666666666666
0.46267236945101 -0.158076169668278 0.366666666666666
0.458324260542888 -0.167941551722559 0.366666666666666
0.456891067226532 -0.172445218631182 0.366666666666666
0.446430612559635 -0.176470994230513 0.366666666666666
0.443484006426886 -0.180370376266992 0.366666666666667
0.433695753632695 -0.201454642224408 0.366666666666666
0.4235853225611 -0.201731449247486 0.366666666666666
0.424729344041287 -0.211569379088063 0.366666666666666
0.413926244045795 -0.217812353569308 0.366666666666666
0.403082980737683 -0.23361005601412 0.366666666666666
0.405050050621099 -0.238123657069087 0.366666666666666
0.396519577808691 -0.244211309893169 0.366666666666666
0.499999999999999 -0.111607471457997 0.323366744524756
0.499999999999999 -0.119800752726117 0.319380996138646
0.499999999999999 -0.121724882025974 0.332654720616249
0.499999999999999 -0.115383489971619 0.341892088586864
0.499999999999999 -0.120347977331684 0.351918476350228
0.499999999999999 -0.118507225019369 0.357324500340527
0.495582910970803 -0.124499811946255 0.366666666666666
0.489577613031682 -0.134782048865328 0.366666666666666
0.48078670773664 -0.139543418188182 0.366666666666666
0.48057316084245 -0.138110042027694 0.366666666666666
0.474727477909355 -0.156491131553018 0.366666666666666
0.467419994598887 -0.160231400314741 0.366666666666666
0.462456364907327 -0.169144579344135 0.366666666666666
0.460982357432093 -0.176942975933669 0.366666666666666
0.451921508982985 -0.191416456183662 0.366666666666666
0.442422234655744 -0.189626779372028 0.366666666666667
0.441120136056841 -0.201210856335778 0.366666666666667
0.43752076778383 -0.209378819520984 0.366666666666666
0.424226221573954 -0.218641843167843 0.366666666666666
0.42561178683184 -0.226654649724391 0.366666666666666
0.410556848172762 -0.23191668397354 0.366666666666666
0.406229998119481 -0.248213911266904 0.366666666666666
0.453374474324992 -0.2 0.169034324529613
0.454294642968413 -0.2 0.177117985420995
0.454525337533742 -0.2 0.188907389621557
0.453918082976023 -0.2 0.197129170847726
0.451625624858067 -0.2 0.216850310507786
0.451071628489147 -0.2 0.227865675614145
0.499999999999999 -0.128659020672929 0.332094932267222
0.499999999999999 -0.136526054229975 0.325466062296666
0.499999999999999 -0.125925488596394 0.351197031383973
0.499999999999999 -0.12827666591119 0.357510472216866
0.499999999999999 -0.13254604794253 0.360406143548728
0.497984911056434 -0.133489239806766 0.366666666666666
0.492392825271428 -0.139366332662207 0.366666666666666
0.487435062733306 -0.151196023382569 0.366666666666666
0.477325988646532 -0.155482617803282 0.366666666666666
0.481713383800786 -0.166680383391567 0.366666666666666
0.46634358455138 -0.174043871505758 0.366666666666666
0.464821288861791 -0.182231416963461 0.366666666666666
0.455156455711545 -0.192348060253805 0.366666666666666
0.447870940206723 -0.201785005618819 0.366666666666666
0.450871745542699 -0.208763396316075 0.366666666666666
0.43613767471321 -0.218639362486383 0.366666666666666
0.43607989350607 -0.227875329146993 0.366666666666666
0.42503165059761 -0.238701343006974 0.366666666666666
0.423670498580378 -0.245685605778371 0.366666666666666
0.456241030346084 -0.2 0.17465971016935
0.464437501568763 -0.2 0.185839036601333
0.460499628757516 -0.2 0.199936874861904
0.464775327145968 -0.2 0.207258171073744
0.459914515038393 -0.2 0.205400987800128
0.461512329473937 -0.2 0.22188600361237
0.457471909253841 -0.2 0.227378088701942
0.464311289617507 -0.2 0.237794203064047
0.46655996672512 -0.2 0.24872445122128
0.499999999999999 -0.153078738094386 0.322157181236559
0.499999999999999 -0.159112898928966 0.322620034184247
0.499999999999999 -0.147732419613426 0.336984826068837
0.499999999999999 -0.150542818792696 0.354179663581264
0.499999999999999 -0.146604186495187 0.365183083393208
0.493977792462532 -0.1507039228608 0.366666666666666
0.493473592064387 -0.153500517078166 0.366666666666666
0.48753715401386 -0.169069339347443 0.366666666666667
0.487196907607299 -0.16991434642911 0.366666666666666
0.47382255436505 -0.182988044430525 0.366666666666666
0.469045482102038 -0.190552115310923 0.366666666666666
0.461321345411569 -0.200244572703368 0.366666666666666
0.455233827518712 -0.202420549844929 0.366666666666666
0.457896167064509 -0.211002112829493 0.366666666666666
0.444933392922464 -0.22389836468005 0.366666666666666
0.438265681083731 -0.23448860776081 0.366666666666666
0.431685115152354 -0.237487546540054 0.366666666666666
0.43382496776759 -0.246688916849809 0.366666666666666
0.479636930233511 -0.2 0.181894451002367
0.481069711108615 -0.2 0.200184072776986
0.47979598807526 -0.2 0.202658434382056
0.479131886595874 -0.2 0.213882017568291
0.476455558674186 -0.2 0.221150824380915
0.475231012918541 -0.2 0.223435042675616
0.477358763261258 -0.2 0.245166669600377
0.472384337573877 -0.2 0.2443171327603
0.476022509672516 -0.2 0.266528391735318
0.499999999999999 -0.159556765265793 0.317421452270325
0.499999999999999 -0.156738980236533 0.32723859046797
0.499999999999999 -0.161210338183159 0.332379470863004
0.499999999999999 -0.167417340460374 0.337061243786868
0.499999999999999 -0.170545763064053 0.343364608541098
0.499999999999999 -0.16854206209932 0.358650873438083
0.49821061148893 -0.165391579217112 0.366666666666666
0.490307972326227 -0.168058570678349 0.366666666666666
0.488312387940253 -0.177445491212581 0.366666666666666
0.481018846639889 -0.184617017078045 0.366666666666666
0.473723298709066 -0.202314547380134 0.366666666666666
0.467810141329913 -0.203061158002543 0.366666666666667
0.463266885098255 -0.211325684980766 0.366666666666666
0.460218902352673 -0.224394626305519 0.366666666666666
0.454920417593184 -0.226190547630788 0.366666666666666
0.443951214095289 -0.238318148300867 0.366666666666666
0.441298454442949 -0.245193436379514 0.366666666666666
0.485258529463484 -0.2 0.195408880785724
0.484321703279716 -0.2 0.197251476285757
0.484667965519566 -0.2 0.216807524188282
0.483226092604653 -0.2 0.218316296175075
0.488183665766169 -0.2 0.23220366836451
0.48511961526504 -0.2 0.239436521187574
0.483714067928131 -0.2 0.247922063189356
0.483824764422097 -0.2 0.254594860162444
0.481598190146353 -0.2 0.268203823605067
0.486179780820083 -0.2 0.281447127217725
0.490520396501462 -0.2 0.294343338180524
0.499999999999999 -0.181102620169218 0.320494104303189
0.499999999999999 -0.180102432895742 0.326160156861441
0.499999999999999 -0.173572760935138 0.345312022874684
0.499999999999999 -0.183675409547031 0.346467420115192
0.499999999999999 -0.182852075036131 0.351809284240015
0.499999999999999 -0.177756833218962 0.365536310208578
0.493680608942269 -0.190411566566326 0.366666666666666
0.496489367709471 -0.189144923129376 0.366666666666666
0.483752027369749 -0.204089750501407 0.366666666666666
0.482010912207421 -0.21094235945594 0.366666666666666
0.468836819691152 -0.22025711315639 0.366666666666666
0.461719983526931 -0.227113291048485 0.366666666666667
0.453858698077218 -0.240942177593892 0.366666666666666
0.455034954429591 -0.243898417991729 0.366666666666666
0.493106115765905 -0.2 0.203609812374983
0.498724117437704 -0.2 0.202288664461149
0.49227819989658 -0.2 0.212253109097283
0.498890174819535 -0.2 0.230332868198294
0.49934926293674 -0.2 0.233172070886404
0.499999999999999 -0.204241727031714 0.251674620543746
0.494728559963066 -0.2 0.252726370635203
0.498643448904418 -0.2 0.270502383121072
0.49254350829503 -0.2 0.270109045341733
0.489720233740909 -0.2 0.280572355213323
0.493992533158316 -0.2 0.293091308739538
0.498662510483535 -0.2 0.310747556638417
0.499999999999999 -0.196218845064019 0.317971233750644
0.499999999999999 -0.19435356758327 0.335078042651561
0.499999999999999 -0.190633697721163 0.338843154016593
0.499999999999999 -0.205276478444657 0.340616095797813
0.499999999999999 -0.193443296912364 0.356047660324666
0.499999999999999 -0.19012450610536 0.361248650497999
0.497594700509209 -0.205383737322537 0.366666666666666
0.490711477243888 -0.203872943541049 0.366666666666666
0.48565313946067 -0.209052806986758 0.366666666666666
0.478871636095923 -0.221452749314981 0.366666666666666
0.474808320670767 -0.238900830811783 0.366666666666666
0.471943250558996 -0.237147080817387 0.366666666666666
0.457050603015671 -0.247915968909457 0.366666666666667
0.499999999999999 -0.203475673972953 0.196213191246098
0.499999999999999 -0.215910965500687 0.201128425453681
0.499999999999999 -0.211016167533947 0.22239018037392
0.499999999999999 -0.203393553216702 0.227132734049157
0.499999999999999 -0.218047052059556 0.224823957656611
0.499999999999999 -0.221105966971991 0.234126863105188
0.499999999999999 -0.210952978409755 0.251490271253576
0.499999999999999 -0.218324453462119 0.248903426413391
0.499999999999999 -0.211057203397904 0.269630590313611
0.499999999999999 -0.206131572631744 0.281407326224126
0.499999999999999 -0.220105558571359 0.277563262251295
0.499999999999999 -0.208244088277287 0.298862497663923
0.499999999999999 -0.216726243017618 0.301041228934247
0.499999999999999 -0.209321364027433 0.324827478578753
0.499999999999999 -0.210072574186075 0.320346432679314
0.499999999999999 -0.208602943840935 0.336460669476052
0.499999999999999 -0.217494501028867 0.344255297544725
0.499999999999999 -0.203557950263306 0.361723253473808
0.499999999999999 -0.211312232771611 0.356761754125396
0.493381304998238 -0.219882453997914 0.366666666666666
0.487776477627425 -0.225231771407909 0.366666666666666
0.48271696289694 -0.234775509767733 0.366666666666666
0.485707630539508 -0.23967444552813 0.366666666666666
0.475638224760259 -0.249498790619816 0.366666666666666
0.499999999999999 -0.237307458248399 0.174769729642131
0.499999999999999 -0.221025007872294 0.195940449962834
0.499999999999999 -0.227546553179715 0.207055616092662
0.499999999999999 -0.227932986008271 0.208919878772015
0.499999999999999 -0.220767208619137 0.230751390314777
0.499999999999999 -0.224600347291847 0.236172823782644
0.499999999999999 -0.229137530559934 0.231178715372725
0.499999999999999 -0.220980609547711 0.254449903329038
0.499999999999999 -0.230880383005734 0.257717647383226
0.499999999999999 -0.220237766325447 0.275253665707303
0.499999999999999 -0.236684633129023 0.267108852018543
0.499999999999999 -0.228019981740287 0.281014088015071
0.499999999999999 -0.229075841024754 0.295060882134715
0.499999999999999 -0.225868249945794 0.309384994902292
0.499999999999999 -0.222800258416548 0.320158672784129
0.499999999999999 -0.234088268226322 0.317210195916646
0.499999999999999 -0.227550178114106 0.328770274554709
0.499999999999999 -0.219183384002013 0.346333277204229
0.499999999999999 -0.227349463369182 0.350087965640713
0.499778111586479 -0.224388425813164 0.366666666666667
0.494200749162152 -0.225910899557704 0.366666666666666
0.490277852661629 -0.238744657380056 0.366666666666666
0.483245597854002 -0.246048351648038 0.366666666666666
0.499999999999999 -0.244252906987435 0.189972887872902
0.499999999999999 -0.240443156283114 0.208329353587011
0.499999999999999 -0.239537392927484 0.214353903791038
0.499999999999999 -0.236675786117923 0.226024180099076
0.499999999999999 -0.24225033909044 0.236356753491478
0.499999999999999 -0.246309473585148 0.235166960304334
0.499999999999999 -0.243066709053905 0.248997472516337
0.499999999999999 -0.240892086846572 0.259277936421055
0.499999999999999 -0.246791938108981 0.273773125222231
0.499999999999999 -0.241609583689493 0.286586868546288
0.499999999999999 -0.248699877177132 0.291387674428501
0.499999999999999 -0.24155636429255 0.305659943458877
0.499999999999999 -0.239433646882446 0.324890805591563
0.499999999999999 -0.241782982347168 0.325737444521744
0.499999999999999 -0.24729412834186 0.322026563822609
0.499999999999999 -0.244088574678623 0.343511373132661
0.499999999999999 -0.244202125287215 0.355342420171305
0.499999999999999 -0.237762738452829 0.366066477788364
0.497578635037253 -0.244401004877835 0.366666666666666
0.49432132446612 -0.248514117366052 0.366666666666666
-0.499536691025578 0.25 0.287782552044078
-0.493530302376925 0.25 0.240547196137471
-0.492842431817995 0.25 0.248957133751032
-0.493274185782266 0.25 0.260132971702682
-0.494013483277319 0.25 0.269159651260163
-0.492319133802336 0.25 0.273535660699473
-0.496280161374077 0.25 0.283563244023111
-0.49500761122066 0.25 0.301099017087619
-0.492462810138244 0.25 0.306642435770399
-0.498304981692515 0.25 0.310240874281178
-0.497008140738123 0.25 0.323381503136359
-0.491784587880437 0.249999999999999 0.334924339657926
-0.49366558589776 0.249999999999999 0.350303001480613
-0.494933607315031 0.25 0.349253729070322
-0.492449265356706 0.25 0.363708687786364
-0.495463237046639 0.239104550585595 0.366666666666667
-0.494813601285798 0.221298105193203 0.366666666666666
-0.496738108817593 0.21347851914624 0.366666666666666
-0.499419854451628 0.203968700176507 0.366666666666666
-0.49048645774592 0.25 0.241502512342409
-0.488551734760418 0.25 0.245107808922311
-0.487936994127886 0.25 0.262126447164595
-0.48554976747749 0.25 0.274662738125556
-0.484493105589454 0.249999999999999 0.276352891330002
-0.483443415067771 0.249999999999999 0.285214088915511
-0.48887348708112 0.25 0.299748628808959
-0.489417531103657 0.25 0.30590794782741
-0.483875596017009 0.25 0.321979275281619
-0.489816025403138 0.25 0.316673701385841
-0.483549255656023 0.25 0.3404983992419
-0.490577781502887 0.249999999999999 0.335494560353544
-0.485964028664324 0.249999999999999 0.352708551753565
-0.487759676296516 0.249999999999999 0.353753003295571
-0.490549562010744 0.242960654490351 0.366666666666666
-0.485055006676998 0.242499023473754 0.366666666666666
-0.492717786432721 0.221919116428246 0.366666666666666
-0.492163738522696 0.213901860537043 0.366666666666666
-0.493505462047711 0.20541771052331 0.366666666666666
-0.492745281823463 0.193642581659942 0.366666666666667
-0.497327470403389 0.185438378587993 0.366666666666666
-0.499394819848869 0.17520181654761 0.366666666666666
-0.499055771843164 0.167468561066136 0.366666666666666
-0.475504510569471 0.25 0.23889233453503
-0.476481148319812 0.249999999999999 0.247656659355819
-0.475027843691441 0.25 0.257989131116011
-0.476791476614074 0.25 0.269930990111848
-0.478709745354367 0.25 0.275048462101098
-0.474020548300699 0.25 0.290865899688166
-0.473200911242769 0.249999999999999 0.296546556180914
-0.477550957149046 0.25 0.307388932393256
-0.473244461714943 0.25 0.316384979028777
-0.478707078892298 0.25 0.318766714790992
-0.477946049471057 0.25 0.331091325589425
-0.475952813419404 0.25 0.33842492016149
-0.472757209363807 0.25 0.350138794384461
-0.480428857552197 0.249999999999999 0.358635953364818
-0.474579195658608 0.246225260099422 0.366666666666666
-0.479103347174691 0.245399766926278 0.366666666666666
-0.478341389906138 0.230465471614122 0.366666666666666
-0.482472922378541 0.221014173896235 0.366666666666666
-0.484606094282392 0.212028523423535 0.366666666666666
-0.486823552651344 0.200037551522134 0.366666666666666
-0.486168193521756 0.182873444309746 0.366666666666666
-0.487956797882482 0.170352939168255 0.366666666666666
-0.490202557973227 0.168116375908795 0.366666666666666
-0.496187789616697 0.152622426647121 0.366666666666666
-0.495047362004388 0.143902419049161 0.366666666666666
-0.496511919783137 0.132986111042641 0.366666666666666
-0.494657502161676 0.132910515491342 0.366666666666666
-0.499052131472883 0.113545968537856 0.366666666666666
-0.4649136095956 0.25 0.239294266602286
-0.467851893767094 0.25 0.254360198382549
-0.466010268171881 0.25 0.262837111739061
-0.466858244248611 0.25 0.26815683785142
-0.465913649330546 0.25 0.278726299320623
-0.470293509965425 0.249999999999999 0.284586449427401
-0.471035741440566 0.249999999999999 0.288049914251792
-0.471012194020597 0.25 0.310792272479553
-0.465691278809893 0.25 0.316399340546354
-0.465331041757414 0.25 0.324668849934469
-0.46878422743162 0.25 0.338280102562471
-0.468165502057745 0.249999999999999 0.341442901553562
-0.465129055477263 0.249999999999999 0.351395080496215
-0.47022990021164 0.25 0.358407658341333
-0.469454901881896 0.24897884299694 0.366666666666666
-0.472015288194375 0.243963501198202 0.366666666666666
-0.475612088013512 0.230034843744169 0.366666666666667
-0.472614307058665 0.21699359117754 0.366666666666666
-0.475305955501965 0.210618878224119 0.366666666666666
-0.477764912795441 0.196799717114351 0.366666666666666
-0.47598932918692 0.193651041393916 0.366666666666666
-0.480153402327668 0.18051069287202 0.366666666666666
-0.479928216716946 0.166543643731985 0.366666666666666
-0.486218128648854 0.158208012471699 0.366666666666667
-0.484510396320777 0.150211268063806 0.366666666666666
-0.490149688325636 0.138009648423081 0.366666666666666
-0.4893841629797 0.130155657285048 0.366666666666667
-0.494108492668849 0.122890646126898 0.366666666666666
-0.490095071663696 0.10938420785465 0.366666666666666
-0.498939136281608 0.0940001073431689 0.366666666666666
-0.499584104804893 0.0834301852395757 0.366666666666666
-0.498900000782934 0.0607452631773753 0.366666666666666
-0.463185788894094 0.25 0.233507848854747
-0.457894622938776 0.249999999999999 0.252882378431205
-0.454200551379728 0.25 0.25440076936128
-0.462060611654653 0.249999999999999 0.268878338463013
-0.457286343721942 0.25 0.280558909162613
-0.46279955615419 0.25 0.280127836589181
-0.461718691163576 0.25 0.294299106098434
-0.458817651376991 0.25 0.29979651426819
-0.462562801181478 0.25 0.314289996253418
-0.456010622808193 0.25 0.317562732953391
-0.456380009989897 0.25 0.327731273346243
-0.461552499439899 0.25 0.342949185916328
-0.456312069489424 0.25 0.346019946865763
-0.459723797809165 0.25 0.354352629541126
-0.462496155299056 0.244704648485387 0.366666666666666
-0.465293431265103 0.231625768673772 0.366666666666667
-0.464872508025957 0.230938936010755 0.366666666666666
-0.460044637915356 0.223860218592266 0.366666666666666
-0.463952863407091 0.209725171692485 0.366666666666666
-0.467374301243946 0.206004277645669 0.366666666666666
-0.464527919611669 0.185340681188086 0.366666666666666
-0.469067257589755 0.172340373866094 0.366666666666666
-0.468653222452056 0.16357001677431 0.366666666666666
-0.476783735625789 0.157331106466004 0.366666666666666
-0.471736370674893 0.143075299773762 0.366666666666666
-0.473392221005926 0.137137477739574 0.366666666666666
-0.477726359466916 0.126373605885919 0.366666666666666
-0.482823681662162 0.119154925894062 0.366666666666666
-0.482720354866698 0.107118781235627 0.366666666666666
-0.487184004560892 0.0970982952767171 0.366666666666666
-0.490052425724879 0.0809201993906818 0.366666666666666
-0.484870849693794 0.067507675844396 0.366666666666666
-0.49298392709149 0.065099335112784 0.366666666666667
-0.491474325265678 0.0524331578086336 0.366666666666667
-0.498184821660352 0.0395453166121112 0.366666666666666
-0.491186684914418 0.0301097194287466 0.366666666666666
-0.492650306536657 0.0216552229398539 0.366666666666666
-0.498474809555933 0.00176660871118761 0.366666666666667
-0.497892702633084 -0.0105583046427905 0.366666666666666
-0.45 0.222348635428595 0.20737833310885
-0.45 0.245670380696853 0.246711325855695
-0.451816403858807 0.25 0.25504721819026
-0.450392353070603 0.25 0.267281335104909
-0.45 0.234775495595739 0.259117272179434
-0.45 0.242774101893213 0.288290789941482
-0.45383134791009 0.249999999999999 0.292948111683718
-0.451448983470468 0.25 0.302684522544682
-0.45 0.228085009148654 0.286946846481359
-0.445811464611394 0.25 0.326838520033639
-0.448796188364857 0.25 0.33174889309338
-0.450404018978594 0.25 0.336982440292895
-0.453812298342067 0.25 0.347306868876904
-0.447849863497557 0.25 0.357228990437501
-0.451994003665386 0.249893528354628 0.366666666666666
-0.448057314393919 0.240472061268508 0.366666666666666
-0.451312797815775 0.230545722492273 0.366666666666667
-0.454257913061732 0.216883763256635 0.366666666666666
-0.457829323664745 0.203848162508985 0.366666666666666
-0.458592758440369 0.199751744876761 0.366666666666666
-0.46286993322821 0.182543443588618 0.366666666666666
-0.459939526606206 0.17533728288254 0.366666666666666
-0.45912963224347 0.170349951446111 0.366666666666666
-0.467980077821793 0.163510259860966 0.366666666666666
-0.470157384295877 0.146911120074559 0.366666666666666
-0.469707197867024 0.134284341497719 0.366666666666666
-0.466281206889884 0.132346268733744 0.366666666666667
-0.467710249637471 0.115307259151231 0.366666666666666
-0.472865650961855 0.105870712103391 0.366666666666666
-0.471528315145101 0.0878647139826336 0.366666666666666
-0.474421091251745 0.0761364607040698 0.366666666666666
-0.477632614060168 0.0786426364514921 0.366666666666666
-0.476014064008952 0.0577070408207161 0.366666666666666
-0.483081036211588 0.0499619501511647 0.366666666666666
-0.481009773710647 0.0406455661771172 0.366666666666666
-0.482123200808984 0.0395640060316394 0.366666666666666
-0.490351687786565 0.02083315780748 0.366666666666666
-0.488003180383929 0.0140347556303787 0.366666666666666
-0.485758186132381 -0.000691321618268375 0.366666666666666
-0.493332352873421 -0.0138603061826322 0.366666666666666
-0.493939965065369 -0.0305677021898668 0.366666666666666
-0.499986403403089 -0.0416791186070663 0.366666666666666
-0.494532335964634 -0.0598499128575623 0.366666666666666
-0.495363990623678 -0.060337149526435 0.366666666666666
-0.45 0.212295161911631 0.222240400933265
-0.45 0.214152342137473 0.250886228991862
-0.45 0.202212494184781 0.254685832420593
-0.45 0.217269965323745 0.269005557168584
-0.441905393586846 0.25 0.31798762124962
-0.436967921005143 0.25 0.316681565737576
-0.441469667944553 0.25 0.331588690518745
-0.441308060107192 0.25 0.343338246641761
-0.436847824955594 0.25 0.353625553864621
-0.440844254847041 0.25 0.357433970945266
-0.442790359488806 0.244239705698295 0.366666666666666
-0.444767158258919 0.235629675686633 0.366666666666666
-0.442640394361755 0.226841730450739 0.366666666666666
-0.445936868720159 0.214940868683782 0.366666666666666
-0.442927693887777 0.20883449062198 0.366666666666666
-0.453251166329367 0.19380511076172 0.366666666666666
-0.446035628646929 0.187655642202731 0.366666666666666
-0.450044680978132 0.171623272839206 0.366666666666666
-0.456346942772698 0.166508079330287 0.366666666666666
-0.456096630510319 0.152638243993312 0.366666666666666
-0.457213722091406 0.14787015874897 0.366666666666666
-0.458311519722632 0.140218647862104 0.366666666666666
-0.462222077250619 0.118639980807028 0.366666666666666
-0.464290617237411 0.114655963139137 0.366666666666666
-0.459779252218239 0.102421168880285 0.366666666666666
-0.465841975044903 0.0879024483211007 0.366666666666666
-0.461525195259611 0.0877930059596074 0.366666666666666
-0.467522728668165 0.0688719115835845 0.366666666666666
-0.467200380050033 0.0602369323521652 0.366666666666666
-0.47368000598681 0.0538447838939045 0.366666666666666
-0.469388317728686 0.0459491746665666 0.366666666666666
-0.478000656350887 0.026672250368744 0.366666666666666
-0.479378741066354 0.0246110756970059 0.366666666666666
-0.478573223827741 0.00793926086591562 0.366666666666666
-0.478259910159537 -0.0091237392546211 0.366666666666667
-0.484127142471035 -0.0165225775956135 0.366666666666666
-0.480594145751859 -0.029242784796033 0.366666666666666
-0.490830924978754 -0.0342977348364601 0.366666666666666
-0.491842203606272 -0.0398011874089718 0.366666666666666
-0.488571920155581 -0.0713513430940861 0.366666666666666
-0.491146892058828 -0.078431970933975 0.366666666666666
-0.496131542887003 -0.0933370695875391 0.366666666666666
-0.490581980575574 -0.0956740411113746 0.366666666666666
-0.497611646899075 -0.106816702597623 0.366666666666666
-0.498224419144198 -0.141292285877177 0.366666666666666
-0.432386741167959 0.249999999999999 0.321585159814759
-0.428154267215353 0.25 0.333203123857054
-0.435515624678756 0.25 0.340914898069321
-0.427304129289836 0.25 0.349347435314419
-0.429630389472292 0.25 0.363964107089237
-0.432175231346751 0.25 0.364592968163789
-0.428093635428683 0.243568156141924 0.366666666666666
-0.430687569097379 0.222364103263496 0.366666666666666
-0.432328776671949 0.217119346277136 0.366666666666666
-0.43929318495371 0.200407328863422 0.366666666666667
-0.437376294851641 0.192950113646312 0.366666666666666
-0.43770759662357 0.190158453148423 0.366666666666666
-0.438197157415562 0.176942883015794 0.366666666666667
-0.445759652237293 0.167637229630119 0.366666666666666
-0.448638436380195 0.161766273500001 0.366666666666666
-0.444509229540236 0.146934790164422 0.366666666666666
-0.45339505577043 0.135799513104588 0.366666666666666
-0.446803355005719 0.129712670709829 0.366666666666666
-0.453361658326088 0.119776215608118 0.366666666666666
-0.453517306563667 0.109356899013234 0.366666666666666
-0.458562013837574 0.0999399319309019 0.366666666666667
-0.461203508616714 0.0920094754201298 0.366666666666666
-0.453436485863817 0.0768022536843535 0.366666666666666
-0.460952805635768 0.0660999155315882 0.366666666666666
-0.465392875251166 0.0551261028153785 0.366666666666666
-0.463147464804605 0.0453263133536888 0.366666666666666
-0.469383533904649 0.0259257190230276 0.366666666666666
-0.467682407966297 0.016820364909955 0.366666666666666
-0.468268074382947 0.00920047631298961 0.366666666666667
-0.475678600105672 -0.0130791069270387 0.366666666666666
-0.476260530073595 -0.0161392590014494 0.366666666666666
-0.478325711197389 -0.0211485068321969 0.366666666666666
-0.480915065077668 -0.039844079077788 0.366666666666666
-0.48112928744084 -0.0438708638888674 0.366666666666666
-0.48378985726506 -0.0673890133149205 0.366666666666666
-0.480935953827076 -0.0793904115228918 0.366666666666666
-0.485759352335769 -0.083671202450298 0.366666666666666
-0.479519155285028 -0.0942717206041723 0.366666666666666
-0.490502884674112 -0.115049943578556 0.366666666666666
-0.489041400872287 -0.119264742217117 0.366666666666666
-0.49152474168153 -0.136435313039279 0.366666666666666
-0.493025525953431 -0.148176057278912 0.366666666666666
-0.494055777690213 -0.16936361582128 0.366666666666667
-0.493006550918644 -0.175737864787637 0.366666666666666
-0.494950188212343 -0.191235809489632 0.366666666666666
-0.498303212298976 -0.191650200222925 0.366666666666666
-0.41739825058794 0.25 0.325563374057215
-0.422234267841792 0.25 0.328066932359095
-0.4252625287308 0.25 0.340844701904886
-0.419700735343003 0.25 0.348619071457637
-0.423813724964028 0.25 0.360789286089484
-0.418382270766056 0.247545344161848 0.366666666666666
-0.419050271734637 0.242923887591019 0.366666666666666
-0.426741545209167 0.231771309908618 0.366666666666666
-0.424949494344278 0.219690922674894 0.366666666666666
-0.43067824324 0.214361191961951 0.366666666666667
-0.430585356596922 0.195407607338639 0.366666666666666
-0.435232956946584 0.183422147710903 0.366666666666666
-0.436460598575513 0.175980036296595 0.366666666666666
-0.433305539631147 0.167023854512862 0.366666666666666
-0.435574974516318 0.163090380532154 0.366666666666666
-0.438617648568164 0.153844374803439 0.366666666666666
-0.442397009546768 0.143822893970161 0.366666666666666
-0.438011851676242 0.126591772325887 0.366666666666666
-0.437005268324578 0.119465990831813 0.366666666666666
-0.44707296853448 0.105950435556047 0.366666666666666
-0.441107111194871 0.0916658774843384 0.366666666666666
-0.450429345015688 0.0851057961135572 0.366666666666666
-0.452242882814575 0.0747361836656766 0.366666666666667
-0.448000348162778 0.0671144550292592 0.366666666666666
-0.453824678540894 0.0532874781059829 0.366666666666666
-0.456368343793306 0.0457918180790875 0.366666666666666
-0.450615021207104 0.0337524563550104 0.366666666666666
-0.459734241125182 0.0192150972961509 0.366666666666666
-0.45809486824099 0.0120035611326467 0.366666666666666
-0.464579751381263 -0.00221913055488401 0.366666666666666
-0.458903361137951 -0.0125142477066703 0.366666666666666
-0.463316338666416 -0.0276548033013647 0.366666666666666
-0.462487818685537 -0.037124082027904 0.366666666666666
-0.470607481233828 -0.0431389388482777 0.366666666666666
-0.471910537558292 -0.068822256795423 0.366666666666666
-0.472889480812119 -0.0742873755176679 0.366666666666666
-0.473809633919926 -0.0845415859105777 0.366666666666666
-0.476121504521636 -0.0994899445904262 0.366666666666666
-0.477663665306352 -0.119662170332625 0.366666666666666
-0.483665748888544 -0.117401236674075 0.366666666666666
-0.481939581456626 -0.13836204973755 0.366666666666666
-0.479808023293476 -0.147547462042224 0.366666666666666
-0.485835162436103 -0.166242674220714 0.366666666666666
-0.483007599058031 -0.181872819194489 0.366666666666666
-0.487938015731001 -0.184177322238133 0.366666666666666
-0.493477779366293 -0.194870101301918 0.366666666666666
-0.493213715763192 -0.206176132727576 0.366666666666666
-0.494353155470165 -0.21767794561415 0.366666666666666
-0.49736979609301 -0.229754684107494 0.366666666666666
-0.496444370430168 -0.244748531508387 0.366666666666666
-0.417079250756239 0.25 0.325713320617682
-0.413100650551506 0.249999999999999 0.336962987682273
-0.40886839862262 0.25 0.341287528357874
-0.409565811581889 0.25 0.347256023966417
-0.416079065095457 0.249999999999999 0.361455207600481
-0.414720554876094 0.249999999999999 0.361893212356902
-0.414519481687827 0.240479421890884 0.366666666666667
-0.412714012998292 0.226978959387296 0.366666666666666
-0.415826577540235 0.227214928711891 0.366666666666666
-0.415526506799604 0.208732067405639 0.366666666666666
-0.420140262912796 0.199461169841362 0.366666666666666
-0.422634013688139 0.186968007219736 0.366666666666666
-0.42540072898993 0.17966570804459 0.366666666666666
-0.424743689480477 0.17749721319552 0.366666666666666
-0.425915332174115 0.164178794630774 0.366666666666666
-0.427169770333287 0.147896094161415 0.366666666666666
-0.425255615221129 0.135788820747119 0.366666666666666
-0.42949407453435 0.121093150313468 0.366666666666666
-0.428252887131204 0.116841478898414 0.366666666666666
-0.431884622776238 0.10359319225916 0.366666666666666
-0.436003655943951 0.101048183123338 0.366666666666666
-0.437152507480343 0.089700102144097 0.366666666666666
-0.435168559443046 0.0810831608922219 0.366666666666666
-0.444781645163981 0.0627663871687565 0.366666666666666
-0.444401557400272 0.0583421136595431 0.366666666666666
-0.440418968379429 0.0370251430854793 0.366666666666666
-0.447349518522196 0.0349486922142008 0.366666666666666
-0.442884481488355 0.0178200950196492 0.366666666666666
-0.450009090153046 0.00828214852910298 0.366666666666666
-0.44622717102281 -0.00529809137298852 0.366666666666666
-0.452982668863169 -0.0137193994622563 0.366666666666666
-0.457160341192779 -0.0276731176570411 0.366666666666666
-0.455914051128951 -0.037928973267724 0.366666666666666
-0.45347858262043 -0.0470200336600212 0.366666666666666
-0.460666412150364 -0.0671719650346947 0.366666666666666
-0.464547114299703 -0.0727622033196544 0.366666666666666
-0.458810330849438 -0.0857792751636197 0.366666666666666
-0.467546260558826 -0.0994545008852202 0.366666666666666
-0.47103837189346 -0.109102691985914 0.366666666666666
-0.464052952110925 -0.125651774500704 0.366666666666666
-0.470619314430375 -0.138943936785164 0.366666666666666
-0.477149665847697 -0.151181211353296 0.366666666666666
-0.476188238683276 -0.161606194195589 0.366666666666666
-0.473541803816467 -0.168303187424047 0.366666666666666
-0.476238225314719 -0.186939979082654 0.366666666666666
-0.480027204705213 -0.200947557992575 0.366666666666666
-0.485852265733441 -0.205902007057327 0.366666666666666
-0.487898062934319 -0.224494824799048 0.366666666666666
-0.488686115315669 -0.243903542535663 0.366666666666666
-0.486697962940847 -0.241113763584205 0.366666666666666
-0.40513404544375 0.249999999999999 0.321092641804579
-0.405695283461421 0.25 0.333394739303066
-0.405974762516256 0.25 0.341959156448382
-0.399012593254041 0.25 0.350437062782528
-0.40558393012624 0.25 0.357261972498635
-0.402498510037802 0.25 0.365947487120803
-0.403967947699586 0.234115276840427 0.366666666666666
-0.407081146660089 0.233261602084897 0.366666666666666
-0.404270682981189 0.216793220287975 0.366666666666666
-0.404540422174731 0.214171692324841 0.366666666666666
-0.413549566720416 0.195621656853871 0.366666666666666
-0.4131382144361 0.184955277114145 0.366666666666666
-0.416761537500272 0.180867566438453 0.366666666666666
-0.416185521202493 0.168069602421627 0.366666666666667
-0.415105612030622 0.15948296972326 0.366666666666666
-0.418667288919201 0.14950131519594 0.366666666666666
-0.414582619809704 0.138667775228488 0.366666666666666
-0.419860213583996 0.129021352084186 0.366666666666666
-0.422912136543613 0.114354150852825 0.366666666666666
-0.422588733317424 0.110836569431155 0.366666666666666
-0.426971764274071 0.0998901562464217 0.366666666666666
-0.42538013823698 0.0822736906056191 0.366666666666667
-0.429089061698897 0.0766220483058292 0.366666666666666
-0.434865582000615 0.0635256422698319 0.366666666666667
-0.429388328004951 0.0600946197374677 0.366666666666666
-0.43625200759623 0.0399458039094381 0.366666666666666
-0.431515208895705 0.0378436563107852 0.366666666666666
-0.432423598366527 0.0181867126841142 0.366666666666667
-0.437287346259706 0.0122994466108402 0.366666666666666
-0.443648189254766 0.00204506082987882 0.366666666666666
-0.438788865991971 -0.0189512457467239 0.366666666666666
-0.442442040904563 -0.0271363399314848 0.366666666666666
-0.442805299619122 -0.0400130514245147 0.366666666666666
-0.444458169748548 -0.0507879641308589 0.366666666666666
-0.454155118052319 -0.067911759136644 0.366666666666666
-0.447229481577465 -0.0776830590483169 0.366666666666667
-0.454658690281785 -0.0813406771268422 0.366666666666666
-0.45466014188002 -0.0967766784494806 0.366666666666667
-0.458624660511659 -0.112125903341592 0.366666666666666
-0.454562218205595 -0.122578562482144 0.366666666666667
-0.454514894820523 -0.133825633880863 0.366666666666666
-0.465927325265683 -0.153464203457816 0.366666666666666
-0.465812401316993 -0.166704151401585 0.366666666666667
-0.461505018136362 -0.170680973036824 0.366666666666666
-0.472516849715756 -0.196177680705167 0.366666666666666
-0.466131283148761 -0.205244163000654 0.366666666666666
-0.467304558584678 -0.22184459345317 0.366666666666666
-0.476095140862505 -0.226140607529028 0.366666666666666
-0.477583989116741 -0.243581548140245 0.366666666666666
-0.481594609609323 -0.248353395611339 0.366666666666666
-0.395352830827582 0.249999999999999 0.321090904209128
-0.392607182001058 0.25 0.335677092326206
-0.397025553154727 0.25 0.33513815707886
-0.390536531491208 0.25 0.349259103274835
-0.390468447354012 0.25 0.363148406576202
-0.394395540850448 0.249999999999999 0.365465124793084
-0.393845224286151 0.239857559183473 0.366666666666666
-0.392025562530833 0.230718608942811 0.366666666666666
-0.400109861789063 0.225455997872761 0.366666666666667
-0.402644304142766 0.209635132963517 0.366666666666667
-0.40498750135434 0.201097191680872 0.366666666666667
-0.400599458904404 0.185177808302495 0.366666666666666
-0.408839361620854 0.179349088909982 0.366666666666666
-0.402393624635571 0.166711291635078 0.366666666666666
-0.411347776608821 0.164057347215953 0.366666666666666
-0.412871716960016 0.149177155781363 0.366666666666666
-0.414476157787883 0.135797068541014 0.366666666666666
-0.408173161517265 0.127182943275353 0.366666666666666
-0.415810663929767 0.120445394453365 0.366666666666666
-0.419748261005193 0.101969301577252 0.366666666666667
-0.420570831306202 0.0936278449730801 0.366666666666667
-0.420239317907609 0.0891299449460311 0.366666666666666
-0.414617513521754 0.0801391725561584 0.366666666666666
-0.415958699238941 0.0668229113794825 0.366666666666666
-0.426829628403346 0.0521774830020074 0.366666666666666
-0.425527805320247 0.0388171781688994 0.366666666666667
-0.421108696509273 0.0368773099670172 0.366666666666667
-0.422712537701094 0.0216865298155796 0.366666666666666
-0.424901061758817 -0.000885092002299044 0.366666666666666
-0.425938912360297 0.00665577344217503 0.366666666666666
-0.431536312372282 -0.0234263534985511 0.366666666666666
-0.433833276307341 -0.0312560104457455 0.366666666666666
-0.43136981794759 -0.0446870090097586 0.366666666666666
-0.442353347063455 -0.0451973119438372 0.366666666666666
-0.435854201686699 -0.0530840325987041 0.366666666666666
-0.435342030777017 -0.0723250495336689 0.366666666666666
-0.442608303362649 -0.0851762465399195 0.366666666666666
-0.447568943660789 -0.101304074609578 0.366666666666666
-0.440171764198105 -0.101451974042936 0.366666666666666
-0.44755955978321 -0.119493839793448 0.366666666666666
-0.450631371966968 -0.130074129498975 0.366666666666666
-0.45466411100691 -0.141749990296856 0.366666666666667
-0.454823652665429 -0.149764926800399 0.366666666666666
-0.458443999152027 -0.170360496133599 0.366666666666666
-0.451922291972483 -0.18320373989891 0.366666666666666
-0.458327435068519 -0.198725296619793 0.366666666666666
-0.457984204032146 -0.210730009312464 0.366666666666666
-0.45911279297993 -0.226952362506296 0.366666666666666
-0.468542421984578 -0.244621671993411 0.366666666666666
-0.382360725750863 0.249999999999999 0.325653319255989
-0.384804094638527 0.25 0.332313111203282
-0.379838159245413 0.25 0.346642403982976
-0.385040379730702 0.25 0.351731176304529
-0.387614131646368 0.25 0.364310636662236
-0.386104605321396 0.249112657748383 0.366666666666666
-0.387597829169909 0.24028987429143 0.366666666666667
-0.389445570375117 0.230861514654098 0.366666666666667
-0.393832793003602 0.218142439229922 0.366666666666667
-0.394350861040311 0.205161678131253 0.366666666666666
-0.39444109338464 0.19223656321344 0.366666666666666
-0.397484376577563 0.191597878663422 0.366666666666666
-0.394008175363772 0.180672314379272 0.366666666666666
-0.395253781557403 0.171951959305539 0.366666666666666
-0.396481058177663 0.160306140415069 0.366666666666666
-0.398530049163817 0.146616948220167 0.366666666666666
-0.399654571676819 0.133010441098793 0.366666666666666
-0.398973481830267 0.131784148125537 0.366666666666666
-0.408614358538821 0.114138113654502 0.366666666666666
-0.403964316170011 0.100766271699569 0.366666666666666
-0.405994944770191 0.0907094570579367 0.366666666666666
-0.412481972219369 0.0798521358500722 0.366666666666666
-0.408260934571947 0.0753802111694803 0.366666666666666
-0.414389438602382 0.0575857561674027 0.366666666666666
-0.40909920296929 0.0534185812537712 0.366666666666666
-0.419646130537725 0.0413710520403575 0.366666666666666
-0.412402953533486 0.0286762324328227 0.366666666666666
-0.420047247586423 0.0203590927027234 0.366666666666666
-0.41808111402909 0.00833051027511885 0.366666666666666
-0.41540164611934 -0.00218093808814786 0.366666666666666
-0.420223224218395 -0.0106578574295648 0.366666666666666
-0.420601455480863 -0.0302141216719668 0.366666666666666
-0.423104521951898 -0.0395963559692458 0.366666666666666
-0.425610115527763 -0.0476370431261333 0.366666666666666
-0.428472415424257 -0.071258228176357 0.366666666666666
-0.431676902079846 -0.0734967940370142 0.366666666666666
-0.430280265004231 -0.0900906645160699 0.366666666666666
-0.434029546667207 -0.0903431447016214 0.366666666666666
-0.432186213046051 -0.106927937807208 0.366666666666666
-0.438107432396205 -0.121232954891284 0.366666666666667
-0.437108335581117 -0.126727494558289 0.366666666666667
-0.443457783277014 -0.139262955337485 0.366666666666666
-0.439898636657872 -0.162401717480003 0.366666666666666
-0.444210026207341 -0.167697303803088 0.366666666666666
-0.450945324457721 -0.184186543851407 0.366666666666666
-0.4448343008831 -0.197659924911205 0.366666666666666
-0.448368511955859 -0.212129600746367 0.366666666666666
-0.452843967108692 -0.22388965454926 0.366666666666667
-0.453299361680921 -0.246425047975099 0.366666666666667
-0.373960931443083 0.25 0.318671047376473
-0.37833719511617 0.25 0.330301818744278
-0.378259933425668 0.25 0.341329005267079
-0.372756607828312 0.25 0.348471253521999
-0.373742816076155 0.25 0.360097264103308
-0.378472488383227 0.249670058909546 0.366666666666666
-0.380155472206316 0.235721112828079 0.366666666666666
-0.383481244001708 0.2263422291164 0.366666666666666
-0.378217920078653 0.216459179198102 0.366666666666666
-0.377967541548103 0.204248996403565 0.366666666666666
-0.38297525917802 0.197617340000361 0.366666666666666
-0.385228354315817 0.192033173975388 0.366666666666666
-0.387098635307148 0.173789838801021 0.366666666666666
-0.38507453267811 0.162396461516025 0.366666666666666
-0.387625411790945 0.157410774398487 0.366666666666666
-0.390904904595321 0.141887540984094 0.366666666666666
-0.392136930712122 0.135925299927347 0.366666666666666
-0.396795652468988 0.13052973545989 0.366666666666666
-0.397266237359297 0.119793979127296 0.366666666666667
-0.391005573859053 0.105292640267844 0.366666666666666
-0.397529369723954 0.0871130369465308 0.366666666666667
-0.395361700244109 0.0867175952194477 0.366666666666666
-0.403072968584935 0.0726315039256482 0.366666666666666
-0.398524304035348 0.0560471554191332 0.366666666666666
-0.406998205831485 0.0498951513046763 0.366666666666666
-0.405999151571185 0.0438597616662863 0.366666666666667
-0.408537907871611 0.0281175811191673 0.366666666666666
-0.408801127140251 0.0270815241039295 0.366666666666667
-0.4106048360222 0.0123561105962431 0.366666666666666
-0.406142866576672 -0.000289395351967366 0.366666666666666
-0.413699348254753 -0.020740853660232 0.366666666666666
-0.410609513390356 -0.0297007906661459 0.366666666666666
-0.410837618932762 -0.0369879475541883 0.366666666666667
-0.413025368547307 -0.041152083296568 0.366666666666666
-0.41814406990152 -0.0668729052158122 0.366666666666666
-0.421083427149381 -0.065798071861724 0.366666666666666
-0.425884176383122 -0.0887114074027848 0.366666666666666
-0.423731618355132 -0.10532890135685 0.366666666666666
-0.429501051411546 -0.111427782597865 0.366666666666666
-0.431156740222646 -0.130399601082652 0.366666666666666
-0.426640283113819 -0.137539685529866 0.366666666666666
-0.428285653871392 -0.146997808320739 0.366666666666666
-0.428334768893696 -0.17110057486963 0.366666666666666
-0.435445041509808 -0.170494073234909 0.366666666666666
-0.437709411067795 -0.179036956504234 0.366666666666666
-0.436834665131215 -0.202160105797651 0.366666666666666
-0.443181862855164 -0.21117528635376 0.366666666666666
-0.437849563762728 -0.224403236729218 0.366666666666666
-0.44863491108157 -0.245859061248317 0.366666666666666
-0.367915434810974 0.25 0.33368322610984
-0.367877227804531 0.249999999999999 0.341721963443338
-0.366337943723918 0.25 0.351271688577115
-0.371425916666562 0.25 0.360194029958099
-0.36803095054516 0.24482714799481 0.366666666666666
-0.369610392303957 0.244723261092211 0.366666666666666
-0.370863887931984 0.228678030942885 0.366666666666666
-0.37226189207973 0.213092936297966 0.366666666666666
-0.369296376612688 0.213009117377898 0.366666666666666
-0.377075738902891 0.20142641427281 0.366666666666666
-0.375534137392786 0.181412563221119 0.366666666666666
-0.379308509400397 0.180390850394311 0.366666666666666
-0.377447770696924 0.16802067167953 0.366666666666666
-0.377125566559574 0.157071514837039 0.366666666666667
-0.382420873973585 0.142351010873433 0.366666666666666
-0.377780430061229 0.137812399646857 0.366666666666667
-0.380507188778451 0.127380462777099 0.366666666666666
-0.387568583596564 0.126234802339582 0.366666666666667
-0.385338032255632 0.0979710405417656 0.366666666666666
-0.389465325906733 0.10068146790336 0.366666666666666
-0.389048699369589 0.0812798771333176 0.366666666666667
-0.386098740116647 0.0800182710072074 0.366666666666666
-0.39043177797175 0.0654039257705853 0.366666666666666
-0.393628143954677 0.0514889923436598 0.366666666666667
-0.398605351925353 0.0481884656921252 0.366666666666667
