ply
format ascii 1.0
element vertex 906
property float x
property float y
property float z
end_header
-0.261234067017023 0.279182206248736 0.60593220338983
-0.246186132456755 0.280301876283526 0.60593220338983
-0.241353419545774 0.282209971055802 0.60593220338983
-0.233689210642492 0.282945815136519 0.60593220338983
-0.220157113080443 0.289102010483504 0.60593220338983
-0.205612470803398 0.285675918963798 0.60593220338983
-0.196461203332532 0.288574567309258 0.60593220338983
-0.186298357279645 0.290625308820556 0.60593220338983
-0.17333314755221 0.289249591077862 0.60593220338983
-0.161401832599964 0.297188256453788 0.60593220338983
-0.143806432546444 0.297595161496185 0.60593220338983
-0.146854388541347 0.297147538245177 0.60593220338983
-0.121115422565991 0.293635560699009 0.60593220338983
-0.112310482964992 0.296634308789544 0.60593220338983
-0.102167618250214 0.299881055944595 0.60593220338983
-0.0901836203313822 0.300416078895281 0.60593220338983
-0.0890364009873351 0.302608113527451 0.60593220338983
-0.0698162491248242 0.301972104744669 0.60593220338983
-0.0551257232556209 0.303925415602794 0.60593220338983
-0.0439901186154456 0.305655276361309 0.60593220338983
-0.0288948156070593 0.308282045055517 0.60593220338983
-0.00947835903271038 0.311560947311229 0.60593220338983
-0.00570449648933755 0.312988496763358 0.60593220338983
0.00452377587613378 0.307024215173793 0.60593220338983
0.0132005203220136 0.310946067045127 0.60593220338983
0.0302931570660598 0.310252206575093 0.60593220338983
0.0430333215031419 0.313989562565203 0.60593220338983
0.0468858881971788 0.316897075286725 0.60593220338983
0.0779822676040172 0.316328819920855 0.60593220338983
0.0860659018884867 0.315349513667296 0.60593220338983
0.0898626524130998 0.323401951596664 0.60593220338983
0.110496448811338 0.321899857581136 0.60593220338983
0.117605111311394 0.325812907005599 0.60593220338983
0.137302780778097 0.329765276658706 0.60593220338983
0.153678413341695 0.325603353834035 0.60593220338983
0.170460536334171 0.330741553691469 0.60593220338983
0.184913602623078 0.331369343373665 0.60593220338983
0.193400060618752 0.326966881717718 0.60593220338983
0.208390012906675 0.332964233812029 0.60593220338983
0.222190773227585 0.337766399666996 0.60593220338983
0.23637050106129 0.333419984747061 0.60593220338983
0.251419068507272 0.330774078339367 0.60593220338983
0.266396771269044 0.334474958211251 0.60593220338983
0.274903740960891 0.338388409349119 0.60593220338983
0.284401095816838 0.339819759280386 0.60593220338983
0.3064000686211 0.337488580296075 0.60593220338983
0.334514517624005 0.340233408411002 0.60593220338983
0.333641685948677 0.343971851204293 0.60593220338983
0.364413316256651 0.352844365874952 0.60593220338983
0.368593421283839 0.345123471089078 0.60593220338983
0.385623669818437 0.351829180297938 0.60593220338983
0.409996688324285 0.347257863959962 0.60593220338983
0.411275149254734 0.35071557932293 0.60593220338983
0.440803759848756 0.353435869329608 0.60593220338983
0.4624268376768 0.353454270676655 0.60593220338983
0.468346043828298 0.362486437152994 0.60593220338983
0.492851758520096 0.361341895832383 0.60593220338983
0.49826913587682 0.356577574817623 0.60593220338983
-0.5 0.269898162228123 0.490311877814893
-0.5 0.263342634313524 0.497455182000949
-0.5 0.266870846978454 0.502194141300123
-0.5 0.265232735457439 0.511363750953187
-0.5 0.269961410817637 0.52887221279063
-0.5 0.269965465305503 0.530291715955554
-0.5 0.26282604118575 0.548976655136525
-0.5 0.268196262501192 0.545423502377927
-0.5 0.270326890399623 0.560866734797668
-0.5 0.262765532496012 0.56840469944573
-0.5 0.26879997491061 0.575459691638613
-0.5 0.26728733861722 0.586156916654497
-0.498416344952431 0.265769222937645 0.591101694915254
-0.5 0.262609936785992 0.603416068843788
-0.491355512512713 0.269640120404562 0.60593220338983
-0.483305449136812 0.270637024221037 0.60593220338983
-0.485250626722236 0.267217780351322 0.60593220338983
-0.466223571218559 0.265924436711726 0.60593220338983
-0.456023386338678 0.270451656902652 0.60593220338983
-0.450646712646064 0.275238610043796 0.60593220338983
-0.445882371717674 0.271975532784342 0.60593220338983
-0.43815522264157 0.270626147591232 0.60593220338983
-0.421165062150814 0.277182356727744 0.60593220338983
-0.41278490780238 0.27811916442122 0.60593220338983
-0.411790451613949 0.276588559868091 0.60593220338983
-0.401243339139204 0.275713307300129 0.60593220338983
-0.385686861247516 0.278015380923615 0.60593220338983
-0.374768704320565 0.283188439807133 0.60593220338983
-0.366478923261483 0.283749744870593 0.60593220338983
-0.354590714886485 0.277656293028849 0.60593220338983
-0.354103088805739 0.2862075490275 0.60593220338983
-0.340446006936662 0.279385039068766 0.60593220338983
-0.327731782171969 0.287128041976072 0.60593220338983
-0.319734397721752 0.286353084107831 0.60593220338983
-0.313135907888237 0.290423269742551 0.60593220338983
-0.296724727831849 0.287740281389649 0.60593220338983
-0.286482691658932 0.293098876994176 0.60593220338983
-0.281424538815356 0.291586964108991 0.60593220338983
-0.264694936675775 0.293403054352126 0.60593220338983
-0.260842927595505 0.289024640902761 0.60593220338983
-0.254747972563601 0.294397743116128 0.60593220338983
-0.237644486296107 0.295157762345636 0.60593220338983
-0.22205084649781 0.295337603755434 0.60593220338983
-0.20931597869777 0.292811909589487 0.60593220338983
-0.21222626275445 0.295946806561002 0.60593220338983
-0.187888147051774 0.297005186609228 0.60593220338983
-0.187616646255901 0.296109263450502 0.60593220338983
-0.16284551113224 0.304095344996641 0.60593220338983
-0.166507036108517 0.302065150650374 0.60593220338983
-0.154076825812169 0.307863956617812 0.60593220338983
-0.131094453608679 0.306182001838161 0.60593220338983
-0.128101707222951 0.310995178265891 0.60593220338983
-0.114350903432587 0.307683153891157 0.60593220338983
-0.104030198718189 0.305235700094848 0.60593220338983
-0.0874706077561829 0.307462869118094 0.60593220338983
-0.0791138535060508 0.315697113372499 0.60593220338983
-0.0772506368636243 0.313245413693375 0.60593220338983
-0.0525588689609185 0.310990682861113 0.60593220338983
-0.0372911887280965 0.317089509458722 0.60593220338983
-0.0325723082360219 0.315721857958172 0.60593220338983
-0.0222249312615831 0.319498319440594 0.60593220338983
-0.00919374532024354 0.314684528481563 0.60593220338983
0.00800777788219923 0.323498810013312 0.60593220338983
0.0106293886804589 0.318902092430807 0.60593220338983
0.0394146777120088 0.32085199752616 0.60593220338983
0.0394968573895186 0.327054148206975 0.60593220338983
0.0610658620363467 0.327136610919726 0.60593220338983
0.0714159295524044 0.326838415688006 0.60593220338983
0.0801022569528356 0.324127816333578 0.60593220338983
0.102528824413 0.335610120224135 0.60593220338983
0.11352461008184 0.334845688693234 0.60593220338983
0.127390400341414 0.329886724407313 0.60593220338983
0.136275683165637 0.337282983096494 0.60593220338983
0.149579819867136 0.335483690062516 0.60593220338983
0.162245068490299 0.338477122726513 0.60593220338983
0.179813413599784 0.339630171087325 0.60593220338983
0.200488639075332 0.337335486767359 0.60593220338983
0.210526971511833 0.347720024961312 0.60593220338983
0.224566587705577 0.346415096331572 0.60593220338983
0.239511043706891 0.348948686386264 0.60593220338983
0.251468067242233 0.352200769057927 0.60593220338983
0.26065638795699 0.344695022755283 0.60593220338983
0.27462491381606 0.349560463822001 0.60593220338983
0.301477894145191 0.34613356359862 0.60593220338983
0.318318553360896 0.354439404512152 0.60593220338983
0.323710007983985 0.358394351373106 0.60593220338983
0.34821667881612 0.361528614094047 0.60593220338983
0.357209253795144 0.357537887032674 0.60593220338983
0.383090269045701 0.364390642065804 0.60593220338983
0.385031052485459 0.361533098177139 0.60593220338983
0.402778501574381 0.363873560073021 0.60593220338983
0.414894262250282 0.363624228333162 0.60593220338983
0.442012686791385 0.365521279886296 0.60593220338983
0.456245103257572 0.36661367913587 0.60593220338983
0.476975508089113 0.366563533666648 0.60593220338983
0.487861831893301 0.367936995983268 0.60593220338983
-0.5 0.271377233876433 0.489831235556882
-0.5 0.273824331052854 0.496198203472261
-0.5 0.271677675463981 0.507293097833187
-0.5 0.275596375853167 0.511843258840508
-0.5 0.278018008179 0.526069432910888
-0.5 0.27655187519333 0.527524069970052
-0.5 0.273597175430548 0.541057754371067
-0.5 0.276260455466029 0.553623396984475
-0.5 0.275549613943535 0.553570142457858
-0.5 0.272023901989934 0.565239459535163
-0.5 0.272861689713048 0.575661788987225
-0.5 0.272553921771255 0.582955230460726
-0.5 0.271429688552217 0.589543838483812
-0.5 0.277822766783324 0.597647983497219
-0.492555467182796 0.277723086950823 0.60593220338983
-0.486972316410224 0.277064682444531 0.60593220338983
-0.480518104227753 0.273053568473116 0.60593220338983
-0.468894649469028 0.281169207079001 0.60593220338983
-0.458420961418537 0.282137737017656 0.60593220338983
-0.454584525653799 0.280383825486234 0.60593220338983
-0.445728994403158 0.283446009268722 0.60593220338983
-0.433472710949796 0.283767500175624 0.60593220338983
-0.427069939350852 0.285838104922954 0.60593220338983
-0.419663193776115 0.281102091019707 0.60593220338983
-0.401441466717064 0.285478610875104 0.60593220338983
-0.394495958265216 0.28512517496829 0.60593220338983
-0.38795911926515 0.288685753786175 0.60593220338983
-0.376772648955966 0.286519397789422 0.60593220338983
-0.37008246060626 0.286726249298776 0.60593220338983
-0.352050488036879 0.290691598071813 0.60593220338983
-0.347370353820081 0.28765434469493 0.60593220338983
-0.338923660889487 0.293582291258992 0.60593220338983
-0.328289645041721 0.289652322007695 0.60593220338983
-0.316472100438992 0.295007355930478 0.60593220338983
-0.309671596343646 0.296976785750936 0.60593220338983
-0.300663887274152 0.298913749641349 0.60593220338983
-0.284877942744096 0.298659246588179 0.60593220338983
-0.281963562657911 0.29874018530504 0.60593220338983
-0.263840309734239 0.299589442357681 0.60593220338983
-0.261570560488012 0.300198542151508 0.60593220338983
-0.250446135873569 0.305714792845253 0.60593220338983
-0.236985764786371 0.305181717180193 0.60593220338983
-0.234584728610682 0.304105447148507 0.60593220338983
-0.212238173842919 0.304131508787124 0.60593220338983
-0.200244683347586 0.310638557781203 0.60593220338983
-0.188394385234883 0.31214973752228 0.60593220338983
-0.188047024720158 0.308772913861397 0.60593220338983
-0.166107454406576 0.308752815931463 0.60593220338983
-0.152758252092732 0.308777739142174 0.60593220338983
-0.147322925191051 0.308731681791701 0.60593220338983
-0.144570579840833 0.315166341312164 0.60593220338983
-0.124829343077897 0.321152919561729 0.60593220338983
-0.118348036034368 0.320056286831686 0.60593220338983
-0.105798007645693 0.321851038532817 0.60593220338983
-0.0939466935445152 0.316660515371895 0.60593220338983
-0.0741020887251578 0.317643647287098 0.60593220338983
-0.0748578241283844 0.322961531418635 0.60593220338983
-0.0555725597839682 0.320224559871963 0.60593220338983
-0.048127039010267 0.329971994856201 0.60593220338983
-0.0361475520944474 0.322088235096602 0.60593220338983
-0.017909565218968 0.327968690073536 0.60593220338983
-0.00800305700777417 0.331063621580114 0.60593220338983
0.0104720608548027 0.326508044062221 0.60593220338983
0.0153481398675295 0.335639587431911 0.60593220338983
0.0275913816616208 0.338190075413282 0.60593220338983
0.0455067612321503 0.334454154862196 0.60593220338983
0.0514976427303501 0.338387648079438 0.60593220338983
0.06012356735318 0.339290030387116 0.60593220338983
0.0850997667128485 0.335922780703384 0.60593220338983
0.0922310471600038 0.345585103302134 0.60593220338983
0.105842654125483 0.338678568844026 0.60593220338983
0.130062657123151 0.340701931491957 0.60593220338983
0.128618026763515 0.345118753007942 0.60593220338983
0.147016616514203 0.348069564786975 0.60593220338983
0.167512015927616 0.353378948227254 0.60593220338983
0.173509490273506 0.350156673087794 0.60593220338983
0.203348935121069 0.34837928454442 0.60593220338983
0.198827511655924 0.352744048248638 0.60593220338983
0.220632383176357 0.349301572427552 0.60593220338983
0.24348720331804 0.354815988116375 0.60593220338983
0.26114933687161 0.361125581322005 0.60593220338983
0.272239893030565 0.36205627487553 0.60593220338983
0.272834765084456 0.354812935044547 0.60593220338983
0.304564427285708 0.367094619921146 0.60593220338983
0.320581869901974 0.369518864642649 0.60593220338983
0.327668085203294 0.361554346883011 0.60593220338983
0.346727646535919 0.371314110775326 0.60593220338983
0.357794893208203 0.365236354422167 0.60593220338983
0.372256145261127 0.365982001824486 0.60593220338983
0.392959590223059 0.377101971225849 0.60593220338983
0.408677248207099 0.377528277216784 0.60593220338983
0.427572960051842 0.378047578624257 0.60593220338983
0.439198586081024 0.384010869925199 0.60593220338983
0.45719121441906 0.375404789354907 0.60593220338983
0.477065436131281 0.378997309749204 0.60593220338983
0.483509218080341 0.387196845905077 0.60593220338983
0.496902940932706 0.384713544571005 0.60593220338983
-0.5 0.286406906490911 0.49341913417791
-0.5 0.286770598334883 0.493778382380155
-0.5 0.284252183878918 0.512696688757579
-0.5 0.280683614870227 0.521317101318607
-0.5 0.28607433794885 0.518437040359635
-0.5 0.281714366525513 0.533195738843449
-0.5 0.280444805284896 0.539296548808244
-0.5 0.286292501691992 0.543098521692451
-0.5 0.284079473116501 0.558899814093432
-0.5 0.281166021577172 0.567760271332916
-0.5 0.283235901401766 0.579111726736596
-0.5 0.285073477048581 0.584763551748916
-0.5 0.285047159069551 0.595870234290738
-0.4967276346038 0.287853315523812 0.591101694915254
-0.5 0.280005531775162 0.605378925332419
-0.48622996844812 0.287016388792202 0.60593220338983
-0.486093223684319 0.286975978372419 0.60593220338983
-0.472834865401571 0.287653297071156 0.60593220338983
-0.466552925391476 0.287282311145251 0.60593220338983
-0.460157865999181 0.287980904630924 0.60593220338983
-0.446167426495099 0.292406087830037 0.60593220338983
-0.43615562699254 0.287716781486039 0.60593220338983
-0.419549272229177 0.290907727704141 0.60593220338983
-0.415495053938915 0.295446846251193 0.60593220338983
-0.400885804042221 0.297282361338278 0.60593220338983
-0.394451622658571 0.290940865123074 0.60593220338983
-0.391427753961678 0.291713105989263 0.60593220338983
-0.376760121782378 0.301137820978123 0.60593220338983
-0.365986789369298 0.299441076252571 0.60593220338983
-0.361193071322583 0.299873890519944 0.60593220338983
-0.347767791892098 0.303497628363545 0.60593220338983
-0.34165363051006 0.302231382015504 0.60593220338983
-0.320769671854987 0.301847779930217 0.60593220338983
-0.317495614745834 0.305228780591344 0.60593220338983
-0.317538366935513 0.308319536628529 0.60593220338983
-0.299696787264375 0.308349053966261 0.60593220338983
-0.297417769997257 0.308697250700889 0.60593220338983
-0.278701996988853 0.307711780653032 0.60593220338983
-0.268487857908754 0.313785232417005 0.60593220338983
-0.249670588140777 0.313870498344534 0.60593220338983
-0.246186805008667 0.314787544472279 0.60593220338983
-0.239280829857103 0.311162790685317 0.60593220338983
-0.235746305299177 0.315747177290587 0.60593220338983
-0.216962245554357 0.31519823019763 0.60593220338983
-0.204080112168711 0.31686864300568 0.60593220338983
-0.194014766951027 0.319468548852417 0.60593220338983
-0.181400947754906 0.321044650759504 0.60593220338983
-0.171860974768305 0.325320516438032 0.60593220338983
-0.161023911881008 0.319409814862512 0.60593220338983
-0.141952428793508 0.319709928834425 0.60593220338983
-0.130161685528237 0.324293298761333 0.60593220338983
-0.13105859687796 0.322498661891572 0.60593220338983
-0.114059108813936 0.3220347310635 0.60593220338983
-0.100923267293145 0.330629850016799 0.60593220338983
-0.0853811863954902 0.327024085138698 0.60593220338983
-0.0713774073788715 0.32879163536032 0.60593220338983
-0.0630597126471669 0.332621720127125 0.60593220338983
-0.0604804464255485 0.329083654804466 0.60593220338983
-0.0392468759216496 0.338523371302147 0.60593220338983
-0.0328978051740996 0.337688358267551 0.60593220338983
-0.0171191598993146 0.341538663425562 0.60593220338983
-0.0115529700393454 0.342860108271699 0.60593220338983
-0.00184718290807372 0.338713102487078 0.60593220338983
0.0208453798092187 0.338802599184699 0.60593220338983
0.030243410506905 0.339159566106516 0.60593220338983
0.0470541591362143 0.350233670166245 0.60593220338983
0.05718344786349 0.345055363805888 0.60593220338983
0.0579679792262202 0.350073813645853 0.60593220338983
0.0847898872867663 0.352037339065218 0.60593220338983
0.0936002899390892 0.352041353921945 0.60593220338983
0.117067393505322 0.349469539220949 0.60593220338983
0.124892256879605 0.351413655903361 0.60593220338983
0.136118542777255 0.353332402398773 0.60593220338983
0.149290155492465 0.357390952942262 0.60593220338983
0.158816656865869 0.362583583246036 0.60593220338983
0.178915278701913 0.364230137437018 0.60593220338983
0.193805507022061 0.362125043025125 0.60593220338983
0.207705741012333 0.361661234388777 0.60593220338983
0.214410944834452 0.369359462973575 0.60593220338983
0.225417518979012 0.363374274678573 0.60593220338983
0.256911649604479 0.369050986108662 0.60593220338983
0.258907984291744 0.370776260721293 0.60593220338983
0.268339504653313 0.367905592607843 0.60593220338983
0.294677714382845 0.373238579090389 0.60593220338983
0.310313416837954 0.379365993475021 0.60593220338983
0.33422501670678 0.380095215336875 0.60593220338983
0.337653289764069 0.376999842824116 0.60593220338983
0.362265276424624 0.381250422486282 0.60593220338983
0.377807547806137 0.379412247225105 0.60593220338983
0.384272063669941 0.386173872951973 0.60593220338983
0.39499261608263 0.383524625990418 0.60593220338983
0.426027395191664 0.383012905887898 0.60593220338983
0.437517436326042 0.391712004330117 0.60593220338983
0.454076017278824 0.389992381537342 0.60593220338983
0.472646224059941 0.389637251516286 0.60593220338983
0.474976203488035 0.3999386972764 0.60593220338983
-0.5 0.291115293940376 0.488920384507822
-0.5 0.295001159222921 0.501143864651883
-0.5 0.291723730808461 0.511834126758194
-0.5 0.291006093247943 0.512181144609309
-0.5 0.29071822565126 0.521274241204239
-0.5 0.291539086512453 0.530400014265777
-0.5 0.289696869472912 0.54478734074798
-0.5 0.28969607072474 0.554021062586994
-0.5 0.29122746948895 0.5561026349931
-0.5 0.293786176934945 0.561927741421233
-0.5 0.292954261002077 0.571492518927831
-0.5 0.294506225783212 0.583063351079469
-0.498125353716615 0.294196079313508 0.591101694915254
-0.5 0.29537965758835 0.598032467355232
-0.498445452241638 0.293627500202092 0.60593220338983
-0.495034299261734 0.290603909762285 0.60593220338983
-0.476872230514904 0.290169929449659 0.60593220338983
-0.474502215945725 0.29125266444199 0.60593220338983
-0.456231716766779 0.297553742240427 0.60593220338983
-0.454728635514966 0.295083236360707 0.60593220338983
-0.444325341214178 0.293782023176314 0.60593220338983
-0.437966746875122 0.295928410804706 0.60593220338983
-0.422655020842699 0.302475807107887 0.60593220338983
-0.414883699004634 0.299889681171509 0.60593220338983
-0.408432805325304 0.301072039635101 0.60593220338983
-0.401600430238192 0.306780326586648 0.60593220338983
-0.389119679756591 0.308643109650141 0.60593220338983
-0.38084300938204 0.30848461458506 0.60593220338983
-0.36891131949463 0.303785017935636 0.60593220338983
-0.365305925946254 0.307861507938667 0.60593220338983
-0.348895381280992 0.305795220567633 0.60593220338983
-0.344992003684138 0.310020906070145 0.60593220338983
-0.335906486724621 0.309787448254473 0.60593220338983
-0.317351864187643 0.311838929214953 0.60593220338983
-0.309268657169232 0.315173518479928 0.60593220338983
-0.293221659585677 0.316978557080091 0.60593220338983
-0.288375082086277 0.313154371512272 0.60593220338983
-0.283731256117842 0.318282498499978 0.60593220338983
-0.270199813574793 0.317966830782338 0.60593220338983
-0.258952421536263 0.316451309012673 0.60593220338983
-0.248024320511485 0.320288132242855 0.60593220338983
-0.237142623356265 0.322566855434443 0.60593220338983
-0.224133984881101 0.327362344226717 0.60593220338983
-0.210575245055309 0.321732278634143 0.60593220338983
-0.203034684366337 0.327249626358318 0.60593220338983
-0.198642187716204 0.32801798989155 0.60593220338983
-0.18547927933919 0.325432517321178 0.60593220338983
-0.167675489949298 0.333748000808556 0.60593220338983
-0.158829431730852 0.333887737782203 0.60593220338983
-0.14257398434823 0.334137161663281 0.60593220338983
-0.135942368317068 0.338227861167981 0.60593220338983
-0.134186093481154 0.337063753800256 0.60593220338983
-0.117804024563433 0.33482013090137 0.60593220338983
-0.098143624468041 0.341619836269793 0.60593220338983
-0.088713283768306 0.341465028104052 0.60593220338983
-0.0761596637505369 0.345669870125458 0.60593220338983
-0.0744011927910739 0.340413695599089 0.60593220338983
-0.0556437751466909 0.345425548575388 0.60593220338983
-0.0448770229645792 0.347561614749332 0.60593220338983
-0.026906695541616 0.342104544969721 0.60593220338983
-0.0175311589365194 0.343989891562255 0.60593220338983
-0.00228098485015852 0.353790046722946 0.60593220338983
-0.000856690801964725 0.351327621122313 0.60593220338983
0.0242241632771933 0.350308051644916 0.60593220338983
0.0237629543714635 0.348233019279575 0.60593220338983
0.0508468671948646 0.35371453808419 0.60593220338983
0.0642472673377411 0.360820490427225 0.60593220338983
0.0735872128946258 0.36269853559021 0.60593220338983
0.0847695282954133 0.363164941030686 0.60593220338983
0.0958893118215579 0.359217904286959 0.60593220338983
0.105242811706407 0.36192427671397 0.60593220338983
0.121232533049967 0.366034867117324 0.60593220338983
0.128597715268748 0.363632612674633 0.60593220338983
0.15681695013693 0.36673311933233 0.60593220338983
0.164059590634979 0.364159533891052 0.60593220338983
0.18469747835355 0.373337501602341 0.60593220338983
0.194215442174961 0.373081621105752 0.60593220338983
0.216545174368816 0.380181487085063 0.60593220338983
0.219300074986727 0.378997065312508 0.60593220338983
0.227396043308023 0.374588594956577 0.60593220338983
0.251505872505035 0.383045834342618 0.60593220338983
0.257758207770708 0.382507713070406 0.60593220338983
0.271886445102931 0.386493040568433 0.60593220338983
0.291110120681998 0.382148084263792 0.60593220338983
0.317495527387289 0.390303988339631 0.60593220338983
0.327251105549222 0.387680414316251 0.60593220338983
0.347925121587369 0.394378474051972 0.60593220338983
0.347774389161693 0.392315659964146 0.60593220338983
0.382022079078099 0.397395119651566 0.60593220338983
0.394096707884031 0.401216819872385 0.60593220338983
0.413023529388559 0.39783558759624 0.60593220338983
0.415056123973951 0.401158980657229 0.60593220338983
0.44095017279522 0.399600106384696 0.60593220338983
0.451549691845787 0.402604034200393 0.60593220338983
0.459700661230848 0.398750643410493 0.60593220338983
0.482012307456145 0.412446155013961 0.60593220338983
-0.5 0.301005221747458 0.493262655074494
-0.5 0.303515668645748 0.503695640583625
-0.5 0.30091143928215 0.509126846500368
-0.5 0.299259614569361 0.51172322612671
-0.5 0.29614348232534 0.52605452396038
-0.5 0.303245553853501 0.53706216387353
-0.5 0.299211049743399 0.547547427862449
-0.5 0.300622689285361 0.550887836146001
-0.5 0.302426155134997 0.558742681131771
-0.5 0.301439545665129 0.568851245103844
-0.5 0.297224167998874 0.575229458969513
-0.5 0.298373668912774 0.584281439841304
-0.5 0.304093740448565 0.585257063268831
-0.5 0.301195921982944 0.602074207844994
-0.492532219671589 0.300621714698222 0.60593220338983
-0.483253765264635 0.301247589736501 0.60593220338983
-0.485393038400976 0.303218240017332 0.60593220338983
-0.470338866346431 0.307460073406996 0.60593220338983
-0.466064323696655 0.300128222239015 0.60593220338983
-0.460091721917327 0.307646569919743 0.60593220338983
-0.448271256327371 0.310599873857941 0.60593220338983
-0.441514993029786 0.307062952628237 0.60593220338983
-0.425468835592345 0.312614435395935 0.60593220338983
-0.419269657283293 0.313836747132916 0.60593220338983
-0.403247719386091 0.315677320544362 0.60593220338983
-0.396258853621168 0.316176792931358 0.60593220338983
-0.384649936665744 0.312735667037431 0.60593220338983
-0.382866126608022 0.315732493956001 0.60593220338983
-0.368311348903025 0.31264214219377 0.60593220338983
-0.353792015425803 0.320907978193225 0.60593220338983
-0.348742101655255 0.319026985389226 0.60593220338983
-0.33917562771221 0.317244965416737 0.60593220338983
-0.332012191533651 0.323700854003589 0.60593220338983
-0.314875049375074 0.319884156748358 0.60593220338983
-0.308729725128814 0.323633638898325 0.60593220338983
-0.296089127919469 0.322925178075893 0.60593220338983
-0.288108250290625 0.321769588592424 0.60593220338983
-0.278955123896331 0.330484526733867 0.60593220338983
-0.275498354473245 0.323685960933735 0.60593220338983
-0.261696536690585 0.332336195476518 0.60593220338983
-0.244334445566418 0.331663917835076 0.60593220338983
-0.235240572050874 0.331315893476744 0.60593220338983
-0.226184382884083 0.336686819146244 0.60593220338983
-0.220047508449565 0.336439748108096 0.60593220338983
-0.199569202211677 0.331950931957156 0.60593220338983
-0.192305696863609 0.341066149377318 0.60593220338983
-0.17562903609236 0.334542961786713 0.60593220338983
-0.16793167463093 0.336166025516137 0.60593220338983
-0.159346680276784 0.336029721542347 0.60593220338983
-0.157304666344337 0.34210398655101 0.60593220338983
-0.13283471330236 0.339479468577549 0.60593220338983
-0.124224101821483 0.342966576811525 0.60593220338983
-0.121577952209707 0.342923746559504 0.60593220338983
-0.104302839502589 0.3454869641524 0.60593220338983
-0.0922565105249128 0.34954789994497 0.60593220338983
-0.081499301140564 0.351932551539375 0.60593220338983
-0.0671460477591506 0.348638125502788 0.60593220338983
-0.0611167038839149 0.351023641007912 0.60593220338983
-0.0443159136680609 0.349803348004358 0.60593220338983
-0.0266048769783774 0.353372893066083 0.60593220338983
-0.0230974623603874 0.36017913175145 0.60593220338983
-0.00332610096715215 0.363228549120887 0.60593220338983
0.00503096425591938 0.359656011561263 0.60593220338983
0.0222544597829224 0.357920607085401 0.60593220338983
0.0264128974925002 0.358997195900091 0.60593220338983
0.0391170593110646 0.366791317086882 0.60593220338983
0.0566467002307067 0.362048057750661 0.60593220338983
0.073499527369183 0.369429266133139 0.60593220338983
0.0810304877833247 0.368445482345618 0.60593220338983
0.0904634735673906 0.366187915909336 0.60593220338983
0.0993152498411699 0.376105187357552 0.60593220338983
0.128300418270833 0.374884137004491 0.60593220338983
0.136049520437268 0.378790718097044 0.60593220338983
0.141958693612982 0.376663376442852 0.60593220338983
0.157714897892359 0.378246639925016 0.60593220338983
0.18006775967796 0.383156865684395 0.60593220338983
0.191965592007053 0.380935233807442 0.60593220338983
0.197463584052936 0.384236435024063 0.60593220338983
0.227728163907898 0.385265557693578 0.60593220338983
0.225121240521609 0.388078094516017 0.60593220338983
0.249359698823781 0.386513049541611 0.60593220338983
0.26716070185046 0.392912526811188 0.60593220338983
0.287611573351956 0.397093095857216 0.60593220338983
0.291078742367949 0.393497651936133 0.60593220338983
0.312579246372431 0.39621240895962 0.60593220338983
0.334302944138165 0.396519197201125 0.60593220338983
0.345045153288429 0.39621629724574 0.60593220338983
0.343624623241817 0.398575822269268 0.60593220338983
0.367543898975405 0.39977165645918 0.60593220338983
0.390826598881937 0.402571187565808 0.60593220338983
0.402397405371984 0.410770955065933 0.60593220338983
0.418161427734954 0.405309920453028 0.60593220338983
0.434496234772579 0.408780234432628 0.60593220338983
0.457877421422139 0.41065878640799 0.60593220338983
0.471306284022923 0.414909489435618 0.60593220338983
0.477029353514219 0.416382266272167 0.60593220338983
-0.5 0.304786224137077 0.493913484055151
-0.5 0.305801230138834 0.508275904071513
-0.5 0.310503311440133 0.503446640561821
-0.5 0.30710054291907 0.517351513808826
-0.5 0.306923879595244 0.525884981449351
-0.5 0.312228678046041 0.537890082729943
-0.5 0.304556433230224 0.542111629113627
-0.5 0.304719643057283 0.547137068893175
-0.5 0.308058021674004 0.562403707202704
-0.5 0.312300366767521 0.569148925794706
-0.5 0.305676482188849 0.573977514067121
-0.5 0.308754430533966 0.584770738407367
-0.5 0.309277925365818 0.588165652310978
-0.5 0.307808059238159 0.598850743189696
-0.494642319325623 0.304818516269264 0.60593220338983
-0.485911834806737 0.308563383063908 0.60593220338983
-0.47716553859556 0.308830191344788 0.60593220338983
-0.468068579575584 0.314092952542976 0.60593220338983
-0.455033735238427 0.315681617657492 0.60593220338983
-0.457506694714265 0.313343824824415 0.60593220338983
-0.442862472779612 0.317707577031308 0.60593220338983
-0.438039062257484 0.314831981951722 0.60593220338983
-0.422423824718726 0.319981943091019 0.60593220338983
-0.417492877056509 0.319507874422118 0.60593220338983
-0.404026398729927 0.319438556956709 0.60593220338983
-0.396537021539118 0.321762449805994 0.60593220338983
-0.389902877314637 0.325350570207044 0.60593220338983
-0.382015570962102 0.32714246046931 0.60593220338983
-0.368713529574933 0.321012065313609 0.60593220338983
-0.352666923696745 0.329306116071872 0.60593220338983
-0.346209442661528 0.323329541412742 0.60593220338983
-0.34306531585762 0.326101540421379 0.60593220338983
-0.330754869958304 0.325735647063906 0.60593220338983
-0.318303710264826 0.331597693038718 0.60593220338983
-0.311112195404553 0.334901507213636 0.60593220338983
-0.300620541916503 0.334312799896218 0.60593220338983
-0.296857052648177 0.335145814980432 0.60593220338983
-0.276820889626577 0.332090916766188 0.60593220338983
-0.263115579100556 0.334498837334483 0.60593220338983
-0.25846849919595 0.342703861349087 0.60593220338983
-0.25578595060987 0.336470804611855 0.60593220338983
-0.235416274865688 0.337622010270942 0.60593220338983
-0.224105664078587 0.346637448562718 0.60593220338983
-0.209803412743561 0.346987056572186 0.60593220338983
-0.20390927639464 0.345081335583569 0.60593220338983
-0.197414071593618 0.348844699072836 0.60593220338983
-0.192558591683036 0.347458389698387 0.60593220338983
-0.179814616306703 0.343735438320832 0.60593220338983
-0.157531418165808 0.355086370503701 0.60593220338983
-0.148830176810581 0.351594702636669 0.60593220338983
-0.145590331355779 0.349920302345764 0.60593220338983
-0.124332317520712 0.354636776162286 0.60593220338983
-0.120164935932209 0.354805343635976 0.60593220338983
-0.106502621548501 0.353587150177756 0.60593220338983
-0.10092150842753 0.361329233601653 0.60593220338983
-0.079025011339131 0.356465281793657 0.60593220338983
-0.0636758568422175 0.36183892101326 0.60593220338983
-0.0525491274278426 0.36341677657803 0.60593220338983
-0.0437858182219992 0.364222225403032 0.60593220338983
-0.0299855716499143 0.368519092061237 0.60593220338983
-0.0167500210188926 0.370785744421808 0.60593220338983
-0.0111601188566091 0.365103643841533 0.60593220338983
2.91630394226597e-005 0.366665474097051 0.60593220338983
0.0173046431006477 0.373605566683006 0.60593220338983
0.0299697427361293 0.372196224225042 0.60593220338983
0.0504804905917953 0.374907719720362 0.60593220338983
0.0525856352000301 0.373445962023279 0.60593220338983
0.0687956742328778 0.379934133653522 0.60593220338983
0.0751174976001877 0.384897054382479 0.60593220338983
0.0998098172502972 0.379240415409221 0.60593220338983
0.113444833409315 0.379133741693468 0.60593220338983
0.128967958759449 0.387212432786131 0.60593220338983
0.13296402204686 0.391426217885317 0.60593220338983
0.15441821170468 0.386559388035165 0.60593220338983
0.162800146049519 0.395911266007514 0.60593220338983
0.178769290160695 0.388790104113959 0.60593220338983
0.188954697830195 0.394849600243293 0.60593220338983
0.209256590955708 0.393621960685304 0.60593220338983
0.213917552419463 0.394726299562566 0.60593220338983
0.238038502033862 0.399619991561574 0.60593220338983
0.252384457202145 0.39606387784495 0.60593220338983
0.26865390736366 0.398519833945987 0.60593220338983
0.286203652513581 0.408806824278513 0.60593220338983
0.288254912397695 0.407990404533426 0.60593220338983
0.314844196944705 0.405991764565306 0.60593220338983
0.330674468080908 0.410262739351412 0.60593220338983
0.340212079542671 0.410023707556087 0.60593220338983
0.356856924160221 0.419684786998471 0.60593220338983
0.370476609017007 0.416239500066425 0.60593220338983
0.39176964881766 0.421878816685086 0.60593220338983
0.397282013424993 0.414743003946296 0.60593220338983
0.416505482059729 0.422546400978857 0.60593220338983
0.437972381631867 0.42819238905613 0.60593220338983
0.453148631486606 0.430650495387767 0.60593220338983
0.46638112462251 0.427095340698231 0.60593220338983
0.486388504729795 0.432871465239277 0.60593220338983
-0.5 0.317026172427308 0.494823415269616
-0.5 0.318145232800571 0.497138259095644
-0.5 0.31627990491735 0.506378116173109
-0.5 0.316040380542011 0.51587910645464
-0.5 0.317257353942455 0.529037330815028
-0.5 0.315494842237835 0.536868285489605
-0.5 0.319710277940903 0.544684761002109
-0.5 0.313248259885023 0.545350990973136
-0.5 0.315775670699102 0.560455094455035
-0.5 0.3130759997877 0.569340790043722
-0.5 0.319133613423014 0.579611447924294
-0.5 0.32049823677849 0.583312972499142
-0.5 0.31280601432598 0.596402435544559
-0.5 0.315466016268446 0.595820121778223
-0.49330376593581 0.319677105567668 0.60593220338983
-0.493486653373814 0.320412099285601 0.60593220338983
-0.480207536392981 0.320607421773056 0.60593220338983
-0.471481485098637 0.320968523785005 0.60593220338983
-0.464265241264212 0.322265134454578 0.60593220338983
-0.457827969836088 0.320677643242597 0.60593220338983
-0.439579172902124 0.320356500818381 0.60593220338983
-0.431880469611837 0.32460134550922 0.60593220338983
-0.427745427132392 0.322039023018967 0.60593220338983
-0.42044842733908 0.323276887904944 0.60593220338983
-0.407701791569373 0.330980841150799 0.60593220338983
-0.394074426671876 0.331089560064437 0.60593220338983
-0.388998171897885 0.327547280075691 0.60593220338983
-0.382437289253416 0.335649690503646 0.60593220338983
-0.369015466855659 0.337322141724403 0.60593220338983
-0.354521653425536 0.338788115898174 0.60593220338983
-0.349483170013866 0.337611993089923 0.60593220338983
-0.337965955437998 0.33481038998491 0.60593220338983
-0.331815823482748 0.34225197640452 0.60593220338983
-0.31990535232271 0.338419495663262 0.60593220338983
-0.310043886665317 0.339520373619169 0.60593220338983
-0.30008966787234 0.345873286822245 0.60593220338983
-0.292760868447165 0.33985982009188 0.60593220338983
-0.279788615336463 0.342549310386981 0.60593220338983
-0.268601334761676 0.349279500016339 0.60593220338983
-0.249615969100806 0.350301182875456 0.60593220338983
-0.244268398746816 0.344539700993749 0.60593220338983
-0.235246904661111 0.349610946394894 0.60593220338983
-0.227795728737641 0.354039883052291 0.60593220338983
-0.21530692621398 0.357907320952963 0.60593220338983
-0.201420895321789 0.356312496969891 0.60593220338983
-0.192497435353967 0.357635865124133 0.60593220338983
-0.182387557270654 0.353740024769009 0.60593220338983
-0.17843959293018 0.353520024143822 0.60593220338983
-0.16316374121994 0.363891536589182 0.60593220338983
-0.14038783221442 0.359930152584794 0.60593220338983
-0.138130270564097 0.364078112947702 0.60593220338983
-0.132773654500334 0.368276596016539 0.60593220338983
-0.110007673283998 0.368764683898715 0.60593220338983
-0.100074418491885 0.368137508330624 0.60593220338983
-0.0897848078585167 0.367476847791591 0.60593220338983
-0.0856237941968119 0.366200008281005 0.60593220338983
-0.0721954154101793 0.36821584440901 0.60593220338983
-0.0579017808955518 0.375654909927992 0.60593220338983
-0.0346980207145048 0.376164518127462 0.60593220338983
-0.0352650507554892 0.380405591772986 0.60593220338983
-0.0236187646585232 0.376757118900585 0.60593220338983
-0.000138944592916298 0.378237879836136 0.60593220338983
0.00242240364610201 0.378553575109006 0.60593220338983
0.0231218729653576 0.378803044211073 0.60593220338983
0.0392484486005443 0.384791057982268 0.60593220338983
0.0369269211822321 0.380457156490901 0.60593220338983
0.0558319151360198 0.382559347246522 0.60593220338983
0.0690282899862982 0.393977992835066 0.60593220338983
0.0856580205872512 0.389270951557617 0.60593220338983
0.0933082095523578 0.394402149329023 0.60593220338983
0.108643398110585 0.394947216226165 0.60593220338983
0.115875180905975 0.396844745601133 0.60593220338983
0.133470274897873 0.395080065272884 0.60593220338983
0.153169908645695 0.396212578108486 0.60593220338983
0.161597411013741 0.402861642765235 0.60593220338983
0.185215025845677 0.403353088883344 0.60593220338983
0.18676097630456 0.404337217598764 0.60593220338983
0.215056320268385 0.405858131265157 0.60593220338983
0.231881481181271 0.406521950459044 0.60593220338983
0.228273468079781 0.406410951380943 0.60593220338983
0.253272076542235 0.41489266547101 0.60593220338983
0.267121219293785 0.413103707712884 0.60593220338983
0.277014862194816 0.412710707568354 0.60593220338983
0.305616170432543 0.419794093850343 0.60593220338983
0.315157916820438 0.422915711584129 0.60593220338983
0.317962944920081 0.420731392106194 0.60593220338983
0.342223145786104 0.42813209737981 0.60593220338983
0.355797268350518 0.431008672654434 0.60593220338983
0.371005821857916 0.43040410556883 0.60593220338983
0.396811035680698 0.427408733722454 0.60593220338983
0.406486126800231 0.427199107238338 0.60593220338983
0.412543552697234 0.427971138597422 0.60593220338983
0.433949108202777 0.435702939169611 0.60593220338983
0.440530988812127 0.442131422524763 0.60593220338983
0.463160793046025 0.441753778495472 0.60593220338983
0.476078197409554 0.44074083308526 0.60593220338983
0.498581980643355 0.444944963748507 0.60593220338983
-0.5 0.325991880871248 0.491201996109118
-0.5 0.326336335606801 0.503766887245453
-0.5 0.326447803746763 0.508226694198176
-0.5 0.321949233487738 0.521637850794511
-0.5 0.326729515995329 0.523051196232899
-0.5 0.327082548266007 0.532069120672653
-0.5 0.323702969074297 0.541273909429414
-0.5 0.323878444954359 0.54765488262164
-0.5 0.326140554605489 0.558971512866273
-0.5 0.322094146240224 0.568922532540775
-0.5 0.320705560201928 0.579908142656151
-0.5 0.328639674505546 0.581135881242411
-0.496226148407643 0.326759967867532 0.591101694915254
-0.5 0.323818896667014 0.600578914138147
-0.497459985899996 0.323208374892046 0.60593220338983
-0.490308034265334 0.325472197989329 0.60593220338983
-0.47540787143376 0.329759385247533 0.60593220338983
-0.463830069035881 0.333448953308371 0.60593220338983
-0.459751373542705 0.330577965304485 0.60593220338983
-0.459978629341432 0.333179379152139 0.60593220338983
-0.447822532456156 0.33254778610388 0.60593220338983
-0.440533415316054 0.333174267806234 0.60593220338983
-0.427877803708594 0.338107606531951 0.60593220338983
-0.413992649320645 0.340354528731141 0.60593220338983
-0.405205530045156 0.33331402389365 0.60593220338983
-0.389429946179959 0.338814498162108 0.60593220338983
-0.392043232766651 0.338968881538731 0.60593220338983
-0.37509083872437 0.337159449636184 0.60593220338983
-0.376885242113175 0.341049646229037 0.60593220338983
-0.358264502068491 0.345835901331189 0.60593220338983
-0.348557611771293 0.347157831687964 0.60593220338983
-0.338617891961068 0.342956012496863 0.60593220338983
-0.333498208051479 0.34459392486461 0.60593220338983
-0.325006523588048 0.343667138365221 0.60593220338983
-0.30869980374097 0.346824149780458 0.60593220338983
-0.295591242548747 0.355589181731261 0.60593220338983
-0.291201118733061 0.351500088874685 0.60593220338983
-0.279111145175587 0.354850850254987 0.60593220338983
-0.271156724389827 0.350859603533242 0.60593220338983
-0.264959665706306 0.357137186212516 0.60593220338983
-0.248272640683925 0.357414073357123 0.60593220338983
-0.246444947425638 0.356557442795534 0.60593220338983
-0.221592514118568 0.360948750717112 0.60593220338983
-0.214207546871685 0.357548769000874 0.60593220338983
-0.205196032092009 0.365215160955493 0.60593220338983
-0.191924341367737 0.360914657729015 0.60593220338983
-0.182992261538352 0.371012581290766 0.60593220338983
-0.177879483612337 0.367412968711675 0.60593220338983
-0.162775908284887 0.368006233406041 0.60593220338983
-0.145716223176322 0.367224756966201 0.60593220338983
-0.137565156874226 0.369545348860258 0.60593220338983
-0.124655386253339 0.374747431022252 0.60593220338983
-0.117100035446429 0.375198000900861 0.60593220338983
-0.1084702955485 0.378135009113034 0.60593220338983
-0.093320234696363 0.376730788223017 0.60593220338983
-0.0878801446821162 0.379506570323684 0.60593220338983
-0.076069411007379 0.378405141780015 0.60593220338983
-0.0576947430675384 0.383443489753565 0.60593220338983
-0.0400454747413807 0.388274116554317 0.60593220338983
-0.0336380763262436 0.389970603673072 0.60593220338983
-0.0200469464114969 0.388032794367218 0.60593220338983
-0.0103743061099228 0.391543593880019 0.60593220338983
0.00948341239212133 0.387758756454962 0.60593220338983
0.0159429638009245 0.391280314106226 0.60593220338983
0.0251267321661878 0.393971614604665 0.60593220338983
0.0436182435063273 0.395273657271072 0.60593220338983
0.046757256479276 0.392300374109596 0.60593220338983
0.0767816281315489 0.398388808686849 0.60593220338983
0.0736207129967274 0.400555853813261 0.60593220338983
0.08749474970656 0.402516097885579 0.60593220338983
0.115973430230624 0.40132902453533 0.60593220338983
0.116894187632473 0.405816733969671 0.60593220338983
0.135004176780077 0.405432694973487 0.60593220338983
0.157439016090926 0.415490963115906 0.60593220338983
0.166523351252584 0.413224575574443 0.60593220338983
0.188392037656533 0.417723156788511 0.60593220338983
0.192101921868143 0.419769725651294 0.60593220338983
0.201470260646885 0.416907490280036 0.60593220338983
0.229958076565394 0.415852532393897 0.60593220338983
0.242721581888434 0.416697834339858 0.60593220338983
0.259196297711258 0.418957089816705 0.60593220338983
0.262864134866047 0.422586048311079 0.60593220338983
0.284158592515017 0.427379109061613 0.60593220338983
0.297164985451265 0.43350923656347 0.60593220338983
0.311162794169894 0.428728225262003 0.60593220338983
0.333321907201845 0.42825262683611 0.60593220338983
0.339522544718629 0.438336408173287 0.60593220338983
0.362036508051036 0.433240749697618 0.60593220338983
0.372152987056615 0.439345324915191 0.60593220338983
0.387521128395215 0.437643094853536 0.60593220338983
0.403133475996595 0.447838218573201 0.60593220338983
0.421066608648919 0.443959162096392 0.60593220338983
0.430715397423682 0.442259610732684 0.60593220338983
0.446166329759054 0.44684733019786 0.60593220338983
0.466774799701559 0.444727199080334 0.60593220338983
0.495237243802954 0.457416401828615 0.60593220338983
-0.5 0.335523267015261 0.494720074894959
-0.5 0.329601841700774 0.499292388926485
-0.5 0.331728573436116 0.507917672271323
-0.5 0.334244786533972 0.518369711889685
-0.5 0.332241498205396 0.524520647429592
-0.5 0.337402713389577 0.525919171843439
-0.5 0.335061048005594 0.535995410205629
-0.5 0.33666880928874 0.55100433794751
-0.5 0.334347249211117 0.558192557489485
-0.5 0.331428265589129 0.565215259054617
-0.5 0.333140977262138 0.575579891659296
-0.5 0.332426245225813 0.586323974994174
-0.5 0.337332140728628 0.588670846333056
-0.5 0.334154580740332 0.605350033478463
-0.5 0.336431939054428 0.60419076366033
-0.483956919779799 0.334908511313672 0.60593220338983
-0.480296632117424 0.33171575342225 0.60593220338983
-0.470374004312405 0.34048897723186 0.60593220338983
-0.465362861784961 0.341002443260144 0.60593220338983
-0.454503172506508 0.338507775881941 0.60593220338983
-0.442382669849844 0.342842213739509 0.60593220338983
-0.435537403722752 0.342109147406112 0.60593220338983
-0.431164056238987 0.341570562478469 0.60593220338983
-0.419534609645119 0.3400888809407 0.60593220338983
-0.408163418841001 0.347291535134595 0.60593220338983
-0.390323254286431 0.344096744027713 0.60593220338983
-0.390434312169298 0.348749539174738 0.60593220338983
-0.372128262795185 0.349782900556597 0.60593220338983
-0.370590822619279 0.355037564246996 0.60593220338983
-0.357436690203638 0.349588051382621 0.60593220338983
-0.346029460187357 0.354100118104253 0.60593220338983
-0.337185366901779 0.35457792393109 0.60593220338983
-0.321283087884666 0.355679520242576 0.60593220338983
-0.317273145140814 0.357196395452993 0.60593220338983
-0.317150115676095 0.353887239110699 0.60593220338983
-0.301120102888677 0.358789423987607 0.60593220338983
-0.287071298466895 0.360825303997542 0.60593220338983
-0.27769694273435 0.366480179328703 0.60593220338983
-0.266191878448606 0.367261239732402 0.60593220338983
-0.261350632675557 0.365021776078353 0.60593220338983
-0.246392983911214 0.365760211173729 0.60593220338983
-0.235306471228305 0.364402277148319 0.60593220338983
-0.224064260158365 0.373965954969672 0.60593220338983
-0.20926066978508 0.367792573425688 0.60593220338983
-0.212788020398429 0.37419666699704 0.60593220338983
-0.199315841169216 0.374282857238777 0.60593220338983
-0.182465251461803 0.373257238667831 0.60593220338983
-0.168136975517443 0.37864239071105 0.60593220338983
-0.158727467973412 0.378753901440301 0.60593220338983
-0.15892841317219 0.376163408913266 0.60593220338983
-0.139060321046196 0.380091452425705 0.60593220338983
-0.121589654485752 0.382194703128304 0.60593220338983
-0.11345240132957 0.383536548391422 0.60593220338983
-0.0993518485380101 0.390996841929288 0.60593220338983
-0.0976560455555834 0.386337564121829 0.60593220338983
-0.0848011304367952 0.38752170708006 0.60593220338983
-0.0726668155509405 0.391702524380883 0.60593220338983
-0.0572981952204813 0.395169370923475 0.60593220338983
-0.038695767987665 0.399483236944886 0.60593220338983
-0.0291765664936135 0.392698939621569 0.60593220338983
-0.0227822731614957 0.393082990740153 0.60593220338983
-0.0136237733004487 0.395680902350137 0.60593220338983
0.011957719447941 0.403455452965961 0.60593220338983
0.0210438411714027 0.402837153457325 0.60593220338983
0.0272249950726368 0.409299012873554 0.60593220338983
0.0447483613553449 0.402749793578502 0.60593220338983
0.0555371451209177 0.403574980505229 0.60593220338983
0.0678167062826396 0.405151399932109 0.60593220338983
0.0782183541910816 0.414814388086781 0.60593220338983
0.105367426052985 0.408360749482797 0.60593220338983
0.112460929893715 0.410495750713568 0.60593220338983
0.124914199118365 0.41604351076543 0.60593220338983
0.142828215859547 0.423051583669925 0.60593220338983
0.147560367846651 0.414755513113851 0.60593220338983
0.167411659838933 0.418088472639538 0.60593220338983
0.181000233621042 0.419554682110831 0.60593220338983
0.185249122384723 0.42676450719146 0.60593220338983
0.211904899713572 0.431797371433348 0.60593220338983
