ply
format ascii 1.0
element vertex 851
property float x
property float y
property float z
end_header
0.283660281635741 -0.130355748283811 0.155913978494624
0.130658868067386 -0.258064516129032 0.348550081231476
0.120449392599698 -0.258064516129032 0.365116779664126
0.125583739082499 -0.258064516129032 0.371668915424979
0.130480857244713 -0.258064516129032 0.378867223794356
0.139561184911174 -0.248660481776536 0.381720430107527
0.146526664309481 -0.237808163137838 0.379032258064517
0.163480864490928 -0.230291451420898 0.379032258064516
0.16939242829743 -0.227708105563207 0.379032258064516
0.171303266921486 -0.217152759538095 0.379032258064516
0.178296194157751 -0.210973694621077 0.379032258064516
0.181670904959006 -0.204896166510261 0.379032258064516
0.194077487103729 -0.19701844910481 0.379032258064516
0.20452266992885 -0.187158865470895 0.379032258064516
0.221767051058257 -0.180664772623485 0.379032258064516
0.225654001711166 -0.174975604772762 0.379032258064516
0.228218858892788 -0.16419713297495 0.379032258064516
0.244376731197046 -0.156538963009222 0.379032258064516
0.252435890547461 -0.152519471740776 0.379032258064516
0.261223158860016 -0.142669801847958 0.379032258064517
0.265849546061646 -0.141966269416847 0.379032258064516
0.283647813765849 -0.125472153334587 0.379032258064516
0.286388716215752 -0.124513949091587 0.379032258064516
0.300402485360451 -0.111017490459523 0.379032258064516
0.310297426041403 -0.106726972609982 0.379032258064516
0.325889121616293 -0.0989558337401089 0.379032258064516
0.331460425052964 -0.0841918586040557 0.379032258064516
0.334578268059823 -0.0838824324636049 0.379032258064516
0.345684739393637 -0.0703830481545972 0.379032258064516
0.364715274673475 -0.0629370302994745 0.379032258064516
0.369782524174945 -0.051745336738714 0.379032258064516
0.379315743584389 -0.0392057786096648 0.379032258064516
0.383970579356584 -0.0402072917901884 0.379032258064517
0.400671676606712 -0.0316818693326334 0.379032258064516
0.416420324267069 -0.0225145770464798 0.379032258064516
0.422474253859889 -0.00901809542633354 0.379032258064516
0.434259692202454 -0.00156183454156114 0.379032258064517
0.449509138897285 0.0126635137665807 0.379032258064516
0.450334565557673 0.00707251098268508 0.379032258064516
0.464741524479432 0.0223124209273053 0.379032258064516
0.473655447131782 0.028024543568637 0.379032258064516
0.485149799753317 0.0477170574295824 0.379032258064516
0.148110150945999 -0.220430107526882 0.142448027186458
0.155732588013427 -0.220430107526882 0.143503209764202
0.159344111809012 -0.220430107526882 0.152022792044205
0.153833967360429 -0.21645815881455 0.161290322580646
0.165865267071809 -0.210038009630565 0.161290322580645
0.173602554310996 -0.208238425203363 0.161290322580645
0.184910457558707 -0.203172807977807 0.161290322580645
0.195720813446139 -0.186427427732567 0.155913978494623
0.197577300908632 -0.182102934614811 0.155913978494623
0.214457341367049 -0.178452362592605 0.155913978494624
0.221679263682838 -0.167233890291847 0.155913978494624
0.222962864974631 -0.157759429620838 0.155913978494624
0.230924764734573 -0.149040636667271 0.155913978494624
0.24679921913625 -0.147004357877316 0.155913978494624
0.254320138724788 -0.140200240273131 0.155913978494624
0.257950349187085 -0.133482470358826 0.155913978494624
0.106396355824864 -0.258064516129032 0.352946162398238
0.117253081960082 -0.258064516129032 0.347973440459964
0.109639401641513 -0.258064516129032 0.360491442147783
0.110090808893371 -0.256576183040727 0.381720430107527
0.11079561021434 -0.252553803541398 0.381720430107527
0.118908019084366 -0.251791282298436 0.381720430107527
0.137240131039779 -0.241671724778521 0.379032258064516
0.138531834289823 -0.237245132900809 0.379032258064516
0.154027274192873 -0.227544078359189 0.379032258064516
0.156083129349813 -0.221740927091148 0.379032258064516
0.170085031469963 -0.206533131688496 0.379032258064516
0.172957645095247 -0.202246110633022 0.379032258064516
0.179782281283315 -0.202829690172573 0.379032258064516
0.193553823562194 -0.18847147183179 0.379032258064516
0.201107636778423 -0.185991975374874 0.379032258064516
0.213477325062781 -0.178465848370041 0.379032258064516
0.219746615643334 -0.174326835457615 0.379032258064516
0.227407049002333 -0.162184999008783 0.379032258064516
0.234184103308797 -0.154171089685258 0.379032258064516
0.244911420455194 -0.145576762422311 0.379032258064516
0.262700066022448 -0.13778607852401 0.379032258064516
0.264733143650049 -0.132048425806441 0.379032258064516
0.276007247344142 -0.122338076501359 0.379032258064516
0.289815005094336 -0.108207717902353 0.379032258064516
0.29163427010901 -0.101179959236073 0.379032258064516
0.303298648067735 -0.0948012794381747 0.379032258064516
0.305972888493845 -0.0903865521073017 0.379032258064517
0.319183893228682 -0.0810138516133753 0.379032258064516
0.330817801116288 -0.0687198201462117 0.379032258064516
0.342626150749274 -0.0622962114747291 0.379032258064516
0.353289353790889 -0.0547862854752269 0.379032258064516
0.364226775343505 -0.0437023934257908 0.379032258064517
0.369947635304484 -0.0325499024781282 0.379032258064517
0.382285950353804 -0.0246985170170689 0.379032258064516
0.392050325900507 -0.0195760280381705 0.379032258064516
0.403200080938873 -0.0137907032218149 0.379032258064516
0.414459672030674 -0.0114677972302816 0.379032258064516
0.423608997528092 0.00634695049175498 0.379032258064516
0.431201184042017 0.0164687995106463 0.379032258064517
0.448564652970262 0.0247446554056239 0.379032258064516
0.458630583294678 0.0384400986608233 0.379032258064516
0.4635961341497 0.0419784338699103 0.379032258064516
0.483946420111858 0.0539239514840272 0.379032258064516
0.491244482949081 0.0556610004036205 0.381720430107527
0.494288400487891 0.0648248462836152 0.381720430107527
0.143396976777625 -0.220430107526882 0.136966063923834
0.13896331135663 -0.220430107526882 0.149799201222471
0.138213453501023 -0.220430107526882 0.157890267809171
0.143470858581344 -0.220430107526882 0.160832783356851
0.143996216032556 -0.2120055869309 0.161290322580645
0.16223821150036 -0.195873853335068 0.155913978494624
0.162545153667999 -0.20298434220458 0.161290322580646
0.179395723334869 -0.194043322873332 0.155913978494624
0.195237585861407 -0.180698824552377 0.155913978494623
0.19399775235773 -0.179836243003845 0.155913978494624
0.201533458578432 -0.167686334857591 0.155913978494624
0.213056757362197 -0.166907207190761 0.155913978494624
0.216310336717392 -0.156845828966449 0.155913978494624
0.225163765007474 -0.143302226602014 0.155913978494624
0.237908020307544 -0.135392699987116 0.155913978494624
0.251085304804781 -0.12873761853953 0.155913978494624
0.0930089795656628 -0.258064516129032 0.344596477921441
0.0935186095994494 -0.258064516129032 0.359455585181214
0.0916373506070055 -0.258064516129032 0.37065168590608
0.094084879184838 -0.258064516129032 0.373388726298679
0.100862172680731 -0.249988157695925 0.381720430107527
0.0985737023587726 -0.252998809770999 0.381720430107527
0.113339694512501 -0.238574822252455 0.379032258064516
0.125097682035644 -0.232570499560872 0.379032258064516
0.131276069136644 -0.223820473216575 0.379032258064516
0.146782873118216 -0.216654858851256 0.379032258064516
0.154787278605207 -0.213042583122464 0.379032258064516
0.162999525195389 -0.196770875862429 0.379032258064516
0.166255355050289 -0.203246779072281 0.379032258064517
0.172220494786474 -0.188366212063091 0.379032258064516
0.190606549241564 -0.185779670121885 0.379032258064517
0.192114725105858 -0.180399772938532 0.379032258064516
0.202662703383477 -0.16716499492905 0.379032258064516
0.20886241307254 -0.16325691161831 0.379032258064517
0.22460195720261 -0.154733648950581 0.379032258064516
0.228295775691101 -0.143134319523497 0.379032258064516
0.237294803932201 -0.138214713263682 0.379032258064516
0.249175934773567 -0.128429628272127 0.379032258064517
0.254581610573669 -0.11892859333562 0.379032258064517
0.271683711403533 -0.118611963177667 0.379032258064516
0.27755959543285 -0.107562701683236 0.379032258064516
0.29245425762437 -0.0932310029729224 0.379032258064516
0.296710712340642 -0.0928078561458595 0.379032258064516
0.309874305914565 -0.0752146282100071 0.379032258064517
0.319865628359916 -0.0671198905802681 0.379032258064516
0.317629141935441 -0.0697629389383193 0.379032258064516
0.332481221490609 -0.0534959986979507 0.379032258064516
0.343818343054112 -0.05257903925917 0.379032258064516
0.35114907531291 -0.0395888935456114 0.379032258064516
0.367954272243233 -0.0309843495425726 0.379032258064516
0.382390121928471 -0.0148092171433163 0.379032258064516
0.381784322175127 -0.0226281439020307 0.379032258064516
0.39494178355908 -0.0033473899422242 0.379032258064516
0.404952639146114 0.00593303816437899 0.379032258064517
0.413318010803652 0.0104437495556725 0.379032258064516
0.427875926928863 0.0188595489579232 0.379032258064516
0.442331118193078 0.0275115622469435 0.379032258064516
0.447836328421452 0.0404361516219644 0.379032258064516
0.46649809262852 0.0560765741366918 0.379032258064516
0.468078481664368 0.0586762743318183 0.379032258064516
0.488267138315622 0.0660946883864665 0.379032258064516
0.497114862160341 0.0756245172233771 0.381720430107527
0.493962329347919 0.0838821610324032 0.381720430107527
0.118593222805307 -0.220430107526882 0.145079802435703
0.126479242480232 -0.220430107526882 0.153064514276579
0.127845947700594 -0.220430107526882 0.160084867927485
0.127069181444812 -0.220430107526882 0.15792716835142
0.140892082133654 -0.214508217681225 0.161290322580645
0.138649900120448 -0.202454359209325 0.161290322580645
0.161653954176586 -0.195412195543505 0.155913978494624
0.163962663779769 -0.180536612881432 0.155913978494623
0.175440562621967 -0.179119288431592 0.155913978494624
0.18490601850927 -0.170911440624037 0.155913978494624
0.18491605260319 -0.165556214746729 0.155913978494624
0.196305914918771 -0.157917370045202 0.155913978494624
0.207979674774061 -0.154331217678241 0.155913978494623
0.220697955802942 -0.143520154908608 0.155913978494624
0.218872533439587 -0.137764959619998 0.155913978494624
0.234155207906645 -0.131204496979854 0.155913978494624
0.0896639616631528 -0.258064516129032 0.341425997795504
0.0854332613396039 -0.258064516129032 0.356202125890957
0.0816761974836931 -0.258064516129032 0.368028093400711
0.0742904820477526 -0.258064516129032 0.380782203100514
0.0904873666740118 -0.258064516129032 0.380720201136846
0.0919143465434804 -0.247643472120853 0.381720430107527
0.103396154001656 -0.233526136548984 0.379032258064517
0.10999473244062 -0.232607006834278 0.379032258064516
0.121505310010775 -0.228381066662711 0.379032258064516
0.128502304772256 -0.219739281601774 0.379032258064516
0.136679515594028 -0.210762024819143 0.379032258064516
0.140840030794453 -0.201920792247611 0.379032258064516
0.149506900933101 -0.199888899799302 0.379032258064516
0.167920264517474 -0.187212241694065 0.379032258064516
0.160894301500613 -0.185833464249267 0.379032258064516
0.177468930537429 -0.179635752920196 0.379032258064516
0.178087830610062 -0.17440830522161 0.379032258064516
0.198732500342986 -0.156888428807438 0.379032258064516
0.199097870640539 -0.15965300825891 0.379032258064516
0.215948144852287 -0.144746629549058 0.379032258064516
0.224698160988052 -0.139406000864927 0.379032258064516
0.234399016068695 -0.127856995570288 0.379032258064516
0.238109941817493 -0.124681022205402 0.379032258064516
0.252100743383307 -0.114593077594127 0.379032258064516
0.260033552884586 -0.105854120603809 0.379032258064516
0.266858323993597 -0.100246327255721 0.379032258064516
0.278136355138874 -0.0855895469314018 0.379032258064516
0.291002693117715 -0.0856415345250096 0.379032258064516
0.302772721293606 -0.0748560539216384 0.379032258064516
0.307021565487873 -0.0634380211933916 0.379032258064516
0.317641502556674 -0.0552607446508369 0.379032258064517
0.330751868990832 -0.0461755966529019 0.379032258064516
0.337214068084899 -0.0375858154448071 0.379032258064516
0.346985696014752 -0.0311261331911583 0.379032258064516
0.362266894023384 -0.0210538973292094 0.379032258064517
0.371160036439653 -0.019157408243855 0.379032258064516
0.372638729735365 -0.0135451432897085 0.379032258064516
0.38253175705452 0.00471550148760087 0.379032258064517
0.404199418305772 0.0143215625755958 0.379032258064517
0.408409395227328 0.0183427720311126 0.379032258064516
0.417844777500717 0.0287557400632304 0.379032258064516
0.429049496153049 0.0416774912165095 0.379032258064516
0.4436523511436 0.0457977307947072 0.379032258064516
0.449514370621089 0.0531944888455354 0.379032258064516
0.460784159863098 0.0608182028631327 0.379032258064516
0.471989621544591 0.0726144456769869 0.379032258064516
0.484446330988331 0.0826630328291526 0.379032258064516
0.109749610015843 -0.220430107526882 0.132570685824546
0.112942551471348 -0.220430107526882 0.13086818558338
0.115999564631351 -0.220430107526882 0.144021935210893
0.111448871655356 -0.220430107526882 0.150711005583564
0.11219652026211 -0.212527912089882 0.161290322580646
0.118773163404407 -0.20855132156519 0.161290322580646
0.134406823163258 -0.207902903513859 0.161290322580645
0.147118220274766 -0.194574280208064 0.155913978494624
0.152107430716073 -0.182551594335702 0.155913978494624
0.157592240848234 -0.187889465541818 0.155913978494624
0.159870501548258 -0.179318461689571 0.155913978494624
0.179527948281545 -0.167695528025297 0.155913978494624
0.175838092489767 -0.166556510635313 0.155913978494624
0.190102310467324 -0.157245695035407 0.155913978494624
0.197370892481068 -0.147844292051117 0.155913978494624
0.200117158188422 -0.139205818108186 0.155913978494624
0.211866166819327 -0.134537523642686 0.155913978494624
0.0596695982598367 -0.258064516129032 0.35047994994919
0.0622063506998644 -0.258064516129032 0.35897485473222
0.0704377642679096 -0.258064516129032 0.363101561310458
0.0719576774345064 -0.258064516129032 0.364405307733049
0.0710868886099053 -0.251315452665837 0.381720430107527
0.0737135402650915 -0.249834838008015 0.381720430107527
0.0859770705743937 -0.241277921053862 0.379032258064516
0.0922100779444073 -0.229690196533338 0.379032258064516
0.103641812949305 -0.230970973733964 0.379032258064516
0.113367848394671 -0.213057653632799 0.379032258064516
0.118565071286051 -0.215365080486255 0.379032258064516
0.133878971731633 -0.208448774438206 0.379032258064516
0.136850756738069 -0.197668413724806 0.379032258064516
0.142485456185921 -0.194223994661605 0.379032258064516
0.155845931932496 -0.183256576912292 0.379032258064516
0.159997484316936 -0.180871308279366 0.379032258064516
0.173394607020217 -0.170072800691825 0.379032258064517
0.176744206686979 -0.159916813908488 0.379032258064516
0.189181381082201 -0.154612236148002 0.379032258064516
0.202729642595637 -0.145364295608249 0.379032258064516
0.213216327609991 -0.136449535051895 0.379032258064516
0.209714922728285 -0.132774042996151 0.379032258064516
0.226310217442686 -0.117657116863389 0.379032258064516
0.228481623381902 -0.112878102638303 0.379032258064516
0.238415977313724 -0.10484248897356 0.379032258064516
0.24511237082926 -0.100648385541069 0.379032258064516
0.261611370133265 -0.0927006150879238 0.379032258064516
0.273213807193706 -0.0828507520635204 0.379032258064517
0.287968705887581 -0.0706995128577192 0.379032258064517
0.292931416378692 -0.0663519924339265 0.379032258064516
0.295456566850543 -0.0635147940716717 0.379032258064516
0.305060631285948 -0.0497834147936893 0.379032258064516
0.313093655116048 -0.0439461765686796 0.379032258064516
0.330638070129006 -0.0387468915852135 0.379032258064516
0.340449740896 -0.0251540600451493 0.379032258064516
0.356027815648688 -0.0162296368572467 0.379032258064516
0.358902049112082 -0.0167758072779197 0.379032258064516
0.379454678528487 0.00511925609526766 0.379032258064517
0.380042036673971 0.00400954796227756 0.379032258064516
0.390394766963218 0.0120120879296913 0.379032258064516
0.408121407395573 0.0314431145938556 0.379032258064516
0.418508714380129 0.0428191194366315 0.379032258064516
0.419618945465561 0.0464427303050095 0.379032258064517
0.435891372500474 0.0516790225975506 0.379032258064516
0.435001328922726 0.0656333529153072 0.379032258064516
0.450941960846613 0.0779703404175903 0.379032258064516
0.477342963437711 0.0818892834963065 0.379032258064516
0.47939493229998 0.0930961422642383 0.379032258064516
0.488749307115499 0.102339903206961 0.379032258064516
0.0889592362464516 -0.220430107526882 0.137551583416305
0.0933914404415382 -0.220430107526882 0.149493367022537
0.0948020872922247 -0.220430107526882 0.149508893447363
0.100694875779075 -0.213793640287753 0.161290322580645
0.110556443571513 -0.212866681434224 0.161290322580645
0.115958707600971 -0.207713617814421 0.161290322580645
0.128262154859799 -0.191455917860015 0.155913978494624
0.135587438752284 -0.185685781251803 0.155913978494624
0.140383725667502 -0.174407474155828 0.155913978494624
0.152638863093777 -0.169020799191004 0.155913978494624
0.160666468375369 -0.165927202334967 0.155913978494624
0.169211195735563 -0.152306711178032 0.155913978494624
0.17202468510457 -0.156557265334337 0.155913978494624
0.187099734184733 -0.141730502796496 0.155913978494624
0.18704313203497 -0.145014581673475 0.155913978494624
0.1915833561173 -0.134152344965242 0.155913978494624
0.0434226273174506 -0.258064516129032 0.352572771824756
0.0551484168803612 -0.258064516129032 0.344441308619426
0.0516699527959525 -0.258064516129032 0.374180542764045
0.0541156263874346 -0.258064516129032 0.366815838427559
0.0516583021035198 -0.251724269617901 0.381720430107527
0.0650259583392492 -0.249671346189938 0.381720430107527
0.0721338181809537 -0.238305392579262 0.379032258064516
0.0726879665523162 -0.237816404117169 0.379032258064516
0.0931661335520361 -0.221019524565445 0.379032258064516
0.0975224560309914 -0.21848468015507 0.379032258064516
0.104657015125234 -0.212244630789328 0.379032258064516
0.107103956094698 -0.210672382803309 0.379032258064516
0.11447171540879 -0.198697539645748 0.379032258064516
0.127804442141703 -0.192184665204379 0.379032258064516
0.129825670437394 -0.188147778815488 0.379032258064517
0.149861179097096 -0.176589810787527 0.379032258064516
0.149793160224151 -0.17622421083833 0.379032258064516
0.169748872595355 -0.158235261025915 0.379032258064516
0.172073407314162 -0.153358911936907 0.379032258064516
0.179512207423152 -0.149298079406132 0.379032258064516
0.18959100928871 -0.1385779023755 0.379032258064516
0.201040733392524 -0.129523885032017 0.379032258064516
0.206412520610949 -0.126062234964691 0.379032258064516
0.216364261760946 -0.115283718330285 0.379032258064516
0.221102573151899 -0.113082847751292 0.379032258064516
0.229257651544406 -0.107659912683816 0.379032258064516
0.242893949938701 -0.0971144469165465 0.379032258064516
0.260322782141931 -0.0807847623711533 0.379032258064516
0.272674763794321 -0.0743901999171627 0.379032258064516
0.274046958260473 -0.075689314569992 0.379032258064516
0.279897397930885 -0.0633270122875033 0.379032258064516
0.290729640634553 -0.0494152470316812 0.379032258064516
0.298819567242429 -0.038776638298506 0.379032258064516
0.317013599750585 -0.0289109973548947 0.379032258064516
0.316498159240654 -0.0263401298343869 0.379032258064516
0.330839387000224 -0.0199224953288257 0.379032258064516
0.343171263545499 -0.00409249977977219 0.379032258064516
0.350388595855695 0.0036720563746172 0.379032258064516
0.360091452038428 0.00795531668207911 0.379032258064516
0.376691758528131 0.0178069188356803 0.379032258064516
0.38843395544911 0.0255143219792705 0.379032258064516
0.392378514665984 0.0381587534522261 0.379032258064516
0.406572561331958 0.0435328697821558 0.379032258064516
0.415421246543652 0.054209074397567 0.379032258064516
0.425254034964727 0.0649043984250481 0.379032258064516
0.44183518359796 0.0799123832667421 0.379032258064516
0.440677450852983 0.0820713210624399 0.379032258064516
0.451144116914837 0.0886281007573562 0.379032258064516
0.469746046322313 0.108152537089488 0.379032258064516
0.478908731846803 0.113275559376397 0.379032258064516
0.483527907116576 0.110473564088097 0.379032258064516
0.49775191678138 0.132920010066017 0.381720430107527
0.0724221079038366 -0.220430107526882 0.134951846500783
0.0748772346483428 -0.220430107526882 0.139662407967763
0.0851261204367728 -0.220430107526882 0.138553389794808
0.080723548800703 -0.220430107526882 0.15845185127012
0.0908431687765286 -0.211948113142999 0.161290322580645
0.0859173605446079 -0.21399356738917 0.161290322580645
0.104975361162846 -0.203330977061672 0.161290322580645
0.116428685310794 -0.191321584869556 0.155913978494624
0.116234332525303 -0.190156551065278 0.155913978494624
0.12375065800438 -0.176051829076965 0.155913978494624
0.13289960442202 -0.174686987449086 0.155913978494624
0.138581576924576 -0.166542726003721 0.155913978494624
0.151193857709535 -0.161913309390392 0.155913978494624
0.164083071482366 -0.151263975332622 0.155913978494624
0.17044724613716 -0.143310925269168 0.155913978494624
0.176175297682714 -0.130723217792869 0.155913978494624
0.189761280839077 -0.133707146058985 0.155913978494624
0.0337783088907443 -0.258064516129032 0.345607399306675
0.0394169511521941 -0.258064516129032 0.347968397823601
0.0434339504325175 -0.258064516129032 0.363410300503313
0.0391521650096427 -0.258064516129032 0.37272295270898
0.0396712366155951 -0.257334107365084 0.381720430107527
0.0466955816845896 -0.251774649920609 0.381720430107527
0.0519838325407701 -0.247726067877478 0.381720430107527
0.0625769487329062 -0.236040075043263 0.379032258064516
0.0726569192687237 -0.227436898300938 0.379032258064517
0.0794041367404074 -0.220788941383147 0.379032258064516
0.0849224828768344 -0.218151457660288 0.379032258064516
0.0970172286397052 -0.207036531570888 0.379032258064516
0.104725942196265 -0.19701607171741 0.379032258064516
0.110255972294471 -0.192697378789434 0.379032258064516
0.121526594080697 -0.191382776942519 0.379032258064516
0.132689183196691 -0.176646989851594 0.379032258064516
0.138691267637246 -0.165864002258459 0.379032258064516
0.151791714829781 -0.162536400775576 0.379032258064516
0.154851676805261 -0.153673241518097 0.379032258064516
0.160190285603481 -0.150946525041375 0.379032258064516
0.16837139210755 -0.140302295308061 0.379032258064516
0.176557905632066 -0.137193964280313 0.379032258064517
0.195648332640421 -0.121795796902345 0.379032258064516
0.205332894400172 -0.111436830810791 0.379032258064517
0.207334275780868 -0.112224176292248 0.379032258064516
0.218539131337521 -0.0992675875420623 0.379032258064516
0.235501089439816 -0.0955665192606376 0.379032258064516
0.234629897048625 -0.0869708480151062 0.379032258064516
0.247411775805467 -0.0709749502594955 0.379032258064516
0.252940813254526 -0.071115892735752 0.379032258064516
0.26747177845333 -0.0618897872538057 0.379032258064517
0.277558981230441 -0.046674215262161 0.379032258064516
0.290341181082632 -0.0404917050974307 0.379032258064516
0.297243690120093 -0.0312816697013038 0.379032258064516
0.306087082328811 -0.0281197861502935 0.379032258064516
0.313431611569128 -0.0223610634588258 0.379032258064516
0.324453302277252 -0.0139664642212 0.379032258064516
0.333877456470344 0.0030252520451351 0.379032258064516
0.353369483112771 0.0150941327883028 0.379032258064516
0.348837755230181 0.0118966032836497 0.379032258064516
0.364585957296182 0.0270410704295233 0.379032258064516
0.374272232726303 0.0351856563155205 0.379032258064516
0.381223109028105 0.042626574615234 0.379032258064516
0.391636346145467 0.0485136133224242 0.379032258064516
0.413929712797936 0.0614864835656679 0.379032258064516
0.419990502697816 0.0766465995535861 0.379032258064516
0.43791600125011 0.0836668169150845 0.379032258064516
0.435189356682452 0.0851886904919409 0.379032258064516
0.452754060166741 0.105889190444817 0.379032258064516
0.462820593498748 0.113199991889631 0.379032258064516
0.47223247294978 0.121718145798491 0.379032258064516
0.49041332297679 0.128346172794061 0.381720430107527
0.492111523975197 0.133609544182166 0.381720430107527
0.0684135913707318 -0.220430107526882 0.130881429868563
0.0640440244422864 -0.220430107526882 0.139198589323574
0.0666852766106017 -0.220430107526882 0.141132531091859
0.0702385428228547 -0.220430107526882 0.151281102041847
0.0685218250441525 -0.22004043975326 0.161290322580645
0.0820007322501141 -0.214370701623882 0.161290322580645
0.0846196132204266 -0.208314005215829 0.161290322580645
0.0958184508238767 -0.191794479744768 0.155913978494624
0.0985422696929303 -0.186264169713623 0.155913978494623
0.107511946760629 -0.181871009500346 0.155913978494624
0.12151050233505 -0.179408223167777 0.155913978494624
0.126388983171177 -0.161519441244674 0.155913978494624
0.135354196151727 -0.157866419373091 0.155913978494624
0.142337809423851 -0.148366727069483 0.155913978494624
0.145428206855426 -0.148011430137497 0.155913978494623
0.164155120191022 -0.143574627174334 0.155913978494624
0.014829478176701 -0.258064516129032 0.346425289593379
0.0201284175300618 -0.258064516129032 0.34558315382564
0.0301942232753547 -0.258064516129032 0.349556159414152
0.0302020039809793 -0.258064516129032 0.357012369868286
0.0239315743188999 -0.258064516129032 0.369147116853814
0.0313026740427085 -0.258064516129032 0.377519972253262
0.033444240305837 -0.254366628000175 0.381720430107527
0.032085633702261 -0.250321624222629 0.381720430107527
0.0526571467698204 -0.227194451815507 0.379032258064516
0.0621291627269383 -0.226505662623141 0.379032258064516
0.064206592276036 -0.222683476842279 0.379032258064516
0.0741492992971859 -0.21453241393717 0.379032258064516
0.0835164616372315 -0.205789732682119 0.379032258064516
0.0858100487233248 -0.200132754057401 0.379032258064516
0.0948948707430752 -0.195428858104967 0.379032258064516
0.104742585013093 -0.188493109628581 0.379032258064516
0.107876848825601 -0.183976731713777 0.379032258064516
0.116001681989744 -0.174680065866994 0.379032258064516
0.134627658699549 -0.166801303190721 0.379032258064516
0.138626744601485 -0.153157280588656 0.379032258064516
0.152578995441131 -0.149017210982125 0.379032258064516
0.15794114506065 -0.139142280456551 0.379032258064516
0.171841255402379 -0.13406861279306 0.379032258064517
0.170841204024064 -0.119961970167764 0.379032258064516
0.177941003509466 -0.117785145411654 0.379032258064516
0.18619426475243 -0.111521642259775 0.379032258064516
0.203720331329663 -0.105470956920862 0.379032258064516
0.205602288361726 -0.0992765898241106 0.379032258064517
0.217447795109666 -0.0878864372645075 0.379032258064516
0.238130619873019 -0.0693020971846596 0.379032258064516
0.237024673174641 -0.0700897068149607 0.379032258064516
0.25399612455751 -0.059815017813485 0.379032258064516
0.258272055410559 -0.0487189770589979 0.379032258064516
0.262667962850776 -0.0508891498965286 0.379032258064516
0.278122817111978 -0.0416529473192109 0.379032258064516
0.283568327288073 -0.0238226210102937 0.379032258064516
0.301481168505856 -0.0173856304777593 0.379032258064517
0.305964249421925 -0.00986581451015159 0.379032258064516
0.319019912571332 -0.00564531290081093 0.379032258064516
0.331411924046422 0.0127420725599715 0.379032258064516
0.339526128567137 0.0157064909251305 0.379032258064516
0.352738008941299 0.026911659117009 0.379032258064516
0.356378306961845 0.0278769214945823 0.379032258064516
0.36895634663588 0.0419160809133612 0.379032258064516
0.37735163819361 0.0465890373376856 0.379032258064517
0.388567183580513 0.0622056493834991 0.379032258064516
0.399014428770576 0.0666380541502985 0.379032258064516
0.411698166055486 0.0770657972524695 0.379032258064516
0.417648315098203 0.0915344599687794 0.379032258064516
0.431857011550228 0.100389504570639 0.379032258064516
0.440989080158267 0.103553393554552 0.379032258064516
0.456402460966476 0.112839768974527 0.379032258064516
0.46438099286478 0.129781498630394 0.379032258064516
0.473041847019868 0.13503445886377 0.379032258064516
0.484797459151298 0.147794366385044 0.379032258064516
0.0408346067812719 -0.220430107526882 0.147659177215
0.0591167910775248 -0.220430107526882 0.14175303393527
0.0478245888796785 -0.217888529825982 0.161290322580646
0.0516625248285993 -0.213145687810445 0.161290322580645
0.0661121895911682 -0.205126880045964 0.161290322580646
0.0695258523687541 -0.20605776245523 0.161290322580645
0.0743592643276992 -0.193414056798548 0.155913978494624
0.097645601401627 -0.184205972634426 0.155913978494624
0.100427723949846 -0.173765548373416 0.155913978494624
0.110388629708656 -0.173053443586777 0.155913978494624
0.10963532668796 -0.164198125458858 0.155913978494624
0.118832205141 -0.157662565630378 0.155913978494624
0.128287215927975 -0.157583169800271 0.155913978494624
0.134919534724927 -0.138877472839763 0.155913978494624
0.140476759284658 -0.142051794278204 0.155913978494624
0.146000556681036 -0.12842023122967 0.155913978494624
0.00288020280761449 -0.258064516129032 0.353172042827979
0.00850377973861608 -0.258064516129032 0.361703088691092
0.0126731549088368 -0.258064516129032 0.362262099722607
0.00944540548035372 -0.258064516129032 0.378772714304054
0.00661770014143739 -0.254409889580579 0.381720430107527
0.0194758137882852 -0.249801720796899 0.381720430107527
0.0263170681810584 -0.24199616564444 0.379032258064516
0.037335982808138 -0.23826523036052 0.379032258064516
0.0392878136625918 -0.226060072825792 0.379032258064516
0.0490883107428143 -0.227970778253717 0.379032258064516
0.0630182738895527 -0.212496077630411 0.379032258064516
0.0694610956371886 -0.205564365219591 0.379032258064516
0.0758226273741794 -0.196183520320165 0.379032258064516
0.0828671133291334 -0.191602957127357 0.379032258064516
0.0944697982186207 -0.18090986911871 0.379032258064516
0.0987395452759642 -0.178093557557638 0.379032258064516
0.114032880935795 -0.171409335333133 0.379032258064516
0.11484504922453 -0.16538460971657 0.379032258064516
0.130334633452737 -0.158165364027171 0.379032258064516
0.127619730143285 -0.153692400896946 0.379032258064517
0.143097885600029 -0.140365655476427 0.379032258064516
0.142234920095419 -0.1332508370971 0.379032258064516
0.158873973107221 -0.124769182506122 0.379032258064516
0.174134797309709 -0.112502654148756 0.379032258064516
0.175760218121666 -0.106016350051246 0.379032258064516
0.184384473995212 -0.101118867170489 0.379032258064516
0.194082934203242 -0.0902094309238602 0.379032258064516
0.201221755689659 -0.0853419407785978 0.379032258064516
0.206601662901959 -0.0816638114451063 0.379032258064516
0.221285237719822 -0.0678059016212403 0.379032258064516
0.235579458880351 -0.064668213986077 0.379032258064516
0.233206623255751 -0.0526139158222088 0.379032258064516
0.255159174054812 -0.0385879551150355 0.379032258064516
0.263225262034278 -0.0365557050601666 0.379032258064516
0.277581274831472 -0.0309295362200911 0.379032258064516
0.270840710545105 -0.0235416626310115 0.379032258064516
0.282948003374847 -0.0117064327910349 0.379032258064516
0.306398896880635 -0.00348308377075592 0.379032258064516
0.308066816930025 0.00182698317921184 0.379032258064516
0.309494411041901 0.013631404261651 0.379032258064516
0.323115749284203 0.0193250469141441 0.379032258064516
0.338080902367171 0.0330754622260834 0.379032258064517
0.341314204089067 0.0417115434343362 0.379032258064516
0.361070335215975 0.0495206152547098 0.379032258064516
0.37630861010121 0.0647893357713074 0.379032258064516
0.373006694411663 0.0621097138190415 0.379032258064516
0.384141158703788 0.0791978892970663 0.379032258064516
0.407796763848475 0.0864935960137733 0.379032258064516
0.40398383102857 0.0952326020101157 0.379032258064516
0.424760789240828 0.101455651472356 0.379032258064516
0.432144764793698 0.121703747541822 0.379032258064516
0.442193460802677 0.126426727846214 0.379032258064516
0.456273210863077 0.132431973955264 0.379032258064516
0.46455212937 0.138152016729942 0.379032258064516
0.481401807733789 0.160690357014971 0.379032258064516
0.491322409364715 0.160964003078766 0.381720430107527
0.0425950225301233 -0.220430107526882 0.131115035105293
0.0421569297824136 -0.220430107526882 0.148842109060114
0.040918162946161 -0.220430107526882 0.152145047855137
0.0358404525861462 -0.218584598639001 0.161290322580645
0.0496073107711964 -0.211024878704575 0.161290322580645
0.0613748873456516 -0.202244742513777 0.161290322580645
0.0658399547623412 -0.188968363833894 0.155913978494624
0.0749422301713969 -0.185658781632479 0.155913978494624
0.0852670961528053 -0.18352572438556 0.155913978494624
0.0927738322295373 -0.165884069236731 0.155913978494624
0.0963698686954396 -0.167398003108039 0.155913978494624
0.0997206247571856 -0.161115403473047 0.155913978494624
0.115164426262033 -0.155202141524252 0.155913978494624
0.11347489777786 -0.149390977160773 0.155913978494624
0.133134369105534 -0.137682398693646 0.155913978494624
0.137822942331862 -0.135580956081515 0.155913978494624
-0.00771167999643247 -0.258064516129032 0.34543914009132
-0.00861629376622556 -0.258064516129032 0.359929680877179
-0.00638484581513027 -0.258064516129032 0.364358500393716
-0.00333340986554699 -0.258064516129032 0.377551755176381
-0.00179628404449631 -0.258064516129032 0.379989362617623
0.0036922673480894 -0.250037863569201 0.381720430107527
0.00860569687661472 -0.248197386151694 0.381720430107527
0.0192273179256572 -0.241315254475405 0.379032258064516
0.0246827940341898 -0.230103330562214 0.379032258064516
0.0357651019162131 -0.215846869684685 0.379032258064517
0.0412828147708187 -0.215021131810198 0.379032258064516
0.0500613811560363 -0.210425155628745 0.379032258064516
0.0590041220579419 -0.200367219474768 0.379032258064516
0.0669079288225195 -0.186244394625466 0.379032258064516
0.0778953742228547 -0.182558050992091 0.379032258064516
0.086876704221047 -0.181736954032056 0.379032258064516
0.0904143881944774 -0.170308695784464 0.379032258064516
0.0945284408706687 -0.166333384322437 0.379032258064516
0.110919529079006 -0.16187634161165 0.379032258064516
0.122705864833341 -0.148085791351849 0.379032258064517
0.122675240889668 -0.141557509401098 0.379032258064516
0.135985928149326 -0.133578633225675 0.379032258064516
0.145633153290545 -0.120747052606477 0.379032258064516
0.14456325220484 -0.120773982685057 0.379032258064517
0.164240571038361 -0.108397591049391 0.379032258064516
0.16938142625307 -0.105400340630811 0.379032258064516
0.174843634495614 -0.103268472147272 0.379032258064516
0.192969136301689 -0.0888591820228742 0.379032258064516
0.201623196029793 -0.0776819687461861 0.379032258064517
0.197817149539631 -0.0739193536685317 0.379032258064516
0.223207485538108 -0.0645958869246258 0.379032258064517
0.222582547163435 -0.0602740004970888 0.379032258064516
0.230300334935225 -0.0487588739226043 0.379032258064516
0.235309837835277 -0.0442930035469684 0.379032258064516
0.253483460215029 -0.0308918743237641 0.379032258064516
0.267324596706398 -0.0218955658990354 0.379032258064516
0.26437403323452 -0.0148952686556704 0.379032258064516
0.283974333204766 0.00281520949846598 0.379032258064516
0.288862046946966 0.00977577679857896 0.379032258064516
0.302017934791579 0.0112801742944476 0.379032258064516
0.304983631885386 0.0170633982921965 0.379032258064516
0.326017659231352 0.0276288485783532 0.379032258064516
0.329773822229034 0.0425773426768249 0.379032258064516
0.336171471478619 0.0420440081647991 0.379032258064516
0.351340827558041 0.0599462697153518 0.379032258064516
0.362302791168426 0.0670865661841571 0.379032258064516
0.371332345686324 0.0752038350021722 0.379032258064516
0.38079117431537 0.0854812908403257 0.379032258064516
0.396178129349833 0.0965426533495151 0.379032258064517
0.411008385265762 0.10653271254899 0.379032258064516
0.410783988669597 0.115385604350314 0.379032258064516
0.424395699724918 0.123471089866996 0.379032258064517
0.432843301372743 0.122693698314317 0.379032258064516
0.452753595649332 0.146853607578993 0.379032258064516
0.45740536891232 0.148133620475177 0.379032258064516
0.47127454931556 0.162432240442064 0.379032258064516
0.479494954627938 0.176367672464504 0.379032258064516
0.492326653583905 0.177231193397924 0.381720430107527
0.0241877483343764 -0.220430107526882 0.131814846065409
0.0239370934117651 -0.220430107526882 0.141265758515439
0.0296660232718835 -0.220430107526882 0.14617074361345
0.0242754226251334 -0.220430107526882 0.158037587989002
0.026030561458811 -0.218757657104338 0.161290322580646
0.0398164557399427 -0.208160030987111 0.161290322580645
0.0460935967196628 -0.192672221632091 0.155913978494624
0.0528910226748907 -0.196644840414081 0.155913978494624
0.0545030672448681 -0.188334466417004 0.155913978494623
0.0700538972514577 -0.176404100617382 0.155913978494624
0.0700926733839545 -0.176425255415571 0.155913978494624
0.0798169113501926 -0.16847649210587 0.155913978494624
0.099141242663011 -0.158805925026523 0.155913978494624
0.10007878230447 -0.149682525241047 0.155913978494624
0.114514471114237 -0.143202840287393 0.155913978494624
0.118249215830904 -0.139941557009202 0.155913978494624
0.116464878775554 -0.132645497668651 0.155913978494624
0.126946826246854 -0.128904694830415 0.155913978494624
-0.0198463103448731 -0.258064516129032 0.355614368492022
-0.0267651921647054 -0.258064516129032 0.373217359245123
-0.0176359205207167 -0.258064516129032 0.380509692010657
-0.0181084285646672 -0.258064516129032 0.377978068400477
-0.0119033185816431 -0.243501349612959 0.379032258064516
-0.0041037238500625 -0.242149925683672 0.379032258064516
0.00800702251403455 -0.233866631666799 0.379032258064516
0.00874758379811327 -0.226565520694072 0.379032258064516
0.0227080148197397 -0.224126394283317 0.379032258064516
0.0296533997401871 -0.211720858678631 0.379032258064517
0.0344449232261289 -0.207169845368655 0.379032258064516
0.0456347118089526 -0.19357369292046 0.379032258064516
0.0513637801369638 -0.190590236398868 0.379032258064516
0.060414443306709 -0.183965279638102 0.379032258064517
0.0686338559349664 -0.180398537870284 0.379032258064516
0.0715289515069245 -0.17448304534747 0.379032258064516
0.0839415810418523 -0.16364467934797 0.379032258064516
0.0950568247373867 -0.152772679954135 0.379032258064516
0.102261149413156 -0.152578714081632 0.379032258064516
0.111541364697629 -0.14363639443818 0.379032258064516
0.12375336367036 -0.135522432594304 0.379032258064516
0.130695795922753 -0.130633802490747 0.379032258064516
0.13279955644989 -0.124764019021497 0.379032258064517
0.145641288639961 -0.118251748160286 0.379032258064516
0.15107550013379 -0.105625339251232 0.379032258064516
0.161021175835256 -0.0987994904671808 0.379032258064516
0.168660541948841 -0.0917322297366902 0.379032258064516
0.180873629935296 -0.082197485367228 0.379032258064516
0.190960075223909 -0.0755911324261449 0.379032258064516
0.197811807572503 -0.0593700742352382 0.379032258064516
0.210457888533077 -0.0610352356818585 0.379032258064516
0.212762894296647 -0.0515247963402702 0.379032258064517
0.219969242101294 -0.0439994494002157 0.379032258064516
0.230532947763519 -0.0330321060765444 0.379032258064516
0.237910484980098 -0.0219207408368431 0.379032258064516
0.257682986804432 -0.0115141854540549 0.379032258064516
0.256036144349201 -0.0135398353522377 0.379032258064516
0.276261218234213 0.00149551441376935 0.379032258064516
0.283274352958166 0.00596449069563962 0.379032258064516
0.294311289512494 0.0205934157242213 0.379032258064516
0.300762702028823 0.0331712600802505 0.379032258064517
0.322546277786339 0.0442405352262069 0.379032258064516
0.324773011133341 0.0457389667997806 0.379032258064517
0.329166213066738 0.0572259199905079 0.379032258064516
0.338050437575484 0.0578486838590567 0.379032258064516
0.351311573541051 0.0749249677817325 0.379032258064516
0.360813120406182 0.0801652609873438 0.379032258064516
0.376414730074026 0.0923488073149475 0.379032258064516
0.385014613473419 0.102244330830216 0.379032258064516
0.405258024340373 0.112735223315242 0.379032258064516
0.410766794299024 0.123255002661715 0.379032258064516
0.412967229440328 0.133712334091158 0.379032258064516
0.43354144292277 0.139267776309932 0.379032258064516
0.436469148287125 0.143555985424376 0.379032258064516
0.454314938718857 0.165635871905844 0.379032258064516
0.460814944434564 0.170000228165858 0.379032258064516
0.479765987055463 0.187621674172762 0.379032258064516
0.48049303552981 0.189371576021365 0.379032258064516
0.00872769221306056 -0.220430107526882 0.143876827771728
0.0137714786113526 -0.220430107526882 0.148847789221986
0.0102621236534725 -0.220430107526882 0.14963382652146
0.0129531205850026 -0.213018419971847 0.161290322580645
0.0213686888112624 -0.203239179793373 0.161290322580645
0.0311669426381528 -0.192040550987525 0.155913978494624
0.0329463631765629 -0.190122181743191 0.155913978494624
0.0443548248528042 -0.185455693214788 0.155913978494624
0.0470355181644347 -0.178434884699902 0.155913978494624
0.0589597061518867 -0.175323290771433 0.155913978494624
0.0728869430487271 -0.162178639601392 0.155913978494624
0.0725313783840088 -0.159931581561432 0.155913978494624
0.080445733041308 -0.154110989293102 0.155913978494624
0.0868042088688056 -0.150517791526672 0.155913978494624
0.0989466109375787 -0.143287086125475 0.155913978494624
0.101986684658446 -0.13650061268539 0.155913978494624
-0.0412255312868928 -0.258064516129032 0.355281345059051
-0.0379652133722361 -0.258064516129032 0.360201050306325
-0.0379778100889256 -0.258064516129032 0.365796494018813
-0.0335366231869408 -0.258064516129032 0.367017746918032
-0.0307557588496243 -0.256399086271263 0.381720430107527
-0.0277149741386141 -0.244628511298725 0.379032258064516
-0.0160672184967686 -0.240429325232177 0.379032258064516
-0.00913431874643419 -0.237070397718447 0.379032258064516
-0.00646412408495647 -0.227467128617778 0.379032258064516
0.00679880790068472 -0.225010007078879 0.379032258064516
0.00977866342083576 -0.213914797518628 0.379032258064516
0.0225880450791209 -0.199533179356086 0.379032258064516
0.0262860484860796 -0.200671190488878 0.379032258064516
0.0407252153056366 -0.191568493870166 0.379032258064516
0.0433400962979718 -0.184732641005294 0.379032258064516
0.0525046548259277 -0.173811722806971 0.379032258064516
0.0651407582741837 -0.178590361238197 0.379032258064516
0.0634364934871885 -0.168596342569694 0.379032258064516
0.0774753904029628 -0.151463007095819 0.379032258064516
0.0918124062381153 -0.14304162528602 0.379032258064516
0.0949408179199007 -0.141077832175841 0.379032258064516
0.0965050467815654 -0.142060615102284 0.379032258064516
0.115269595089624 -0.124705510281426 0.379032258064516
0.124767447240478 -0.120538916814302 0.379032258064516
0.131141323767557 -0.108338643245061 0.379032258064516
0.141721893364114 -0.104004582219341 0.379032258064517
0.149872569986655 -0.0905619180084985 0.379032258064516
0.163470876586992 -0.084548980092797 0.379032258064516
0.164829848593297 -0.0875219715813838 0.379032258064516
0.179225034803019 -0.0691705453192572 0.379032258064516
0.182463075642856 -0.0711759453260589 0.379032258064516
0.187736194342135 -0.0643511745400971 0.379032258064516
0.202395108631955 -0.0544657846170854 0.379032258064516
0.207197423522846 -0.038406867900396 0.379032258064516
0.213861581500432 -0.0371214230881889 0.379032258064516
0.232043654301809 -0.0183070583759959 0.379032258064516
0.241732950947596 -0.0159495654383235 0.379032258064516
0.250397481991628 -0.00438215912364882 0.379032258064516
0.253830056713794 0.000150477983687807 0.379032258064516
0.266076541263625 0.00479284604492985 0.379032258064516
0.27111762541651 0.0197461494088661 0.379032258064516
0.287495393557834 0.0300292568678909 0.379032258064516
0.292439041094955 0.0371449189342787 0.379032258064516
0.300520435985282 0.0403727386718254 0.379032258064516
0.317605428209082 0.0525507426278087 0.379032258064516
0.326857312958483 0.0609850434403253 0.379032258064516
0.329246659330113 0.0738311628859914 0.379032258064517
0.339804249525704 0.0752629600921368 0.379032258064516
0.356943373404386 0.0894794884199859 0.379032258064516
0.370104963955541 0.102204696624215 0.379032258064516
0.37645689435089 0.10598866225252 0.379032258064516
0.393281783679858 0.122407617979888 0.379032258064516
0.395399884252363 0.128721728579991 0.379032258064516
0.402004584688568 0.133112595464558 0.379032258064516
0.422710242461519 0.144302150849254 0.379032258064516
0.429427764836309 0.151814556337677 0.379032258064516
0.44714216514043 0.178569408582556 0.379032258064516
0.464325556960984 0.182783338793954 0.379032258064516
0.471210588206439 0.191220197103311 0.379032258064516
0.475464141971171 0.202711815279849 0.379032258064516
0.489247311827957 0.207034121872332 0.381612441035423
0.499459265488857 0.213860852760893 0.381720430107527
-0.00379554560401668 -0.220430107526882 0.150327938805399
-0.000578579724503726 -0.218244334819064 0.161290322580646
0.00569041792907833 -0.217418333045942 0.161290322580645
0.00289030253232941 -0.209614745686829 0.161290322580646
0.0167151123257989 -0.1951407234616 0.155913978494624
0.0289446837571591 -0.192686851997556 0.155913978494624
0.0302743041646086 -0.192722341123381 0.155913978494624
0.0365326164188655 -0.180209791552017 0.155913978494624
0.044533965982821 -0.172483302745576 0.155913978494624
0.0538453410653312 -0.171328678127429 0.155913978494624
0.0667193170000112 -0.155018890079176 0.155913978494623
0.0670197479552065 -0.151340048429429 0.155913978494624
0.079154228238034 -0.146880947955757 0.155913978494623
0.0810166256929735 -0.142148452067254 0.155913978494624
0.0916742867088382 -0.135860032189555 0.155913978494624
-0.0530526061207862 -0.258064516129032 0.348391966452743
-0.0389499895278322 -0.258064516129032 0.351829978595457
-0.0481396548091254 -0.258064516129032 0.364112783828665
-0.0452921069865286 -0.258064516129032 0.373289846793876
-0.0419413093143794 -0.25395480726793 0.381720430107527
-0.034107397249289 -0.251327850695453 0.381720430107527
-0.0346555850501476 -0.242863693383347 0.379032258064516
-0.0233109808299888 -0.237601694532434 0.379032258064516
-0.018255831297858 -0.2354596640067 0.379032258064516
-0.00495560636457855 -0.221458844366691 0.379032258064516
0.000814177968269453 -0.212164260211424 0.379032258064516
0.0129695385856741 -0.202329173092539 0.379032258064516
0.015326241421717 -0.202826820022899 0.379032258064516
0.0202975358383381 -0.197853087139553 0.379032258064516
0.024436784060516 -0.191672253204244 0.379032258064516
0.0419597070175082 -0.174863534458288 0.379032258064516
0.0479760414111577 -0.173128923874096 0.379032258064517
0.0552234312517193 -0.156251726600731 0.379032258064516
0.0618886466887717 -0.161690900388405 0.379032258064516
0.0707530853964832 -0.15376068393161 0.379032258064516
0.0751543466931676 -0.146309598409799 0.379032258064516
0.0825082187560594 -0.134432927829747 0.379032258064516
0.099694021771537 -0.119735007993695 0.379032258064516
0.110963866926385 -0.114290895158998 0.379032258064516
0.112773911671432 -0.110529125319989 0.379032258064516
0.119914503666611 -0.104439009561951 0.379032258064516
0.134085803247135 -0.0944350328543754 0.379032258064516
0.138706724949282 -0.0954732608017315 0.379032258064516
0.149472093868135 -0.0809783821652217 0.379032258064516
0.165234374689151 -0.0684684974262046 0.379032258064516
0.174991662300446 -0.0607950225237833 0.379032258064517
0.174633742795354 -0.0643040121285403 0.379032258064516
