ply
format ascii 1.0
element vertex 879
property float x
property float y
property float z
end_header
0.489497235931664 0.199999999999999 0.21960767668107
0.494586746820053 0.2 0.242680766046456
0.491789502559876 0.199999999999999 0.24932704828878
0.5 0.205476590938166 0.252823855505321
0.494976935314172 0.199999999999999 0.268001060219873
0.496875072273799 0.2 0.281723521545911
0.498432849294708 0.199999999999999 0.286306160252696
0.497334563765174 0.2 0.291544758598807
0.499245822516451 0.2 0.308354405007188
0.5 0.188193277548983 0.324485053957559
0.5 0.202215994244236 0.318749238489178
0.5 0.190199357462457 0.346787799105659
0.5 0.201608400743908 0.339572465495896
0.5 0.189372561533185 0.359929689816735
0.5 0.188898398488612 0.364264687277652
0.497981730491495 0.197954737473138 0.366666666666666
0.492691543447981 0.207962596638083 0.366666666666666
0.48464871151293 0.219484029287622 0.366666666666666
0.478479835167545 0.227700783505674 0.366666666666666
0.472862964362158 0.241280567199168 0.366666666666666
0.471928408796992 0.240367456405076 0.366666666666667
0.482693865871508 0.2 0.190461552292112
0.479324285004402 0.2 0.198473651350779
0.488187546594847 0.199999999999999 0.211942348512186
0.491327059411693 0.2 0.223635078052221
0.486678445905979 0.2 0.238689339379967
0.485777423771759 0.2 0.237484923940336
0.489690508450067 0.199999999999999 0.248016055122944
0.482569522067914 0.2 0.258353091939584
0.480477751449159 0.2 0.263357822034238
0.48383892824746 0.2 0.275072703382195
0.486100338934885 0.2 0.287231856956136
0.5 0.175346807504334 0.320483936906758
0.5 0.185224808383943 0.326164614384689
0.5 0.177429809450969 0.342177312043511
0.5 0.179447184246812 0.339581259364372
0.5 0.183378372699836 0.35232595960884
0.5 0.177527333161574 0.364184919217939
0.493005536921414 0.185911690063318 0.366666666666666
0.490190825745694 0.189062807896472 0.366666666666666
0.48519045975177 0.206526491596721 0.366666666666666
0.480521889967702 0.206132514705906 0.366666666666666
0.473575403860728 0.224594382792718 0.366666666666666
0.461380725252353 0.232333542013589 0.366666666666666
0.464800295220037 0.23709066812159 0.366666666666667
0.455106271084176 0.245787509352239 0.366666666666666
0.475959161911205 0.2 0.180692897568717
0.475095389123865 0.2 0.188853868059908
0.473483440300749 0.2 0.211343786973744
0.47864302308792 0.2 0.21859554373553
0.482121698483351 0.199999999999999 0.2261337951279
0.475923085503727 0.2 0.233031505831675
0.475015946878061 0.2 0.238315671396096
0.46936859330905 0.2 0.24658627290535
0.478894100673726 0.2 0.264623943092797
0.47907802908928 0.2 0.270459801125273
0.499999999999999 0.163535160664091 0.321050761905835
0.5 0.164821417700573 0.336819284335001
0.499999999999999 0.155797713037777 0.343364011913753
0.499999999999999 0.162249754261878 0.352958222718196
0.5 0.167780516292649 0.358245012914208
0.5 0.16908677002022 0.363603728013083
0.491714590916082 0.174535940338257 0.366666666666666
0.487718143279801 0.175235294940531 0.366666666666667
0.486978268086874 0.18166194884099 0.366666666666667
0.47268496471799 0.199346013574819 0.366666666666666
0.470139173887235 0.20922320778407 0.366666666666666
0.463103199255503 0.2106568838993 0.366666666666666
0.457582924812105 0.226459975805634 0.366666666666666
0.446396198486272 0.237785404261176 0.366666666666666
0.447083249458762 0.233327885885701 0.366666666666666
0.441909521051802 0.247176180164514 0.366666666666666
0.458234419824625 0.2 0.175123627794194
0.468400317478679 0.2 0.189180645859908
0.458404377506578 0.2 0.19025997649318
0.46263346104828 0.2 0.204988134899277
0.469587084804711 0.2 0.213656856912457
0.464888185280982 0.2 0.223965600232272
0.461787116831038 0.2 0.234501938400751
0.468237526425282 0.2 0.243887525014497
0.469088334886269 0.2 0.257185228910121
0.499999999999999 0.14133928097759 0.329069248637546
0.5 0.142786625968733 0.339683157402563
0.5 0.149420757592625 0.336905744739807
0.499999999999999 0.14800113674315 0.354370885097156
0.499999999999999 0.151887959516152 0.361769821624578
0.498113604252815 0.153192273435493 0.366666666666666
0.492918025805689 0.16171343195436 0.366666666666667
0.490332602664727 0.163865471090988 0.366666666666666
0.478526069943502 0.174886875133186 0.366666666666666
0.481368662095528 0.181596733222411 0.366666666666666
0.471958173637807 0.18927042566875 0.366666666666666
0.465461603000358 0.200272450545195 0.366666666666666
0.457133769790679 0.198007245154282 0.366666666666666
0.457043360599304 0.215158631744826 0.366666666666666
0.442451096962925 0.226301663298235 0.366666666666666
0.438465663165835 0.228133811304182 0.366666666666666
0.428724926524897 0.245646529332306 0.366666666666667
0.456760298091642 0.2 0.179158162957822
0.453020466280856 0.2 0.196695291681661
0.450031239128206 0.2 0.220351462557228
0.453560477451777 0.2 0.238774067914887
0.499999999999999 0.14072734879789 0.321458593441159
0.5 0.138752361002134 0.329595230289705
0.5 0.13177143654544 0.347877817275774
0.499999999999999 0.135528053138314 0.350373552282416
0.499999999999999 0.135252565603664 0.355579472511851
0.5 0.140719046132857 0.366299817157157
0.493134218945617 0.140522422985663 0.366666666666666
0.482304801316403 0.148380654826665 0.366666666666666
0.481039959219287 0.16097943625135 0.366666666666666
0.476228654048502 0.171482456349245 0.366666666666666
0.474045626166112 0.169298663983915 0.366666666666666
0.464683747384481 0.184066237755362 0.366666666666667
0.461961474672235 0.190288045855851 0.366666666666667
0.448385645627705 0.206595611927251 0.366666666666666
0.442863056053456 0.205519127306102 0.366666666666666
0.439627696167376 0.214499706976357 0.366666666666666
0.432322430986539 0.225470714696561 0.366666666666666
0.429208598417795 0.230039504101029 0.366666666666667
0.418816385955362 0.244315415696082 0.366666666666666
0.416309343203021 0.247402001158111 0.366666666666666
0.499999999999999 0.112760469948153 0.334358056805597
0.5 0.124808403478235 0.325174729043234
0.499999999999999 0.120581021299754 0.34279819397859
0.499999999999999 0.118626385573968 0.354290993367371
0.5 0.121636754806205 0.360878799924462
0.499891842110695 0.112775634248542 0.366666666666667
0.494614209778231 0.124284612308974 0.366666666666666
0.489116030404144 0.135696162566342 0.366666666666666
0.480703347999264 0.138408712276163 0.366666666666666
0.476754916142426 0.15757199245471 0.366666666666667
0.470025126656065 0.158565638901022 0.366666666666666
0.462975966362708 0.168062725995485 0.366666666666666
0.456085967135512 0.177769503147884 0.366666666666666
0.452241443552751 0.178345562220571 0.366666666666666
0.444765660299841 0.194538787324627 0.366666666666666
0.441257018926606 0.197975466014342 0.366666666666666
0.437698714838099 0.208302142301028 0.366666666666666
0.421457518385235 0.216783624867585 0.366666666666666
0.420799576490065 0.219356206006456 0.366666666666666
0.41100680043455 0.233791147172959 0.366666666666666
0.408729920992221 0.246100306065825 0.366666666666666
0.499999999999999 0.0975851779276026 0.321732225075004
0.499999999999999 0.109552570285085 0.320772912301243
0.5 0.100344044940872 0.337728629074323
0.499999999999999 0.107852099967829 0.344579068485417
0.499999999999999 0.108432129686792 0.347424639058558
0.5 0.106128523285853 0.355031631342585
0.5 0.101599528797654 0.364198465986789
0.487811016378764 0.118938975712861 0.366666666666666
0.482072163627922 0.118732700456359 0.366666666666666
0.484536790636177 0.128696540368124 0.366666666666666
0.473660329868665 0.142073221122122 0.366666666666666
0.468077074212783 0.148513823139341 0.366666666666666
0.466645519891756 0.15482790779759 0.366666666666666
0.459415206027836 0.154990238517177 0.366666666666666
0.451170218448493 0.1697095563626 0.366666666666666
0.445748793377521 0.182736443715152 0.366666666666666
0.435121170682432 0.18363295729486 0.366666666666666
0.425800167770303 0.196777781983872 0.366666666666666
0.422792687371033 0.204206698660706 0.366666666666666
0.421718211865559 0.208651643220902 0.366666666666666
0.410537653333499 0.225127590117761 0.366666666666667
0.412840592978606 0.227219433589654 0.366666666666666
0.401468898525158 0.244248145681722 0.366666666666666
0.499999999999999 0.0862520852499808 0.317694225203903
0.499999999999999 0.0858817127799462 0.329046554919395
0.499999999999999 0.0894091526628294 0.33642010672878
0.499999999999999 0.0829054375827455 0.348523644299161
0.499999999999999 0.091616538135737 0.349811496226362
0.498026208801329 0.0844526219235067 0.366666666666666
0.494853549362703 0.0930391581322649 0.366666666666666
0.491990551974501 0.10597224508431 0.366666666666666
0.484959289695815 0.105008632896348 0.366666666666666
0.47788242095612 0.116454948921708 0.366666666666666
0.467798602858077 0.129984245988292 0.366666666666666
0.470119414588867 0.129312200492572 0.366666666666667
0.459105748048459 0.139476203782694 0.366666666666667
0.456739635967941 0.147335396123363 0.366666666666666
0.453367387767169 0.153425643949157 0.366666666666666
0.443514748596652 0.158869652958776 0.366666666666666
0.436101485980663 0.167523888008156 0.366666666666666
0.436575877510977 0.181713797879625 0.366666666666666
0.424074008627385 0.190496911790924 0.366666666666666
0.418763236887503 0.197785765396956 0.366666666666667
0.416496398465643 0.203616192113488 0.366666666666666
0.408063916994399 0.215369939109 0.366666666666666
0.403881374171331 0.21899512735369 0.366666666666666
0.394579049120623 0.226962334502151 0.366666666666666
0.388362473685317 0.241457611430546 0.366666666666666
0.499999999999999 0.0638859299998352 0.32640024711883
0.499999999999999 0.0704126946375524 0.331982939009413
0.499999999999999 0.0698269106001656 0.340765770015616
0.499999999999999 0.0747740886551917 0.349599758025824
0.499999999999999 0.0776652807763971 0.350000585985481
0.498761907359618 0.0684843717644032 0.366666666666666
0.494536143943115 0.082720493384886 0.366666666666666
0.486961954825801 0.0898451400946643 0.366666666666666
0.479051026520753 0.0944617470037485 0.366666666666667
0.483365038911391 0.101677296430905 0.366666666666666
0.469279816833288 0.108524943090103 0.366666666666666
0.468103180217299 0.112904536309643 0.366666666666666
0.464194835174868 0.118116711323004 0.366666666666666
0.459374203680011 0.134882655918375 0.366666666666666
0.455250778199499 0.134250113058296 0.366666666666666
0.441901855089839 0.149571647057039 0.366666666666666
0.432390194105015 0.155331739937003 0.366666666666666
0.434545052854328 0.165334685703568 0.366666666666666
0.428533780896691 0.171786932495448 0.366666666666667
0.418726322780663 0.17498983733771 0.366666666666666
0.41359121937954 0.184270857291728 0.366666666666666
0.411041396307577 0.192634770942077 0.366666666666666
0.400314659911122 0.209160811697522 0.366666666666666
0.389489909544581 0.21659588517976 0.366666666666666
0.388458122365191 0.224799259788221 0.366666666666666
0.377169188880576 0.235455859631557 0.366666666666666
0.375645272901521 0.232029316976318 0.366666666666666
0.499999999999999 0.0545185998703855 0.329357258486757
0.499999999999999 0.0599659527960706 0.337213177589197
0.499999999999999 0.0593874099103438 0.342198519659808
0.499999999999999 0.062931949639261 0.348814268287662
0.494668724548115 0.0638569081750519 0.366666666666666
0.49628110488028 0.0645083811119875 0.366666666666666
0.487375926035446 0.072202044737873 0.366666666666666
0.483926238154583 0.0805857482484179 0.366666666666666
0.477998054989298 0.0898517330173793 0.366666666666666
0.470550430932519 0.093769164538848 0.366666666666666
0.462649573947053 0.106204511825685 0.366666666666666
0.460182959932199 0.1158934526422 0.366666666666666
0.458440667446186 0.116830349520669 0.366666666666666
0.448552949485897 0.130275135498808 0.366666666666666
0.443448129465008 0.136202699458005 0.366666666666666
0.43448443244238 0.141766666260336 0.366666666666667
0.428742925960161 0.151605289506055 0.366666666666666
0.428164276057308 0.163664265188006 0.366666666666666
0.418473548137667 0.160906828634374 0.366666666666666
0.411213656905073 0.170090013188627 0.366666666666666
0.407045280751412 0.188481514445449 0.366666666666666
0.404338769601538 0.190190277892472 0.366666666666666
0.391826550215571 0.202724401755107 0.366666666666666
0.382519381835265 0.205629640759454 0.366666666666666
0.385652531362492 0.216714784242754 0.366666666666666
0.37794806652033 0.227995419513816 0.366666666666666
0.370811710752619 0.233338170642422 0.366666666666666
0.361327509359215 0.244648266506606 0.366666666666666
0.352287427452682 0.246518500375307 0.366666666666666
0.499999999999999 0.0441002792284775 0.319036052922734
0.499999999999999 0.0374094069699251 0.341762813194465
0.499999999999999 0.0384591755087464 0.345181148043686
0.499999999999999 0.0469379815827922 0.347085991722768
0.499999999999999 0.038707776246181 0.359949714032737
0.499629345502283 0.0410249370538795 0.366666666666666
0.488451087711122 0.0534287514550755 0.366666666666666
0.483986721598677 0.0637059469251104 0.366666666666666
0.483600662218357 0.0668214157099305 0.366666666666666
0.479915904044854 0.0659316040758199 0.366666666666666
0.471992687498455 0.0835418243148585 0.366666666666666
0.463287235476265 0.0832310025237088 0.366666666666666
0.457247804353438 0.097056637127383 0.366666666666666
0.447974301659736 0.103289330511997 0.366666666666666
0.445474159434464 0.112552721154079 0.366666666666666
0.44432823175431 0.120874224548136 0.366666666666666
0.433493267603596 0.136050980063839 0.366666666666666
0.434075096938838 0.130432819109431 0.366666666666666
0.427373198585855 0.140795283467997 0.366666666666666
0.417228035916256 0.145626534542021 0.366666666666666
0.411425288716573 0.15773058041557 0.366666666666666
0.403235558933939 0.170573384952306 0.366666666666666
0.397617169760144 0.173218321009614 0.366666666666666
0.387261864968083 0.18277842456019 0.366666666666666
0.386023471496381 0.189907298226086 0.366666666666666
0.385125752185524 0.199202722888321 0.366666666666666
0.374126742061471 0.208277162527618 0.366666666666666
0.367377448082279 0.218882347240213 0.366666666666666
0.368695476477469 0.22628405018527 0.366666666666667
0.352316772689818 0.236936047588063 0.366666666666666
0.35024981350217 0.243455976688175 0.366666666666666
0.499999999999999 0.0341911764217438 0.317350977748194
0.499999999999999 0.028155901939117 0.327181450733072
0.499999999999999 0.024921209886138 0.341872985053833
0.499999999999999 0.026565443214277 0.356534132928398
0.499999999999999 0.02606577088483 0.365775143198866
0.4960717845755 0.0339224777557086 0.366666666666666
0.498613357532155 0.0365969935919169 0.366666666666666
0.490099571189422 0.0459902664754106 0.366666666666667
0.479752534539476 0.0447542767198119 0.366666666666666
0.478335908078198 0.0578858765969977 0.366666666666666
0.464860370966126 0.0661169859288933 0.366666666666666
0.464259823410881 0.0763984999152124 0.366666666666667
0.458447507170528 0.0808572941351546 0.366666666666666
0.456386658656602 0.0929349434190827 0.366666666666666
0.444738347852885 0.0969663448416477 0.366666666666666
0.445257692147665 0.0978724736549538 0.366666666666666
0.43630355753368 0.109234192750706 0.366666666666666
0.426013871571638 0.129614869669984 0.366666666666666
0.428768969108528 0.129165592236456 0.366666666666666
0.41072639872589 0.138116444335373 0.366666666666666
0.411799932633142 0.140334557153966 0.366666666666667
0.401021889062458 0.152161816697954 0.366666666666667
0.403504909263626 0.157590073200921 0.366666666666667
0.395849070439025 0.16897463235351 0.366666666666666
0.387873050546978 0.175566910203045 0.366666666666666
0.377920037047362 0.18739382361898 0.366666666666666
0.377388117767904 0.186636073872077 0.366666666666666
0.362646464985016 0.201631963594959 0.366666666666666
0.363274065016677 0.208154984709465 0.366666666666666
0.356803646160507 0.215778084379147 0.366666666666666
0.348208222552482 0.233796381722506 0.366666666666666
0.345987976284465 0.23507696589023 0.366666666666666
0.342186375109739 0.239014049652764 0.366666666666667
0.499999999999999 0.0171207405362695 0.331768243610621
0.5 0.0225359880422092 0.34085687008789
0.499999999999999 0.0154881992290675 0.346279192767801
0.499999999999999 0.0115910765923012 0.358920325817603
0.499999999999999 0.0162736568482035 0.359439107466971
0.497675774026336 0.0262785958833891 0.366666666666666
0.485822880692342 0.0313863438527471 0.366666666666667
0.481481434113906 0.0359184176681931 0.366666666666666
0.471619491704662 0.0487522487992373 0.366666666666666
0.473304995294786 0.0521113041884868 0.366666666666666
0.464188226349706 0.068042775767325 0.366666666666666
0.459672712252969 0.0711402366411777 0.366666666666666
0.453007181352582 0.0747296776804196 0.366666666666666
0.446215640465402 0.088221334344868 0.366666666666666
0.441191958224636 0.0910158963442076 0.366666666666666
0.438315946206067 0.0925212419175095 0.366666666666666
0.424584405974511 0.112299028299778 0.366666666666667
0.416243402413427 0.117798995228101 0.366666666666666
0.415717232398633 0.116651331344702 0.366666666666666
0.417745166807103 0.127904838236163 0.366666666666666
0.403328882597788 0.138406232315284 0.366666666666667
0.399942837322311 0.144593273816841 0.366666666666667
0.390189631872697 0.152457593095219 0.366666666666666
0.382036928517936 0.160931427197545 0.366666666666666
0.378742320302632 0.173324393866982 0.366666666666666
0.372676520682216 0.177876633414664 0.366666666666666
0.367207666480091 0.183858081973613 0.366666666666666
0.363054068598608 0.195116983659038 0.366666666666667
0.357983793410079 0.19965794835281 0.366666666666667
0.342918238589889 0.209607890520848 0.366666666666666
0.347875095878839 0.221546286549208 0.366666666666666
0.330548448328017 0.231316170106094 0.366666666666666
0.327619656146038 0.23725960477258 0.366666666666667
0.32028812831947 0.249390983066217 0.366666666666666
0.499999999999999 -8.49587209118283e-005 0.341826233381519
0.499999999999999 0.0033047208497616 0.355925239022808
0.499999999999999 0.00286160447272291 0.359957827517878
0.495714932436098 0.00460567383569769 0.366666666666666
0.491625751468083 0.0107074914123511 0.366666666666666
0.484811013985975 0.0191443566367952 0.366666666666666
0.477047333355442 0.0253671985269055 0.366666666666666
0.477379275910797 0.0311211315600488 0.366666666666666
0.472027879494316 0.0375462215582635 0.366666666666666
0.46569039842275 0.0507072121747832 0.366666666666667
0.458309814381169 0.052793925637401 0.366666666666667
0.449782226821794 0.0549698186620833 0.366666666666666
0.448647085396774 0.0651106334912836 0.366666666666666
0.442444849234981 0.0753771696034138 0.366666666666666
0.42998783646831 0.0860784703920332 0.366666666666666
0.431447171673895 0.0918643290657224 0.366666666666666
0.419687137012259 0.102876477336333 0.366666666666666
0.412172595724005 0.106041655912872 0.366666666666666
0.404549437314935 0.115060857322793 0.366666666666666
0.400226739462839 0.122690343990988 0.366666666666666
0.394984839965598 0.125796870719116 0.366666666666666
0.39410339792682 0.14250061925646 0.366666666666666
0.388171276638211 0.146292292783938 0.366666666666666
0.378579181478873 0.156663724906591 0.366666666666666
0.37276363786019 0.157131932504799 0.366666666666667
0.366237959715455 0.179542541662505 0.366666666666667
0.357993436160459 0.176611994166341 0.366666666666666
0.361894652943977 0.188673658505877 0.366666666666666
0.351154699747874 0.204126063476107 0.366666666666666
0.347212852387301 0.208453457484218 0.366666666666666
0.329405640360874 0.212691176528055 0.366666666666666
0.324088370478871 0.225612315804474 0.366666666666666
0.321624378795913 0.229902297894424 0.366666666666666
0.312948550956878 0.238184493706861 0.366666666666666
0.499999999999999 -0.0198252468458148 0.362587654557934
0.499999999999999 -0.0141082552709057 0.362778775737931
0.495579982013518 -0.0130904525943281 0.366666666666666
0.492861343746756 -0.00208974479005396 0.366666666666667
0.479751350445592 0.0106525628794774 0.366666666666666
0.484546849699272 0.0102511919561094 0.366666666666666
0.47266870233244 0.012854018711136 0.366666666666667
0.474585581925854 0.0242660662966258 0.366666666666666
0.462286115588622 0.0370562087783379 0.366666666666666
0.456719510058994 0.0420006046139969 0.366666666666666
0.45635286321257 0.0468437679585836 0.366666666666666
0.442281232761116 0.0536318830014363 0.366666666666666
0.441667076212948 0.0622575037336217 0.366666666666667
0.428258023134653 0.0731540604760596 0.366666666666666
0.426968800245507 0.0778793489246519 0.366666666666666
0.420578410946635 0.0854902606495057 0.366666666666667
0.418333565018276 0.0948330214395525 0.366666666666666
0.413277880635672 0.101325511102534 0.366666666666666
0.402719370723312 0.114641668534044 0.366666666666666
0.391925621793722 0.1154839429364 0.366666666666666
0.397910046254322 0.121416395615786 0.366666666666667
0.386571847235161 0.136881092958558 0.366666666666666
0.379309598194387 0.144699522376601 0.366666666666666
0.376847109796834 0.143493308905751 0.366666666666667
0.366434511107325 0.160335009481421 0.366666666666666
0.356253048086253 0.173203896398482 0.366666666666666
0.350738801432215 0.172404848883135 0.366666666666666
0.341353386775133 0.185532883587053 0.366666666666666
0.342027943189388 0.197092056583293 0.366666666666666
0.33961821556221 0.194698502578613 0.366666666666666
0.329219406313049 0.205977365989997 0.366666666666666
0.324079688365702 0.214305895234401 0.366666666666666
0.313660466345106 0.228442697925042 0.366666666666666
0.30820700141985 0.231170107046507 0.366666666666666
0.303142905578893 0.239514278412105 0.366666666666666
0.499365587457735 -0.030611994611301 0.366666666666666
0.499999999999999 -0.0268615807764342 0.365889959689259
0.486505194334283 -0.00934625692296729 0.366666666666666
0.479078965946261 -0.00735353068153075 0.366666666666666
0.47957697157105 -0.00432487166427299 0.366666666666666
0.469758773837876 0.00541580674853208 0.366666666666666
0.464672491975519 0.00956871360700458 0.366666666666666
0.460413885158653 0.014526073042623 0.366666666666667
0.454954058026171 0.0282050255188113 0.366666666666666
0.443748907743762 0.0340968137048616 0.366666666666666
0.441102681730484 0.0401778355388051 0.366666666666666
0.43465432699122 0.0463575093462339 0.366666666666666
0.43530377332564 0.0589248198561143 0.366666666666667
0.429846758114106 0.0647111350301034 0.366666666666666
0.414177115217034 0.0796674195549348 0.366666666666666
0.413713372548447 0.0779267716445169 0.366666666666666
0.409784929072696 0.0813917730828334 0.366666666666666
0.407950469247013 0.0916700735364361 0.366666666666667
0.399575926450249 0.0992265528169799 0.366666666666666
0.391060379429112 0.110328774172607 0.366666666666666
0.382657037191203 0.114186965877138 0.366666666666666
0.379417544501713 0.132414483117436 0.366666666666666
0.370849415997335 0.131523270850467 0.366666666666666
0.362774295529467 0.150827604085217 0.366666666666666
0.360605141258658 0.14724936268094 0.366666666666666
0.356253935790127 0.158828740575278 0.366666666666666
0.346192056262236 0.163352595347554 0.366666666666666
0.344197609035368 0.176604097514068 0.366666666666666
0.337967374292012 0.178202912738741 0.366666666666666
0.329214327419126 0.196005308744435 0.366666666666666
0.317159433418166 0.201800346249924 0.366666666666666
0.310768505836976 0.211012344059595 0.366666666666666
0.305960499041629 0.221957688326665 0.366666666666666
0.299296262359818 0.229185553510139 0.366666666666666
0.289273115330597 0.241807746993589 0.366666666666666
0.286295900039178 0.246097004643186 0.366666666666666
0.49270669396458 -0.0332015190818707 0.366666666666667
0.487057314782815 -0.0309854385079627 0.366666666666666
0.483157943854474 -0.017745616092117 0.366666666666666
0.47866254017494 -0.0165798089219544 0.366666666666666
0.472890242921725 -0.0106107340244334 0.366666666666667
0.468504457533762 -0.00586391482826325 0.366666666666667
0.455887565112658 0.00815706493526262 0.366666666666666
0.455122395385772 0.0136958328929328 0.366666666666666
0.453987945488532 0.0200435708272097 0.366666666666666
0.442022869171086 0.0216409459394996 0.366666666666666
0.436207996268841 0.0308113261809314 0.366666666666666
0.432370032744978 0.0418385153160494 0.366666666666666
0.426440975271037 0.0501049686997573 0.366666666666666
0.420470254342082 0.0634883100876298 0.366666666666666
0.420183898909522 0.0649414990668424 0.366666666666667
0.414464610039833 0.0694565158210952 0.366666666666666
0.402887216532107 0.0811980175042916 0.366666666666666
0.391762823315171 0.0940519530973839 0.366666666666666
0.393385428338499 0.0945088836603924 0.366666666666666
0.381877213988642 0.107168738663138 0.366666666666667
0.381485741263968 0.104122129811908 0.366666666666666
0.374461723250589 0.112895711670839 0.366666666666666
0.367228395723977 0.131453835554531 0.366666666666666
0.353048262498277 0.14279887345958 0.366666666666666
0.353093946757428 0.14679489671313 0.366666666666666
0.344827390920938 0.157389505590496 0.366666666666666
0.339686508483244 0.158128307647698 0.366666666666666
0.33479618150991 0.174803761710872 0.366666666666666
0.330645839855235 0.171408273183216 0.366666666666666
0.319488686217243 0.182953861317877 0.366666666666666
0.315899766923152 0.185664336051148 0.366666666666666
0.304861186913338 0.199552063686205 0.366666666666666
0.304047656703318 0.211358486439604 0.366666666666666
0.297331634166739 0.21827019356106 0.366666666666666
0.285801112099097 0.222717994723771 0.366666666666666
0.274177626008095 0.236218500101718 0.366666666666666
0.271058675020056 0.247778454047931 0.366666666666666
0.486728877474777 -0.0391341923726992 0.366666666666666
0.48537100861771 -0.0348586476016474 0.366666666666666
0.481753276086337 -0.0329321193175889 0.366666666666666
0.473116326680046 -0.0148607606258113 0.366666666666666
0.467724668941471 -0.0153742879044726 0.366666666666666
0.45952337727306 -0.00234730919643829 0.366666666666666
0.453079421655216 -0.00155811861214124 0.366666666666666
0.450913780642589 0.0022575609671856 0.366666666666666
0.438699666758732 0.0116918495913315 0.366666666666666
0.441997312980539 0.0207402520049864 0.366666666666666
0.430621551310375 0.0238226565464053 0.366666666666666
0.421033721940875 0.0390222060475989 0.366666666666667
0.427639988767956 0.0383497421486125 0.366666666666666
0.414630380636065 0.0497901660308538 0.366666666666667
0.405064568233905 0.0638162864103616 0.366666666666667
0.402731529445184 0.0662239056265821 0.366666666666666
0.400018682180854 0.0689901331656573 0.366666666666666
0.393512448624116 0.0841547562873331 0.366666666666666
0.386328590812783 0.0962441041583712 0.366666666666666
0.373755771796981 0.101536524339707 0.366666666666666
0.372788682059804 0.10752840793077 0.366666666666666
0.365434329739312 0.110054141157715 0.366666666666666
0.353884962268839 0.122110255257856 0.366666666666667
0.354376176474763 0.127539844932297 0.366666666666666
0.351127429346996 0.132805129983824 0.366666666666666
0.333901469964298 0.153546673909926 0.366666666666666
0.330185196694189 0.154026353316331 0.366666666666666
0.320849437334354 0.165261450472343 0.366666666666666
0.320261658683518 0.16777575839718 0.366666666666667
0.311160251328112 0.175638972491162 0.366666666666666
0.310791415828844 0.185678805641121 0.366666666666667
0.298770857323559 0.191006933732008 0.366666666666666
0.293076801468771 0.21190707811031 0.366666666666666
0.285533244505466 0.220330292197846 0.366666666666666
0.278756672297012 0.219239782548235 0.366666666666666
0.271406597329885 0.228838763450213 0.366666666666666
0.267228754174478 0.242482391472783 0.366666666666666
0.260772577240561 0.248012773857429 0.366666666666666
0.481160524435802 -0.0461354499380767 0.366666666666666
0.481340314793204 -0.0432210005147128 0.366666666666666
0.468809692535849 -0.0317489274190905 0.366666666666666
0.46759688180233 -0.0334772934969122 0.366666666666666
0.463909809308572 -0.0220313470793954 0.366666666666666
0.458236171119587 -0.0164035821187804 0.366666666666666
0.452665055923483 -0.00987378974710422 0.366666666666666
0.442206626171181 -0.00616238107133532 0.366666666666667
0.438022570001825 0.00767947150945365 0.366666666666666
0.434364501788078 0.0105682743551827 0.366666666666666
0.431212993842219 0.0225202532051158 0.366666666666666
0.41264160657475 0.0317246708612474 0.366666666666666
0.41127585162054 0.0419183978806225 0.366666666666666
0.405382835531752 0.0502580798054988 0.366666666666666
0.407418328331086 0.044991558780056 0.366666666666666
0.397917393564466 0.0583554135585205 0.366666666666666
0.392186546563314 0.0695986044178394 0.366666666666666
0.385737410783317 0.0761315795384076 0.366666666666666
0.379858859892615 0.0811247572810003 0.366666666666667
0.372262928207032 0.0940331832943868 0.366666666666666
0.360159239784133 0.0979395238934416 0.366666666666666
0.362769522506679 0.106703562880423 0.366666666666666
0.348331978835637 0.118241098605053 0.366666666666666
0.350637729368913 0.121299629889821 0.366666666666666
0.344274127128205 0.127273949805116 0.366666666666667
0.338304400443275 0.133510288390308 0.366666666666666
0.326585025652868 0.149810901827126 0.366666666666666
0.325924103092362 0.150179907790423 0.366666666666666
0.321521845195142 0.162193669539054 0.366666666666666
0.306064743193673 0.166599913753403 0.366666666666666
0.299361467905031 0.175775443008303 0.366666666666667
0.296303174785147 0.18812944309173 0.366666666666666
0.290664233417596 0.192793041355552 0.366666666666666
0.277924320402166 0.201541181429104 0.366666666666666
0.266737125842529 0.213349624044647 0.366666666666666
0.266263470418214 0.226431011402619 0.366666666666666
0.26429721515001 0.234117809976226 0.366666666666666
0.252313217430422 0.239966153218611 0.366666666666666
0.47385362049978 -0.056204217827952 0.366666666666666
0.470403974214146 -0.0438124665243995 0.366666666666666
0.470630952835799 -0.0432908273776411 0.366666666666666
0.456224550811421 -0.0350561198220406 0.366666666666666
0.453247031132152 -0.0266896582930925 0.366666666666666
0.446674571556029 -0.0160454411360344 0.366666666666667
0.442043215021794 -0.00790334324688034 0.366666666666666
0.434102243681206 -0.0103818896753981 0.366666666666667
0.428807403630787 0.00306791757231651 0.366666666666666
0.42425994556731 0.0113252466808184 0.366666666666666
0.425268111299574 0.0136826512166316 0.366666666666666
0.415171158900551 0.029231491041449 0.366666666666666
0.402944382779887 0.0379709649223886 0.366666666666666
0.40029490420141 0.0351857343771169 0.366666666666666
0.394228380740545 0.0460212977896959 0.366666666666667
0.393725983260441 0.0496394671662824 0.366666666666666
0.378227300529982 0.0659289378699852 0.366666666666666
0.377926185099289 0.0661706371564156 0.366666666666666
0.3686799223882 0.0810197131267252 0.366666666666666
0.364811570397981 0.0882327022910094 0.366666666666666
0.363083931993773 0.0850289767170594 0.366666666666666
0.354021491525788 0.100621087759121 0.366666666666666
0.35288203005892 0.101122633195574 0.366666666666666
0.336859907754626 0.112878036193592 0.366666666666666
0.327926400577977 0.128771209285181 0.366666666666666
0.325755497540875 0.131341809893888 0.366666666666666
0.322189455305729 0.140458942453436 0.366666666666666
0.307329622357187 0.155446099723588 0.366666666666666
0.303347798191664 0.158724213562984 0.366666666666666
0.301156356426337 0.164805399262589 0.366666666666666
0.298484306348484 0.165255974359563 0.366666666666666
0.282668475873435 0.181870408111561 0.366666666666666
0.278317175607087 0.187472672554655 0.366666666666666
0.274241906935648 0.193725654002146 0.366666666666666
0.269384098736343 0.199329201143618 0.366666666666666
0.258575071818549 0.215300793440264 0.366666666666666
0.25389419455723 0.227777189989779 0.366666666666666
0.250325399497163 0.238361773904288 0.366666666666666
0.464046940258832 -0.0557970416886928 0.366666666666666
0.464893130985435 -0.0547988999319871 0.366666666666667
0.455645017140008 -0.044161329842984 0.366666666666666
0.458234670710293 -0.044791572701279 0.366666666666666
0.444327968165596 -0.037284186541232 0.366666666666666
0.442406282549972 -0.0262091091824232 0.366666666666666
0.438553488770671 -0.0210239370250246 0.366666666666666
0.429774178751214 -0.0109332453507805 0.366666666666666
0.424660137611438 -0.00547899981843353 0.366666666666666
0.415157169877267 0.00546335707918658 0.366666666666666
0.406824070599807 0.00975660280870923 0.366666666666666
0.402716809727226 0.0217586428799761 0.366666666666667
0.39830103057313 0.0181938311615692 0.366666666666666
0.398200988611121 0.0342054567302579 0.366666666666666
0.386907362325296 0.0377855495213624 0.366666666666666
0.379396091435292 0.0470153313194819 0.366666666666667
0.383326706743824 0.0559603937291897 0.366666666666666
0.365962232746531 0.0607530099003172 0.366666666666666
0.368705116495988 0.0641849951767096 0.366666666666667
0.357200805044886 0.0822754211733965 0.366666666666666
0.352139870540316 0.0873576717896021 0.366666666666666
0.34705054081702 0.0927978133747888 0.366666666666666
0.344773009753116 0.100318192976948 0.366666666666666
0.33532652446952 0.110954024618071 0.366666666666666
0.331069080207762 0.117247973387447 0.366666666666666
0.324982770723923 0.124430589927385 0.366666666666666
0.312595585562403 0.130628963146213 0.366666666666666
0.310869347809513 0.138983553528045 0.366666666666666
0.298740284901354 0.15317720489841 0.366666666666666
0.290674505588358 0.160490356391807 0.366666666666666
0.283035962828599 0.164542892725391 0.366666666666666
0.283912771512404 0.169006600681921 0.366666666666666
0.270125702255582 0.189451126211789 0.366666666666666
0.259879646024011 0.189859862794538 0.366666666666666
0.262541885977251 0.201777681458945 0.366666666666667
0.245085946625322 0.211081733039806 0.366666666666666
0.243068330712758 0.221224971106981 0.366666666666666
0.230820377794894 0.230899629488047 0.366666666666666
0.228358996672392 0.234237497952843 0.366666666666666
0.2231156465486 0.243842394147127 0.366666666666666
0.456416878543495 -0.0601083210107566 0.366666666666666
0.45575454611249 -0.0535454839048691 0.366666666666666
0.454828912072038 -0.0527526528535044 0.366666666666667
0.452296492084709 -0.0497430534418519 0.366666666666666
0.444771492169297 -0.0405130813940344 0.366666666666666
0.434190645209098 -0.0336439537710546 0.366666666666666
0.429703857824276 -0.0292692821462735 0.366666666666666
0.428402517089998 -0.0176723538453105 0.366666666666666
0.416983221501488 -0.011781867642784 0.366666666666666
0.409360790308763 0.000300806678561548 0.366666666666666
0.404084981268032 0.00406025287209912 0.366666666666666
0.40092074535252 0.0161486360241377 0.366666666666666
0.397247156057785 0.0184113963088739 0.366666666666666
0.392176574349994 0.0264575222206897 0.366666666666666
0.381357371811144 0.0307293295586715 0.366666666666666
0.377993277486152 0.0429685653639961 0.366666666666666
0.37124134047133 0.0437654965142359 0.366666666666666
0.364616886226029 0.0565824077482499 0.366666666666666
0.357828692627873 0.062552698274614 0.366666666666666
0.346319094040882 0.0704804368066019 0.366666666666666
0.343098888227446 0.0803500170378615 0.366666666666667
0.336808067278392 0.0875694007134437 0.366666666666666
0.333471003797917 0.0913455132202409 0.366666666666666
0.320751752398237 0.100800784468503 0.366666666666666
0.317714063241205 0.113553209253686 0.366666666666666
0.315172440857559 0.11428364127372 0.366666666666666
0.311903936910658 0.127753654350422 0.366666666666666
0.306188528927643 0.129378166484062 0.366666666666666
0.291179685335758 0.148293940272197 0.366666666666666
0.288073219834461 0.150528775493245 0.366666666666666
0.282050119321545 0.160467851489168 0.366666666666666
0.272561708955788 0.164400418274015 0.366666666666666
0.266405509012577 0.170193716586543 0.366666666666666
0.26328105638635 0.183964042167964 0.366666666666666
0.255557748964313 0.199070547812831 0.366666666666666
0.244448783569149 0.203677808177441 0.366666666666666
0.240792949603576 0.20708729181285 0.366666666666666
0.228016903960882 0.221708917774533 0.366666666666666
0.216918223912149 0.236202479871048 0.366666666666667
0.218905950374534 0.241502224004028 0.366666666666667
0.461191214122847 -0.0716460831342226 0.366666666666666
0.454046690285362 -0.0649448711925325 0.366666666666666
0.444079385666796 -0.0597363442590024 0.366666666666666
0.43740478094622 -0.0571145068080072 0.366666666666666
0.438809594718077 -0.0418420045270064 0.366666666666666
0.425277345083933 -0.0363172583888685 0.366666666666666
0.422040166297007 -0.0332145901677227 0.366666666666666
0.415229307464289 -0.0225470652410907 0.366666666666666
0.414323536218389 -0.0167184833112827 0.366666666666666
0.407103361321804 -0.0159732947409076 0.366666666666666
0.400732452619301 0.00130551422908669 0.366666666666666
0.393734324289566 0.00442949022680477 0.366666666666666
0.388833666882203 0.0171777126882215 0.366666666666666
0.381302929315669 0.0181642219558638 0.366666666666666
0.38041703527661 0.0238363707378628 0.366666666666666
0.37572863313184 0.0303977801136541 0.366666666666666
0.366504355861309 0.0404641268768801 0.366666666666666
0.360891022190997 0.0483503660225283 0.366666666666666
0.348174475772278 0.0571369721516482 0.366666666666666
0.340161601464275 0.0607100457758204 0.366666666666666
0.338270411609896 0.0707232664520739 0.366666666666666
0.335878009729776 0.0797034232001672 0.366666666666666
0.328351744940491 0.0888648862008221 0.366666666666666
0.324867666730585 0.0924909839646894 0.366666666666666
0.305929355009988 0.107474430257892 0.366666666666666
0.31121724149286 0.106718052660269 0.366666666666666
0.302954058099199 0.115686645202663 0.366666666666666
0.290873529342497 0.133605140837618 0.366666666666666
0.281117729702082 0.141744003224005 0.366666666666666
0.28094226112326 0.141257972972789 0.366666666666666
0.267169863672561 0.155129125955778 0.366666666666666
0.272088124114335 0.160752866691528 0.366666666666666
0.257055543942321 0.170110385870924 0.366666666666666
0.249530456638897 0.180711539672513 0.366666666666666
0.250912889901797 0.184237748462921 0.366666666666667
0.235904733741365 0.197730718255661 0.366666666666666
0.227934414993285 0.206337312710642 0.366666666666666
0.222398375117882 0.213194447466546 0.366666666666667
0.216108326631654 0.222004657865679 0.366666666666666
0.209016357731239 0.239812266452394 0.366666666666667
0.195448665317799 0.238521381082797 0.366666666666666
0.201299998381314 0.244632046440338 0.366666666666666
0.454363228665277 -0.0840530896742294 0.366666666666666
0.445397834624883 -0.0702153356674267 0.366666666666666
0.440246795779124 -0.0668483807653234 0.366666666666666
0.429163162468095 -0.0516235271334284 0.366666666666666
0.427933602807714 -0.055500854356012 0.366666666666666
0.425917319043306 -0.0448754015767311 0.366666666666666
0.41909978235633 -0.0408600257085355 0.366666666666666
0.412940540224558 -0.0311276631493035 0.366666666666666
0.407416008444748 -0.0304552427786278 0.366666666666666
0.397953177148877 -0.0193384783086286 0.366666666666666
0.386982487785813 -0.0105576625292315 0.366666666666666
0.383704158585418 -0.00565972386716577 0.366666666666667
0.386892183736002 0.000214262894679771 0.366666666666666
0.380673285861774 0.0133633137858173 0.366666666666666
0.371459943042802 0.0235343920444172 0.366666666666666
0.368825374609767 0.0267163405140679 0.366666666666666
0.354383944213481 0.0326486432326996 0.366666666666666
0.346933120925507 0.048708610877436 0.366666666666666
0.344324832373973 0.044883407575096 0.366666666666666
0.340373593861554 0.057234262209607 0.366666666666666
0.333818154276347 0.067032018356012 0.366666666666666
0.331536718453532 0.0713144829870636 0.366666666666666
0.317694808996415 0.0773784727410667 0.366666666666666
0.307272916563784 0.095125958917205 0.366666666666666
0.310318116860939 0.0969462301403322 0.366666666666667
0.296626911883226 0.104829948053649 0.366666666666666
0.293424521713748 0.108484605090728 0.366666666666666
0.288314369194215 0.118437181073778 0.366666666666666
0.281307727396365 0.134308539824442 0.366666666666666
0.26927503781893 0.141242339178153 0.366666666666666
0.268951158293177 0.152709175258345 0.366666666666666
0.26279650986175 0.154607539817166 0.366666666666666
0.248902298174757 0.162086124559085 0.366666666666666
0.247908488114768 0.173081001915573 0.366666666666666
0.243053090031464 0.181253443719329 0.366666666666666
0.230112262456562 0.186877999202365 0.366666666666666
0.227100244231378 0.194411003690904 0.366666666666666
0.214534017045713 0.202466756567442 0.366666666666666
0.213577623195925 0.210360662666374 0.366666666666666
0.199294782818974 0.217672323178492 0.366666666666666
0.189518023522946 0.233825232944797 0.366666666666666
0.180804364142144 0.242194804343039 0.366666666666666
0.188832764819384 0.248084544226739 0.366666666666666
0.448953867835597 -0.0848645758341237 0.366666666666666
0.440559222564526 -0.0812569161880348 0.366666666666666
0.432069806108285 -0.0691950386382885 0.366666666666666
0.427409021201465 -0.0726538547296462 0.366666666666666
0.416721619125753 -0.0555241439311655 0.366666666666666
0.412514246222008 -0.0524442745859036 0.366666666666666
0.405070650192795 -0.0421721462104617 0.366666666666666
0.401840553477961 -0.0372390098593088 0.366666666666667
0.402768116615813 -0.0331895386242757 0.366666666666666
0.395517954748712 -0.0214676917334725 0.366666666666666
0.385822045109897 -0.0163776684912084 0.366666666666666
0.378318915475603 -0.0101147624757546 0.366666666666666
0.375589222339847 -0.00196278881538018 0.366666666666666
0.372954042287492 0.0025674317560303 0.366666666666666
0.361990003753447 0.00911266994675738 0.366666666666666
0.352732023175532 0.0267703810952786 0.366666666666666
0.353773248450206 0.0304024807955453 0.366666666666666
0.344365449451103 0.0368388770522267 0.366666666666666
0.336226327004899 0.0387877808577162 0.366666666666667
0.337926780122636 0.0447774732760658 0.366666666666666
0.327156130302704 0.0547814186330171 0.366666666666666
0.319593667652291 0.0588010669608727 0.366666666666666
0.309217820169071 0.0747235175440099 0.366666666666666
0.308485586999092 0.0816510260082473 0.366666666666666
0.296796787235567 0.0945927703477549 0.366666666666666
0.290583225503271 0.100838707119159 0.366666666666666
0.294103039214564 0.10148261351983 0.366666666666667
0.275761892585115 0.113559948269702 0.366666666666666
0.272687551149691 0.127882805115812 0.366666666666666
0.261967384240337 0.137084156222065 0.366666666666666
0.260013587560569 0.135422040461053 0.366666666666667
0.248707531287033 0.151130768462652 0.366666666666666
0.245366884888782 0.152025694729631 0.366666666666667
0.243225516026888 0.163524031519887 0.366666666666667
0.23193976644756 0.171884369369163 0.366666666666666
0.222904348825142 0.187697712491887 0.366666666666666
0.218656761046706 0.190466958421654 0.366666666666666
0.206751192990078 0.202617821472795 0.366666666666666
0.205501349699235 0.200907774451712 0.366666666666666
0.197129963288432 0.216364808679641 0.366666666666666
0.187396149346459 0.218720660631163 0.366666666666666
0.180915870875833 0.227384049864861 0.366666666666667
0.177080580080922 0.236807206701445 0.366666666666666
0.172799240810995 0.247501593453263 0.366666666666666
0.436369259487843 -0.0933062143644872 0.366666666666666
0.430009440632303 -0.086697801335459 0.366666666666666
0.427753737531526 -0.0844039484733358 0.366666666666667
0.420144540085788 -0.0751944656850632 0.366666666666666
0.418121614633679 -0.0628577486072597 0.366666666666666
0.413784675845154 -0.058379721171335 0.366666666666666
0.404888216494673 -0.0528814202367665 0.366666666666666
0.405136727331113 -0.0427992966445183 0.366666666666666
0.395891587440603 -0.0371752542008418 0.366666666666666
0.389413913786087 -0.0317404531440194 0.366666666666666
0.385853365541266 -0.029865995601344 0.366666666666666
0.376043183588825 -0.0123888861362165 0.366666666666666
0.374315019142731 -0.011252268355916 0.366666666666666
0.367706696885783 -0.00686374761672307 0.366666666666666
0.355947060200897 0.00687262133069917 0.366666666666666
0.351824481337276 0.0191423226020547 0.366666666666666
0.346632462774971 0.0185716196979542 0.366666666666666
0.336036991193908 0.0226387689542838 0.366666666666666
0.329029178273093 0.0374444445616429 0.366666666666666
0.328399435625697 0.0426916349942246 0.366666666666666
0.322916414504546 0.0555988774573186 0.366666666666666
0.316867103053598 0.057331225761355 0.366666666666666
0.301592637147598 0.0687869963198429 0.366666666666666
0.297661298192533 0.0750280236171564 0.366666666666666
0.287564374788782 0.0906843205292362 0.366666666666666
0.284207721270838 0.0955969847125356 0.366666666666666
0.278563056386207 0.100764653855753 0.366666666666666
0.275182889849738 0.107276295328536 0.366666666666666
0.274044790862393 0.107609659297791 0.366666666666666
0.259044995766192 0.123313948084665 0.366666666666666
0.257612664721255 0.130136366206275 0.366666666666666
0.252738548922656 0.142070901840634 0.366666666666666
0.236551467208302 0.151492902624792 0.366666666666666
0.233751450067737 0.160507303613232 0.366666666666666
0.224520565155158 0.164539460440716 0.366666666666666
0.214373643160525 0.174723871667499 0.366666666666666
0.215927663149649 0.177021578990624 0.366666666666666
0.201942787080025 0.189965325833441 0.366666666666667
0.198447424662994 0.205143536406433 0.366666666666666
0.185922137609026 0.209641961414198 0.366666666666666
0.18425469722801 0.21530293172196 0.366666666666666
0.172555306835723 0.223227051207343 0.366666666666666
0.169386425493837 0.243769898272697 0.366666666666666
0.152091348154683 0.248028705029535 0.366666666666666
0.433767159681732 -0.0991804028304159 0.366666666666666
0.420938310861073 -0.0869284772242276 0.366666666666666
0.421671128163823 -0.0824713488810907 0.366666666666666
0.412095097697835 -0.0793351067292958 0.366666666666666
0.405435769959164 -0.0692612789701202 0.366666666666666
0.404378902043547 -0.0663453502620882 0.366666666666666
0.401055459520075 -0.0612838921538737 0.366666666666666
0.387230870105612 -0.0471199555014407 0.366666666666666
0.382786164825778 -0.0425938331283778 0.366666666666666
0.381018625454257 -0.0359123715171785 0.366666666666666
0.372965308339042 -0.029826590651282 0.366666666666667
0.371838085837469 -0.0246294473577495 0.366666666666666
0.36485685626011 -0.0168504691097048 0.366666666666666
0.3538145618514 -0.0136205273717232 0.366666666666666
0.348007622331365 0.00321118864845434 0.366666666666666
0.349949976404577 0.00641207709428906 0.366666666666666
0.341751506098443 0.0102483641832056 0.366666666666667
0.333599858087625 0.0239849742100115 0.366666666666666
0.326261230716051 0.028567027620271 0.366666666666666
0.322019870238121 0.039184774803112 0.366666666666667
0.309961382047117 0.0451367291524276 0.366666666666667
0.310997927209184 0.0493791188899415 0.366666666666666
0.303685866307571 0.0542636154911386 0.366666666666667
0.289822831784697 0.0669791779136913 0.366666666666666
0.290143143196106 0.0782868844491705 0.366666666666667
