ply
format ascii 1.0
element vertex 847
property float x
property float y
property float z
end_header
0.0895683435340227 -0.197905936014889 0.379032258064516
0.103840458545536 -0.184969429617902 0.379032258064516
0.10180674850253 -0.180551311218571 0.379032258064516
0.112721874610304 -0.178253969898529 0.379032258064516
0.123493393394329 -0.167968247667912 0.379032258064516
0.130610059815529 -0.161310225659095 0.379032258064516
0.139715119080549 -0.152414368418514 0.379032258064516
0.144060092538775 -0.151376361910399 0.379032258064516
0.162296886141622 -0.140543820263518 0.379032258064516
0.175097805911199 -0.133249495285852 0.379032258064516
0.182549892369594 -0.125112885585261 0.379032258064517
0.191410817132429 -0.118948071274679 0.379032258064516
0.187599044406003 -0.111818212862032 0.379032258064516
0.206109740543682 -0.105446067093401 0.379032258064516
0.214879737550224 -0.0909709274882424 0.379032258064516
0.227390387042416 -0.0820099146549538 0.379032258064516
0.229293685786977 -0.0776173173088909 0.379032258064516
0.2337020138095 -0.0653925548535585 0.379032258064516
0.250458391967066 -0.0645621547821069 0.379032258064516
0.267880876459287 -0.0443880829830342 0.379032258064516
0.267041386980196 -0.0481061984430144 0.379032258064516
0.281462397016438 -0.0341972648027128 0.379032258064516
0.293664880926862 -0.0213595337149496 0.379032258064516
0.297020544764703 -0.0115000026339269 0.379032258064516
0.306368382024791 -0.00384050318854313 0.379032258064516
0.325946331254192 -0.00389461291715085 0.379032258064516
0.325059989106871 0.00733170269484598 0.379032258064516
0.343325616537399 0.0223688289952294 0.379032258064516
0.350791440411021 0.0288763287036943 0.379032258064516
0.353987684963583 0.033348015953435 0.379032258064516
0.374650884929705 0.0464090683383327 0.379032258064516
0.374109992099438 0.0512402801735277 0.379032258064516
0.395068778691365 0.0602078204279823 0.379032258064517
0.396719372221303 0.0656547449991058 0.379032258064516
0.409456478850084 0.0732692493608275 0.379032258064516
0.421541130129409 0.0921854588417823 0.379032258064516
0.430154906350915 0.0971871023463195 0.379032258064516
0.441200982532329 0.110456103332708 0.379032258064516
0.447939160071005 0.118600679961762 0.379032258064516
0.463283735582837 0.127316168929596 0.379032258064516
0.469786478783127 0.128725966550982 0.379032258064517
0.483674241660306 0.145611909515271 0.379032258064516
0.497496729834893 0.15650029630559 0.381720430107527
0.046146099843741 -0.220430107526882 0.134107513651951
0.0501983097948205 -0.220430107526882 0.14668360324934
0.0520761789755388 -0.220430107526882 0.151383910960406
0.0580665224364857 -0.220430107526882 0.153000585733744
0.0619462368259553 -0.217025667595041 0.161290322580645
0.0696674912434432 -0.211336497980892 0.161290322580645
0.0653924488481821 -0.203409289417305 0.161290322580645
0.0850542640039103 -0.191927603001009 0.155913978494624
0.0935687609813846 -0.187742373709576 0.155913978494624
0.101895067108072 -0.177140358817223 0.155913978494624
0.107183433689164 -0.171093416460759 0.155913978494624
0.11169616817546 -0.162468796270844 0.155913978494623
0.121198227665589 -0.162290429151277 0.155913978494624
0.133513757176677 -0.148059957585208 0.155913978494624
0.135496233567083 -0.145944765454492 0.155913978494624
0.139099271194665 -0.136532358443548 0.155913978494624
0.155889744406097 -0.134015536130977 0.155913978494623
-0.000181005528752891 -0.258064516129032 0.355647356700602
0.00983661641564376 -0.258064516129032 0.349846873095087
0.00331476006735141 -0.258064516129032 0.370836320593278
0.00397202485407026 -0.258064516129032 0.379313167298045
0.015007715967922 -0.257903097997907 0.381720430107527
0.0214163602127577 -0.254267019848167 0.381720430107527
0.0301596384417493 -0.236870979111784 0.379032258064517
0.0349022137987556 -0.231077899469709 0.379032258064516
0.0397953701391881 -0.222437500127443 0.379032258064516
0.0547944415318948 -0.218466715846764 0.379032258064516
0.0538410833812242 -0.21458516107582 0.379032258064516
0.0675166121920786 -0.202956812756181 0.379032258064516
0.0687922466085864 -0.204576738855728 0.379032258064516
0.0771305411362583 -0.193783205719646 0.379032258064516
0.0850443876690081 -0.18554180319901 0.379032258064516
0.101462307008295 -0.171315621801456 0.379032258064517
0.102547071054497 -0.170133055212776 0.379032258064516
0.1209178284549 -0.157801605452369 0.379032258064516
0.128190700271808 -0.150632545092898 0.379032258064516
0.128242233019338 -0.146817063565532 0.379032258064517
0.142471471983697 -0.134697056051285 0.379032258064516
0.153938465347486 -0.131218721746839 0.379032258064516
0.160643027671283 -0.132627810778773 0.379032258064516
0.170949226616266 -0.117627593994112 0.379032258064516
0.174621814953992 -0.115441038772894 0.379032258064516
0.187527642883536 -0.10210877164462 0.379032258064516
0.202464577958782 -0.0970785853060197 0.379032258064516
0.200447375697334 -0.0888529647539371 0.379032258064516
0.218386366953211 -0.0749863465426939 0.379032258064516
0.222917808424122 -0.0690141328683053 0.379032258064516
0.237791536313061 -0.0653134447978705 0.379032258064516
0.246715610171231 -0.046897727173056 0.379032258064517
0.248368771625974 -0.0490496196380949 0.379032258064516
0.254465095806228 -0.0420000807694152 0.379032258064516
0.273882548514471 -0.0252242839314937 0.379032258064516
0.284570722964793 -0.0190853691264468 0.379032258064516
0.290561067608569 -0.00766749913485867 0.379032258064516
0.297088951852768 0.000662882447887171 0.379032258064516
0.312935765646874 0.00882281140675287 0.379032258064516
0.324673712393741 0.0123910840066955 0.379032258064517
0.32690169307088 0.0243692086033922 0.379032258064516
0.343403206209369 0.0288135031710081 0.379032258064516
0.349166821120194 0.0344883840901733 0.379032258064516
0.354258598351916 0.0450224254261307 0.379032258064516
0.364853831430965 0.0618526383208594 0.379032258064516
0.375592690580135 0.0614253889606615 0.379032258064516
0.386854947952522 0.078137832041101 0.379032258064516
0.409997845724385 0.0948768896016214 0.379032258064516
0.414510843132294 0.102039411040502 0.379032258064516
0.432442399353602 0.114573674608831 0.379032258064517
0.436692689706701 0.109860435068866 0.379032258064516
0.446777064194507 0.129232192760363 0.379032258064516
0.461253292631335 0.134956891996877 0.379032258064516
0.467569654924129 0.145827954675012 0.379032258064516
0.482607941969921 0.15455586721762 0.379032258064516
0.487655081566689 0.168425420301661 0.379032258064516
0.0375411811354954 -0.220430107526882 0.132533971239595
0.0335553525809469 -0.220430107526882 0.134426084207968
0.0308008860507065 -0.220430107526882 0.159135382065237
0.0431924224001566 -0.220430107526882 0.152508369032654
0.0354820957907973 -0.218243194158263 0.161290322580646
0.0532500747631919 -0.210603884212287 0.161290322580645
0.0648566649229096 -0.193863247642817 0.155913978494624
0.0649448627375728 -0.189026713322803 0.155913978494624
0.0739313903066611 -0.185151703548487 0.155913978494624
0.083841495661087 -0.175314844691145 0.155913978494624
0.0888567297875725 -0.176111801332536 0.155913978494624
0.0924032378888728 -0.168794481613063 0.155913978494624
0.106533016579718 -0.163567232968546 0.155913978494623
0.114042630922402 -0.15721567401506 0.155913978494624
0.118996248781024 -0.148141650669142 0.155913978494624
0.136018188399106 -0.138061583247311 0.155913978494624
0.134672612984096 -0.137791581002403 0.155913978494624
-0.00154644141837398 -0.258064516129032 0.343442901327563
-0.00288806168084718 -0.258064516129032 0.353089943596001
-0.000772767449813097 -0.258064516129032 0.366433064585619
-0.0104631840479075 -0.258064516129032 0.370867170628212
-0.009255752410088 -0.254809716516375 0.381720430107527
0.0074265687782056 -0.251141995289124 0.381720430107527
0.013796189398145 -0.240843583165127 0.379032258064516
0.0218804354102503 -0.227413946598668 0.379032258064516
0.0284331318016066 -0.224092868311467 0.379032258064516
0.0417698517326661 -0.223204219703439 0.379032258064516
0.047440541408382 -0.215855297192283 0.379032258064516
0.0519529424757778 -0.203121929831712 0.379032258064516
0.0598580852001613 -0.2013743371281 0.379032258064516
0.0646855258891695 -0.196471346634185 0.379032258064516
0.080586535602136 -0.188829366872994 0.379032258064516
0.0844071727895715 -0.183484909928228 0.379032258064516
0.0948827272853781 -0.172173214785026 0.379032258064516
0.0978649230932589 -0.170258925887136 0.379032258064516
0.111078946712811 -0.155651931391187 0.379032258064516
0.121463826693084 -0.146106247765657 0.379032258064516
0.125353924024418 -0.134813473365506 0.379032258064516
0.132826245756026 -0.132817965660536 0.379032258064516
0.147289984116633 -0.127976448855979 0.379032258064516
0.152822974387475 -0.117853350773337 0.379032258064516
0.155750343209911 -0.112512666054712 0.379032258064516
0.167322407109937 -0.108615999414296 0.379032258064516
0.183551971126506 -0.089516100614279 0.379032258064516
0.180452058648519 -0.0927683825171848 0.379032258064517
0.202760994379408 -0.079809283924936 0.379032258064516
0.207159874898398 -0.0656021806006262 0.379032258064516
0.212935017022318 -0.0658403730421719 0.379032258064516
0.216239411573427 -0.0549851667832762 0.379032258064516
0.22469719259666 -0.0531644564520386 0.379032258064516
0.245663842328355 -0.0366152450250107 0.379032258064516
0.260309031148122 -0.024129725683932 0.379032258064516
0.260066933591336 -0.0204102125342271 0.379032258064516
0.276202447550024 -0.0125077590254434 0.379032258064516
0.284063187861032 -0.00254970210024142 0.379032258064516
0.288306076879982 0.00783902118754262 0.379032258064516
0.310730399114866 0.0189524754731852 0.379032258064516
0.311136446937682 0.015870466530301 0.379032258064516
0.31834308713845 0.0292054705688945 0.379032258064516
0.328082853038488 0.0455671201379754 0.379032258064516
0.343814866566509 0.0475592664087377 0.379032258064516
0.352517299945901 0.0572441592315592 0.379032258064516
0.362688561885528 0.0646302031617969 0.379032258064516
0.378706735210848 0.0769008994092095 0.379032258064516
0.378190452929718 0.0776785308703718 0.379032258064516
0.385861762790158 0.0913725545717276 0.379032258064516
0.399810229351623 0.107548939244793 0.379032258064516
0.412211386227509 0.109604515708934 0.379032258064516
0.425900277200576 0.117371821927493 0.379032258064516
0.440163726628619 0.13131652107456 0.379032258064516
0.444700438101984 0.144038788426948 0.379032258064516
0.466467565061129 0.155458810962335 0.379032258064516
0.476541165837222 0.161811118440252 0.379032258064516
0.477363421944196 0.174277602732678 0.379032258064516
0.489086973879902 0.186217293898905 0.379032258064516
0.499031044016056 0.188347243175363 0.381720430107527
0.023658330903708 -0.220430107526882 0.136499716518966
0.0224000351444129 -0.220430107526882 0.159245952520104
0.0235031551687035 -0.220430107526882 0.159552945506798
0.0293606331243265 -0.21363891326623 0.161290322580646
0.0341639482931248 -0.207293023280379 0.161290322580645
0.0462919535638846 -0.194490587232635 0.155913978494623
0.0535045284885446 -0.190719420227063 0.155913978494624
0.0626481509501339 -0.183884696412634 0.155913978494624
0.0651544114331291 -0.176809935458792 0.155913978494623
0.0744683732643752 -0.173513486818911 0.155913978494624
0.09050390958006 -0.164996548974337 0.155913978494624
0.0917588596062251 -0.161415380483501 0.155913978494624
0.101435351182722 -0.15508793301904 0.155913978494624
0.103032196025184 -0.144925264459485 0.155913978494624
0.114542809748196 -0.136549480311008 0.155913978494624
0.115813174043453 -0.136076491490811 0.155913978494624
0.131127513148892 -0.128866072228016 0.155913978494623
-0.0173903624131858 -0.258064516129032 0.360141891400723
-0.0267292266075913 -0.258064516129032 0.369011203712678
-0.0245801394161361 -0.258064516129032 0.377960306030627
-0.0200952730460818 -0.252874320707371 0.381720430107527
-0.00732003197888446 -0.241734720857089 0.379032258064516
0.0012204656139511 -0.245040256001467 0.379032258064516
0.00427581288927937 -0.234128485828469 0.379032258064516
0.018036078104713 -0.224982484485276 0.379032258064516
0.0210071427479992 -0.217494825207532 0.379032258064516
0.0267796394921184 -0.219339150404366 0.379032258064516
0.043727976341371 -0.201480161703464 0.379032258064516
0.042329533529773 -0.204182274692191 0.379032258064516
0.0551445166866502 -0.187918156748364 0.379032258064516
0.0611911827897565 -0.191453157979611 0.379032258064516
0.0730822751868384 -0.174842890998977 0.379032258064516
0.0763651955024504 -0.165314024492397 0.379032258064516
0.0886859073138296 -0.161445212422058 0.379032258064516
0.0897215908928508 -0.158379538275227 0.379032258064517
0.104528387056112 -0.154649998967992 0.379032258064516
0.114353668723539 -0.138011068012389 0.379032258064516
0.120282789269024 -0.129968946103653 0.379032258064516
0.125094941392574 -0.127989209660637 0.379032258064516
0.140806364819547 -0.117498635840182 0.379032258064516
0.149050531416316 -0.112532062900023 0.379032258064516
0.161673297780797 -0.101368563176488 0.379032258064516
0.162150097669001 -0.0893471723290686 0.379032258064516
0.167923327294141 -0.0871303964528835 0.379032258064516
0.189269590718645 -0.0762232496932564 0.379032258064516
0.195541757509736 -0.0686917523140934 0.379032258064516
0.19955786226181 -0.0625731099069561 0.379032258064516
0.204522082710359 -0.0550750176899316 0.379032258064517
0.212477030132266 -0.0549625198049227 0.379032258064517
0.22330646794161 -0.0410471510519555 0.379032258064516
0.230639183690975 -0.0282357748653414 0.379032258064516
0.243372746072595 -0.0270623521057816 0.379032258064516
0.261720823159975 -0.00623157036297196 0.379032258064516
0.266188531542388 -0.00547278536693263 0.379032258064516
0.275120468819035 0.0100599319510141 0.379032258064516
0.286746521024316 0.014636080457935 0.379032258064516
0.289442657068002 0.0219087625024951 0.379032258064516
0.307233637791418 0.0335761318968222 0.379032258064516
0.318804707864378 0.0374674143372618 0.379032258064516
0.322166952414645 0.04427646994565 0.379032258064516
0.33100208997517 0.0580782169417144 0.379032258064516
0.345356738529653 0.0653754075146991 0.379032258064516
0.360921328364339 0.07272673638098 0.379032258064517
0.356108391831029 0.0848340817502123 0.379032258064516
0.371571917939135 0.0874360743230635 0.379032258064517
0.388704042430472 0.102034339234202 0.379032258064516
0.395725366582387 0.117613782302049 0.379032258064517
0.418015281758067 0.126057378846681 0.379032258064516
0.425792125727131 0.129480948355343 0.379032258064517
0.43663026864179 0.140819610832433 0.379032258064516
0.438894970814257 0.14978661919381 0.379032258064516
0.445223595885947 0.159299154949404 0.379032258064516
0.457006395757925 0.170578286639451 0.379032258064516
0.476150190420631 0.18502697716452 0.379032258064516
0.485156142977833 0.191160230730145 0.379032258064516
0.00447862092600782 -0.220430107526882 0.146761273565374
0.00256523966566903 -0.220430107526882 0.158581619472424
0.015939238921989 -0.220430107526882 0.155900910236061
0.0197877968776756 -0.213063133144069 0.161290322580645
0.0170558385839579 -0.204663971822488 0.161290322580645
0.0387822063878425 -0.19392737205248 0.155913978494624
0.0354425819629501 -0.194296358961501 0.155913978494624
0.0423172084488695 -0.182628042455647 0.155913978494624
0.0557424974108403 -0.177067630488729 0.155913978494624
0.0575921061120864 -0.177305690522403 0.155913978494624
0.0681475025286023 -0.167855369933392 0.155913978494624
0.0761541711559869 -0.16291686568013 0.155913978494624
0.0831355325528816 -0.159097490596774 0.155913978494624
0.0873140232686479 -0.144816778103276 0.155913978494624
0.101981441078379 -0.141764845486765 0.155913978494623
-0.0403042731067228 -0.258064516129032 0.346025231138231
-0.0401665495857258 -0.258064516129032 0.345971062853991
-0.0392639503086101 -0.258064516129032 0.356694829757233
-0.0367503115445281 -0.258064516129032 0.366241625734393
-0.0368635932045376 -0.258064516129032 0.370397464337782
-0.0319535846166091 -0.258064516129032 0.379393420079934
-0.021450066852853 -0.248066956031478 0.381720430107527
-0.0129717606344093 -0.235202545245969 0.379032258064516
-0.00717226883911232 -0.234983739594945 0.379032258064517
0.00326993699831812 -0.22714024697435 0.379032258064516
0.00172388018796405 -0.218857751788437 0.379032258064516
0.017852894814253 -0.211853216204307 0.379032258064516
0.0233993238265704 -0.208026127946302 0.379032258064517
0.0258402187799907 -0.204468806231627 0.379032258064516
0.0393949368568088 -0.199413395410421 0.379032258064517
0.0394048213301393 -0.185180318860543 0.379032258064516
0.0562200113645314 -0.180174632694888 0.379032258064516
0.0615757442124754 -0.16450418982932 0.379032258064516
0.0722145079845866 -0.162085368563275 0.379032258064516
0.0768562296185002 -0.16168981956764 0.379032258064517
0.0909178766918945 -0.150372548583541 0.379032258064516
0.0980253889131009 -0.13972805571625 0.379032258064516
0.096875296938316 -0.133463736882427 0.379032258064516
0.119910595524008 -0.121479737403824 0.379032258064516
0.121663957200157 -0.11724632630466 0.379032258064516
0.131133848291813 -0.11591134559101 0.379032258064516
0.139077097168326 -0.0985231352472396 0.379032258064516
0.154595877889816 -0.0903796176887588 0.379032258064516
0.149296788652255 -0.0909540687021265 0.379032258064516
0.168893466330572 -0.0759062995781094 0.379032258064516
0.173415239111227 -0.071567252177887 0.379032258064516
0.177210685415299 -0.0620091900787768 0.379032258064516
0.193048711873058 -0.0552508120760602 0.379032258064516
0.199649733456726 -0.0445317192393082 0.379032258064517
0.211676913429577 -0.0332268918139341 0.379032258064516
0.218724285273039 -0.0335915402533615 0.379032258064516
0.23234063084137 -0.018219089590036 0.379032258064516
0.239378182803523 -0.0178490288329905 0.379032258064516
0.244418957212152 -0.00614368743944249 0.379032258064516
0.256474237899614 0.00271221751943116 0.379032258064516
0.259394748505398 0.0128194377350524 0.379032258064516
0.279284213419127 0.0213703646990631 0.379032258064516
0.283155216910155 0.0320127370582236 0.379032258064517
0.298318155888528 0.0352689298363418 0.379032258064516
0.313933591544292 0.0499000713679733 0.379032258064516
0.315351090842183 0.0574803456597994 0.379032258064516
0.326410916249409 0.0584562569486016 0.379032258064516
0.338984428659779 0.070491648854131 0.379032258064516
0.346358722845357 0.0879251783814518 0.379032258064516
0.350793879425676 0.088619022477583 0.379032258064517
0.368208869507487 0.102137477131961 0.379032258064516
0.379447918492432 0.106788668922498 0.379032258064516
0.380213415511996 0.116665269549762 0.379032258064517
0.4032111699042 0.137000045886566 0.379032258064517
0.418546244854727 0.136740728965377 0.379032258064516
0.420793635295862 0.154159489660021 0.379032258064516
0.440727720930317 0.162215905613829 0.379032258064517
0.437171407773894 0.167526013928864 0.379032258064516
0.447754971293405 0.170348440791296 0.379032258064516
0.473983440182964 0.195218278986396 0.379032258064516
0.48616837583246 0.196863947398314 0.379032258064516
0.495609106227512 0.207893916593371 0.381720430107527
-0.0106376106300447 -0.220430107526882 0.152115826416983
-0.0117655282045032 -0.219381210335197 0.161290322580645
0.0010687873796907 -0.21909239157189 0.161290322580645
0.0134287658356864 -0.207710618063605 0.161290322580645
0.0136220504614793 -0.204205928742147 0.161290322580645
0.0238769326616288 -0.192333119509244 0.155913978494624
0.029793071725787 -0.189932845423188 0.155913978494624
0.0383647606431017 -0.180590533588952 0.155913978494624
0.0415340278357041 -0.171877621839487 0.155913978494624
0.0524301461784267 -0.162442356202792 0.155913978494624
0.0628187966151656 -0.159945136540763 0.155913978494624
0.067780281703829 -0.147741029690188 0.155913978494624
0.075236607111001 -0.147756970079796 0.155913978494624
0.0791544045172333 -0.142352529208618 0.155913978494624
0.091460425350995 -0.134890145946099 0.155913978494624
-0.048643335779924 -0.258064516129032 0.351284325553563
-0.0485016386557868 -0.258064516129032 0.350145243561092
-0.0565358645332236 -0.258064516129032 0.374094481744546
-0.0411021980407775 -0.258064516129032 0.371176612629724
-0.0417268546979813 -0.258064516129032 0.380167161186859
-0.0333892589137202 -0.25043043702207 0.381720430107527
-0.0369815727617701 -0.248153720278973 0.381720430107527
-0.0214782396884268 -0.228921190849564 0.379032258064516
-0.0167654818383345 -0.227496301674978 0.379032258064516
-0.00890910758153047 -0.228009367536603 0.379032258064517
0.00345997772648134 -0.208578423244632 0.379032258064516
0.00536124740487735 -0.205624427116795 0.379032258064516
0.0113536318283201 -0.200759522002507 0.379032258064516
0.0232099097730361 -0.196470578850708 0.379032258064516
0.037497744391575 -0.184645380737028 0.379032258064516
0.0351622916666728 -0.181030634813342 0.379032258064516
0.0417607822787326 -0.171432620851553 0.379032258064516
0.0558564778189116 -0.16750979274971 0.379032258064516
0.0668163390122813 -0.156171062709988 0.379032258064516
0.0703045573324058 -0.146936606352144 0.379032258064516
0.0839171872382522 -0.143009937577418 0.379032258064517
0.0865089397096066 -0.13729066677921 0.379032258064516
0.0969035162798558 -0.126309773009539 0.379032258064516
0.102932919696135 -0.115166340399576 0.379032258064516
0.118862425116322 -0.108037950394823 0.379032258064516
0.124323268312914 -0.106540789530959 0.379032258064516
0.1329987564993 -0.0992602124377817 0.379032258064516
0.145797126417274 -0.0824473093565624 0.379032258064516
0.154501369664416 -0.0772709355457465 0.379032258064516
0.14915167039049 -0.0789347829920506 0.379032258064516
0.165365180525632 -0.0631281579470453 0.379032258064516
0.176365537978229 -0.055643923126609 0.379032258064516
0.179554613010802 -0.0524394542152197 0.379032258064516
0.190224322430348 -0.0444627127715458 0.379032258064516
0.201779117421953 -0.0337802751930107 0.379032258064516
0.213841258033037 -0.0213373919435055 0.379032258064517
0.220589022816861 -0.012232754898548 0.379032258064516
0.230842471533743 -0.00960122608335082 0.379032258064516
0.230723452866582 -0.00573188932834569 0.379032258064516
0.251085131576387 0.0130722693983083 0.379032258064516
0.261590673829281 0.0207729657206784 0.379032258064517
0.276164760214442 0.0290104155713391 0.379032258064516
0.284241530974216 0.0320986659357523 0.379032258064516
0.285413460777956 0.0384974456268969 0.379032258064516
0.301645531057973 0.0575344497242901 0.379032258064516
0.302510013677986 0.0655275794364099 0.379032258064516
0.313146472906385 0.0724843663151402 0.379032258064516
0.335373001247684 0.0770926022199635 0.379032258064516
0.34024248433586 0.0915472907732202 0.379032258064516
0.351695286900831 0.0985719270132692 0.379032258064517
0.355463627579238 0.110897572225647 0.379032258064516
0.366888246171923 0.120596124015853 0.379032258064516
0.381126004063303 0.126687143298028 0.379032258064516
0.382664321771223 0.138295413899526 0.379032258064516
0.396907721571921 0.146678948408763 0.379032258064516
0.410070723487053 0.157595484053664 0.379032258064516
0.426112322370238 0.166707407532552 0.379032258064516
0.429276654298659 0.167121385005058 0.379032258064516
0.444507677046607 0.186642291983035 0.379032258064516
0.459516700783166 0.193962976690742 0.379032258064516
0.462573247124107 0.206872811433694 0.379032258064516
0.477438638093654 0.214054094045936 0.379032258064516
0.489967999272531 0.226799598250216 0.381720430107527
-0.0175791359238645 -0.220430107526882 0.158302314093296
-0.0151089878422502 -0.218252981166124 0.161290322580645
-0.00919816100253268 -0.204458798212383 0.161290322580645
-0.00509162723834246 -0.204462711986413 0.161290322580646
0.00997932173909923 -0.196473724805212 0.155913978494624
0.0179710412404424 -0.18544555812278 0.155913978494624
0.0250904297733154 -0.177219960028772 0.155913978494624
0.0263248674623984 -0.171775763009451 0.155913978494624
0.0360070031252439 -0.16138457714342 0.155913978494624
0.03952938901282 -0.159821315354011 0.155913978494624
0.0577078672136856 -0.155381397815092 0.155913978494624
0.0695909878588361 -0.136979517689555 0.155913978494624
0.0720189835182618 -0.141515064829764 0.155913978494624
0.0723984485247668 -0.128823705457481 0.155913978494624
-0.0694952355631306 -0.258064516129032 0.355400591472441
-0.0651012631102568 -0.258064516129032 0.358081974430779
-0.0651005762411984 -0.258064516129032 0.366751693957138
-0.0583869773930626 -0.258064516129032 0.374506219406275
-0.0568086346322518 -0.254326531995 0.381720430107527
-0.0559540461418485 -0.24809197719689 0.381720430107527
-0.0463812891392182 -0.238616303755227 0.379032258064516
-0.0426181190075057 -0.233831223119333 0.379032258064516
-0.0283746597797884 -0.231132908783858 0.379032258064516
-0.0180188628052183 -0.224063204237217 0.379032258064516
-0.00858813530574181 -0.216205529396372 0.379032258064516
-0.00458148068734046 -0.211208038275254 0.379032258064516
-0.00518455263547305 -0.201726973429054 0.379032258064516
0.00688425339199927 -0.197862861147772 0.379032258064516
0.0141880761400052 -0.188581255874181 0.379032258064516
0.0236334095002978 -0.184383998690353 0.379032258064516
0.0363899308005201 -0.170417443450538 0.379032258064516
0.0443823351952162 -0.162847337762872 0.379032258064516
0.0492663784533287 -0.157331602825057 0.379032258064517
0.0620350089224071 -0.151101401746753 0.379032258064516
0.0651914704193765 -0.145494143836085 0.379032258064516
0.0676886418333721 -0.133041721143703 0.379032258064516
0.0755419948683343 -0.129166736958197 0.379032258064516
0.0928002545369533 -0.118024002979123 0.379032258064516
0.105168789716169 -0.107047351562016 0.379032258064516
0.105358554246472 -0.10863195816454 0.379032258064516
0.119780544702419 -0.0930065543278832 0.379032258064516
0.124781190117093 -0.0904026013824222 0.379032258064516
0.134936598771132 -0.0847653828909986 0.379032258064516
0.148729591608381 -0.0658541927205316 0.379032258064516
0.155033359830683 -0.061403786420614 0.379032258064516
0.157612238671489 -0.0660215087293259 0.379032258064516
0.16461965018506 -0.0507961420183508 0.379032258064516
0.170422387289373 -0.0439679947263848 0.379032258064516
0.193319987320194 -0.0287040406386615 0.379032258064516
0.190189329484796 -0.0315514677493745 0.379032258064516
0.198823899584438 -0.0230059459030703 0.379032258064516
0.215686990811688 -0.00802900326739652 0.379032258064516
0.21929602438059 0.00115721091720312 0.379032258064516
0.231353555749067 0.0113382813166583 0.379032258064516
0.237529823771028 0.0171321124207789 0.379032258064516
0.249270348802879 0.0268514678891759 0.379032258064516
0.260581328304328 0.0416882345435738 0.379032258064516
0.273610248066263 0.049215759041033 0.379032258064516
0.275773791061312 0.0452436928789257 0.379032258064516
0.30045801940972 0.0633355307196061 0.379032258064517
0.294508753916122 0.0709966955652463 0.379032258064516
0.309935986170795 0.0762668591217099 0.379032258064516
0.318844561212829 0.0868846239311018 0.379032258064517
0.341248984772139 0.10136694624187 0.379032258064517
0.342876590682272 0.113511007001939 0.379032258064516
0.349749130270655 0.112759817160341 0.379032258064516
0.361076975715868 0.127034806326719 0.379032258064516
0.375986926168617 0.141565405550762 0.379032258064516
0.390864852554948 0.148391554210025 0.379032258064516
0.399723456723302 0.160876655316037 0.379032258064516
0.407216108287203 0.167344295428862 0.379032258064516
0.416018034401897 0.17203906867078 0.379032258064516
0.431994122159842 0.181326203256744 0.379032258064516
0.445247025934954 0.200028135785963 0.379032258064516
0.448910766608519 0.211532421214878 0.379032258064517
0.459880585514382 0.212836417242237 0.379032258064516
0.470914977430771 0.220841900454302 0.379032258064516
0.487372050983326 0.236509358625195 0.379032258064516
0.489835444104989 0.239722234898418 0.381720430107527
-0.0308711976102823 -0.212674634964357 0.161290322580646
-0.0283624194606957 -0.214339359024392 0.161290322580645
-0.00671273583340377 -0.197384698598428 0.155913978494624
-0.00509634235371009 -0.189332994183414 0.155913978494624
0.00550120041642435 -0.181624878654995 0.155913978494624
0.013439586382437 -0.173741475388542 0.155913978494624
0.0229361586508747 -0.166607566672998 0.155913978494623
0.0266816956862201 -0.168026144508925 0.155913978494624
0.0324185743650547 -0.156080798672863 0.155913978494623
0.0464518247304604 -0.144671635711983 0.155913978494624
0.0454681837874026 -0.145684295622323 0.155913978494623
0.058195980282982 -0.136129552103471 0.155913978494624
-0.0763346939832536 -0.258064516129032 0.342988285277363
-0.0725114267875272 -0.258064516129032 0.345422707037897
-0.0709301904055983 -0.258064516129032 0.355165924754356
-0.0751227058833278 -0.258064516129032 0.366401407449872
-0.0711385281012467 -0.258064516129032 0.375574584746251
-0.0730721001545235 -0.254855845423332 0.381720430107527
-0.0652073516069529 -0.249569853121575 0.381720430107527
-0.058463053818337 -0.239638770000647 0.379032258064516
-0.0523210837018151 -0.242560939528641 0.379032258064516
-0.0396492015398657 -0.233294147638697 0.379032258064516
-0.0350268906584163 -0.222472104386859 0.379032258064516
-0.0282822123060571 -0.213598857353469 0.379032258064516
-0.0274577965467355 -0.21465656498393 0.379032258064517
-0.0162894982005075 -0.203650614816519 0.379032258064517
-0.0105208355485685 -0.195119061772866 0.379032258064516
0.000451924251176592 -0.181610746116215 0.379032258064517
0.0121918007152782 -0.17504023689495 0.379032258064516
0.0185544978533452 -0.168128377539223 0.379032258064517
0.0199712501473819 -0.16834091724572 0.379032258064517
0.0319172457744374 -0.159771445626868 0.379032258064516
0.0444239964682127 -0.154786682272537 0.379032258064516
0.0454925084871255 -0.144248359473277 0.379032258064516
0.0546531087595422 -0.140239302025174 0.379032258064516
0.0664398027229297 -0.129039900809975 0.379032258064516
0.0718496853598145 -0.122344741453625 0.379032258064517
0.0840228535782132 -0.119592882037547 0.379032258064516
0.0901687503525554 -0.105973961381375 0.379032258064516
0.106503647103494 -0.0979719930798122 0.379032258064516
0.11573690744096 -0.0884682912596338 0.379032258064517
0.110107911910727 -0.0883905266308524 0.379032258064517
0.125809375657321 -0.074860267945134 0.379032258064516
0.127139456993445 -0.0733095398501713 0.379032258064517
0.137619570317772 -0.0605301417700021 0.379032258064517
0.150324478256884 -0.048950770890373 0.379032258064516
0.155635465629226 -0.0446742762103084 0.379032258064516
0.16981956617955 -0.0375389077813831 0.379032258064516
0.186184752488663 -0.0243560669428369 0.379032258064517
0.188247555084098 -0.0246230034112674 0.379032258064516
0.194852137647417 -0.0173748826035147 0.379032258064516
0.207382192779256 -0.00655748021948289 0.379032258064516
0.209951313955002 -0.000291041514226504 0.379032258064516
0.229987135777419 0.0228240928735124 0.379032258064516
0.234800526152285 0.024594662074168 0.379032258064516
0.250697611823894 0.0397298342772848 0.379032258064516
0.25722368837361 0.039329035344752 0.379032258064516
0.26785246483588 0.0534122514001884 0.379032258064516
0.268186600084308 0.056764775024871 0.379032258064516
0.290038645342137 0.0662932750437389 0.379032258064516
0.294127545858247 0.0756297311041489 0.379032258064516
0.30079727905244 0.0919509429539658 0.379032258064516
0.3182215236417 0.104163945507658 0.379032258064516
0.32506848721429 0.105581641538329 0.379032258064516
0.33149835422556 0.113728963511965 0.379032258064516
0.342471524255644 0.11671635510587 0.379032258064516
0.352296092878783 0.132893264558708 0.379032258064516
0.358886236993181 0.138993382453549 0.379032258064516
0.377146508446375 0.155345199081728 0.379032258064516
0.376916829922123 0.164368512550191 0.379032258064516
0.394871008076665 0.173737616577478 0.379032258064516
0.416700233775198 0.185975775980746 0.379032258064516
0.422829987716833 0.191922854330257 0.379032258064516
0.422934570022847 0.195689806712637 0.379032258064516
0.450636610323601 0.218631948112278 0.379032258064516
0.44920708812012 0.223261477225212 0.379032258064516
0.464966152912718 0.230313370069012 0.379032258064516
0.479232676368095 0.247311827956989 0.379966387040756
0.4846861932492 0.254802487346908 0.381720430107527
-0.035048257908717 -0.205812664252662 0.161290322580646
-0.0235583737337954 -0.191286407563865 0.155913978494624
-0.0234171191410981 -0.193676845362124 0.155913978494624
-0.00838561667078603 -0.187005230655113 0.155913978494624
-0.00817146861831235 -0.184930604468942 0.155913978494623
0.00617421870183955 -0.166568022475044 0.155913978494624
0.0122834784204783 -0.167372819200504 0.155913978494624
0.0140317236683788 -0.160175145444171 0.155913978494624
0.0240888415732709 -0.148883156792475 0.155913978494624
0.0419433538938284 -0.138221139279115 0.155913978494624
0.045245074790209 -0.135140298937103 0.155913978494624
0.0499865336233682 -0.129238240803973 0.155913978494623
0.0551266484126708 -0.130107600778711 0.155913978494624
-0.0854986042106494 -0.258064516129032 0.354355953390601
-0.0972356422786059 -0.258064516129032 0.371583918783521
-0.0904354712823837 -0.258064516129032 0.379630155459661
-0.0874512742717249 -0.255094791074107 0.381720430107527
-0.0838185105655163 -0.247997683389431 0.381720430107527
-0.0726985094287063 -0.24154271308384 0.379032258064516
-0.0649614905495194 -0.228728698117776 0.379032258064516
-0.0545606327404685 -0.22828287653322 0.379032258064516
-0.0457263049627668 -0.219585388009666 0.379032258064516
-0.0392808418596559 -0.218551387692041 0.379032258064516
-0.0407979630885758 -0.214436044199 0.379032258064516
-0.0228059980607185 -0.198273641818012 0.379032258064516
-0.0219673497654843 -0.194535141129276 0.379032258064516
-0.0114113930760436 -0.188103501441248 0.379032258064516
-0.00194628590550414 -0.184824989366029 0.379032258064516
0.000866452490334484 -0.17099105978602 0.379032258064516
0.00896262493332804 -0.163263723707786 0.379032258064516
0.0188680043751893 -0.159730789448735 0.379032258064516
0.0296925209512467 -0.148843933167726 0.379032258064516
0.0402698455450645 -0.139460682352759 0.379032258064516
0.0483894520647797 -0.137054407139659 0.379032258064516
0.0502142566664906 -0.126961883632977 0.379032258064516
0.062469438017821 -0.126481637982707 0.379032258064516
0.0667251855760489 -0.122085356066834 0.379032258064516
0.0794251510881458 -0.101438410752199 0.379032258064517
0.0853434333355496 -0.106140009739226 0.379032258064516
0.096693407504496 -0.0912359913995517 0.379032258064516
0.0943283224038132 -0.0888965230202864 0.379032258064516
0.109884228777954 -0.0798756518680646 0.379032258064517
0.119368619204175 -0.0638898453286913 0.379032258064516
0.128194712710019 -0.0603145621082473 0.379032258064516
0.141196449107498 -0.0528616296837226 0.379032258064516
0.140614111808243 -0.0385151285715055 0.379032258064516
0.152333221008942 -0.0361469339542393 0.379032258064516
0.168981490853325 -0.0210727201818017 0.379032258064517
0.167229744506131 -0.0164285645117943 0.379032258064516
0.173977847295042 -0.0167153674291063 0.379032258064516
0.1908598007294 -0.0092571040733265 0.379032258064516
0.196377263841986 0.0116095385071298 0.379032258064516
0.21052919201572 0.0128226819266007 0.379032258064516
0.21762928207882 0.0280350526805424 0.379032258064516
0.227468600581422 0.0337841592540795 0.379032258064516
0.229529341639632 0.0347419818149893 0.379032258064516
0.248609626102769 0.0493414864179587 0.379032258064516
0.256433428160871 0.0593520025712266 0.379032258064516
0.26812190038515 0.0694766655773453 0.379032258064516
0.277702083810727 0.0818417380215065 0.379032258064516
0.284277252520401 0.084001269758829 0.379032258064516
0.301665828846358 0.10146134700269 0.379032258064516
0.303544265561049 0.105339020949555 0.379032258064516
0.317822017460785 0.111459610917438 0.379032258064516
0.326823102096687 0.12821192125 0.379032258064516
0.331540734522976 0.131286860476161 0.379032258064516
0.345071169618753 0.139495283629553 0.379032258064516
0.352424200001322 0.15214973452839 0.379032258064516
0.3657153431196 0.157887975556711 0.379032258064516
0.378329544743965 0.172236982151541 0.379032258064517
0.394484481496933 0.180175919211693 0.379032258064516
0.401946562975294 0.199387832895143 0.379032258064516
0.410435612507694 0.202594643536035 0.379032258064516
0.414469857338931 0.203433177191954 0.379032258064516
0.430219107526592 0.220413166556052 0.379032258064516
0.436669519596052 0.223935541150276 0.379032258064516
0.46374343596007 0.24668362000952 0.379032258064516
0.46058332424898 0.247872329319961 0.381720430107527
-0.0369221006538212 -0.195802851141661 0.155913978494624
-0.0318679440259252 -0.192358263851402 0.155913978494624
-0.0265538628786913 -0.180516940096869 0.155913978494624
-0.0193873552512565 -0.178111132357816 0.155913978494624
-0.00610480674720264 -0.169108754666991 0.155913978494624
-0.000240340496779137 -0.159623190732668 0.155913978494624
0.00304331499322566 -0.15379193063036 0.155913978494624
0.0120738316701444 -0.147474559460994 0.155913978494624
0.021744728228073 -0.140970176081799 0.155913978494623
0.0195195170044708 -0.143855034981921 0.155913978494624
0.0386130808268872 -0.135522941598906 0.155913978494624
-0.0982283255466765 -0.258064516129032 0.34236975927384
-0.0990283301608103 -0.258064516129032 0.357782336875899
-0.0943179330632071 -0.258064516129032 0.361165658857397
-0.0989171408485451 -0.258064516129032 0.377514236162283
-0.103551744988028 -0.254278154140187 0.381720430107527
-0.0887998989841887 -0.25007747373237 0.381720430107527
-0.082414202327103 -0.240180779692787 0.379032258064516
-0.07383395482587 -0.231033422268492 0.379032258064517
-0.0703404159373458 -0.228666162504138 0.379032258064516
-0.0686645656296665 -0.225949491305146 0.379032258064516
-0.0570239249124315 -0.218335587282709 0.379032258064516
-0.0459084975849798 -0.207690494079064 0.379032258064516
-0.0467388075106342 -0.205581606994388 0.379032258064516
-0.0313929090535499 -0.196562746659356 0.379032258064517
-0.0217050645532873 -0.190644448026636 0.379032258064516
-0.0149735621898339 -0.18230098972804 0.379032258064516
-0.00723105967985639 -0.171601540672243 0.379032258064516
-0.00146709443709575 -0.161835496133182 0.379032258064516
0.00548601890558959 -0.154302515261867 0.379032258064516
0.0152337201807219 -0.152384570217629 0.379032258064516
0.0238819955038296 -0.149217668598302 0.379032258064516
0.0278959417009435 -0.131325114211462 0.379032258064516
0.0397972814969831 -0.125853007275068 0.379032258064516
0.0429176710240102 -0.124013187615163 0.379032258064516
0.0572052625695223 -0.115064971976643 0.379032258064516
0.0650084004369161 -0.100255893024755 0.379032258064516
0.0725530019762621 -0.094887647181032 0.379032258064516
0.0764581993812266 -0.0983041979292735 0.379032258064516
0.0905189081403947 -0.0838428067818899 0.379032258064517
0.0935538161142293 -0.0741954417778131 0.379032258064516
0.0993976491819687 -0.0757007492688532 0.379032258064516
0.116423246408173 -0.0569105446373649 0.379032258064516
0.118796037002581 -0.0490176553033366 0.379032258064516
0.136627592543256 -0.0441573479424119 0.379032258064516
0.143427550939246 -0.0315160831118693 0.379032258064516
0.146813284706159 -0.0318640627128938 0.379032258064516
0.151319294519758 -0.0214296629708664 0.379032258064516
0.166845015136776 -0.00561809779756391 0.379032258064516
0.172807322664889 0.00350218111466217 0.379032258064516
0.178380848242846 -0.000843077033258595 0.379032258064516
0.187276213856424 0.010695898960041 0.379032258064516
0.198397236578102 0.0217646352073164 0.379032258064516
0.201523664775578 0.0223198599664609 0.379032258064516
0.2230102766272 0.044124638975029 0.379032258064516
0.227758203126744 0.0521779434406153 0.379032258064516
0.238804906666192 0.0538472663774816 0.379032258064516
0.24817833503316 0.0616383180052172 0.379032258064516
0.260463305677 0.0767367664354981 0.379032258064516
0.268982590599606 0.0864562313175533 0.379032258064516
0.282824293743883 0.0938998810031038 0.379032258064516
0.29187022720745 0.110640936328472 0.379032258064516
0.291274988701398 0.111806273675194 0.379032258064516
0.30324689113786 0.11384171346029 0.379032258064516
0.310971492974011 0.130764300695614 0.379032258064516
0.329345356507851 0.132341835699149 0.379032258064516
0.330193460398848 0.142048034643264 0.379032258064516
0.35352495667844 0.165702556575182 0.379032258064516
0.366303936108613 0.175946776871438 0.379032258064516
0.374778074962578 0.184222973246961 0.379032258064516
0.38589912652629 0.18610729899977 0.379032258064516
0.38771311206079 0.198757686728813 0.379032258064516
0.404274156614241 0.207141401260687 0.379032258064516
0.412553425148506 0.220235869579051 0.379032258064516
0.424429048173864 0.219680768571905 0.379032258064516
0.435235034780242 0.243944234059091 0.379032258064516
0.446374914625417 0.254222331463497 0.381720430107527
0.460542190869306 0.258044250921887 0.381720430107527
-0.0359125684729305 -0.187589655120603 0.155913978494623
-0.0349346738187123 -0.178947815638252 0.155913978494624
-0.0348043115824143 -0.184682390913665 0.155913978494623
-0.0184598815778446 -0.166194526621978 0.155913978494624
-0.0187166338735572 -0.168011187619221 0.155913978494624
-0.00952827462438187 -0.162110614927918 0.155913978494624
-0.00281778141995712 -0.151569077772674 0.155913978494624
0.00457188596207235 -0.148827714262375 0.155913978494623
0.0119044393536476 -0.13945968538522 0.155913978494624
0.0183977686484116 -0.128721302944346 0.155913978494624
-0.121853680193428 -0.258064516129032 0.356497374574293
-0.113213438971714 -0.258064516129032 0.354766532853792
-0.117344825398794 -0.258064516129032 0.363719226887257
-0.11632803436532 -0.258064516129032 0.374963659361417
-0.109271302677223 -0.253519294121128 0.381720430107527
-0.113987999443924 -0.248300278360436 0.381720430107527
-0.103426385906519 -0.240343533334652 0.379032258064516
-0.0921555497523468 -0.234257442060003 0.379032258064516
-0.0915910533286236 -0.228225514327164 0.379032258064516
-0.0774405679535089 -0.227415416283906 0.379032258064517
-0.0696361967668742 -0.219190654226904 0.379032258064516
-0.0622052590752948 -0.212344412688769 0.379032258064516
-0.0571605413954722 -0.205341119911195 0.379032258064516
-0.0537083046755559 -0.199571874958406 0.379032258064516
-0.0398085048280112 -0.188474133335713 0.379032258064516
-0.0332700196154117 -0.178478451677199 0.379032258064516
-0.0207033898768628 -0.168310546696783 0.379032258064517
-0.014634427276565 -0.162773706959432 0.379032258064516
-0.0113187655741117 -0.154793897836024 0.379032258064516
-0.00644260532491119 -0.158751892341443 0.379032258064516
0.00659612518741197 -0.147976173563815 0.379032258064517
0.0187795255760215 -0.13783093448882 0.379032258064516
0.0202976775647174 -0.134467294346658 0.379032258064516
0.0316349818692138 -0.124050959246096 0.379032258064516
0.0403213480584075 -0.108765602818105 0.379032258064517
0.0451810764811564 -0.110090756783803 0.379032258064516
0.052865792442298 -0.102569690568874 0.379032258064516
0.0684120207377612 -0.0907532269728755 0.379032258064517
0.0704124557904098 -0.0881794799286295 0.379032258064517
0.0752554821766558 -0.0810810651553489 0.379032258064516
0.092726296587146 -0.0639872604788606 0.379032258064516
0.099998389848131 -0.0559220737113799 0.379032258064516
0.104441619820118 -0.0517497009870381 0.379032258064516
0.114086170699112 -0.0526919521093366 0.379032258064516
0.118471960925385 -0.0389508072296495 0.379032258064517
0.130438183097788 -0.0256757405447408 0.379032258064516
0.138500253369398 -0.0200016959594433 0.379032258064516
0.150387427200523 -0.0111109248728449 0.379032258064516
0.159043692368946 -0.00806920848488834 0.379032258064516
0.164087668299923 0.00773130059518986 0.379032258064516
0.175953941952888 0.0188761125538685 0.379032258064516
0.179955291954803 0.0139293064800498 0.379032258064516
0.184021567755301 0.0285433832175741 0.379032258064516
0.199552660347686 0.0374679546741978 0.379032258064516
0.207849493419452 0.0493109274241925 0.379032258064516
0.224296115146708 0.0588391117486475 0.379032258064516
0.231628231814878 0.0658192627082801 0.379032258064516
0.239488837299396 0.0774750594732296 0.379032258064516
0.252158585375241 0.0847668108669042 0.379032258064516
0.257974211507208 0.087288944470921 0.379032258064516
0.268435951397771 0.0968848035376149 0.379032258064516
0.284830764310279 0.111533317474802 0.379032258064516
0.296523067475795 0.119180948776947 0.379032258064516
0.296822693748542 0.120533731699253 0.379032258064516
0.30429675042835 0.132088007266229 0.379032258064517
0.31706831034127 0.145581824961916 0.379032258064516
0.335491747010276 0.151117218011331 0.379032258064516
0.343579061589223 0.166116165569672 0.379032258064516
0.358190155261925 0.185278873492937 0.379032258064516
0.353046047275554 0.187322608764848 0.379032258064516
0.367921103131298 0.197970380650374 0.379032258064516
0.3853029735273 0.204840819706237 0.379032258064516
0.393420336882394 0.22087312788647 0.379032258064516
0.39996189492111 0.227240116268259 0.379032258064516
0.417282145254251 0.244765181365471 0.379032258064517
0.429405633108146 0.249625467507917 0.381720430107527
0.438415766609771 0.255610708590088 0.381720430107527
-0.046347928239345 -0.179959352102437 0.155913978494624
-0.0386640468897028 -0.176687788651246 0.155913978494623
-0.03216137155899 -0.175184037166917 0.155913978494624
-0.0360806702413672 -0.16313470172603 0.155913978494624
-0.0178425668254964 -0.15637140811763 0.155913978494624
-0.0194115722395551 -0.151730174822616 0.155913978494624
-0.00454241242033345 -0.140391904584665 0.155913978494624
-0.00150355611903279 -0.140816309299551 0.155913978494623
-0.138362707723645 -0.258064516129032 0.34292217554534
-0.123989064933058 -0.258064516129032 0.346579122397635
-0.134526348839051 -0.258064516129032 0.361461645330498
-0.132286115073708 -0.258064516129032 0.367405983005091
-0.130274698579349 -0.258064516129032 0.374760596391044
-0.132535069019497 -0.258064516129032 0.380376021580067
-0.120927229403644 -0.253949047899158 0.381720430107527
-0.115333926896781 -0.240750835628454 0.379032258064516
-0.0974666314807599 -0.236497727042364 0.379032258064516
-0.0943215899017888 -0.224568637240441 0.379032258064516
-0.0917400199508409 -0.217533640313924 0.379032258064516
-0.0806930980973971 -0.21354565932986 0.379032258064516
-0.0751705235115319 -0.214860346429181 0.379032258064516
-0.0712835838456909 -0.195773664693824 0.379032258064516
-0.0609473492954492 -0.194993620111728 0.379032258064516
-0.0605139508565801 -0.189054815076205 0.379032258064516
-0.0516874691475711 -0.176516437699344 0.379032258064516
-0.036575000821394 -0.168270133061595 0.379032258064516
-0.0347190034866235 -0.168497017304437 0.379032258064516
-0.0312383744965094 -0.16686034309481 0.379032258064516
-0.0141731317010187 -0.153791962624165 0.379032258064516
-0.0176455029153133 -0.151718319748593 0.379032258064516
0.00446833335885109 -0.133474792298646 0.379032258064516
0.00647469965835024 -0.131413998913427 0.379032258064516
0.0066366004556853 -0.130789625316027 0.379032258064516
0.0165285680429886 -0.116391620553079 0.379032258064516
