ply
format ascii 1.0
element vertex 911
property float x
property float y
property float z
end_header
0.204597497891705 0.481032527928504 0.223958333333334
0.207897810412983 0.477943334125765 0.223958333333333
0.219984334139254 0.469499948974627 0.223958333333333
0.235078364230805 0.464417282129367 0.223958333333334
0.235613614125338 0.453766263148018 0.223958333333334
0.244861137003401 0.449698448696462 0.223958333333333
0.257236079302588 0.448678797321171 0.223958333333333
0.253496925320261 0.448027639131135 0.223958333333333
0.266141722513577 0.435384098595137 0.223958333333333
0.27865633335426 0.42950008509642 0.223958333333333
0.291540456828553 0.42632573156731 0.223958333333333
0.290069090959045 0.416788665168782 0.223958333333333
0.295373245617234 0.418752698571411 0.229166666666667
0.304189354519663 0.411517968860534 0.229166666666667
0.320290650863724 0.406708753079195 0.229166666666667
0.321881367567955 0.400183580906857 0.229166666666667
0.326166975880041 0.393146406349335 0.229166666666666
0.344599579580509 0.386855943221988 0.229166666666667
0.35557603758147 0.375952001905648 0.229166666666667
0.363561949602313 0.369916513757172 0.229166666666667
0.371567803635196 0.367833122509324 0.229166666666667
0.378899823569285 0.367818881623946 0.229166666666667
0.384265476541222 0.354546447674655 0.229166666666666
0.388931982846448 0.350889673496976 0.229166666666667
0.400672865656244 0.342351185858472 0.229166666666667
0.414587892080549 0.336577083467473 0.229166666666667
0.42163152195156 0.33045177440938 0.229166666666667
0.429333064038324 0.322325311613284 0.229166666666667
0.444715735343121 0.315525728375536 0.229166666666667
0.452783613563049 0.310209574781664 0.229166666666667
0.457759189140329 0.296783458740687 0.229166666666667
0.477051097944131 0.290101863505176 0.229166666666667
0.480534142946626 0.285139528391407 0.229166666666667
0.499740481744343 0.274686293858629 0.229166666666667
0.210226229393711 0.494791666666666 0.193979722575505
0.204360851888428 0.494791666666666 0.203091533721459
0.204926745704283 0.494791666666667 0.214904899980472
0.200647397129833 0.493038642470144 0.223958333333333
0.212356876119471 0.486971414353518 0.223958333333333
0.212813154326322 0.488408314919162 0.223958333333333
0.227145158119717 0.478613190315491 0.223958333333333
0.234801159680635 0.474085636639051 0.223958333333333
0.240867665906738 0.46703111645944 0.223958333333333
0.251031466585045 0.463936102685196 0.223958333333333
0.25499022560234 0.453419321087441 0.223958333333333
0.266142403149214 0.448950768779067 0.223958333333333
0.273114579068152 0.442515540282018 0.223958333333333
0.289017321869512 0.436394738613583 0.223958333333333
0.291666666666667 0.43667515897976 0.226379013247958
0.299004736134603 0.429038896944506 0.229166666666667
0.307049792732122 0.420550306210328 0.229166666666667
0.309118337673812 0.41355394429541 0.229166666666667
0.320604709556041 0.416187555340593 0.229166666666667
0.328972333097838 0.406280853770583 0.229166666666667
0.341655211487531 0.39611606154583 0.229166666666667
0.347284757834247 0.393763195849142 0.229166666666667
0.364419778066821 0.381676202441417 0.229166666666666
0.359734094386805 0.385961377374801 0.229166666666667
0.381646914611481 0.377481834560514 0.229166666666667
0.383107880587147 0.374823061340784 0.229166666666667
0.392139180779947 0.366926793870338 0.229166666666667
0.404346867864238 0.359023006712263 0.229166666666667
0.404100932507169 0.354718625723161 0.229166666666667
0.416728096542934 0.348711305594938 0.229166666666667
0.4318898792985 0.334096654821488 0.229166666666667
0.437443329029348 0.324829445059091 0.229166666666666
0.451690409093289 0.321504704629938 0.229166666666667
0.452952747386451 0.314238253187603 0.229166666666667
0.466071491883523 0.312032921682088 0.229166666666667
0.487561909434251 0.30142172457485 0.229166666666666
0.493580371149218 0.298148924620738 0.229166666666667
0.495436508196256 0.283206330964381 0.229166666666667
0.215128729229561 0.494791666666667 0.186344533204608
0.226867426704353 0.494791666666667 0.189759556654175
0.216582689205701 0.494791666666667 0.206998511484577
0.221047893562357 0.494791666666667 0.208357423647726
0.217299777715707 0.491875786796057 0.223958333333333
0.227099688158789 0.488137661818754 0.223958333333334
0.23351957181799 0.484327252913239 0.223958333333333
0.240909677482676 0.482299994293566 0.223958333333334
0.242179705040917 0.477195230944951 0.223958333333333
0.25414263171051 0.468744577930695 0.223958333333333
0.274137634842807 0.46315781490466 0.223958333333333
0.273640333591313 0.455113055302122 0.223958333333333
0.277267349835808 0.450356175727243 0.223958333333334
0.291666666666667 0.443270626403677 0.226528733983771
0.299497747136 0.436217144039657 0.229166666666666
0.305453335688944 0.429159603986824 0.229166666666667
0.318316786770174 0.425718944183542 0.229166666666667
0.328017717899864 0.423510116733616 0.229166666666667
0.330159557391773 0.418248279717818 0.229166666666667
0.340067491824668 0.416580851099713 0.229166666666667
0.353923461176918 0.402521179251282 0.229166666666667
0.356978522734276 0.400810193388878 0.229166666666667
0.369466850117721 0.395770043765456 0.229166666666667
0.377493060775703 0.388409770087031 0.229166666666667
0.380196095961495 0.376751756220322 0.229166666666667
0.391439564681405 0.37143279062601 0.229166666666667
0.398198199789535 0.36609891517026 0.229166666666667
0.412339465982434 0.360024178515437 0.229166666666667
0.425534241440023 0.356684400339214 0.229166666666667
0.436871298156605 0.348509499526942 0.229166666666667
0.433533103421381 0.342536446795919 0.229166666666667
0.443529695513599 0.337108105330391 0.229166666666667
0.4598783384 0.330595376761414 0.229166666666667
0.465606160689706 0.320213113656475 0.229166666666667
0.476183194683548 0.312648173224269 0.229166666666667
0.487944232240895 0.307744291995965 0.229166666666667
0.498454968305474 0.298107495873547 0.229166666666666
0.499597979644366 0.301474197791108 0.229166666666667
0.234879823621306 0.494791666666667 0.176212195143945
0.23277922216147 0.494791666666667 0.188135123117244
0.245577069723242 0.494791666666667 0.183452743427555
0.246385385179273 0.494791666666667 0.192240698510088
0.22992025931345 0.494791666666667 0.209270630711407
0.242783773823408 0.494791666666667 0.218160237772798
0.242801104931422 0.492428384117623 0.223958333333333
0.25345962215741 0.488550220796373 0.223958333333333
0.255497556385717 0.48187141609555 0.223958333333333
0.263731589108319 0.473350514825409 0.223958333333333
0.274246066791476 0.469773443585474 0.223958333333333
0.276220411444564 0.466869197664574 0.223958333333333
0.287560879765948 0.461112568773777 0.223958333333333
0.296278470168277 0.453419885921048 0.229166666666667
0.30294807880189 0.445448915795246 0.229166666666666
0.311223515312187 0.44606571039951 0.229166666666667
0.318901509193545 0.437512109335231 0.229166666666667
0.329920583809844 0.430807946067162 0.229166666666667
0.332481046876856 0.429177419675485 0.229166666666667
0.34659061117999 0.420303295488511 0.229166666666667
0.355813358741938 0.415281806455588 0.229166666666667
0.358099831222467 0.403365725551249 0.229166666666667
0.374907123651933 0.400687087654926 0.229166666666667
0.377823877016523 0.397676437591884 0.229166666666667
0.388811831979694 0.381877913223107 0.229166666666667
0.399528802326817 0.38485107548505 0.229166666666667
0.408312991130563 0.374752681208025 0.229166666666667
0.413305734899325 0.373378947956032 0.229166666666667
0.429498118623536 0.362770593162421 0.229166666666667
0.435674556760705 0.352469228502967 0.229166666666667
0.445257031844733 0.346222249111639 0.229166666666667
0.454014666679585 0.340349204202156 0.229166666666667
0.468718883636214 0.330781325496101 0.229166666666667
0.478555359236873 0.328604715018279 0.229166666666667
0.491066583086085 0.319753697658711 0.229166666666667
0.486742039197146 0.315942057809549 0.229166666666667
0.243910769974262 0.494791666666667 0.170966486819002
0.249923565616736 0.494791666666666 0.174543194983744
0.248475224513535 0.494791666666666 0.179992338177056
0.258041951402163 0.494791666666667 0.190317914597737
0.260150698870859 0.494791666666667 0.193684502316037
0.254398892039589 0.494791666666666 0.208136126771075
0.249033016143445 0.492322999148199 0.223958333333333
0.258117174177732 0.494791666666667 0.221892856120088
0.25899942204791 0.488589155229619 0.223958333333333
0.272634609417451 0.475576198929061 0.223958333333333
0.283830669807401 0.469426111591029 0.223958333333333
0.285326073695469 0.471327940355493 0.223958333333334
0.298502988496845 0.469494657308886 0.229166666666667
0.302224865564754 0.459667518409933 0.229166666666667
0.310290669593518 0.450586414211758 0.229166666666667
0.317732272246203 0.449159847128003 0.229166666666667
0.322193607730424 0.448942728312586 0.229166666666667
0.34271997129973 0.436119103295313 0.229166666666667
0.34309339631874 0.430463031770782 0.229166666666667
0.349848500059491 0.423716977339844 0.229166666666667
0.363559696256322 0.416892195453998 0.229166666666667
0.375304046610094 0.409650800609528 0.229166666666666
0.373070450727777 0.409083441400838 0.229166666666667
0.385761395879941 0.403879070809406 0.229166666666667
0.400288422180266 0.391620760056189 0.229166666666667
0.40668845892551 0.389804160909523 0.229166666666667
0.405822607276873 0.390890700583354 0.229166666666667
0.421590272714396 0.374652915060741 0.229166666666667
0.426363092421947 0.370242583677986 0.229166666666667
0.43938498435823 0.366825603820306 0.229166666666667
0.45148323474109 0.355979487272299 0.229166666666667
0.464999022387504 0.348603530805184 0.229166666666667
0.467213690572594 0.341748429323965 0.229166666666667
0.479530733692807 0.339277752948343 0.229166666666667
0.491978717516533 0.329251347998717 0.229166666666667
0.499695341108162 0.318851909558544 0.229166666666667
0.275911969458457 0.494791666666666 0.141947259422816
0.264867371586642 0.494791666666667 0.162490252172584
0.265731785385898 0.494791666666667 0.174898166110447
0.263471391352737 0.494791666666667 0.183344323501825
0.267227686853928 0.494791666666667 0.185969028995107
0.262671752902381 0.494791666666667 0.202995413637412
0.266107365933632 0.494791666666666 0.205437766997104
0.26654676825021 0.494289616807845 0.223958333333333
0.271323574103766 0.492183532573721 0.223958333333334
0.275798563523542 0.485750993159802 0.223958333333333
0.289267918444526 0.477820611804317 0.223958333333334
0.293809286411743 0.476833762502914 0.229166666666667
0.298678057168643 0.471706497907439 0.229166666666666
0.312869432102954 0.470144710784031 0.229166666666667
0.314273998322291 0.466304359073781 0.229166666666667
0.321830362483551 0.455712147193415 0.229166666666667
0.334742913248718 0.454100353436065 0.229166666666666
0.342980493506801 0.446387195063173 0.229166666666667
0.358594797307629 0.438075110255372 0.229166666666667
0.358060317057386 0.437500935726784 0.229166666666667
0.371176535343439 0.428008649162625 0.229166666666667
0.374185688647224 0.416378194798703 0.229166666666667
0.389383280253326 0.414255668241276 0.229166666666667
0.394491041955596 0.405960572773802 0.229166666666667
0.398091527136384 0.402346088393165 0.229166666666667
0.412059162752045 0.393969813594532 0.229166666666667
0.428794320945902 0.385173111371655 0.229166666666667
0.426836365321853 0.386367777620737 0.229166666666667
0.435760357443987 0.379534955729915 0.229166666666666
0.459170699472133 0.365517032330984 0.229166666666667
0.461350534044471 0.363932708535012 0.229166666666667
0.463816254052193 0.36488738590623 0.229166666666667
0.473341037517074 0.350062346327166 0.229166666666667
0.48132623924834 0.349293653738786 0.229166666666666
0.498353879055383 0.333832764834673 0.229166666666667
0.27309380444058 0.494791666666667 0.150866485289035
0.28278635740396 0.494791666666667 0.149999328736549
0.274390520386901 0.494791666666667 0.169118046518781
0.288233502963181 0.494791666666667 0.168660175824167
0.290684573885484 0.494791666666667 0.174245670443667
0.287264550012779 0.494791666666667 0.184449864333279
0.28460856847284 0.494791666666667 0.188658942440967
0.287135419723634 0.494791666666666 0.200872875734295
0.28292407733688 0.494791666666666 0.21718192100362
0.289273307268872 0.494791666666667 0.222134407996886
0.291666666666667 0.49538474638671 0.22863793220242
0.294877752370254 0.489398187342989 0.229166666666667
0.307312026414324 0.480786614451558 0.229166666666667
0.310264818360294 0.47436984188164 0.229166666666667
0.319779174317522 0.471171532423753 0.229166666666667
0.326570647508323 0.468987850087954 0.229166666666667
0.336769601582289 0.452595241142967 0.229166666666667
0.343577203820587 0.455370754926126 0.229166666666667
0.358912880196864 0.439623915635304 0.229166666666667
0.36608416951766 0.439871294661501 0.229166666666667
0.372648834549559 0.431800245606015 0.229166666666667
0.38403901185227 0.431033900158688 0.229166666666667
0.39204249122506 0.420851444420084 0.229166666666667
0.405430928845418 0.421376299616251 0.229166666666667
0.404829052657941 0.416482094963229 0.229166666666667
0.421498827613604 0.409945954339192 0.229166666666667
0.426786548059514 0.39436776131905 0.229166666666667
0.432473268309226 0.39110644733512 0.229166666666667
0.449063660823076 0.383757219813978 0.229166666666667
0.465874393159912 0.375130461684102 0.229166666666667
0.472484818729686 0.369465061489767 0.229166666666667
0.467888843891344 0.370830475077835 0.229166666666667
0.47999999956646 0.361950639484636 0.229166666666667
0.498896761234267 0.356978111204231 0.229166666666667
0.300108037077447 0.5 0.13194075666129
0.29279621704752 0.5 0.150582467268524
0.294389187772727 0.5 0.160671636193789
0.291666666666667 0.49704554312906 0.161298981377076
0.296157018554905 0.5 0.167424988975523
0.291666666666667 0.498987498946353 0.18660493520137
0.294741332446897 0.5 0.186270266400408
0.292148888311199 0.5 0.19981070614645
0.293301588881143 0.5 0.2093356738504
0.291666666666667 0.499032623179882 0.227447375441889
0.291666666666666 0.498899516212809 0.225179141309962
0.306596151421982 0.490998184876376 0.229166666666667
0.309387420502507 0.485605888520126 0.229166666666667
0.321540810108385 0.485343244067466 0.229166666666666
0.334424236918435 0.470805282840401 0.229166666666667
0.338275537425401 0.465948007303758 0.229166666666667
0.355330646936689 0.458115276582853 0.229166666666667
0.355036803999155 0.456595922657907 0.229166666666667
0.365069472176989 0.448929100176964 0.229166666666667
0.364128850548119 0.447258377855939 0.229166666666667
0.386612093642898 0.436265165396593 0.229166666666667
0.395006550720289 0.431010433645037 0.229166666666667
0.403490515423081 0.431135708828984 0.229166666666667
0.406794759869725 0.421413383804097 0.229166666666667
0.422629446666376 0.418290131736369 0.229166666666666
0.431604320348479 0.409368407351361 0.229166666666667
0.441234331159231 0.397971604157699 0.229166666666666
0.450900885951469 0.399779722441633 0.229166666666667
0.457454212044101 0.391265916419937 0.229166666666667
0.465382069775357 0.386999599718764 0.229166666666667
0.470528487953936 0.37887032552387 0.229166666666666
0.484633047160552 0.371074792210007 0.229166666666667
0.493407251295497 0.361880200342593 0.229166666666667
0.307808993351042 0.5 0.128392369594448
0.312791101117541 0.5 0.130867790457435
0.311464209510992 0.5 0.146006480107936
0.30949200973448 0.5 0.144950425586897
0.315672026374553 0.5 0.15107595066561
0.30792496423222 0.5 0.172056684041758
0.299961513669602 0.5 0.189843134778329
0.310197176364927 0.5 0.183303954304578
0.314362653143848 0.5 0.193589054856058
0.308080525993275 0.5 0.210762731952117
0.30729624182798 0.5 0.224297785586908
0.318656709699716 0.5 0.218294832345713
0.312457761775724 0.494034688786165 0.229166666666667
0.327747617126957 0.490249882166806 0.229166666666667
0.335431495593289 0.482958169254496 0.229166666666666
0.348161958464637 0.480669852410371 0.229166666666666
0.360976954857808 0.465287673097377 0.229166666666667
0.360219959760872 0.46294655999926 0.229166666666667
0.36967314642184 0.46515261883898 0.229166666666667
0.37991163436507 0.44931566606451 0.229166666666667
0.389093837315597 0.446083005218839 0.229166666666667
0.396830515233692 0.442348153162118 0.229166666666666
0.407857641185306 0.441206988126894 0.229166666666667
0.419034602493366 0.428163291184608 0.229166666666667
0.422350288675237 0.423704459304059 0.229166666666667
0.433439824911209 0.41443034234669 0.229166666666667
0.444911240097713 0.412096061903013 0.229166666666667
0.45522075784026 0.405844190740812 0.229166666666667
0.463199151104204 0.393171518561186 0.229166666666667
0.465534692861684 0.39569035581057 0.229166666666667
0.480094560069816 0.381318649800657 0.229166666666667
0.496621186537233 0.374414015027376 0.229166666666667
0.328634647095633 0.5 0.110498924734323
0.328692822767836 0.5 0.125771089148602
0.326016187477967 0.5 0.139728182953309
0.336783475637226 0.5 0.139887595093209
0.328294673383369 0.5 0.147990226187966
0.324447243590614 0.5 0.168269475855144
0.332305303455482 0.5 0.168252338102252
0.325978936218988 0.5 0.182210279936858
0.330225759394962 0.5 0.183044136988145
0.320155448358244 0.5 0.204971907964043
0.32698200928527 0.5 0.209726779957418
0.323942714619488 0.5 0.219328144638267
0.331215752468741 0.5 0.218349154322001
0.335690239318721 0.499604798754994 0.229166666666667
0.342869037988195 0.491272032736974 0.229166666666667
0.350282747000164 0.47922828393397 0.229166666666667
0.354932559074629 0.47606902398345 0.229166666666667
0.363988135359694 0.46970016238718 0.229166666666666
0.377332469974468 0.468161470570071 0.229166666666667
0.380533762981697 0.460708765511549 0.229166666666667
0.396869925152513 0.459959807625938 0.229166666666667
0.406880689138095 0.451754248360993 0.229166666666667
0.422330218123106 0.440662333254584 0.229166666666667
0.430641536783312 0.432791319550773 0.229166666666666
0.437806952009619 0.429077182748807 0.229166666666666
0.440564896542016 0.424929286796709 0.229166666666667
0.450134000490767 0.422621189482534 0.229166666666667
0.456103886558441 0.412152099440583 0.229166666666666
0.462585265398258 0.409008886432943 0.229166666666667
0.471583085278715 0.400394207192257 0.229166666666667
0.491140610283205 0.392846813929689 0.229166666666666
0.496643981502276 0.384223157431626 0.229166666666667
0.335354823524373 0.5 0.108434474550507
0.350554731173313 0.5 0.0996644163865673
0.343619878531937 0.5 0.119575142123056
0.345914896324913 0.5 0.126261160110348
0.345808056548056 0.5 0.132294734618365
0.339791618532283 0.5 0.153242052775233
0.349234191948819 0.5 0.154643284478136
0.34637996652882 0.5 0.170566407846565
0.337872226946761 0.5 0.187628153238415
0.339216128422921 0.5 0.192982953202565
0.347460964888633 0.5 0.201362087501829
0.350507814383132 0.5 0.198086056960929
0.345834289535653 0.5 0.211049853258477
0.346459450794896 0.5 0.223746330669517
0.357411011598219 0.495490318728787 0.229166666666667
0.356106547828806 0.489083227453053 0.229166666666667
0.36638138483026 0.482920990083236 0.229166666666666
0.373726037393148 0.483500091984148 0.229166666666667
0.383419570390378 0.474188328357166 0.229166666666667
0.397249922968093 0.470381506495165 0.229166666666667
0.400248961360791 0.459499198011218 0.229166666666667
0.406461348729654 0.452508729244895 0.229166666666667
0.419982750049665 0.454660722393284 0.229166666666667
0.430523034838088 0.446197115449803 0.229166666666667
0.436288675158194 0.437952551831769 0.229166666666667
0.44131938750084 0.43240684651581 0.229166666666667
0.462264976830089 0.42060435987683 0.229166666666667
0.469038442794333 0.421669792150447 0.229166666666667
0.483082262671057 0.415268955429265 0.229166666666666
0.488213366799787 0.409077139073066 0.229166666666667
0.493282422441256 0.398243479278602 0.229166666666666
0.360217680291752 0.5 0.0822380050694799
0.351406623560832 0.5 0.105833983634692
0.361821210550798 0.5 0.107335973736427
0.359262421996249 0.5 0.123354999528187
0.356406092370865 0.5 0.135108788803855
0.352623305287125 0.5 0.147636101809402
0.367502769564566 0.5 0.140657414387628
0.356656720344672 0.5 0.161875793156205
0.363664509694967 0.5 0.162597071955048
0.372644477060248 0.5 0.164792576468935
0.360193382670573 0.5 0.188620954604197
0.365427721413268 0.5 0.187309989482429
0.363557827722413 0.5 0.202138058370541
0.362535520535685 0.5 0.208467838524606
0.356712281298661 0.5 0.222953371883131
0.371932412153849 0.496076105975302 0.229166666666667
0.374100860236344 0.491104642117627 0.229166666666667
0.391447337424847 0.48307562396756 0.229166666666667
0.385493949287371 0.481290094770652 0.229166666666667
0.398586272960802 0.480030311077375 0.229166666666667
0.403850600162098 0.466840629174314 0.229166666666667
0.417568786136945 0.459944676155796 0.229166666666666
0.425940038457506 0.453689403623383 0.229166666666667
0.437544165273568 0.458743689588458 0.229166666666666
0.444297340245552 0.449698292207283 0.229166666666667
0.456306771724675 0.443966506524481 0.229166666666667
0.459975454327364 0.432140404338464 0.229166666666666
0.479291436942604 0.422157911359107 0.229166666666667
0.489078692089111 0.416909207640267 0.229166666666667
0.493064702244945 0.412214286778518 0.229166666666666
0.494788439213332 0.41298712834978 0.229166666666667
0.380657843804903 0.5 0.0834619461752949
0.380017988210852 0.5 0.0863310760895231
0.387250319102338 0.5 0.0835930236113233
0.37918854873144 0.5 0.108276372397871
0.379613725134636 0.5 0.108644574932712
0.379445229365301 0.5 0.12446663473535
0.376459276591541 0.5 0.130319146166301
0.381790353120684 0.5 0.144834137804548
0.377151755126877 0.5 0.157823822892342
0.377029101403003 0.5 0.164956091487442
0.371424186474353 0.5 0.179206941224251
0.38808676223578 0.5 0.173120653644158
0.384359085280437 0.5 0.184941355783107
0.371208096005154 0.5 0.201833558168082
0.37503455650448 0.5 0.218231942495846
0.384176788081185 0.5 0.21941515651948
0.38215871226264 0.5 0.228944335767806
0.386457819150507 0.491086801052409 0.229166666666667
0.393994243924307 0.489076502898841 0.229166666666667
0.411815208351997 0.481478881071467 0.229166666666667
0.418036987682816 0.470041265568561 0.229166666666667
0.428153256946542 0.467852534020919 0.229166666666667
0.431986994413911 0.466258780542918 0.229166666666667
0.451046496349626 0.457413472020292 0.229166666666667
0.458097136909091 0.454806909129954 0.229166666666667
0.462039562755256 0.446876653077535 0.229166666666666
0.469372754007971 0.439928657385433 0.229166666666666
0.488298420438001 0.433747873993127 0.229166666666667
0.494271680227212 0.424544441736757 0.229166666666667
0.406466920910408 0.5 0.055083171590697
0.392249089585619 0.5 0.0780042440856868
0.402074334860611 0.5 0.0761202537231531
0.39522021955766 0.5 0.0936044171090068
0.400688986664034 0.5 0.107322256809493
0.398908165778432 0.5 0.105120979375815
0.39391163192667 0.5 0.128488331251129
0.402377908027124 0.5 0.127475792147895
0.401814256691709 0.5 0.137596295495257
0.392987438202513 0.5 0.148450479752904
0.398300332239013 0.5 0.158847330342728
0.402315764064761 0.5 0.163040369948741
0.392051833875484 0.5 0.187558673732933
0.389072668925775 0.5 0.19827659608497
0.403485668895264 0.5 0.201379752240878
0.403607755432141 0.5 0.209262894663355
0.403153583007001 0.5 0.211410660417448
0.404948661994937 0.497963046126535 0.229166666666667
0.408965959621158 0.496686080492442 0.229166666666667
0.417189524275105 0.493488673191307 0.229166666666667
0.418652430814409 0.480265042562917 0.229166666666667
0.428253974953781 0.475009277138677 0.229166666666667
0.442402167557649 0.470652067280164 0.229166666666666
0.459071541111787 0.466671260319754 0.229166666666667
0.459225081191083 0.465849778255041 0.229166666666667
0.468194982670529 0.450909040841476 0.229166666666667
0.476176492992608 0.45058425293509 0.229166666666667
0.494217025658627 0.443841532422624 0.229166666666667
0.49915950981131 0.436380060520939 0.229166666666667
0.418813583922483 0.5 0.0436956384020684
0.418040784391293 0.5 0.0591600338268851
0.413818374523457 0.5 0.0715919674929016
0.415853218950848 0.5 0.0848047124563327
0.403849783387482 0.5 0.0976381820210311
0.417799277684242 0.5 0.09517881711825
0.417583644923067 0.5 0.113785044142697
0.412276004690514 0.5 0.12392682767993
0.417742714834212 0.5 0.12814118893957
0.422643025584588 0.5 0.12673085775699
0.41198400477687 0.5 0.144264423454279
0.407726366721743 0.5 0.158966658048301
0.407599541483872 0.5 0.16799426292329
0.412741881972069 0.5 0.181402199186358
0.420571059736404 0.5 0.185195613796404
0.416348340658719 0.5 0.198378197997634
0.419729726098034 0.5 0.199972848570173
0.421809581900975 0.5 0.21035340107526
0.415128584178166 0.5 0.222805250787412
0.419136701109241 0.494446212273096 0.229166666666667
0.423128583100847 0.488872234889268 0.229166666666667
0.43418489279128 0.480733336709904 0.229166666666666
0.448255147934318 0.480915205333312 0.229166666666667
0.461275506879329 0.468034952846655 0.229166666666667
0.473709075791903 0.468789607237708 0.229166666666667
0.473286115890345 0.462119444719174 0.229166666666667
0.483186215962695 0.454812478212695 0.229166666666667
0.497486359888606 0.447060888426159 0.229166666666667
0.428062024459965 0.5 0.0478336639059405
0.438629776082706 0.5 0.0402377819581345
0.436168860425606 0.5 0.055448457660185
0.430999386053103 0.5 0.0590945565029683
0.440942071634835 0.5 0.0698225053961831
0.438544666277285 0.5 0.0780189674849413
0.436613540168259 0.5 0.0878823408605314
0.440229233236678 0.5 0.0980698947779562
0.428317198683393 0.5 0.116619201090822
0.43929095810362 0.5 0.127396470906283
0.435839451625102 0.5 0.129528108570423
0.437538608232769 0.5 0.14646349351139
0.429151020163437 0.5 0.155009778795755
0.433939780558743 0.5 0.163227505824435
0.43403138056811 0.5 0.17781160143086
0.427302996222577 0.5 0.190811084787974
0.431528491965199 0.5 0.199011742266302
0.431563123414776 0.5 0.210783134374914
0.424531922161651 0.5 0.227013566636087
0.427862529212627 0.498532682199484 0.229166666666667
0.43843822347093 0.5 0.226234552542643
0.444050841993684 0.494802927498393 0.229166666666667
0.458743395465959 0.485592454315492 0.229166666666667
0.465581372988421 0.481231999536332 0.229166666666666
0.477812011940083 0.474695749859974 0.229166666666667
0.491021167710927 0.462044323467056 0.229166666666667
0.494340894768383 0.45767370401898 0.229166666666667
0.446113058740764 0.5 0.0349594314652554
0.460227785870046 0.5 0.0296069449610761
0.460375647724231 0.5 0.0389666334745268
0.444418985922648 0.5 0.064647457005157
0.461892547126014 0.5 0.052589622740385
0.453918620089807 0.5 0.0705249199685064
0.446763742147076 0.5 0.0786777306160135
0.446294673249205 0.5 0.0923562652385796
0.443197604229239 0.5 0.113543185376639
0.449352588575756 0.5 0.109068073123669
0.449069060442564 0.5 0.128747464344059
0.449108598871094 0.5 0.140088961279989
0.45565532413318 0.5 0.139996558944539
0.450461359145484 0.5 0.147730027811185
0.454254441159817 0.5 0.164180747930326
0.452640200085567 0.5 0.164534881966438
0.452216828512466 0.5 0.176434086003737
0.453878080441913 0.5 0.195381314204686
0.446200075083821 0.5 0.212158806337024
0.449942177359864 0.5 0.217238255195505
0.453973170891191 0.5 0.220759559657346
0.457404369029033 0.499739178227332 0.229166666666667
0.462681126995717 0.496531529808336 0.229166666666666
0.478928554369359 0.482202882001327 0.229166666666667
0.479410283970596 0.485954301901947 0.229166666666667
0.493502409544224 0.474757851131291 0.229166666666667
0.498246117265915 0.470856041160687 0.229166666666667
0.465592101442266 0.5 0.0335606517145379
0.477414387141783 0.5 0.0348182546986869
0.464033907972796 0.5 0.0606919359773384
0.470071574708197 0.5 0.0612018657589282
0.456430954747969 0.5 0.0765281145300593
0.475836330837766 0.5 0.0747050291732138
0.47333508882014 0.5 0.0891382305044452
0.475103781978632 0.5 0.0979048510044692
0.472578447348071 0.5 0.108666946112721
0.462438872388314 0.5 0.126921261778193
0.461672032972252 0.5 0.13756907595976
0.464698929605962 0.5 0.150357538289772
0.475469113882596 0.5 0.152763423383003
0.478123567339788 0.5 0.151326145439683
0.472302046707125 0.5 0.166039993278022
0.474459110313641 0.5 0.17828728638666
0.470327083225331 0.5 0.190577870014345
0.468647156957265 0.5 0.20520669784881
0.468413478060437 0.5 0.216364155240108
0.46830334792749 0.5 0.217823337230557
0.470241381332093 0.496833526955678 0.229166666666667
0.478609970473548 0.495312002247167 0.229166666666667
0.491322450956356 0.481070209637037 0.229166666666667
0.488711989267054 0.5 0.0320960856756673
0.481015064904111 0.5 0.0439884801021058
0.484728455758601 0.5 0.0500010987870385
0.485752240227628 0.5 0.0515496522934654
0.479937066372465 0.5 0.0789897807643325
0.491807239792804 0.5 0.0720715302525952
0.488432944280915 0.5 0.086748861428212
0.483723258416209 0.5 0.104022040721993
0.489673857204721 0.5 0.107940674250933
0.479380923949466 0.5 0.119930596286187
0.486326521872976 0.5 0.132239240805384
0.492003359149972 0.5 0.129029176101865
0.477150469350118 0.5 0.155573549266506
0.480793425220263 0.5 0.168375383736497
0.489260330524242 0.5 0.171147505644438
0.489982074558487 0.5 0.178661896554763
0.487824875201838 0.5 0.193345133684446
0.49348991301488 0.5 0.198465106760811
0.4910283503525 0.5 0.204505834330546
0.488258284124183 0.5 0.219449556879713
0.480497825899886 0.498910624705447 0.229166666666667
0.496932576401772 0.498539210137259 0.229166666666666
0.498787037092426 0.5 0.193894383692083
0.496421646420376 0.5 0.217107782016049
-0.228346200059862 -0.486243514512435 0.223958333333334
-0.232120669131859 -0.490703693355873 0.223958333333333
-0.207374692103486 -0.489273328558806 0.223958333333333
-0.198979383866201 -0.494606219554125 0.223958333333334
-0.234905813416301 -0.474532341708287 0.223958333333333
-0.219553461311996 -0.482238527322342 0.223958333333333
-0.211131443697377 -0.478695244151973 0.223958333333333
-0.205987648957815 -0.488993429124787 0.223958333333333
-0.19909645644048 -0.486918586915173 0.223958333333333
-0.183431953875545 -0.491757655789503 0.223958333333334
-0.170000426638252 -0.487795577880531 0.223958333333333
-0.162228252485366 -0.491058726761838 0.223958333333333
-0.15842954108124 -0.490884624741658 0.223958333333334
-0.148846796684415 -0.490988533969209 0.223958333333333
-0.23075266262522 -0.468880603878957 0.223958333333333
-0.225146873484302 -0.467383317825114 0.223958333333333
-0.20650579927421 -0.470686180862629 0.223958333333333
-0.206422602125665 -0.47790769916928 0.223958333333333
-0.194731338635773 -0.480642342219729 0.223958333333334
-0.186606447708768 -0.478009010243988 0.223958333333333
-0.176601255179991 -0.480530910832554 0.223958333333333
-0.163715538566515 -0.479332826205418 0.223958333333333
-0.158155517316498 -0.482005104685675 0.223958333333333
-0.143501274569509 -0.484049603769178 0.223958333333333
-0.139241944643443 -0.489482744823575 0.223958333333334
-0.12554095075773 -0.490796334393651 0.223958333333333
-0.111206750923216 -0.487018935176402 0.223958333333333
-0.103660284611019 -0.492834814360949 0.223958333333333
-0.0926069369466683 -0.49422473647494 0.223958333333333
-0.0942704419993523 -0.492009280855807 0.223958333333333
-0.0771036851422659 -0.492697999090991 0.223958333333333
-0.229676798193569 -0.458085788682223 0.223958333333333
-0.22598730479086 -0.4583774355585 0.223958333333333
-0.211492762743856 -0.467387650880526 0.223958333333333
-0.204781360248158 -0.469991107393623 0.223958333333333
-0.197955338594336 -0.467239622548132 0.223958333333333
-0.182406756211836 -0.47372470050188 0.223958333333333
-0.176274338706004 -0.472414736699753 0.223958333333333
-0.169952892855134 -0.467775017719178 0.223958333333333
-0.159303778289335 -0.474790886952036 0.223958333333333
-0.146395945944969 -0.475014757119835 0.223958333333333
-0.130487976163494 -0.474758146775744 0.223958333333333
-0.123812142587357 -0.476992736638788 0.223958333333334
-0.117453203958676 -0.479130540684729 0.223958333333333
-0.106543725806521 -0.486594007523477 0.223958333333333
-0.0968519612702709 -0.48346416521824 0.223958333333333
-0.0867328923438664 -0.485604625331839 0.223958333333333
-0.0740962937664003 -0.483384216195693 0.223958333333333
-0.066366815657623 -0.485695198571984 0.223958333333333
-0.0605505937971925 -0.49173413318144 0.223958333333333
-0.0404444684557274 -0.493941250545774 0.223958333333334
-0.0131711530276677 -0.493779717725814 0.223958333333333
-0.236653021415479 -0.449173239956036 0.223958333333333
-0.231206065022683 -0.451851120595156 0.223958333333333
-0.20914631007161 -0.457615090920981 0.223958333333333
-0.199202486155728 -0.454974361364309 0.223958333333334
-0.191145746488104 -0.460436747430677 0.223958333333334
-0.184877228506822 -0.462746257389668 0.223958333333334
-0.171765261014367 -0.462277282881741 0.223958333333333
-0.160668883384886 -0.463068257265332 0.223958333333333
-0.16249418660011 -0.46410222933161 0.223958333333333
-0.150640714830103 -0.463254697061341 0.223958333333333
-0.139390019914828 -0.469970514067596 0.223958333333333
-0.130642165465091 -0.464783516370337 0.223958333333333
-0.115477298167214 -0.471675514622789 0.223958333333334
-0.108703590258148 -0.473104431668712 0.223958333333333
-0.0975818118593856 -0.475565209134294 0.223958333333333
-0.0931446029589888 -0.478020202165114 0.223958333333333
-0.0718263811973908 -0.47509596210712 0.223958333333333
-0.0666519644029701 -0.480303640680707 0.223958333333333
-0.0541551412303682 -0.479280709191522 0.223958333333334
-0.0447720106564024 -0.479495819359847 0.223958333333333
-0.03576569580322 -0.488772806104981 0.223958333333333
-0.0300046776579234 -0.485628052991508 0.223958333333334
-0.0203594932540228 -0.484452802208101 0.223958333333333
-0.00580758255186158 -0.491544254440658 0.223958333333333
0.0145760537378024 -0.491471735198892 0.223958333333333
0.0194955750297001 -0.491920019954701 0.223958333333333
0.0309030208063076 -0.492072610130471 0.223958333333333
0.0397215274385969 -0.494438285802146 0.223958333333333
-0.237743837659351 -0.440358730691102 0.223958333333333
-0.225213052083355 -0.4402315455953 0.223958333333333
-0.217572058628972 -0.443816705249883 0.223958333333333
-0.206382314756539 -0.444202556247006 0.223958333333333
-0.188218604715455 -0.44682502747884 0.223958333333334
-0.181832776852499 -0.45318072817883 0.223958333333333
-0.174180970055795 -0.448173639336603 0.223958333333333
-0.166203415495514 -0.449923608416606 0.223958333333333
-0.159637948195396 -0.451448005113116 0.223958333333333
-0.151340445576351 -0.455885135058206 0.223958333333333
-0.140848634790116 -0.455695034561673 0.223958333333333
-0.123643311705677 -0.462353443414131 0.223958333333334
-0.122828827497101 -0.464096660630978 0.223958333333333
-0.102998473888275 -0.459135268912155 0.223958333333333
-0.0978980929283906 -0.463659345915234 0.223958333333333
-0.0900368886255982 -0.464843992565766 0.223958333333333
-0.0833518106116113 -0.47024173326665 0.223958333333333
-0.0670705324171712 -0.469109333262374 0.223958333333333
-0.0511868554560838 -0.476034817369007 0.223958333333333
-0.0502141236354939 -0.474168266152903 0.223958333333333
-0.0312061866067733 -0.4794456307256 0.223958333333333
-0.0161273273279073 -0.47418491312306 0.223958333333334
-0.0181404517903974 -0.482027007842156 0.223958333333333
-0.00432537539610471 -0.478808540664489 0.223958333333333
0.0129700773972792 -0.483169622335079 0.223958333333333
0.0177973270461772 -0.484564548516467 0.223958333333333
0.0231308291472315 -0.481725900945132 0.223958333333333
0.0442231366414712 -0.486123733257227 0.223958333333333
0.0534365001362794 -0.490745260581416 0.223958333333333
0.0629925023177698 -0.487086270151827 0.223958333333333
0.0689377695670245 -0.487498943094917 0.223958333333333
0.0872487528011419 -0.490559368336273 0.223958333333333
-0.225910175384868 -0.432887554721995 0.223958333333334
-0.220657699496337 -0.431738534955573 0.223958333333333
-0.215262808186182 -0.439862448387042 0.223958333333333
-0.204701503822912 -0.437627238157518 0.223958333333333
-0.195006240953415 -0.44306439534569 0.223958333333333
-0.186341732342312 -0.437412180375946 0.223958333333333
-0.171111938728853 -0.442732194308322 0.223958333333333
-0.169958572742314 -0.44335368250234 0.223958333333333
-0.155677747561622 -0.441162631018133 0.223958333333333
-0.139814391596102 -0.452221414316012 0.223958333333333
-0.137324148201169 -0.448198546375025 0.223958333333333
-0.123043184365847 -0.445983752978819 0.223958333333333
-0.12314122306328 -0.452641553583999 0.223958333333333
-0.113373634684567 -0.45145025807491 0.223958333333334
-0.0982673894439778 -0.453757040532684 0.223958333333333
-0.0878733616986659 -0.458888643782359 0.223958333333333
-0.0729050943474782 -0.457296102794072 0.223958333333333
-0.0664771908282262 -0.458942649973528 0.223958333333333
-0.053885582813608 -0.464308246205261 0.223958333333334
-0.0493893088602175 -0.464200344360928 0.223958333333334
-0.035137557384177 -0.461190939242862 0.223958333333333
-0.0353202636068996 -0.46866363175412 0.223958333333333
-0.0173103662423826 -0.465492246576089 0.223958333333333
-0.0100127066862807 -0.472746930626008 0.223958333333333
0.010044809009996 -0.468567049428935 0.223958333333333
0.0262098491061871 -0.477145523793058 0.223958333333333
0.029429024977066 -0.470728255008631 0.223958333333333
0.0405971267246565 -0.474927566212535 0.223958333333334
0.05009103688165 -0.482254871937244 0.223958333333333
0.0703994208258007 -0.484614229930224 0.223958333333333
0.0735558920680022 -0.484221669222686 0.223958333333333
0.0807899771897249 -0.484491385654732 0.223958333333333
0.0963126254690235 -0.489576930845221 0.223958333333333
0.102132276579901 -0.490950429419814 0.223958333333333
0.114389717368835 -0.493081941715819 0.223958333333333
0.141975520179796 -0.494351782111486 0.223958333333334
0.154014133894372 -0.489980511863508 0.223958333333333
-0.236847974475955 -0.426344931979002 0.223958333333333
-0.232253871599839 -0.422570143477822 0.223958333333333
-0.212846315228422 -0.427568955630835 0.223958333333333
-0.202233859201483 -0.426499899735855 0.223958333333334
-0.203663809537936 -0.431838869465777 0.223958333333333
-0.188008254239503 -0.42790192637067 0.223958333333333
-0.179050915314692 -0.429569642723082 0.223958333333333
-0.169008436990045 -0.43794373556442 0.223958333333333
-0.156380249897751 -0.433927772574801 0.223958333333334
-0.145577339309512 -0.438970865730267 0.223958333333333
-0.143932263918428 -0.439714925457261 0.223958333333334
-0.120607226207945 -0.436884933534809 0.223958333333334
-0.1136664887208 -0.438065194444243 0.223958333333334
-0.109002926788851 -0.438879208308141 0.223958333333333
-0.094735898187733 -0.44312249111425 0.223958333333333
-0.0843407632483609 -0.450887777625734 0.223958333333333
-0.0767200006066548 -0.448999948059158 0.223958333333333
-0.0651052633816365 -0.450770494876082 0.223958333333333
-0.0522797761072202 -0.451762607880412 0.223958333333333
-0.0466464844916284 -0.451985256281696 0.223958333333333
-0.0314372529555414 -0.459196203810487 0.223958333333333
-0.0214319314065284 -0.459336225604551 0.223958333333333
-0.00779501398050756 -0.460395232649798 0.223958333333333
-0.00365874938312503 -0.463083468521214 0.223958333333333
0.00967362245705356 -0.457550871126405 0.223958333333333
0.0242429458058291 -0.458724841898669 0.223958333333333
0.0226662864119909 -0.462334369117339 0.223958333333333
0.0417874615138398 -0.468815047186416 0.223958333333333
0.0502292506063757 -0.465290719911045 0.223958333333333
0.0627474375164988 -0.471511278271856 0.223958333333333
0.0722139822325886 -0.467203487773742 0.223958333333333
0.0900797967586923 -0.47816346734416 0.223958333333333
0.0986326899574493 -0.470029552978246 0.223958333333333
0.10789321703624 -0.476787423080383 0.223958333333333
0.125659548491996 -0.475226198220041 0.223958333333333
0.128827283980573 -0.477351312610169 0.223958333333333
0.136786905942457 -0.483784699122567 0.223958333333333
0.157451387799162 -0.484867185146948 0.223958333333333
0.164726626010833 -0.487212371724049 0.223958333333333
0.176195548666953 -0.48284129375621 0.223958333333333
0.197963707072896 -0.494329511542836 0.223958333333333
0.207460897040676 -0.490488018552435 0.223958333333334
0.238019985308526 -0.490753861451494 0.223958333333333
0.291666666666667 -0.499652270552203 0.204508327072752
-0.235235847649376 -0.416540596778105 0.223958333333333
-0.231462158605942 -0.41834472255072 0.223958333333333
-0.215316115837493 -0.422683572552898 0.223958333333334
-0.205441897423056 -0.422651277604688 0.223958333333334
-0.196680372669753 -0.422184367219563 0.223958333333333
-0.194097436691798 -0.426080048190728 0.223958333333333
-0.175864049686464 -0.424801331598711 0.223958333333334
-0.168075442734684 -0.423236724954881 0.223958333333333
-0.153526427798148 -0.427450430772315 0.223958333333333
-0.140944127896879 -0.432027079361678 0.223958333333333
-0.133733215333027 -0.429444284233333 0.223958333333333
-0.130775675293963 -0.432749906716719 0.223958333333333
-0.117166075110503 -0.429021681077774 0.223958333333333
-0.103246090870879 -0.434805147367295 0.223958333333334
-0.102593101622289 -0.435537792608417 0.223958333333334
-0.0864262937224037 -0.438785867291019 0.223958333333334
-0.0751923854246369 -0.443058098122099 0.223958333333333
-0.062012410211002 -0.445047937785989 0.223958333333333
-0.0550097108317701 -0.437925368177867 0.223958333333333
-0.0441084368128905 -0.444618883175214 0.223958333333333
-0.0403435632915724 -0.441242083961717 0.223958333333333
-0.0267801135073563 -0.442847138401833 0.223958333333333
-0.0138908512226116 -0.444901798640215 0.223958333333333
-0.00605611240458968 -0.44506474416829 0.223958333333333
-0.000292163395787546 -0.446137253162371 0.223958333333333
0.0235054200474097 -0.453624925555636 0.223958333333333
0.0383379565510603 -0.456356955215472 0.223958333333333
0.034894924067631 -0.455522260932809 0.223958333333333
0.0526027279429622 -0.455933184066957 0.223958333333333
0.0547685886398719 -0.458170289670918 0.223958333333333
0.0733468918266261 -0.462144078902959 0.223958333333334
0.0850925190206896 -0.464830659392886 0.223958333333333
0.0933664893567826 -0.460962942172255 0.223958333333333
0.112025339652455 -0.463177645948098 0.223958333333333
0.11708612765067 -0.472823938376955 0.223958333333333
0.126021267209419 -0.471862854865317 0.223958333333333
0.149487535720117 -0.468673919262221 0.223958333333333
0.157272579839357 -0.470372049409184 0.223958333333333
0.168751422868713 -0.474505294546923 0.223958333333333
0.172735254670084 -0.480866755886879 0.223958333333333
0.197477455536141 -0.483335392038375 0.223958333333333
0.210304489568532 -0.484239055446802 0.223958333333333
0.219515933993625 -0.481025579339694 0.223958333333333
0.227942591412785 -0.482699885640751 0.223958333333333
0.235124822839663 -0.482933221465798 0.223958333333333
0.251178750003045 -0.482413266187791 0.223958333333333
0.264416482882467 -0.485837035125448 0.223958333333333
0.290096115165348 -0.494523319578955 0.223958333333334
0.290515896363383 -0.490136288568621 0.223958333333333
0.303866870193538 -0.495729447856414 0.229166666666667
0.315601029601773 -0.498987167211733 0.229166666666667
-0.234979201351527 -0.401477094561258 0.223958333333333
-0.224316872703275 -0.401787351865379 0.223958333333333
-0.221201516856858 -0.40606975027611 0.223958333333333
-0.208550102372928 -0.410446174614282 0.223958333333333
-0.197360309737748 -0.409289900201055 0.223958333333333
-0.183666131195757 -0.412324545242385 0.223958333333333
-0.167728760371342 -0.415542695670739 0.223958333333333
-0.165379980670937 -0.41874527245265 0.223958333333333
-0.152653828350258 -0.417856645332434 0.223958333333333
-0.149083893620517 -0.417846266444708 0.223958333333333
-0.144030252426957 -0.424094180131616 0.223958333333333
-0.133094595936273 -0.416975765532478 0.223958333333333
-0.112085375856986 -0.426195707506564 0.223958333333333
-0.111418598803891 -0.422841298621956 0.223958333333333
-0.0989382408076797 -0.42580839730935 0.223958333333333
-0.0839264640131346 -0.429081409947411 0.223958333333333
-0.0698856518195327 -0.430219118403911 0.223958333333333
-0.0744096774393248 -0.42869321921443 0.223958333333333
-0.0512337145606037 -0.434182550224137 0.223958333333334
-0.0426164956880479 -0.435561298438012 0.223958333333333
-0.040910096286862 -0.436438920977345 0.223958333333333
-0.0283613625956419 -0.431667383615833 0.223958333333333
-0.0154229903102607 -0.434925550601654 0.223958333333333
-0.00896224908712248 -0.439891001953571 0.223958333333333
0.00466651077263168 -0.44589620448618 0.223958333333334
0.0162740171912527 -0.440563431014561 0.223958333333334
0.0250180575847548 -0.440736461815805 0.223958333333333
0.0358647130008144 -0.449759862248114 0.223958333333333
0.0569297123892656 -0.448206662420224 0.223958333333333
0.0605557201325602 -0.452277305693641 0.223958333333333
0.0796793276283288 -0.447986104404182 0.223958333333333
0.0901591642397472 -0.453041254011408 0.223958333333333
0.0958774400395899 -0.453848342417253 0.223958333333333
0.100295245507671 -0.459734832757686 0.223958333333334
0.120978688131381 -0.454538001756881 0.223958333333333
0.131411419458537 -0.454908610411608 0.223958333333334
0.147431473746456 -0.460537455189193 0.223958333333333
0.15232564814766 -0.462186143720389 0.223958333333333
0.169595124716153 -0.464700790358704 0.223958333333334
0.178398276566951 -0.466674035709658 0.223958333333333
0.190732105400691 -0.471153698314615 0.223958333333333
0.199466953464442 -0.470651438550879 0.223958333333333
0.214400974728176 -0.471434360665053 0.223958333333333
0.22801232652256 -0.468971759704402 0.223958333333333
0.243004918342981 -0.478192079916096 0.223958333333333
0.258363553766173 -0.478868646753417 0.223958333333333
0.264456769820442 -0.474739231714055 0.223958333333333
0.272093154878283 -0.476493846889017 0.223958333333333
0.29306136562103 -0.47924185069056 0.229166666666667
0.302393163583391 -0.483738302374606 0.229166666666667
0.310956526555721 -0.481479225591958 0.229166666666667
0.333933227243339 -0.483440244213945 0.229166666666667
0.331420946960164 -0.493483013306739 0.229166666666667
0.354652225945417 -0.487121269658696 0.229166666666667
0.361483170347809 -0.492098262899585 0.229166666666667
0.377400442984391 -0.490530258474372 0.229166666666667
0.397544655874451 -0.496708822306296 0.229166666666667
0.417361523712964 -0.496710759520631 0.229166666666667
-0.227843040286939 -0.395429807236074 0.223958333333333
-0.222698537329964 -0.398625709630398 0.223958333333334
-0.207520615469209 -0.401222604513439 0.223958333333334
-0.205631842850728 -0.40096467054623 0.223958333333333
-0.197806378709014 -0.399508007278247 0.223958333333333
-0.185572058630854 -0.404798173653446 0.223958333333333
-0.174842926685068 -0.406022032475755 0.223958333333333
-0.166438693217368 -0.410037372821429 0.223958333333334
-0.154492759419422 -0.405692229524042 0.223958333333333
-0.143223244214596 -0.409317960521324 0.223958333333333
-0.141724168711125 -0.411295770210434 0.223958333333334
-0.133004038746943 -0.406460499500387 0.223958333333333
