ply
format ascii 1.0
element vertex 856
property float x
property float y
property float z
end_header
0.291666666666667 -0.383602414318374 0.224696769731934
0.291666666666667 -0.382767748634762 0.227865650822111
0.301882724900831 -0.379627823333777 0.229166666666667
0.312010751142253 -0.372926270438917 0.229166666666666
0.323603450622338 -0.367108606695649 0.229166666666667
0.332523346003822 -0.360751718464298 0.229166666666667
0.34496110638841 -0.353750321104131 0.229166666666667
0.35138708987664 -0.351217867841516 0.229166666666667
0.363038711207189 -0.341724044676157 0.229166666666667
0.365488164645022 -0.332510139889931 0.229166666666667
0.372656729944404 -0.32241250872269 0.229166666666667
0.38181315806372 -0.322532238814821 0.229166666666667
0.391487953438287 -0.311793925865588 0.229166666666667
0.395524127207354 -0.30715271208947 0.229166666666667
0.408183857423289 -0.300959331531279 0.229166666666667
0.419334275567516 -0.294707598447863 0.229166666666667
0.426307238458777 -0.282224234803387 0.229166666666667
0.44199165652081 -0.27784489748422 0.229166666666667
0.45344878674486 -0.27050996204277 0.229166666666667
0.460411307911874 -0.26907628623456 0.229166666666667
0.471214760619936 -0.264409210660235 0.229166666666667
0.473210410577579 -0.250039305394684 0.229166666666667
0.496038295124721 -0.235853139437106 0.229166666666667
0.499946652665982 -0.238766631775537 0.229166666666667
0.149945338635928 -0.473418852996505 0.223958333333333
0.161505246103556 -0.469456589703895 0.223958333333333
0.162669571716695 -0.460998743867756 0.223958333333333
0.173430004988111 -0.465833671615592 0.223958333333333
0.177264211681341 -0.451790911538494 0.223958333333333
0.19319283228881 -0.449098949091398 0.223958333333333
0.199776879404415 -0.448312732985674 0.223958333333333
0.20061715082818 -0.437529671557093 0.223958333333333
0.202544519911648 -0.432136676759545 0.223958333333334
0.220448352264326 -0.427398836784629 0.223958333333334
0.22663209274526 -0.419510979626619 0.223958333333333
0.235108798785423 -0.413271276037901 0.223958333333333
0.250396148053123 -0.406080818623552 0.223958333333333
0.248299147695562 -0.403098873279361 0.223958333333333
0.252761744493614 -0.404660362209409 0.223958333333333
0.272945590337262 -0.385301828109292 0.223958333333333
0.273736970662082 -0.389965905043617 0.223958333333333
0.284628292080126 -0.384212235836999 0.223958333333333
0.291666666666667 -0.372085414324204 0.224286526987176
0.298081941548189 -0.365810589621983 0.229166666666667
0.29913206785195 -0.365175216175053 0.229166666666667
0.309254179142585 -0.361530865473372 0.229166666666667
0.318504316565117 -0.34669671260826 0.229166666666667
0.337903366977646 -0.347014194783614 0.229166666666667
0.334956543038648 -0.345363608933041 0.229166666666667
0.347519389979752 -0.331672894797721 0.229166666666667
0.363124000640415 -0.320254511737022 0.229166666666666
0.362608906030784 -0.31522807046752 0.229166666666667
0.380410760425305 -0.310746276898805 0.229166666666667
0.386680122717054 -0.306876745511777 0.229166666666667
0.401196828710418 -0.301408813612044 0.229166666666667
0.396561867035267 -0.291455546999473 0.229166666666667
0.407268864293796 -0.292524115747809 0.229166666666667
0.417363986563303 -0.275573249939449 0.229166666666667
0.440565448304053 -0.268517134571812 0.229166666666667
0.441859306768884 -0.257310377346743 0.229166666666667
0.445623115331746 -0.257361704933203 0.229166666666666
0.467887633857607 -0.248012714944464 0.229166666666667
0.461436772806411 -0.242807090875652 0.229166666666667
0.479798148635876 -0.235540354336932 0.229166666666667
0.488320012447059 -0.230835846312099 0.229166666666667
0.494699046274843 -0.226992379368656 0.229166666666667
0.142027613354574 -0.474355048619995 0.223958333333333
0.150964556785517 -0.464096873588236 0.223958333333333
0.155107008665181 -0.456117967676706 0.223958333333333
0.166651263902565 -0.454695037928598 0.223958333333333
0.173087068018439 -0.449123341202062 0.223958333333333
0.182379344178239 -0.440830137325581 0.223958333333334
0.190985706950815 -0.439357225831775 0.223958333333333
0.196092083745757 -0.426289015786007 0.223958333333334
0.205485246018253 -0.42905577501201 0.223958333333333
0.212718649484933 -0.416005150342257 0.223958333333333
0.222663143524223 -0.40842870444901 0.223958333333333
0.228319734777666 -0.404330130576224 0.223958333333333
0.233920964213425 -0.40932210341976 0.223958333333334
0.238127801049643 -0.398512593718781 0.223958333333333
0.258478700371587 -0.387341173987372 0.223958333333333
0.26695782951768 -0.381433613429608 0.223958333333333
0.268752090484502 -0.375872063301519 0.223958333333333
0.273253203391162 -0.373038474309706 0.223958333333333
0.291666666666667 -0.362504291998018 0.225909615534688
0.291666666666667 -0.360266824139367 0.22836354976797
0.300539977050076 -0.357471213786743 0.229166666666667
0.301261415035952 -0.35410745777629 0.229166666666667
0.317367563411558 -0.347528474139616 0.229166666666667
0.321130184717227 -0.341493831061006 0.229166666666667
0.3390885842011 -0.334941309948544 0.229166666666667
0.345724003243024 -0.321929088153279 0.229166666666667
0.349387961240376 -0.312415293841572 0.229166666666667
0.364310139589132 -0.314380485701828 0.229166666666667
0.365209431855496 -0.306233600861901 0.229166666666667
0.371523134747593 -0.296609109666609 0.229166666666667
0.387751472547854 -0.286644632098647 0.229166666666667
0.399388519809523 -0.287290213930665 0.229166666666667
0.40199219005955 -0.277416933338059 0.229166666666667
0.408142932624567 -0.276323273275896 0.229166666666666
0.430662741483076 -0.261639033656609 0.229166666666667
0.428764373125984 -0.264182668666789 0.229166666666667
0.44786513670639 -0.244860796029846 0.229166666666667
0.448740032632339 -0.251338477671976 0.229166666666667
0.471376666152185 -0.234930216996481 0.229166666666667
0.467417029352162 -0.235319033245624 0.229166666666667
0.487680927315564 -0.222683551242349 0.229166666666667
0.499690606796198 -0.21282507981008 0.229166666666666
0.129060276707697 -0.470346614026529 0.223958333333334
0.145169497938946 -0.452205215201155 0.223958333333333
0.152244662344706 -0.4557888184402 0.223958333333333
0.153239063460857 -0.452003889536523 0.223958333333333
0.169363452057296 -0.441701424235751 0.223958333333333
0.167127158794372 -0.439570083897171 0.223958333333334
0.182182422702407 -0.423746265565708 0.223958333333333
0.18601298046973 -0.424768385334988 0.223958333333333
0.197304619480107 -0.422312433862128 0.223958333333333
0.203069525888887 -0.410683947529903 0.223958333333333
0.213033290352488 -0.405164616913146 0.223958333333333
0.222225412780904 -0.396382068483392 0.223958333333333
0.228496302365075 -0.396641114467978 0.223958333333333
0.233754100372672 -0.387695569962689 0.223958333333333
0.251466391934136 -0.381725752003343 0.223958333333333
0.252206238366159 -0.377179149326538 0.223958333333333
0.261438302546698 -0.374105961625236 0.223958333333333
0.269577262870387 -0.36102713821995 0.223958333333333
0.277658506981257 -0.357987331937649 0.223958333333333
0.288304199676096 -0.347248577849002 0.223958333333333
0.291666666666666 -0.342985074770609 0.225352413707022
0.299426668146087 -0.345794622554367 0.229166666666667
0.304129352384719 -0.34252918959548 0.229166666666667
0.314491693428972 -0.33032272754983 0.229166666666666
0.330672866240873 -0.327071317718384 0.229166666666667
0.334928672880523 -0.315628136835619 0.229166666666667
0.343891108838058 -0.307753938286998 0.229166666666666
0.359421710869336 -0.301909111621364 0.229166666666667
0.360294742127031 -0.30342357621748 0.229166666666667
0.369085518775339 -0.295604249425973 0.229166666666667
0.373827899505447 -0.288589230361303 0.229166666666667
0.385745040807697 -0.281032544265288 0.229166666666667
0.395432608652825 -0.274951509333867 0.229166666666667
0.411332640845306 -0.260338294493713 0.229166666666667
0.415851252191139 -0.263579106671641 0.229166666666667
0.426915118974339 -0.25438693117145 0.229166666666667
0.441818229736037 -0.244843388760473 0.229166666666666
0.444432535694631 -0.2407040618651 0.229166666666667
0.449528970290957 -0.228700347466885 0.229166666666667
0.460364145654616 -0.227997108039133 0.229166666666667
0.475622503671342 -0.220155711310705 0.229166666666667
0.487280368315945 -0.208293502175357 0.229166666666667
0.498719974134707 -0.199435464538607 0.229166666666666
0.127030330383518 -0.456596363600563 0.223958333333334
0.133484181157878 -0.457408013685514 0.223958333333333
0.146771314967677 -0.444177255350792 0.223958333333333
0.150908420118246 -0.439071901647929 0.223958333333333
0.156587535229914 -0.429969299756711 0.223958333333333
0.170955565718544 -0.428413823429485 0.223958333333333
0.174049047982715 -0.42336966669157 0.223958333333333
0.180096649459472 -0.416751855671607 0.223958333333333
0.190804224328427 -0.412541467961131 0.223958333333333
0.205356078069868 -0.405233259771201 0.223958333333333
0.204573509700448 -0.402424812578041 0.223958333333333
0.219849361462299 -0.392387751816993 0.223958333333333
0.221284395662586 -0.388355752796121 0.223958333333333
0.224045937562967 -0.382712982983436 0.223958333333333
0.238393799683499 -0.375101308081839 0.223958333333334
0.239388907347567 -0.373569832408374 0.223958333333334
0.255118365771478 -0.369441845688367 0.223958333333333
0.259550706604802 -0.359188141692586 0.223958333333333
0.276975772135021 -0.353442118244964 0.223958333333333
0.278812515055737 -0.350163881810155 0.223958333333333
0.291666666666667 -0.340848856818433 0.225921153443477
0.292545877006896 -0.339381325037001 0.229166666666667
0.299305806085746 -0.331460003010324 0.229166666666667
0.306158135083679 -0.330800425978579 0.229166666666667
0.321355690508875 -0.313426251040397 0.229166666666667
0.336099406637641 -0.311879620290863 0.229166666666667
0.331700832214844 -0.308866368027599 0.229166666666667
0.351945279626995 -0.300352643631915 0.229166666666666
0.351694130330928 -0.295985370729418 0.229166666666667
0.360890208137889 -0.280288614708926 0.229166666666667
0.373430101407646 -0.271982524480322 0.229166666666666
0.380465250816419 -0.272245023832053 0.229166666666667
0.386872342053507 -0.268635976751573 0.229166666666666
0.400671232494866 -0.260676501894427 0.229166666666667
0.410737670789074 -0.248697187035788 0.229166666666667
0.418449683118261 -0.243210920591704 0.229166666666667
0.429463729393247 -0.234111548202832 0.229166666666667
0.430030781684573 -0.229756743259272 0.229166666666667
0.452566320009386 -0.219057463066161 0.229166666666667
0.461506117796311 -0.218830590782487 0.229166666666667
0.468129748885671 -0.208398725743391 0.229166666666667
0.4841474487461 -0.199695296782292 0.229166666666666
0.48857978370045 -0.193951597823844 0.229166666666666
0.120935387229852 -0.453253005657726 0.223958333333333
0.123132708300154 -0.452067428695978 0.223958333333333
0.140235782439205 -0.436973505659658 0.223958333333333
0.147619872883254 -0.435527814215708 0.223958333333333
0.154277060149546 -0.427619602783163 0.223958333333333
0.157805142057955 -0.424950546640921 0.223958333333333
0.166834551082617 -0.41996145778868 0.223958333333333
0.173358237856749 -0.414278774573875 0.223958333333333
0.180009291233521 -0.411188210118488 0.223958333333333
0.191030751259753 -0.402667323163939 0.223958333333333
0.198341463225797 -0.395361829473361 0.223958333333333
0.208750398230391 -0.389310357173959 0.223958333333333
0.20913282824852 -0.386305008024588 0.223958333333333
0.219162866745552 -0.380264831000178 0.223958333333333
0.231813882204579 -0.363381640285777 0.223958333333333
0.235429636254838 -0.370347911130905 0.223958333333333
0.239189144888423 -0.360262497732725 0.223958333333333
0.250258074579335 -0.354765146407928 0.223958333333333
0.267007033282711 -0.340148980735095 0.223958333333333
0.267985946148522 -0.337012758108325 0.223958333333334
0.283269965963703 -0.337803164977385 0.223958333333333
0.291666666666667 -0.325114676007128 0.22575731503197
0.297444122929544 -0.322174361848719 0.229166666666666
0.305414961979928 -0.316001047960172 0.229166666666667
0.313247741677609 -0.306600268533023 0.229166666666667
0.31319277357326 -0.306596752943948 0.229166666666667
0.330039782626071 -0.296546863907704 0.229166666666667
0.336446842311939 -0.291704527484677 0.229166666666667
0.350296801429352 -0.281472659020692 0.229166666666666
0.353560191952373 -0.276975651865719 0.229166666666667
0.372171757900852 -0.271970638810374 0.229166666666667
0.376136866956596 -0.26159859861336 0.229166666666667
0.38687922244846 -0.252868232526351 0.229166666666667
0.38586556238262 -0.248037344548966 0.229166666666667
0.399714103659094 -0.24568800006119 0.229166666666667
0.409939899083774 -0.240175546253645 0.229166666666667
0.42903923729271 -0.220824716538827 0.229166666666667
0.430607127658081 -0.22554480536874 0.229166666666666
0.441092956836518 -0.217382635213909 0.229166666666667
0.44779392501105 -0.206411577394746 0.229166666666667
0.466676282949858 -0.194381870509167 0.229166666666667
0.473575911259599 -0.189383195079342 0.229166666666667
0.476989052647105 -0.181074173347755 0.229166666666667
0.484808462767151 -0.183902755536685 0.229166666666667
0.498397009808538 -0.176704022469069 0.229166666666667
0.122598896336188 -0.441676190130797 0.223958333333333
0.120026615745687 -0.438211958577387 0.223958333333333
0.133639378141145 -0.432017075303108 0.223958333333334
0.133245122084998 -0.43036018140295 0.223958333333333
0.141838330217578 -0.423674968711945 0.223958333333333
0.157984566101707 -0.417715330947167 0.223958333333333
0.162349102320044 -0.416658943582839 0.223958333333333
0.167477930633658 -0.407821448171037 0.223958333333333
0.174864686859625 -0.402751055239079 0.223958333333333
0.184844425654921 -0.397772256659528 0.223958333333333
0.19169369716728 -0.382962704750689 0.223958333333333
0.202517899200847 -0.377908395613953 0.223958333333333
0.205135295307064 -0.374058664733012 0.223958333333333
0.221270938013829 -0.371566527484488 0.223958333333334
0.216693407774915 -0.366479853790974 0.223958333333333
0.234243220269793 -0.361439209559283 0.223958333333333
0.237035854779704 -0.348820363627495 0.223958333333333
0.252362544990413 -0.341407840137785 0.223958333333333
0.252697930614005 -0.33882190523935 0.223958333333333
0.267627565118842 -0.333997382776977 0.223958333333333
0.273855954906424 -0.332698865477147 0.223958333333333
0.288348588012057 -0.318953955488611 0.223958333333333
0.290736331976946 -0.319118914872687 0.223958333333333
0.297753882750364 -0.312828167145626 0.229166666666667
0.299945497344146 -0.304044524961057 0.229166666666667
0.314781249942361 -0.293955985048931 0.229166666666667
0.323159784743668 -0.287944688364058 0.229166666666667
0.340441539696277 -0.284049002179759 0.229166666666667
0.340910686992072 -0.275971779050676 0.229166666666667
0.345967242821146 -0.269037055715748 0.229166666666667
0.355736206365045 -0.260509030749099 0.229166666666667
0.37612831400768 -0.25782355219683 0.229166666666667
0.383120359170532 -0.24771510928238 0.229166666666667
0.392658589798758 -0.237531304388079 0.229166666666667
0.396975866501849 -0.235653006563001 0.229166666666666
0.405707834150526 -0.227058231722324 0.229166666666666
0.413903719869908 -0.225080247094623 0.229166666666666
0.433395569856493 -0.213949892240134 0.229166666666667
0.434370440570496 -0.206410279391956 0.229166666666667
0.447349295080228 -0.197914085647385 0.229166666666667
0.444323649626447 -0.201117936095358 0.229166666666666
0.46051138455678 -0.185447384603722 0.229166666666667
0.474318136655592 -0.173065427979428 0.229166666666667
0.487367412007052 -0.1687675234982 0.229166666666667
0.495337493671422 -0.157341664729316 0.229166666666666
0.102377918244345 -0.44332545024385 0.223958333333333
0.12228368196229 -0.431649991640535 0.223958333333333
0.125353537864665 -0.426935532223127 0.223958333333334
0.135585976919215 -0.4161012653363 0.223958333333333
0.137104548060323 -0.418539775341414 0.223958333333334
0.153319053149526 -0.411011336889258 0.223958333333333
0.158699038837892 -0.401008048449276 0.223958333333333
0.158203791589667 -0.400549277316582 0.223958333333333
0.174428831638689 -0.394697560426505 0.223958333333333
0.177948847363184 -0.386268157434147 0.223958333333334
0.181063762932756 -0.380669722031775 0.223958333333333
0.19575066113236 -0.374207413257831 0.223958333333333
0.198130167344619 -0.36776537622471 0.223958333333333
0.202125262704966 -0.361568466571083 0.223958333333333
0.214859296059623 -0.355829988707933 0.223958333333333
0.223842812344987 -0.347712104520382 0.223958333333333
0.239016730703688 -0.34333168892546 0.223958333333334
0.242981179397199 -0.338807895948272 0.223958333333333
0.252015812289968 -0.325427181105347 0.223958333333333
0.259883280225219 -0.327954133632456 0.223958333333333
0.274266274379285 -0.31593718292826 0.223958333333333
0.276408755776391 -0.309215060709484 0.223958333333333
0.287526261126411 -0.305023720325542 0.223958333333333
0.290475420755622 -0.302897312217406 0.223958333333333
0.295641660676752 -0.294574766316428 0.229166666666667
0.304711121944228 -0.296316060422325 0.229166666666667
0.318053469498508 -0.284349027538538 0.229166666666667
0.332152730607206 -0.276376614673376 0.229166666666667
0.339104571911876 -0.268188072821345 0.229166666666667
0.342331410980339 -0.267226644419271 0.229166666666667
0.357569220164657 -0.258484423946744 0.229166666666666
0.354758973294155 -0.257059796998221 0.229166666666667
0.375589430425317 -0.244276699358463 0.229166666666667
0.372226366392903 -0.234712207904027 0.229166666666667
0.392297001141495 -0.225512845337135 0.229166666666667
0.39438603901387 -0.221105368197966 0.229166666666667
0.403151567452356 -0.215659276857367 0.229166666666667
0.422124368838061 -0.204662427028809 0.229166666666667
0.431757103281173 -0.20246084943264 0.229166666666667
0.435395641726913 -0.190007903008091 0.229166666666667
0.440816869876846 -0.181751040862953 0.229166666666666
0.459679586412586 -0.176546083385108 0.229166666666667
0.464376052273261 -0.171126789212011 0.229166666666667
0.466854568530469 -0.169924418791965 0.229166666666667
0.482968362076645 -0.155041388562902 0.229166666666667
0.107864581695598 -0.426019453459371 0.223958333333333
0.111843479448091 -0.424560751714975 0.223958333333333
0.117264722800285 -0.416109161446138 0.223958333333333
0.123051203232489 -0.416576490964817 0.223958333333333
0.128867461411842 -0.412602411970205 0.223958333333333
0.14653308023323 -0.405494108272008 0.223958333333333
0.147336972851833 -0.39941335746429 0.223958333333333
0.148814596511128 -0.392447348693481 0.223958333333333
0.163850419433919 -0.390797425597836 0.223958333333333
0.1699852571127 -0.384336180582679 0.223958333333334
0.178392692168318 -0.375794223346976 0.223958333333334
0.187825810065439 -0.36744806821205 0.223958333333334
0.198925640389263 -0.364117137242629 0.223958333333333
0.199290470381744 -0.357768147485347 0.223958333333333
0.219514063818534 -0.347693081229893 0.223958333333333
0.221449645484562 -0.345278861052637 0.223958333333333
0.231023999964102 -0.339436850142063 0.223958333333333
0.234094533770975 -0.325567890543078 0.223958333333333
0.242343349618288 -0.32198530292658 0.223958333333333
0.258339153277775 -0.319142743307504 0.223958333333333
0.258119874634276 -0.31595176725239 0.223958333333334
0.26503969297251 -0.311614372888766 0.223958333333333
0.278940429697402 -0.293178681464964 0.223958333333333
0.287585422580794 -0.294923211329121 0.223958333333333
0.296041072591685 -0.291485690687805 0.229166666666667
0.303873629447341 -0.279232440763161 0.229166666666667
0.312327945464746 -0.273857802944436 0.229166666666667
0.313006211326247 -0.270183388447126 0.229166666666667
0.328802179987349 -0.258571039795274 0.229166666666666
0.335314667039808 -0.253444620621476 0.229166666666667
0.345986601470438 -0.249616289582314 0.229166666666666
0.354444506438289 -0.242634876839071 0.229166666666667
0.360916514712501 -0.236177969352097 0.229166666666667
0.37130954943806 -0.232529786423917 0.229166666666667
0.384215489002458 -0.217418286319087 0.229166666666667
0.392173557759964 -0.207706715129138 0.229166666666667
0.399406900716255 -0.210979504178705 0.229166666666667
0.411589152744193 -0.19335376920338 0.229166666666667
0.409827343684646 -0.196689318809473 0.229166666666667
0.426399632862346 -0.183209489349652 0.229166666666667
0.434516787533874 -0.183593361385638 0.229166666666667
0.452977362347611 -0.168283659614435 0.229166666666667
0.462717856081903 -0.154784113514149 0.229166666666667
0.468771147744647 -0.154969072137152 0.229166666666667
0.481363090517463 -0.146859321024778 0.229166666666667
0.487014842634186 -0.144954149072184 0.229166666666667
0.0975076297290072 -0.421904128274973 0.223958333333333
0.100156926840576 -0.416815536822422 0.223958333333333
0.110286400017249 -0.413315273081388 0.223958333333333
0.115683940117987 -0.410066061255459 0.223958333333334
0.12905076327402 -0.4003925121492 0.223958333333333
0.132928745256331 -0.398394299516278 0.223958333333333
0.146202596202913 -0.388143331291164 0.223958333333333
0.141485582535633 -0.392501649479563 0.223958333333333
0.154490685920417 -0.381305730885529 0.223958333333333
0.160642014346879 -0.376561226360289 0.223958333333333
0.169011080036008 -0.365515385662461 0.223958333333333
0.184582216225439 -0.358299695221959 0.223958333333333
0.188293571670305 -0.350737773177964 0.223958333333333
0.193219332338943 -0.345150379011467 0.223958333333333
0.20466178636218 -0.344614132720609 0.223958333333333
0.214069396367348 -0.329845861082927 0.223958333333333
0.224105620521355 -0.327409869037784 0.223958333333333
0.223012972217434 -0.330725910640803 0.223958333333333
0.240444480665842 -0.317432299036027 0.223958333333333
0.245993908257976 -0.31360909001666 0.223958333333333
0.252160733194124 -0.302343296479749 0.223958333333333
0.264568749469406 -0.303032011181173 0.223958333333334
0.268821107803299 -0.299237898432202 0.223958333333333
0.283975937929826 -0.280645490497672 0.223958333333333
0.287345034799232 -0.282892670888422 0.223958333333333
0.292642862397771 -0.272375902269199 0.229166666666667
0.300407158911009 -0.269360385430354 0.229166666666667
0.304431935525935 -0.268703108925176 0.229166666666667
0.312127998803204 -0.256415900408262 0.229166666666667
0.33135981384964 -0.246142510641738 0.229166666666667
0.328556853695247 -0.243785198972661 0.229166666666667
0.347044873190233 -0.23809846290067 0.229166666666667
0.355100074437762 -0.22735124067203 0.229166666666667
0.360990082249728 -0.22272664034185 0.229166666666667
0.367000598959402 -0.221865983347593 0.229166666666667
0.388914647638109 -0.209557385922651 0.229166666666667
0.389147152421094 -0.201009788765745 0.229166666666667
0.396189209518932 -0.194842742442629 0.229166666666667
0.409014693753952 -0.186151332905709 0.229166666666666
0.421912778724095 -0.179453063670018 0.229166666666667
0.434802516663074 -0.164395754248604 0.229166666666667
0.439381489578109 -0.158137552565558 0.229166666666667
0.452330077586472 -0.156876773065401 0.229166666666666
0.457509395876599 -0.150726703927804 0.229166666666667
0.470936118795038 -0.131941026892043 0.229166666666667
0.478678953330722 -0.129855203573512 0.229166666666666
0.488290608280578 -0.126892165606214 0.229166666666667
0.493629140459972 -0.11534237852782 0.229166666666666
0.0896884524721706 -0.413544461078153 0.223958333333333
0.0950481130391371 -0.413114856275049 0.223958333333333
0.10276397071425 -0.404194767945709 0.223958333333334
0.111574479199211 -0.404711896368214 0.223958333333333
0.119499667978629 -0.399036766242882 0.223958333333333
0.123050579381064 -0.395814218396913 0.223958333333334
0.127275274406613 -0.387053930147224 0.223958333333333
0.137110523604692 -0.380652522005334 0.223958333333333
0.147637955027285 -0.372308150627944 0.223958333333333
0.164219258425166 -0.362804141176987 0.223958333333334
0.166224376435028 -0.362521944505044 0.223958333333333
0.17470304191954 -0.353636061550518 0.223958333333333
0.178637647022211 -0.348079303902934 0.223958333333333
0.183692698855924 -0.344333376693193 0.223958333333333
0.205056492969979 -0.329989162485419 0.223958333333333
0.206108517417494 -0.328938077178714 0.223958333333334
0.211776761413785 -0.327523262203748 0.223958333333333
0.225314567677561 -0.311380424404481 0.223958333333333
0.231151223648193 -0.310774491042211 0.223958333333333
0.23553889525102 -0.297955979770669 0.223958333333333
0.250214930705355 -0.29246351393389 0.223958333333333
0.25972494028091 -0.292950680993783 0.223958333333333
0.262678422276506 -0.288753934960201 0.223958333333333
0.279847511007796 -0.270751246593964 0.223958333333333
0.289677116574463 -0.266106515536786 0.223958333333333
0.289647809840091 -0.264505451948137 0.223958333333333
0.291666666666667 -0.259530432751969 0.228850943930692
0.302882318304859 -0.253358247764233 0.229166666666667
0.318485276986953 -0.251440452232989 0.229166666666667
0.321255168253991 -0.243178593246983 0.229166666666667
0.326517829032562 -0.239283080377594 0.229166666666667
0.337597479589935 -0.234491577483182 0.229166666666667
0.349209964561227 -0.221852039513214 0.229166666666667
0.355513637024303 -0.219479458275124 0.229166666666667
0.364424252190948 -0.203855314437277 0.229166666666667
0.372514471554468 -0.192686618032422 0.229166666666666
0.38841379575234 -0.192916674875514 0.229166666666667
0.391792181271552 -0.187871892164497 0.229166666666667
0.409259034285158 -0.177591308707534 0.229166666666667
0.413716736398145 -0.178148538430996 0.229166666666666
0.428184104967995 -0.161913062494343 0.229166666666667
0.424707886116492 -0.161034555190152 0.229166666666667
0.443610295047506 -0.142875210009684 0.229166666666667
0.450388841998643 -0.14323893228546 0.229166666666667
0.460746366974203 -0.128826396936588 0.229166666666667
0.47571876166652 -0.128623924931199 0.229166666666667
0.482553315742941 -0.111339067580677 0.229166666666667
0.490027097967781 -0.107524458166614 0.229166666666667
0.49552790471433 -0.107310168857319 0.229166666666667
0.0822801484322144 -0.409798404539553 0.223958333333333
0.0907186868272193 -0.40718741457258 0.223958333333333
0.100037751430755 -0.400911153964229 0.223958333333333
0.101854131050347 -0.392999639630608 0.223958333333333
0.10701697054678 -0.387643390835912 0.223958333333333
0.121104839610106 -0.381308883246691 0.223958333333333
0.126242281393496 -0.383802580286305 0.223958333333334
0.137786560948836 -0.368351662843084 0.223958333333333
0.140099722287345 -0.373055806039249 0.223958333333333
0.147011406209831 -0.362404343441947 0.223958333333333
0.161726747943444 -0.355342477807738 0.223958333333333
0.164017926729738 -0.354427695014883 0.223958333333333
0.173552774003699 -0.34202674979889 0.223958333333333
0.17879625351452 -0.33652085124889 0.223958333333333
0.184354712773461 -0.331033756956293 0.223958333333333
0.196297163186759 -0.325214152146059 0.223958333333333
0.211524104816024 -0.311000662917639 0.223958333333333
0.209273030604437 -0.30939913887161 0.223958333333333
0.219335190626687 -0.308521444159952 0.223958333333333
0.22655410058014 -0.299989810378941 0.223958333333333
0.243199084568937 -0.290387450275713 0.223958333333333
0.251229607037948 -0.28617253500865 0.223958333333333
0.250177952221804 -0.282109498626198 0.223958333333333
0.269463528161752 -0.268902732535559 0.223958333333333
0.27293062234891 -0.267029808445702 0.223958333333334
0.28402983513909 -0.257239883998227 0.223958333333334
0.291666666666667 -0.254353010749314 0.225505982516984
0.294925503889748 -0.250365225734471 0.229166666666667
0.306032859988634 -0.245223071621623 0.229166666666667
0.307877848875269 -0.236254267723726 0.229166666666667
0.31559405140693 -0.231425292531792 0.229166666666667
0.330561654425384 -0.216207915087588 0.229166666666667
0.343168296920142 -0.219299118609082 0.229166666666667
0.352582018459917 -0.211507581906205 0.229166666666666
0.354490187698796 -0.203963343976038 0.229166666666667
0.371247265697291 -0.186759656790982 0.229166666666667
0.368221004725076 -0.19142715085673 0.229166666666667
0.379832440996364 -0.178486590777704 0.229166666666667
0.398662531763337 -0.168934287586214 0.229166666666667
0.405532957158702 -0.168678003924875 0.229166666666667
0.416559606451333 -0.156731608875923 0.229166666666667
0.42732348514037 -0.151355269771564 0.229166666666667
0.431914788856881 -0.139187596160997 0.229166666666667
0.444620402599406 -0.129414788432081 0.229166666666667
0.460047291095361 -0.118744462266381 0.229166666666667
0.463336161567658 -0.112649353984548 0.229166666666667
0.478753731257079 -0.108415890967036 0.229166666666667
0.493933745869664 -0.0938389533751222 0.229166666666667
0.490050033753637 -0.0912353001976509 0.229166666666667
0.496568634104749 -0.0856317272335892 0.229166666666667
0.0747627103544105 -0.401146156128794 0.223958333333334
0.07895674958771 -0.401439406295985 0.223958333333333
0.0877286662044128 -0.396816576024591 0.223958333333333
0.0994214041683989 -0.390954579674403 0.223958333333333
0.106126859240734 -0.381889905824186 0.223958333333333
0.113153095592713 -0.374173670700746 0.223958333333333
0.122822092110843 -0.369766367453395 0.223958333333334
0.127359724810028 -0.369114420565107 0.223958333333333
0.137715668023002 -0.363766751851869 0.223958333333333
0.136052219258947 -0.358560906850374 0.223958333333334
0.15350149914926 -0.351301670242277 0.223958333333334
0.158945606035303 -0.343707694213184 0.223958333333334
0.167877847102995 -0.335769745285738 0.223958333333333
0.181220866233219 -0.332572419235455 0.223958333333333
0.183649882455945 -0.322153928772908 0.223958333333333
0.20043334163766 -0.312885524842822 0.223958333333333
0.197443667071344 -0.311905414333203 0.223958333333334
0.206510473388461 -0.303902215253206 0.223958333333333
0.221216835974523 -0.293275671925173 0.223958333333333
0.228420453130574 -0.290066332873472 0.223958333333333
0.227818382047104 -0.280723285613627 0.223958333333333
0.235780501459601 -0.276660274470866 0.223958333333333
0.24686983538936 -0.275483940342466 0.223958333333333
0.2650026134564 -0.265931674222003 0.223958333333333
0.268414888410802 -0.260631283331408 0.223958333333333
0.279296269801055 -0.24531509677923 0.223958333333333
0.286143629533986 -0.251115034914406 0.223958333333333
0.291666666666667 -0.239416234062939 0.226491675879705
0.297856999215783 -0.228249885238904 0.229166666666667
0.305238238788229 -0.227791632002109 0.229166666666667
0.312507942498086 -0.222729158341431 0.229166666666666
0.331744570472461 -0.210314526296517 0.229166666666667
0.338195276173778 -0.210124401913 0.229166666666667
0.343160764627784 -0.201545948659587 0.229166666666667
0.355251372477467 -0.194520389103993 0.229166666666667
0.359940057988039 -0.187345948312988 0.229166666666667
0.368835544735097 -0.183943970172102 0.229166666666667
0.383646448411831 -0.167603777993032 0.229166666666667
0.393007607092752 -0.159520960856019 0.229166666666667
0.406608559719387 -0.14919733047551 0.229166666666667
0.409293355890275 -0.153604887413116 0.229166666666667
0.422065522319089 -0.138238342377014 0.229166666666667
0.430062811141994 -0.130658943326941 0.229166666666667
0.437209572402545 -0.12703903415737 0.229166666666667
0.449091268368193 -0.11934614227178 0.229166666666667
0.447671321238876 -0.114382568216655 0.229166666666666
0.472530245889121 -0.103739831671404 0.229166666666667
0.486112001285379 -0.0959032981445626 0.229166666666667
0.48499669642878 -0.081552156906827 0.229166666666667
0.496184654684472 -0.0730019384025659 0.229166666666667
0.068977929099038 -0.394484530842961 0.223958333333333
0.071913836880476 -0.397681545353403 0.223958333333333
0.081939918882782 -0.388928277923383 0.223958333333333
0.0967288751807166 -0.376956891973628 0.223958333333333
0.0953962249659328 -0.380379527134233 0.223958333333333
0.106584621369442 -0.369168791803325 0.223958333333333
0.120614057664809 -0.362273714005996 0.223958333333333
0.118523140822004 -0.362321576834076 0.223958333333333
0.130347984945748 -0.346255660456786 0.223958333333333
0.132331995255254 -0.35123224832098 0.223958333333333
0.142427556357513 -0.340871181380147 0.223958333333333
0.150673449301582 -0.335348692757809 0.223958333333333
0.159145966198615 -0.324224179826049 0.223958333333333
0.167381690643778 -0.326019773952788 0.223958333333333
0.170760824353901 -0.32062925725659 0.223958333333334
0.190953654452315 -0.308811481814508 0.223958333333333
0.199310140182315 -0.305639864628069 0.223958333333333
0.206617481739753 -0.300461229081181 0.223958333333333
0.204814422077663 -0.292050647070109 0.223958333333333
0.219640692018909 -0.286891067939363 0.223958333333333
0.225054530645289 -0.281098939190367 0.223958333333333
0.227092688946754 -0.276836971541319 0.223958333333333
0.245762213985016 -0.2615844290017 0.223958333333333
0.250901910606184 -0.256897744722019 0.223958333333333
0.2604225994054 -0.244030539431278 0.223958333333333
0.267880647016924 -0.243387016308431 0.223958333333333
0.275930184133766 -0.239702584430077 0.223958333333333
0.289206060161099 -0.229661175270327 0.223958333333333
0.29203803730812 -0.228408545937933 0.229166666666667
0.293350385961946 -0.226551404136243 0.229166666666667
0.311246304023628 -0.206985262789714 0.229166666666667
0.314788112577789 -0.20291147828245 0.229166666666667
0.328102197717619 -0.198440911170423 0.229166666666667
0.332754702101282 -0.19485820984814 0.229166666666667
0.344382434160393 -0.19010340768717 0.229166666666667
0.358012433515876 -0.174590269644107 0.229166666666667
0.360907844931701 -0.169460963205379 0.229166666666667
0.369511336355343 -0.155140138445008 0.229166666666667
0.386449430475765 -0.155502996840205 0.229166666666667
0.388735082640531 -0.152497909272805 0.229166666666667
0.398255696391271 -0.137975581450655 0.229166666666667
0.408151423922973 -0.13284023265734 0.229166666666667
0.415773042432476 -0.12004982571235 0.229166666666667
0.427823235039493 -0.122220560000474 0.229166666666667
0.432648149789065 -0.112460325922091 0.229166666666667
0.447279319662371 -0.101483294729782 0.229166666666667
0.458719086866891 -0.0852422621190979 0.229166666666667
0.473497928990582 -0.0811185465769445 0.229166666666667
0.476849231034717 -0.0803339160067287 0.229166666666667
0.48919438156284 -0.0717967634847844 0.229166666666667
0.497244324287693 -0.0643991711900351 0.229166666666667
0.0636599878107277 -0.394696485670415 0.223958333333333
0.0700840916993531 -0.385267741149831 0.223958333333333
0.0766099193038058 -0.379473984862053 0.223958333333333
0.0820649915945592 -0.379700517839035 0.223958333333333
0.0903064921670549 -0.369406176152757 0.223958333333334
0.098437803879882 -0.362042416248697 0.223958333333333
0.115105506191109 -0.357176174176418 0.223958333333334
0.117097847385821 -0.35612427864426 0.223958333333333
0.127160504824219 -0.340728848613526 0.223958333333333
0.124659676278611 -0.345062992554623 0.223958333333333
0.135961193490053 -0.335064395495156 0.223958333333333
0.153270235027196 -0.328424757671983 0.223958333333333
0.151651018711841 -0.32093437850986 0.223958333333333
0.165779808870324 -0.309204685732124 0.223958333333333
0.167330860037504 -0.306986918656744 0.223958333333333
0.172363215717608 -0.303570084948635 0.223958333333333
0.185584007317135 -0.296710612425826 0.223958333333333
0.200878067553117 -0.281936420561729 0.223958333333333
0.205575591833341 -0.287442384101471 0.223958333333333
0.209183063723746 -0.271526414227743 0.223958333333333
0.220262480692053 -0.271001142731298 0.223958333333333
0.225609119727629 -0.262500873389574 0.223958333333333
0.236012679189136 -0.257235541616869 0.223958333333333
0.241501258957939 -0.249092789186122 0.223958333333333
0.255107637238961 -0.241089277740281 0.223958333333334
0.260600038687222 -0.243784497994277 0.223958333333333
0.269218610940366 -0.231390832053979 0.223958333333333
0.276649498692845 -0.21979258630851 0.223958333333333
0.284397404653348 -0.211419977256671 0.223958333333333
0.291666666666667 -0.209744570363541 0.224728674474721
0.30447540013712 -0.202746772625611 0.229166666666667
0.307429978709288 -0.192984307363516 0.229166666666667
0.315964197908066 -0.194825085614285 0.229166666666667
0.321886300793826 -0.187523087954055 0.229166666666667
0.335992267084703 -0.173968116009429 0.229166666666667
0.341225054189565 -0.174096503143582 0.229166666666667
0.354801867058076 -0.163237582090353 0.229166666666666
0.366126586563427 -0.158343772279371 0.229166666666667
0.370598069129548 -0.15325912399648 0.229166666666667
0.383710158768466 -0.140690289001352 0.229166666666667
0.392356014998484 -0.126444623490687 0.229166666666667
0.403350895969635 -0.123077027246012 0.229166666666667
0.40996343564798 -0.117925531466753 0.229166666666667
0.425693418155712 -0.108398238816414 0.229166666666667
0.427480241278976 -0.0990822107025472 0.229166666666667
0.434089555495507 -0.0956091654704252 0.229166666666667
0.457974049040399 -0.0829534461622964 0.229166666666666
0.453595331574605 -0.0816497813204321 0.229166666666667
0.471070003241805 -0.0705424554519259 0.229166666666667
0.47712111713238 -0.0623806356678019 0.229166666666667
0.48682316366657 -0.0492566649486847 0.229166666666667
0.49766205568033 -0.0438023567179129 0.229166666666667
0.0558370838704997 -0.391325304271079 0.223958333333333
0.0614813384435647 -0.38229809340002 0.223958333333333
0.0715382247080217 -0.371495684251636 0.223958333333333
0.07931230098046 -0.367717656429999 0.223958333333333
0.0901897266077033 -0.360305813113822 0.223958333333333
0.0971209364653388 -0.352516239187148 0.223958333333334
0.100920425422454 -0.344139242991249 0.223958333333334
0.109502853752986 -0.346209375326735 0.223958333333333
0.111582848176993 -0.337721892545044 0.223958333333333
0.124929156142956 -0.333899445205281 0.223958333333333
0.134590619278194 -0.328816409746666 0.223958333333334
0.146129379619352 -0.320716483141848 0.223958333333333
0.152881938181338 -0.316555944481636 0.223958333333333
0.150415407993579 -0.305774801695737 0.223958333333334
0.162268664105576 -0.303708942184301 0.223958333333333
0.170983024717341 -0.297897551886128 0.223958333333333
0.177809379622087 -0.289575056019498 0.223958333333333
0.192515732005505 -0.277639620867483 0.223958333333333
0.194484263814394 -0.279364768010445 0.223958333333334
0.206537785072064 -0.26894555302317 0.223958333333334
0.218699439905231 -0.257313364394692 0.223958333333334
0.217327185823622 -0.254325068160129 0.223958333333333
0.223186580742653 -0.250444351576852 0.223958333333333
0.233319760989302 -0.245970457916221 0.223958333333333
0.251250941677389 -0.231865996449405 0.223958333333333
0.261905222184445 -0.230288700895024 0.223958333333333
0.263224929057514 -0.228709833623656 0.223958333333333
0.267166300094651 -0.216455153789256 0.223958333333333
0.279746482886063 -0.201896152253666 0.223958333333333
0.285888999884736 -0.203416927455556 0.223958333333334
0.294525927659038 -0.19302557706314 0.229166666666667
0.303284838805309 -0.193481786003307 0.229166666666667
0.308720934155594 -0.179737394589646 0.229166666666667
0.314923706719729 -0.177383952218494 0.229166666666667
0.331250456207984 -0.173546842061815 0.229166666666667
0.339735271892425 -0.160876843751092 0.229166666666667
0.350326766435796 -0.149190422631155 0.229166666666667
0.352200484049447 -0.150193333023929 0.229166666666666
0.372807592863721 -0.142588450230005 0.229166666666667
0.386104333582507 -0.133327114198213 0.229166666666667
0.385844722566193 -0.128387575870538 0.229166666666667
0.402251737201068 -0.117284377302358 0.229166666666667
0.411265390986722 -0.106794695289105 0.229166666666667
0.42262672344783 -0.0946491231598841 0.229166666666667
0.423733756594142 -0.0861043394558375 0.229166666666667
0.434344610490271 -0.0767919747529509 0.229166666666667
0.444194330508734 -0.0822019264542793 0.229166666666667
0.453860097241918 -0.073580552698443 0.229166666666667
0.462398540908676 -0.0604103379389956 0.229166666666667
0.47924114180718 -0.0481734990758337 0.229166666666667
0.491240483824379 -0.0419073929433202 0.229166666666667
0.497791982343618 -0.0386301936330507 0.229166666666667
0.0509443563976198 -0.384907974291421 0.223958333333333
0.0557972327452055 -0.37080573317793 0.223958333333333
0.0633495463631311 -0.368094946567789 0.223958333333333
0.0672805224424611 -0.358153664544821 0.223958333333333
0.0771939550262231 -0.357030132355919 0.223958333333333
0.0945493582528086 -0.350183204889607 0.223958333333333
0.0985755799334717 -0.347803270780243 0.223958333333333
0.103237330563461 -0.34269601098427 0.223958333333334
0.108807423150986 -0.329509051728825 0.223958333333333
0.117697196994406 -0.329485747170851 0.223958333333333
0.121735964423462 -0.317801069519012 0.223958333333333
0.134112730450172 -0.312815389684451 0.223958333333333
0.142945393868716 -0.307370545316595 0.223958333333333
0.146197332033842 -0.303597997456672 0.223958333333333
0.158994432350561 -0.299169016675856 0.223958333333333
0.164268365676075 -0.293242258544403 0.223958333333333
0.17235920204933 -0.287859005445407 0.223958333333334
0.183448407005347 -0.273090756787844 0.223958333333333
0.189749968603636 -0.27412623285546 0.223958333333333
0.204786691091219 -0.257439164660315 0.223958333333333
0.204415887478652 -0.250260093173056 0.223958333333333
0.205430276702861 -0.251781129854751 0.223958333333333
0.223035086596259 -0.240699599553419 0.223958333333334
0.227902464844501 -0.23754227229672 0.223958333333333
0.243118461987821 -0.232115200229595 0.223958333333333
0.246646917076695 -0.222621948236912 0.223958333333333
0.250856862787862 -0.214941501717226 0.223958333333334
0.255299836873103 -0.21163608796174 0.223958333333333
0.275048196751339 -0.195409814329104 0.223958333333333
0.27690078158743 -0.194975977308117 0.223958333333333
0.291666666666667 -0.184601521802645 0.228957942873982
0.299335509251855 -0.183949507106615 0.229166666666666
0.303689007025234 -0.170924946928068 0.229166666666667
0.30899407176119 -0.175273335163221 0.229166666666667
0.323866955056028 -0.162752666149571 0.229166666666667
0.324652410951573 -0.153694995620365 0.229166666666667
0.336177693456958 -0.152182715402433 0.229166666666667
0.355915755504694 -0.140015190329091 0.229166666666667
0.364754451849767 -0.132719757889842 0.229166666666667
0.369204895033376 -0.125428817204585 0.229166666666667
0.376089438867309 -0.120364278276331 0.229166666666667
0.389339583853742 -0.115515061965437 0.229166666666667
0.404901401569127 -0.103257695996539 0.229166666666667
0.404666132428108 -0.0919048570730092 0.229166666666667
0.413125878514465 -0.0858427253559325 0.229166666666667
0.427139464554544 -0.077048079584132 0.229166666666667
0.445459750725743 -0.0650676477460841 0.229166666666666
0.447541351329993 -0.0628641527646677 0.229166666666667
0.462912243881689 -0.0551388434169466 0.229166666666667
0.472075487111595 -0.042942061018255 0.229166666666667
0.484282555651722 -0.0337441819243876 0.229166666666667
0.489414673826508 -0.0359479281281117 0.229166666666667
0.499067893246422 -0.0246433124508805 0.229166666666667
0.0455056731120621 -0.371964001225262 0.223958333333333
0.0504235152556368 -0.362496028142143 0.223958333333333
0.0581084989169801 -0.362011247325335 0.223958333333333
0.0699410819093539 -0.352114076293476 0.223958333333334
0.0712442520094441 -0.351637686796105 0.223958333333334
0.0855949817091833 -0.34536765154483 0.223958333333333
0.0907578751098243 -0.34198224706408 0.223958333333333
0.101219050566275 -0.332034512008554 0.223958333333333
0.0958825971049317 -0.324232015729447 0.223958333333333
0.115545897540934 -0.322234426539094 0.223958333333333
0.113415823298322 -0.317954387643751 0.223958333333334
0.126488782364278 -0.302023852986451 0.223958333333333
0.136299290736647 -0.299065513468757 0.223958333333333
0.144520614658124 -0.289151364678691 0.223958333333333
0.149915899936158 -0.289279391369481 0.223958333333334
0.15452254254942 -0.278715792810659 0.223958333333333
0.160404269665786 -0.280803600123554 0.223958333333333
0.177406351723818 -0.270961467596675 0.223958333333333
0.177959712985433 -0.260989841575564 0.223958333333333
0.189601533490773 -0.26114325310364 0.223958333333333
0.198270877809492 -0.252382684986674 0.223958333333333
0.21139826826719 -0.241390190983287 0.223958333333333
0.210730219899889 -0.238207736469373 0.223958333333333
0.228585891578805 -0.226905778145713 0.223958333333333
0.233548799506525 -0.217800798827486 0.223958333333333
0.2372174175068 -0.222560496684191 0.223958333333333
0.254922848210188 -0.205793850717298 0.223958333333333
0.256770252333356 -0.199959826543383 0.223958333333334
0.257760015558852 -0.198053366494062 0.223958333333333
0.279053527560111 -0.189040875316416 0.223958333333333
0.284595799811984 -0.17556132835766 0.223958333333333
0.291666666666667 -0.177692516037232 0.22689484799322
0.300059597601533 -0.164882244121281 0.229166666666667
0.302541924075651 -0.163539960916302 0.229166666666666
0.314746980656229 -0.153429753567143 0.229166666666667
0.325963550812514 -0.14370863675058 0.229166666666667
0.333349360187345 -0.140981964272411 0.229166666666666
0.3372115938141 -0.133832088586545 0.229166666666666
0.348446350620512 -0.122587692857531 0.229166666666667
0.359746549084448 -0.118883655752616 0.229166666666667
0.369506770273206 -0.109396232806554 0.229166666666667
0.375935714729147 -0.100937914948943 0.229166666666667
0.38224935757139 -0.0967498782014389 0.229166666666667
0.401749011303257 -0.0869449129423203 0.229166666666667
0.414161447967803 -0.0749609354103414 0.229166666666666
0.41773547804022 -0.0793805348587107 0.229166666666667
0.428978584878644 -0.0593759774918879 0.229166666666667
0.433613900505685 -0.0600687217859434 0.229166666666667
0.450654669065167 -0.0481790147821929 0.229166666666667
0.461456976293549 -0.03760199956097 0.229166666666667
0.476416997338235 -0.0254897614582177 0.229166666666667
0.486564349447382 -0.0225274825240391 0.229166666666667
0.489280625070518 -0.00890360453627715 0.229166666666667
0.497548477725254 -0.00394110776296172 0.229166666666667
0.0357466894218116 -0.369140385213792 0.223958333333333
0.0445070994945776 -0.364718219526822 0.223958333333333
0.0505809952748008 -0.358531341157199 0.223958333333333
0.052849468634657 -0.346509749667275 0.223958333333333
0.0687183573179034 -0.344455361158629 0.223958333333333
0.0762707827395215 -0.337137396414827 0.223958333333334
0.0803649781136828 -0.330767861891829 0.223958333333333
0.095370241032971 -0.322701283986821 0.223958333333334
0.0958047935703836 -0.324876385503994 0.223958333333333
0.100685560804044 -0.317939015611955 0.223958333333333
0.111008006442855 -0.303901491802497 0.223958333333333
0.118337217074494 -0.301976890276386 0.223958333333333
0.125934292088449 -0.2905265079841 0.223958333333333
0.13551151012115 -0.287266279300861 0.223958333333333
0.136276267738469 -0.282854337157323 0.223958333333333
0.148852202069247 -0.27336446118988 0.223958333333333
0.159295690950414 -0.273156876628587 0.223958333333334
0.163836126210377 -0.260056688802031 0.223958333333333
0.179102016833695 -0.250280982725906 0.223958333333333
0.187798094348897 -0.25109473320788 0.223958333333333
0.190251451660777 -0.243619961604827 0.223958333333333
0.198857257592845 -0.234145920651381 0.223958333333333
