ply
format ascii 1.0
element vertex 831
property float x
property float y
property float z
end_header
-0.135131039266977 0.112103598062091 0.330483887651205
-0.133407845473296 0.107119784857251 0.330483887651204
-0.134279365722859 0.123067610156991 0.330483887651204
-0.134618047225182 0.140736375014225 0.330483887651205
-0.133639785806384 0.153760954938943 0.330483887651205
-0.141293582388946 0.162395463264374 0.330483887651205
-0.137129835721702 0.185125569487 0.330483887651205
-0.137079095211987 0.188349351294552 0.330483887651205
-0.141975278987126 0.202764795702624 0.330483887651205
-0.139061916994479 0.220882730088172 0.330483887651205
-0.136276441921433 0.227876455118283 0.330483887651205
-0.13974274286876 0.242124139978768 0.330483887651205
-0.137801308044015 0.256745756468514 0.330483887651204
-0.14391152062723 0.279250835580701 0.330483887651205
-0.146817320527947 0.279091478411331 0.330483887651205
-0.145012757241734 0.300161300855117 0.330483887651205
-0.139821042954474 0.305782892264392 0.330483887651205
-0.106015934536865 -0.277379103986105 0.272092272126106
-0.108840614214849 -0.316674641655897 0.316544654207451
-0.110441328713881 -0.316674641655897 0.322624962605817
-0.109919237731929 -0.312650529821185 0.330483887651204
-0.105596904925404 -0.299970501733657 0.330483887651204
-0.111593136087977 -0.300874990783324 0.330483887651205
-0.108010791013552 -0.286303379034348 0.330483887651205
-0.109805788768763 -0.271817680334668 0.330483887651205
-0.113496637067161 -0.258556952251686 0.330483887651205
-0.106210965320104 -0.258666055852518 0.330483887651205
-0.106207207821353 -0.250294654374281 0.330483887651205
-0.109797419375884 -0.232709216448649 0.330483887651205
-0.11538884309522 -0.228108842037088 0.330483887651205
-0.111652707110386 -0.227611061846158 0.330483887651204
-0.113435711506084 -0.206857944580358 0.330483887651205
-0.114643212561008 -0.198330511482009 0.330483887651205
-0.108809284697743 -0.190194162392403 0.330483887651205
-0.108042417414189 -0.183749635702145 0.330483887651205
-0.111464904857218 -0.173128450781097 0.330483887651205
-0.112239180952404 -0.155756255214045 0.330483887651204
-0.117263986307368 -0.153799441550662 0.330483887651205
-0.110825910146492 -0.133077413917481 0.330483887651205
-0.112462332318522 -0.1294555670501 0.330483887651205
-0.119881756282937 -0.118346343393217 0.330483887651205
-0.116057774435819 -0.111710300832097 0.330483887651205
-0.115510342379916 -0.0927891060574945 0.330483887651205
-0.112714311725631 -0.0815756558645886 0.330483887651205
-0.117149168523168 -0.0790948864311265 0.330483887651204
-0.11658296528838 -0.0619577219953544 0.330483887651205
-0.115124354114595 -0.0578402411393433 0.330483887651204
-0.117175052225689 -0.0434759998206731 0.330483887651205
-0.114343151235212 -0.0398830342653526 0.330483887651205
-0.115728574075015 -0.026618059653776 0.330483887651205
-0.114709779686297 -0.0116494695994381 0.330483887651205
-0.121420302402513 -0.000447934316241202 0.330483887651205
-0.116838653690413 0.0144311497051062 0.330483887651205
-0.122015181028722 0.019760421820684 0.330483887651205
-0.126116415343317 0.0237526967169322 0.330483887651205
-0.11940309680209 0.0491249986088352 0.330483887651205
-0.120845746917179 0.0507935872711067 0.330483887651205
-0.128090985841813 0.0736113846670442 0.330483887651205
-0.126980262050392 0.0825831827691465 0.330483887651205
-0.123521577811354 0.0877214687524922 0.330483887651205
-0.129416655712158 0.101744992095693 0.330483887651205
-0.129504775174397 0.119255368520947 0.330483887651204
-0.124425490546904 0.13237943259224 0.330483887651205
-0.126671085891261 0.144580618206667 0.330483887651204
-0.130697416027344 0.151871840135716 0.330483887651205
-0.128070569199122 0.166586563342801 0.330483887651205
-0.130865052088661 0.181793746463166 0.330483887651205
-0.127823681551586 0.197724880766571 0.330483887651205
-0.128797335668646 0.194855246939656 0.330483887651205
-0.12315239249415 0.210748425052819 0.330483887651204
-0.127733937186719 0.222823921370683 0.330483887651205
-0.126493634855551 0.240734162565464 0.330483887651205
-0.12611516543833 0.251251627429902 0.330483887651205
-0.134055271367285 0.266571720511467 0.330483887651205
-0.12638203868496 0.286727736782367 0.330483887651205
-0.130893102143393 0.297745037184145 0.330483887651204
-0.128683035347899 0.313391311146079 0.330483887651205
-0.104888215276227 -0.2509015505974 0.242408750999001
-0.0980331457609932 -0.316674641655897 0.320006424675624
-0.100293596268952 -0.316674641655897 0.320737603995927
-0.101167758642031 -0.316674641655897 0.325733413023032
-0.0946841528074156 -0.304625013849649 0.330483887651205
-0.103348034092936 -0.292515451527632 0.330483887651205
-0.102557594722841 -0.292426990062142 0.330483887651205
-0.104419918957661 -0.268293522349876 0.330483887651205
-0.0972995017173689 -0.267114656686412 0.330483887651205
-0.0977178920649286 -0.258525360689155 0.330483887651205
-0.0984965377740945 -0.242417217445285 0.330483887651205
-0.104451560157755 -0.236738218372299 0.330483887651205
-0.100813699315506 -0.233154587369372 0.330483887651205
-0.100464473100086 -0.221695371140714 0.330483887651205
-0.098277632246913 -0.209688004054824 0.330483887651205
-0.100753166244814 -0.204070719321787 0.330483887651205
-0.100571602495854 -0.188773672142657 0.330483887651205
-0.104313191062607 -0.185229798813901 0.330483887651205
-0.106309906420735 -0.174938513974676 0.330483887651205
-0.107457188362176 -0.162895958360092 0.330483887651205
-0.103309136064518 -0.149830247847164 0.330483887651205
-0.104093682303819 -0.134469534669825 0.330483887651205
-0.101611278458136 -0.131978918124734 0.330483887651205
-0.106266211385029 -0.112174053314386 0.330483887651205
-0.101672925481738 -0.100058605994151 0.330483887651204
-0.107023911765329 -0.0991116479484461 0.330483887651205
-0.108182351469893 -0.0837116246951121 0.330483887651205
-0.10448383507625 -0.0747149734029677 0.330483887651205
-0.102920392656936 -0.0684551610119359 0.330483887651205
-0.104164726165857 -0.0560797812915128 0.330483887651205
-0.107347371524617 -0.044385541210577 0.330483887651205
-0.104355275806542 -0.032278609485176 0.330483887651205
-0.106697199606512 -0.02116301441173 0.330483887651205
-0.106960482265579 -0.0101334932374861 0.330483887651204
-0.114213407949829 0.00112388685795141 0.330483887651205
-0.113461937032622 0.0109025505977865 0.330483887651205
-0.106135202245994 0.0169639567923532 0.330483887651205
-0.11033424768721 0.0286935094334812 0.330483887651204
-0.108762176726687 0.0533712488561018 0.330483887651205
-0.111686476744214 0.0479513395386816 0.330483887651204
-0.112001498453252 0.0678694564065211 0.330483887651205
-0.113164776563637 0.0721934193848184 0.330483887651204
-0.110598619848516 0.0866626784511147 0.330483887651205
-0.115538800494324 0.106656927841789 0.330483887651205
-0.116652477446371 0.111980275548582 0.330483887651205
-0.113510066581708 0.130599738719965 0.330483887651205
-0.114879357065981 0.142892616553378 0.330483887651205
-0.113305652485168 0.152096645207588 0.330483887651205
-0.11716204702625 0.166461349850161 0.330483887651204
-0.114470988050227 0.17688319700677 0.330483887651204
-0.122090970226834 0.180310696800018 0.330483887651205
-0.12165470015173 0.199180863524035 0.330483887651205
-0.11290168948474 0.21882530994392 0.330483887651205
-0.119139114062995 0.238292823331969 0.330483887651205
-0.123214751770372 0.248316881057391 0.330483887651205
-0.121148259157061 0.253293598150296 0.330483887651205
-0.11725777155055 0.263308223173891 0.330483887651205
-0.115198111299243 0.281255570097101 0.330483887651205
-0.117751176282403 0.300999716138307 0.330483887651205
-0.117200644171922 0.309201472514639 0.330483887651204
-0.0885394149769249 -0.2509015505974 0.237162669917749
-0.0918551729648471 -0.316674641655897 0.315286480536192
-0.090115794967827 -0.316674641655897 0.32658271865166
-0.0916039653013103 -0.308241384405873 0.330483887651204
-0.0883807639196283 -0.301771598774419 0.330483887651205
-0.0859805599278644 -0.289881256727153 0.330483887651205
-0.0913444680139588 -0.281685233284689 0.330483887651205
-0.0901404908593221 -0.274721980798452 0.330483887651205
-0.0890400737288435 -0.257860885446622 0.330483887651205
-0.0878602801958 -0.255041251489207 0.330483887651205
-0.0943260945637521 -0.250064472856575 0.330483887651205
-0.0914633664181533 -0.23711657659454 0.330483887651205
-0.087957554696218 -0.229034410125127 0.330483887651205
-0.0897687743319247 -0.212993380479737 0.330483887651205
-0.0964781302028961 -0.206764798105422 0.330483887651205
-0.0893942920126845 -0.200440077877029 0.330483887651205
-0.0893917273100569 -0.186205103563345 0.330483887651205
-0.0911051122100011 -0.180521864978066 0.330483887651205
-0.0926359239943464 -0.171041794738741 0.330483887651205
-0.0952040756856633 -0.155379871573712 0.330483887651205
-0.0917489644099382 -0.152048740589856 0.330483887651205
-0.0933398772021093 -0.136830216907178 0.330483887651205
-0.100592411004608 -0.131715411961212 0.330483887651205
-0.0971089106225593 -0.118517303019761 0.330483887651205
-0.0967586203170215 -0.117137464400885 0.330483887651205
-0.0928822103452732 -0.104303659706394 0.330483887651205
-0.101304740409045 -0.0870484210247608 0.330483887651205
-0.0941072715049306 -0.0766436567897531 0.330483887651205
-0.0966111080975239 -0.0613821055643209 0.330483887651205
-0.0987409281734517 -0.0513099234105425 0.330483887651205
-0.101352971444487 -0.0391102501773994 0.330483887651205
-0.0959497190090253 -0.0298421988477844 0.330483887651205
-0.0944996261996897 -0.0214062460194512 0.330483887651205
-0.096117776743411 -0.0208330161834936 0.330483887651205
-0.103282043079408 -0.000604135381491656 0.330483887651205
-0.0971580611500383 0.0167696810948038 0.330483887651205
-0.104381560156205 0.0239538591294576 0.330483887651205
-0.104211686006574 0.0353768853757922 0.330483887651205
-0.103977174691143 0.0430269591545261 0.330483887651205
-0.105965613276473 0.0541545315051502 0.330483887651205
-0.100136745741461 0.0663818973077138 0.330483887651205
-0.0986339090566957 0.0856058202978874 0.330483887651205
-0.0998677125258879 0.088246368225253 0.330483887651205
-0.101206571560649 0.101481171911705 0.330483887651205
-0.107520242906784 0.116003681466187 0.330483887651205
-0.102319490372616 0.132919812755327 0.330483887651205
-0.106171882024145 0.144123817196234 0.330483887651205
-0.100214704028459 0.155686199671152 0.330483887651205
-0.100641904095891 0.172080457933965 0.330483887651205
-0.109375648276225 0.184385324084173 0.330483887651205
-0.107436164191093 0.191953689641994 0.330483887651205
-0.110636927946928 0.194688000222272 0.330483887651205
-0.112784049793267 0.226457976432763 0.330483887651205
-0.112152741173852 0.227195691370021 0.330483887651205
-0.104041880178913 0.250079943005528 0.330483887651205
-0.110824088596849 0.25574700446406 0.330483887651205
-0.107043579477918 0.266127987069867 0.330483887651205
-0.105324766016848 0.282801354851203 0.330483887651205
-0.109233287957343 0.304260226800119 0.330483887651204
-0.107765756864599 0.315867027016648 0.330483887651205
-0.113931682115125 0.313647155651475 0.330483887651205
-0.0803598868185313 -0.250901550597399 0.237486750976297
-0.0829304169861365 -0.316674641655897 0.314714281026839
-0.0802703511396276 -0.316674641655897 0.327635775134474
-0.0843096796435374 -0.310303529569076 0.330483887651205
-0.0817219739556855 -0.298091451187208 0.330483887651205
-0.0849642043081435 -0.297839690416804 0.330483887651205
-0.0786266826762524 -0.282648494386048 0.330483887651205
-0.0811684799299798 -0.279569555385649 0.330483887651205
-0.0865396746444019 -0.266388025646567 0.330483887651205
-0.0854017364141883 -0.251109657070821 0.330483887651205
-0.0849672042561638 -0.247112741602947 0.330483887651205
-0.0783542526334916 -0.238588037708357 0.330483887651205
-0.0871204417189983 -0.225015326058189 0.330483887651205
-0.0846853345070537 -0.217951295101761 0.330483887651205
-0.0812187949756761 -0.212646438771339 0.330483887651205
-0.0863771866647041 -0.201695271874296 0.330483887651205
-0.0848910234371416 -0.189152626872139 0.330483887651204
-0.0870571761899695 -0.179214621138965 0.330483887651205
-0.0869711735457876 -0.173494423513102 0.330483887651204
-0.0838723351247966 -0.158941990949514 0.330483887651205
-0.083760730975114 -0.154777321561833 0.330483887651205
-0.0857056246221037 -0.137395801370026 0.330483887651205
-0.090119913530471 -0.128415445043677 0.330483887651205
-0.0884710965097762 -0.112270127472973 0.330483887651205
-0.0860848402029953 -0.108592006404175 0.330483887651205
-0.0918944538093023 -0.0964729147133713 0.330483887651205
-0.084525222902833 -0.0826773063455487 0.330483887651205
-0.0897591360468277 -0.0862442361824326 0.330483887651205
-0.0912228202503942 -0.0710012998939283 0.330483887651205
-0.0853509239031893 -0.0595140716317205 0.330483887651205
-0.0876811515774997 -0.0518599501235328 0.330483887651205
-0.0857909021433639 -0.0351241144180589 0.330483887651205
-0.0909632175256496 -0.0266103194802878 0.330483887651204
-0.0944531594796166 -0.00407801352603919 0.330483887651204
-0.0873415896538436 0.00287764294771358 0.330483887651205
-0.087821797657062 0.0127373519915955 0.330483887651205
-0.0864648438556162 0.0163512652359834 0.330483887651205
-0.0920928603423874 0.0335316417657624 0.330483887651205
-0.0919756780388997 0.0469041771030186 0.330483887651205
-0.091119594582593 0.0599717267769919 0.330483887651205
-0.0920702802202591 0.0644952510851798 0.330483887651205
-0.0907211293970547 0.0840360927424826 0.330483887651205
-0.0934402080537159 0.08909635970803 0.330483887651204
-0.0933852616650645 0.0952135034667698 0.330483887651205
-0.0933941729477012 0.113038897473216 0.330483887651205
-0.0917586992375953 0.137509269931698 0.330483887651205
-0.0915030279416368 0.143966906015167 0.330483887651205
-0.0967690230016866 0.153189034298327 0.330483887651205
-0.094473482739709 0.167759309654803 0.330483887651205
-0.0933264662073338 0.177131666181698 0.330483887651205
-0.0909177343190554 0.19309871461222 0.330483887651205
-0.0997385747454058 0.203201926765779 0.330483887651204
-0.09840691564893 0.225661852667277 0.330483887651205
-0.0960869079032766 0.229105464724316 0.330483887651205
-0.0976116451034809 0.240304223698873 0.330483887651205
-0.0926490403962981 0.263363412281209 0.330483887651205
-0.100112638198796 0.263453184355251 0.330483887651205
-0.0982044960815168 0.28797526952034 0.330483887651205
-0.0962123216484808 0.295341826814652 0.330483887651205
-0.0960002192008885 0.310060019609887 0.330483887651205
-0.0757578728087574 -0.2509015505974 0.241411229904798
-0.0731305641437838 -0.316674641655897 0.316515446924457
-0.073356469370145 -0.316674641655897 0.330089225694134
-0.074101667280308 -0.312486256864678 0.330483887651204
-0.0700052139617291 -0.305660023262268 0.330483887651205
-0.0729418548310099 -0.293756139345797 0.330483887651205
-0.071762292158885 -0.285416219518703 0.330483887651205
-0.0709876837671326 -0.275405792158421 0.330483887651205
-0.0714934763339567 -0.259731319494961 0.330483887651205
-0.0731748884078998 -0.261696089841286 0.330483887651204
-0.0718013775545614 -0.245326477543357 0.330483887651204
-0.0751394762008429 -0.237081896111192 0.330483887651205
-0.0701431294432792 -0.23007990523989 0.330483887651205
-0.0749862099831465 -0.215652948838199 0.330483887651205
-0.0706061872165068 -0.207060208960591 0.330483887651205
-0.0718193784681963 -0.200423852492005 0.330483887651204
-0.0714121272635941 -0.195162175461696 0.330483887651205
-0.0706885710396094 -0.180781184381438 0.330483887651205
-0.0765879750065026 -0.164309111929218 0.330483887651205
-0.0789245755803259 -0.160671737030846 0.330483887651205
-0.0734760633736645 -0.147951502502506 0.330483887651205
-0.0747376207422027 -0.137322887932099 0.330483887651205
-0.077590031818082 -0.132148300178537 0.330483887651205
-0.0800011036997444 -0.123875028498834 0.330483887651205
-0.0739156256764855 -0.112828828102676 0.330483887651205
-0.077999932037755 -0.09170680809659 0.330483887651205
-0.0727687902412966 -0.0836461836465114 0.330483887651204
-0.0791264958423399 -0.0740710304134942 0.330483887651205
-0.0824510121790968 -0.0660301798714171 0.330483887651205
-0.0749926313279898 -0.0578820320696813 0.330483887651205
-0.080186873162651 -0.0397121265750334 0.330483887651205
-0.0819795245528753 -0.0249572186629145 0.330483887651205
-0.0795646106974363 -0.0271199454267375 0.330483887651205
-0.0751442427958075 -0.0149243957551916 0.330483887651205
-0.0796679237757789 0.00725433414454191 0.330483887651205
-0.0773126936363733 0.0118966407627761 0.330483887651205
-0.0789364331455975 0.0269986842320223 0.330483887651205
-0.0775123899645931 0.0365107425402664 0.330483887651205
-0.081888686565622 0.0413905869986084 0.330483887651205
-0.0848386209176935 0.0542257756518718 0.330483887651205
-0.0855595591128591 0.0679496412156298 0.330483887651205
-0.0831251581581547 0.0793117917384708 0.330483887651205
-0.0787296158891253 0.0925596358967916 0.330483887651205
-0.0783385113572323 0.109449928886119 0.330483887651205
-0.0872857938449112 0.112123522653697 0.330483887651204
-0.0886528198679902 0.133597418613642 0.330483887651204
-0.0888561886672776 0.135996015195414 0.330483887651204
-0.0830993038250588 0.147817104158212 0.330483887651205
-0.0826980444019179 0.161726286066021 0.330483887651204
-0.0799669439337317 0.186819219851725 0.330483887651205
-0.0811073119189827 0.189179377785441 0.330483887651205
-0.0801354992776391 0.200874798045695 0.330483887651205
-0.0892648626286645 0.225091784942806 0.330483887651205
-0.0808581423597671 0.222989688088792 0.330483887651205
-0.0814360088922413 0.231778618914403 0.330483887651205
-0.0816357258946595 0.257344619052015 0.330483887651205
-0.0822137978914488 0.26816495979147 0.330483887651205
-0.0863334065701986 0.277835252180768 0.330483887651205
-0.0882969457974878 0.294582192850325 0.330483887651205
-0.086810837553634 0.31391572671235 0.330483887651205
-0.0603799540816836 -0.316674641655897 0.314729669324474
-0.0613986542514481 -0.316674641655897 0.320336215446472
-0.0604231487259533 -0.316674641655897 0.322036229386695
-0.0662855336433691 -0.316674641655897 0.326692623311908
-0.0633846766001115 -0.308252487363287 0.330483887651205
-0.0600062818090711 -0.294061362817299 0.330483887651204
-0.0610759483753912 -0.284820839822491 0.330483887651205
-0.0637055884137574 -0.27649053618506 0.330483887651205
-0.0661254789372163 -0.26586303580394 0.330483887651205
-0.0623745525545466 -0.252974869388987 0.330483887651205
-0.0627888003925682 -0.241803718620081 0.330483887651205
-0.0668095858850823 -0.237905519595793 0.330483887651205
-0.0632017398477089 -0.230726566083504 0.330483887651204
-0.0622836262661724 -0.224173079770029 0.330483887651205
-0.0635904072204497 -0.208984108379717 0.330483887651205
-0.069012979091808 -0.2020716737524 0.330483887651205
-0.0648449628655482 -0.18889251717874 0.330483887651205
-0.0671580052982048 -0.172040533637157 0.330483887651205
-0.0628889448356799 -0.171416878858506 0.330483887651205
-0.068431443869354 -0.153389405737253 0.330483887651205
-0.0663835928391217 -0.142211704075479 0.330483887651205
-0.0629088659801297 -0.143733745026899 0.330483887651205
-0.0663557058794959 -0.128883628019925 0.330483887651204
-0.0655513344347193 -0.11442810043849 0.330483887651205
-0.0639839585612403 -0.108146853837454 0.330483887651205
-0.0680338481696136 -0.0962395973256052 0.330483887651205
-0.0681990729545935 -0.0871887618063878 0.330483887651205
-0.0656527753595253 -0.0798380093538637 0.330483887651205
-0.0641475187858809 -0.066012050650357 0.330483887651205
-0.064928857935686 -0.0512742343997144 0.330483887651205
-0.065460775579143 -0.0447083120764079 0.330483887651205
-0.0704218485169949 -0.0355499548416753 0.330483887651205
-0.0729468809254559 -0.0204272287181055 0.330483887651205
-0.0651198614636174 -0.00358168828722893 0.330483887651205
-0.0654865962330654 0.000280432647133887 0.330483887651205
-0.06595613131511 0.0178314445408645 0.330483887651205
-0.0717050917151912 0.0182517377207564 0.330483887651205
-0.0660147847507827 0.0294517316353845 0.330483887651205
-0.0746019320663367 0.0464932535846966 0.330483887651205
-0.0755570912101724 0.0549791961810691 0.330483887651204
-0.0687776017169694 0.0620475627168489 0.330483887651205
-0.0682621702267493 0.0832147994191792 0.330483887651205
-0.0716043395304387 0.0922132987234132 0.330483887651205
-0.0766838248474747 0.102506509287743 0.330483887651205
-0.0759100067004834 0.118258640608481 0.330483887651204
-0.0682827676493347 0.119923764853967 0.330483887651205
-0.0749937699511447 0.143150476953705 0.330483887651205
-0.0766499477780798 0.155590784197523 0.330483887651205
-0.0693641129865834 0.161619282076225 0.330483887651205
-0.0708895149583 0.186182381456325 0.330483887651205
-0.0703426226718175 0.181171718079613 0.330483887651205
-0.0757067526516416 0.210364462128452 0.330483887651205
-0.0727552754788055 0.223585612777269 0.330483887651205
-0.0774846305849701 0.226724268711163 0.330483887651205
-0.0784070765326655 0.23407528575756 0.330483887651205
-0.0756567024619934 0.258538238323973 0.330483887651205
-0.0779150752120801 0.271296168833535 0.330483887651205
-0.0792592260226651 0.276610067903515 0.330483887651205
-0.0723793404589655 0.286992876379031 0.330483887651205
-0.0804143630460274 0.312476706784569 0.330483887651205
-0.0549607252647028 -0.277379103986106 0.271757191860552
-0.0577862744135338 -0.316674641655897 0.320216274936745
-0.0508244137622342 -0.316674641655897 0.327846927141501
-0.0501752388333522 -0.309813335334014 0.330483887651204
-0.0499493539569712 -0.307072578074145 0.330483887651204
-0.0586293745678014 -0.298970424590838 0.330483887651205
-0.0567157750651764 -0.277669283808246 0.330483887651205
-0.0569512510404096 -0.271401645053607 0.330483887651204
-0.058390878904621 -0.268370219460124 0.330483887651205
-0.0518683448183953 -0.249706714625186 0.330483887651205
-0.0587147858003784 -0.241117911906031 0.330483887651205
-0.0532963392926863 -0.234119313914497 0.330483887651205
-0.0508585840653473 -0.230221729898449 0.330483887651204
-0.0557586411087205 -0.221180537379575 0.330483887651205
-0.0560314078975596 -0.209614108303823 0.330483887651205
-0.0599764698623248 -0.200884363555131 0.330483887651205
-0.0531481771751314 -0.187889624056512 0.330483887651205
-0.0581065474469636 -0.187350065150963 0.330483887651205
-0.0547994054801266 -0.174607271332233 0.330483887651205
-0.0615037392222922 -0.159667208949735 0.330483887651205
-0.0605057090732001 -0.151429453410588 0.330483887651204
-0.0615288390875567 -0.135894710374319 0.330483887651205
-0.0609866036845153 -0.120068072696479 0.330483887651205
-0.0608220401644686 -0.120187040094883 0.330483887651205
-0.0561060130854976 -0.103579979057398 0.330483887651205
-0.0551248974209666 -0.101355251805035 0.330483887651204
-0.0549267099883954 -0.0819921033459246 0.330483887651205
-0.0576873475317811 -0.0764309626613156 0.330483887651205
-0.0636756876463302 -0.0619079552547828 0.330483887651205
-0.0602132732167572 -0.052162424062562 0.330483887651205
-0.0629454748753889 -0.0435760162568021 0.330483887651205
-0.058534434918386 -0.0359884833879242 0.330483887651205
-0.0579865564927775 -0.0148580227368693 0.330483887651205
-0.055513114073482 -0.0165645187141986 0.330483887651205
-0.0584356183478495 -0.00319358281305936 0.330483887651205
-0.0552702223949196 0.0103655624580691 0.330483887651205
-0.0556883067814217 0.0309493786541293 0.330483887651205
-0.0630760599474445 0.0367080674088935 0.330483887651205
-0.0599193334582042 0.0400786603444373 0.330483887651204
-0.0648604750212853 0.0632755530358099 0.330483887651205
-0.0637250873251359 0.0766248553164039 0.330483887651205
-0.0664053347295189 0.0809898493906804 0.330483887651205
-0.0641285217021659 0.0894190412196911 0.330483887651205
-0.0575456752363339 0.102895534218659 0.330483887651205
-0.0578921156725686 0.118633083238344 0.330483887651204
-0.0628064754990864 0.125672806917347 0.330483887651205
-0.059594994673307 0.136694480924028 0.330483887651205
-0.0643140887342447 0.152978525811637 0.330483887651205
-0.0655481725393837 0.161469965145785 0.330483887651205
-0.0599637019627649 0.182952546923842 0.330483887651205
-0.058829222059271 0.192565086888401 0.330483887651205
-0.0680421657266947 0.203565699086403 0.330483887651205
-0.0676037256392324 0.220394178056417 0.330483887651205
-0.0624212827500547 0.233880340877886 0.330483887651205
-0.0695466732607889 0.242963779354405 0.330483887651205
-0.0653460522235728 0.250531522393207 0.330483887651204
-0.0618293254466334 0.266691836418595 0.330483887651205
-0.0633722348586355 0.281011118561032 0.330483887651204
-0.0650096737497538 0.291445323984926 0.330483887651205
-0.0642966025953319 0.309831385795516 0.330483887651204
-0.0485138438329537 -0.316674641655896 0.315907545160323
-0.0490369491418747 -0.316674641655897 0.319204603809199
-0.0420631747014499 -0.316674641655897 0.321907955208164
-0.0404670995208686 -0.314243045160487 0.330483887651205
-0.0438812978992307 -0.300459512500145 0.330483887651205
-0.0417607515945699 -0.289228824363799 0.330483887651205
-0.0419491726539947 -0.285086946131689 0.330483887651205
-0.0488004208907771 -0.27656556010616 0.330483887651205
-0.044245174479842 -0.270110159755994 0.330483887651205
-0.0454433763839051 -0.254429009688067 0.330483887651205
-0.0476950978603981 -0.254634557815106 0.330483887651205
-0.0423785772254158 -0.232830093598313 0.330483887651205
-0.0468006212475392 -0.23245527725418 0.330483887651205
-0.048687999912234 -0.217165955156692 0.330483887651205
-0.044213141370656 -0.216259172869803 0.330483887651205
-0.0506043917517691 -0.194554587638768 0.330483887651205
-0.0437511476976138 -0.189156260678215 0.330483887651205
-0.0491660945911303 -0.185062941079049 0.330483887651204
-0.0466346094004839 -0.170860256551179 0.330483887651205
-0.0515088634549448 -0.160333200988272 0.330483887651205
-0.04729381226186 -0.144759636802151 0.330483887651205
-0.0521256044500527 -0.144053080246192 0.330483887651204
-0.0521944104128247 -0.13345134279828 0.330483887651205
-0.0440233368685742 -0.117672020575274 0.330483887651205
-0.0444310356631661 -0.109309141344049 0.330483887651205
-0.0451053019134074 -0.0964384591721391 0.330483887651205
-0.044036502458364 -0.0789187121049987 0.330483887651205
-0.0457546877005696 -0.075654349234748 0.330483887651205
-0.0519018110936593 -0.062835160368907 0.330483887651205
-0.0471709052123051 -0.0595859532998225 0.330483887651205
-0.0527887761408237 -0.046364137685555 0.330483887651205
-0.0461407941681459 -0.0346614841238213 0.330483887651205
-0.0452187861402108 -0.0253058513589258 0.330483887651205
-0.0512745200020261 -0.0113536817005732 0.330483887651205
-0.0462905083759435 -0.00328673295957702 0.330483887651205
-0.0533755053420397 0.0152432346813636 0.330483887651205
-0.0509451562009005 0.0249408078314244 0.330483887651205
-0.0477644715852389 0.0300369130569204 0.330483887651205
-0.0550447485640012 0.0439638710987421 0.330483887651204
-0.0559334063024261 0.0614826532448799 0.330483887651205
-0.0473719694110151 0.0750448376518648 0.330483887651205
-0.0534187259077427 0.0796050645508828 0.330483887651205
-0.051320668476059 0.0890960332784876 0.330483887651205
-0.0464939558226287 0.0975096146549375 0.330483887651205
-0.0527706849904327 0.121158251429887 0.330483887651205
-0.0492466419781911 0.124699047536443 0.330483887651205
-0.0565505373379289 0.142644322537713 0.330483887651205
-0.0557380061911185 0.156950593587856 0.330483887651205
-0.0548180943125313 0.160920319676524 0.330483887651205
-0.0526489330458888 0.173373364423776 0.330483887651205
-0.0516366209151962 0.20019423907588 0.330483887651205
-0.0512554080597412 0.199465773972539 0.330483887651205
-0.0493029633590856 0.218599440436909 0.330483887651205
-0.0568564446876507 0.227410028570085 0.330483887651205
-0.0569073307655968 0.234197925271598 0.330483887651205
-0.0539755956991758 0.260502734424949 0.330483887651205
-0.0567880279872713 0.265181183747462 0.330483887651205
-0.0599758679093349 0.27117248571308 0.330483887651204
-0.0542585336550967 0.288641124278002 0.330483887651205
-0.0583025537643309 0.314279696363404 0.330483887651205
-0.0348880500428285 -0.2509015505974 0.234853137573849
-0.0361930348005573 -0.316674641655897 0.31939586241689
-0.0392618328821966 -0.316674641655896 0.325904775453984
-0.0320895471901316 -0.315101202771178 0.330483887651205
-0.0335704246257483 -0.296836241602885 0.330483887651205
-0.0346194026699671 -0.288959524029268 0.330483887651204
-0.0383668973801586 -0.282849967768183 0.330483887651205
-0.0372410311646776 -0.273713552277217 0.330483887651205
-0.0357040703772934 -0.268847117973905 0.330483887651205
-0.040302330100432 -0.254620614738524 0.330483887651205
-0.037155514877695 -0.247916954277055 0.330483887651204
-0.0409518741907313 -0.239457292180621 0.330483887651205
-0.0362653036567976 -0.23177423286061 0.330483887651205
-0.0364217879415671 -0.220854287864606 0.330483887651205
-0.0379315346194646 -0.210452758687849 0.330483887651205
-0.0342238291956332 -0.199389260689265 0.330483887651205
-0.0387127424654613 -0.193037750798052 0.330483887651205
-0.0387514565255298 -0.182031379546352 0.330483887651205
-0.0412702856429126 -0.169906942428343 0.330483887651205
-0.0340068886275179 -0.163217836563289 0.330483887651205
-0.0425196399545618 -0.144502006409468 0.330483887651204
-0.0347413776336338 -0.13840844802546 0.330483887651204
-0.0361860386542766 -0.12930802954774 0.330483887651205
-0.0341223677790582 -0.12425910069217 0.330483887651205
-0.0367551681436713 -0.103900081392843 0.330483887651205
-0.0353514754491994 -0.0929701190847377 0.330483887651205
-0.0382968845215864 -0.092849898894269 0.330483887651205
-0.0419869631538844 -0.0748893079685151 0.330483887651205
-0.0343424209607223 -0.0646167537920661 0.330483887651205
-0.0376027292592572 -0.0501619636387746 0.330483887651205
-0.0358310101122175 -0.0516672638497308 0.330483887651205
-0.0356645728784732 -0.0382738864324704 0.330483887651205
-0.0442522891590666 -0.0183862196915147 0.330483887651205
-0.0352857160696114 -0.00596474551525316 0.330483887651205
-0.0416790444343997 -0.00383982381482886 0.330483887651205
-0.0353229398515246 0.0121517980181243 0.330483887651205
-0.0442112901519164 0.0255317034079409 0.330483887651205
-0.0397405747126277 0.0303000783974046 0.330483887651205
-0.0398023603902193 0.0511208150974646 0.330483887651205
-0.0373772683614494 0.0554838630076461 0.330483887651205
-0.0450014673049334 0.0677256615028347 0.330483887651205
-0.0381742616763272 0.0724308494406065 0.330483887651205
-0.0455657442249552 0.0977382339781987 0.330483887651204
-0.0419010945086146 0.1055001402397 0.330483887651205
-0.0397680878070256 0.122630232665928 0.330483887651205
-0.0388587946329438 0.130594595189001 0.330483887651205
-0.0390163353950507 0.144891315884521 0.330483887651205
-0.0459386325601524 0.159238010931591 0.330483887651205
-0.0391377543870046 0.16540045116173 0.330483887651205
-0.0384750959964866 0.176828145611901 0.330483887651205
-0.0401891882080721 0.189473452109824 0.330483887651204
-0.0445927114588617 0.201474034934965 0.330483887651205
-0.0461901112285529 0.214451057984603 0.330483887651205
-0.0472010921129839 0.240679428422851 0.330483887651205
-0.0469337444619313 0.239344054768702 0.330483887651205
-0.0379937945452636 0.252333736494398 0.330483887651205
-0.0427132679108512 0.266966143680245 0.330483887651205
-0.0427101271717189 0.28059414579792 0.330483887651204
-0.046954149046018 0.292991994463905 0.330483887651205
-0.0421934585737236 0.311837543370187 0.330483887651204
-0.0294768925728123 -0.250901550597399 0.240811206563049
-0.0306366824025793 -0.2509015505974 0.242606665447133
-0.0248123570786812 -0.316607986280159 0.330483887651205
-0.0227617995117072 -0.311071418338553 0.330483887651205
-0.0259466021709389 -0.298500463810975 0.330483887651205
-0.0298321506734343 -0.297165147902575 0.330483887651205
-0.0285103747030156 -0.290254451489749 0.330483887651205
-0.0235547241106506 -0.27871544635776 0.330483887651205
-0.0285166628900155 -0.266648981296591 0.330483887651204
-0.0250166251265734 -0.258197745587026 0.330483887651205
-0.0279219812698314 -0.242539431536375 0.330483887651204
-0.026339405718947 -0.23985157913075 0.330483887651204
-0.031683523115839 -0.227429965269883 0.330483887651205
-0.0252625671505125 -0.218278817273063 0.330483887651205
-0.0255998439799996 -0.210158265655314 0.330483887651205
-0.0319753873136086 -0.198492041139917 0.330483887651205
-0.0284061926738321 -0.18562111837307 0.330483887651205
-0.0257010864768134 -0.187398993295709 0.330483887651205
-0.0244964069963512 -0.167642290777484 0.330483887651205
-0.0290363975893324 -0.159449212369845 0.330483887651205
-0.0290627473837582 -0.149095284842999 0.330483887651205
-0.0238359850530009 -0.146125575143926 0.330483887651205
-0.0272095802074736 -0.12988180573084 0.330483887651205
-0.025001758564691 -0.118615161202332 0.330483887651204
-0.0281541379608394 -0.111498405490095 0.330483887651205
-0.0315773242373351 -0.0960185006999353 0.330483887651205
-0.0280069434335485 -0.0868315356255327 0.330483887651205
-0.0296309422178165 -0.0803139282787385 0.330483887651204
-0.024370223401335 -0.067152106429113 0.330483887651205
-0.0271267979312969 -0.0540102135624845 0.330483887651205
-0.0293058750859179 -0.0363594631556262 0.330483887651204
-0.0340029092623114 -0.0372853741794512 0.330483887651205
-0.0305831027990461 -0.0243678090450748 0.330483887651205
-0.0267852233021061 -0.00475308184995783 0.330483887651205
-0.0345474196894741 -0.00241710492798411 0.330483887651205
-0.0295081339377483 0.0127889687178212 0.330483887651205
-0.0313543962018776 0.0189253156843075 0.330483887651204
-0.0333848864856567 0.0327244978169481 0.330483887651205
-0.0309040112243804 0.044003751284199 0.330483887651205
-0.0290398482328378 0.0564665826941164 0.330483887651205
-0.0338569278468142 0.0752834305274992 0.330483887651205
-0.0268394316744703 0.0807720974809892 0.330483887651205
-0.0339250763929294 0.0930154865642413 0.330483887651205
-0.0341277211944394 0.0952610641371995 0.330483887651204
-0.0324772151160883 0.119110782042078 0.330483887651205
-0.0290501963157295 0.122936653651931 0.330483887651205
-0.0343797965936428 0.141874714675673 0.330483887651205
-0.0312942498447471 0.1543806143427 0.330483887651205
-0.0326364562701214 0.158393138955453 0.330483887651205
-0.0289058764138539 0.172671082412804 0.330483887651205
-0.0323978578600604 0.188177047052698 0.330483887651205
-0.0366908393918404 0.199919084348818 0.330483887651205
-0.0371053430494177 0.212782821282214 0.330483887651205
-0.0341734962830763 0.229097540650239 0.330483887651205
-0.0287017787568991 0.236602376680464 0.330483887651205
-0.0360499536136054 0.259333439149022 0.330483887651205
-0.0334913886256921 0.267232426222397 0.330483887651205
-0.0308912569095343 0.278164089325571 0.330483887651205
-0.0379755432190052 0.288170639304775 0.330483887651205
-0.0368995524955079 0.311463531760804 0.330483887651204
-0.0164726824543813 -0.263654797584136 0.256352687137437
-0.0188932650717554 -0.316674641655897 0.314865405637935
-0.0221637462960049 -0.316674641655897 0.319787264113049
-0.0159952691124327 -0.312007947903494 0.330483887651205
-0.0173488083377288 -0.308267318478146 0.330483887651205
-0.0204633367952178 -0.291198821854966 0.330483887651205
-0.0194440278403563 -0.285023022200865 0.330483887651205
-0.0219663271962231 -0.27554497571667 0.330483887651204
-0.0140659270406604 -0.270466921619743 0.330483887651205
-0.0171937322851234 -0.260744669762717 0.330483887651205
-0.0206854917977316 -0.247421793369956 0.330483887651205
-0.0191879907244809 -0.237177629722803 0.330483887651205
-0.0192597921883405 -0.234924405570883 0.330483887651205
-0.019801719043166 -0.217923659003507 0.330483887651205
-0.0193020892232747 -0.217726399264768 0.330483887651205
-0.0208767714318233 -0.202595394353264 0.330483887651205
-0.0217353743040598 -0.193932797138079 0.330483887651205
-0.0141858099399886 -0.180829949564237 0.330483887651205
-0.0220362277356827 -0.168853971791017 0.330483887651205
-0.014640775068551 -0.154662879955971 0.330483887651204
-0.0157111088493426 -0.157901298170563 0.330483887651205
-0.0199742409708468 -0.139972479504952 0.330483887651205
-0.0155175524848235 -0.132858383204962 0.330483887651205
-0.0237423920779256 -0.117433343805376 0.330483887651205
-0.0170076306424438 -0.110488061419581 0.330483887651204
-0.0151541668662521 -0.0960454114936775 0.330483887651205
-0.0161405995569284 -0.0873325658903581 0.330483887651205
-0.0155574611554414 -0.076627507694761 0.330483887651205
-0.0242761868498179 -0.0607737376008698 0.330483887651205
-0.0186686727016347 -0.0525859115434129 0.330483887651205
-0.0194416189886846 -0.0489769037420296 0.330483887651205
-0.0229310043490724 -0.0336171367235314 0.330483887651205
-0.0148777360184745 -0.0304858144703777 0.330483887651205
-0.0204640336752114 -0.0090121422890768 0.330483887651205
-0.0153094120333849 -0.00283071844158861 0.330483887651205
-0.019107245714282 0.0173555529196466 0.330483887651205
-0.0164851375394776 0.0192712859755563 0.330483887651204
-0.0251660028460774 0.0353004124894574 0.330483887651205
-0.0194819005779805 0.0438875732646038 0.330483887651204
-0.0243780076828741 0.0613260832110491 0.330483887651205
-0.0243679405172296 0.0639683910888416 0.330483887651204
-0.0248592947514011 0.0756319993203942 0.330483887651205
-0.0219380557182 0.091009781876654 0.330483887651205
-0.0213181968001759 0.110894002595085 0.330483887651205
-0.0189569066848007 0.112883528711963 0.330483887651205
-0.0215872319446199 0.139293436642596 0.330483887651205
-0.0244544234214285 0.136983582686972 0.330483887651205
-0.0232566091300626 0.147425617906596 0.330483887651205
-0.0235858654984325 0.168284271239386 0.330483887651205
-0.0245099855671978 0.1771664449252 0.330483887651205
-0.0260311030836412 0.19457363533843 0.330483887651205
-0.0170101180575957 0.201140845466113 0.330483887651205
-0.0233107362662818 0.215620374028333 0.330483887651205
-0.0199527402623208 0.232467158036284 0.330483887651205
-0.0199376407954438 0.244260273311074 0.330483887651205
-0.0271250456031413 0.257026486904487 0.330483887651205
-0.0208086061268967 0.2655479828512 0.330483887651205
-0.0220189353035037 0.280183544926633 0.330483887651205
-0.0209768302610743 0.290563802401215 0.330483887651205
-0.0247700513551585 0.311158216959006 0.330483887651205
-0.0100812216147826 -0.263654797584136 0.257141618917217
-0.0111739037806039 -0.316674641655897 0.316638296428349
-0.010219193525469 -0.316674641655897 0.328180031591591
-0.00845747996389598 -0.316674641655896 0.329064225171487
-0.00969072636080529 -0.305591781611885 0.330483887651205
-0.00641614170592193 -0.290074932071761 0.330483887651205
-0.0122739907215561 -0.287362614176246 0.330483887651204
-0.00971421447929375 -0.278044736301086 0.330483887651205
-0.00609506937279842 -0.265013411303433 0.330483887651205
-0.00478250917871613 -0.26356321174979 0.330483887651205
-0.00780292306366665 -0.251722556689174 0.330483887651205
-0.0112379704583267 -0.238579275927549 0.330483887651205
-0.0134541126701185 -0.223547131745921 0.330483887651205
-0.0081549846390153 -0.223590907688655 0.330483887651205
-0.00873060540608137 -0.212200634930984 0.330483887651205
-0.0125731875013287 -0.208199794058197 0.330483887651205
-0.00958678172285852 -0.193550034894638 0.330483887651204
-0.00654445854493218 -0.188677699550358 0.330483887651205
-0.010225459845329 -0.167949116670258 0.330483887651205
-0.00891817418687755 -0.156506056555149 0.330483887651205
-0.011534969786367 -0.152365847360246 0.330483887651205
-0.00922468215390907 -0.14049703114033 0.330483887651204
-0.0113358860938534 -0.128180624631996 0.330483887651205
-0.0112449973914456 -0.121055791464642 0.330483887651205
-0.011123113200477 -0.116460533507574 0.330483887651205
-0.00503673013002288 -0.0997559729351584 0.330483887651205
-0.00641030555781917 -0.0895524991985573 0.330483887651205
-0.0104175727311761 -0.0779519447912949 0.330483887651205
-0.00919686908181645 -0.0599105845395283 0.330483887651205
-0.0108129179946233 -0.0601195532628549 0.330483887651205
-0.00793703196507271 -0.0460115030012518 0.330483887651205
-0.0138267882711362 -0.0411839821691146 0.330483887651204
-0.00694735077690839 -0.0229066270040851 0.330483887651205
-0.0118080190568749 -0.00610910737214973 0.330483887651205
-0.00820051794190611 0.00321927284006122 0.330483887651204
-0.00761480221379156 0.0161686465156961 0.330483887651205
-0.0125323446058181 0.0127639688402692 0.330483887651205
-0.0118989075509987 0.0368660191903099 0.330483887651205
-0.0069598198101536 0.0531885222352989 0.330483887651205
-0.0127981293747374 0.0547148019902977 0.330483887651205
-0.00591271174356866 0.0680888172548247 0.330483887651205
-0.010031112772921 0.0820690458410113 0.330483887651205
-0.0154611820092769 0.0899730957261626 0.330483887651204
-0.00673220076203875 0.114397887657971 0.330483887651205
-0.0113606522122426 0.120627799646865 0.330483887651205
-0.00703242891003878 0.122475802966852 0.330483887651205
-0.00970418900688146 0.140653856028269 0.330483887651205
-0.0141780787013137 0.150279457445794 0.330483887651204
-0.00565471010712996 0.166616063096025 0.330483887651205
-0.00948149831451818 0.183067987862694 0.330483887651205
-0.00552701916897555 0.19563445785032 0.330483887651205
-0.00927999291744435 0.210363637651528 0.330483887651205
-0.0119534264225537 0.212772408181158 0.330483887651205
-0.00714066319307589 0.237877899723544 0.330483887651205
-0.0159859846939985 0.242621150374404 0.330483887651205
-0.0079735721051301 0.253519996629081 0.330483887651205
-0.00954303991720876 0.266791959890322 0.330483887651205
-0.00626540016340462 0.277361725096556 0.330483887651205
-0.00889946070271918 0.291084766119371 0.330483887651205
-0.0152713965920249 0.305749894190551 0.330483887651205
0.00302865673168906 -0.316674641655897 0.315496459994625
0.00243699612972999 -0.316674641655897 0.316932794173929
-0.000548060010847278 -0.316674641655897 0.32575309639377
0.00408724106095366 -0.309252803862909 0.330483887651205
0.000981645091475902 -0.302045803714058 0.330483887651205
-0.00340833074859476 -0.299929617299433 0.330483887651205
-0.00263448308414801 -0.290017200117361 0.330483887651205
0.00372715119083381 -0.280216061058004 0.330483887651205
-0.00386189052955137 -0.269365848936207 0.330483887651205
-0.00187258085824234 -0.258315998427088 0.330483887651205
-0.00287233564372945 -0.240126929858481 0.330483887651205
-2.52533562106106e-005 -0.24031893345626 0.330483887651205
-0.00311363684112249 -0.22959856847422 0.330483887651205
0.00429073131358697 -0.219269189887212 0.330483887651205
0.000231907611889242 -0.20461318602375 0.330483887651205
-0.00353670847238075 -0.203214243385703 0.330483887651205
0.00411292814728655 -0.186626804077571 0.330483887651205
0.00440157261179623 -0.175971561696547 0.330483887651205
0.00327735288455736 -0.172785874942459 0.330483887651205
1.92374503827897e-005 -0.157913998178244 0.330483887651205
-0.00324550000468354 -0.147835931588327 0.330483887651205
0.00106938540778971 -0.134101492100375 0.330483887651205
0.000847375868470216 -0.122908016205182 0.330483887651205
0.00320145865674691 -0.118724402563426 0.330483887651205
0.00311470209640888 -0.10955458814912 0.330483887651205
-0.00321196782685089 -0.0963733169367406 0.330483887651204
-0.00370954521602832 -0.0869994339227882 0.330483887651205
-0.000201721846681288 -0.0763504415419062 0.330483887651205
0.00148214905672105 -0.0681454588088072 0.330483887651205
0.00176487284757906 -0.058084686524386 0.330483887651205
9.61503486931405e-005 -0.0437754956670811 0.330483887651205
0.00163294499560689 -0.0361366793389899 0.330483887651205
0.00438341413381471 -0.0285948747478564 0.330483887651205
0.00110264506168995 -0.0136852313911592 0.330483887651204
0.0035374489261251 -0.00906268854473611 0.330483887651205
-0.00285272210233608 0.00135869977154023 0.330483887651205
-0.00119806795757179 0.0226414648328704 0.330483887651205
-0.00202453404610909 0.0294590861975516 0.330483887651205
0.00342521212373764 0.0478815798279117 0.330483887651204
0.00215750862643779 0.0597403495149466 0.330483887651205
0.000262579135398973 0.0695956606752681 0.330483887651205
0.00102191770262568 0.0748032376520512 0.330483887651205
-0.00109727096129337 0.0996393082014508 0.330483887651205
0.000153485773279979 0.10901928820619 0.330483887651205
0.000407909239665924 0.125088750354558 0.330483887651205
0.00492751924032954 0.119497154718629 0.330483887651204
0.00251920845977802 0.139491928474574 0.330483887651205
-0.00461058900405582 0.145268899706085 0.330483887651205
-0.00212089187681275 0.175620433574125 0.330483887651205
-0.00523776596599614 0.175989738197627 0.330483887651205
-0.00317584830306747 0.185605442411619 0.330483887651205
0.0016514489299256 0.206410605784398 0.330483887651205
-0.00212978567276535 0.216755984677007 0.330483887651205
-0.000823586290953079 0.226892906462383 0.330483887651205
-0.00351809407253969 0.243829905200227 0.330483887651205
0.00204895247363162 0.253729814514524 0.330483887651205
0.00023694326463143 0.272165342910724 0.330483887651205
-0.00285941338579856 0.280835025849273 0.330483887651204
0.00196432443860963 0.300938852561539 0.330483887651205
6.28837529910419e-005 0.31022760147847 0.330483887651205
0.00574907678869396 -0.2509015505974 0.241999299518645
0.00677853876392048 -0.316674641655896 0.316839294715692
0.00604621871682629 -0.316674641655897 0.327848358089206
0.00657571879385819 -0.313928386603921 0.330483887651205
0.00620083780027198 -0.304044957341557 0.330483887651205
0.0067249674606595 -0.289439368191962 0.330483887651204
0.00616914310279131 -0.284580234876616 0.330483887651205
0.00854612584273045 -0.276377618892204 0.330483887651205
0.00798980426094861 -0.26609624730909 0.330483887651205
0.00486220303528152 -0.260414602350178 0.330483887651205
0.00994529470811396 -0.242191701683304 0.330483887651205
0.0056954011073271 -0.241165133513547 0.330483887651205
0.0057894322740329 -0.223041504211366 0.330483887651205
0.00631026420531618 -0.212062913393198 0.330483887651205
0.0051834593411121 -0.206863197768094 0.330483887651204
0.0072545205329633 -0.201710414722211 0.330483887651205
0.00468343528825103 -0.189729252145442 0.330483887651204
0.00624132295723232 -0.183670429427788 0.330483887651204
0.0125053223479297 -0.177282714628635 0.330483887651205
0.0133110683173509 -0.154462490223533 0.330483887651205
0.0115818433460957 -0.143186797672983 0.330483887651205
0.0134888133322878 -0.140223673461818 0.330483887651204
0.00743369195301559 -0.12608448579441 0.330483887651205
0.00563313363852975 -0.127289014608009 0.330483887651204
0.00894436593618718 -0.107350254154082 0.330483887651205
0.0100894908031991 -0.105040524869125 0.330483887651205
0.00741949131394837 -0.0870781950935399 0.330483887651204
0.0143309337384759 -0.0830400536103699 0.330483887651204
0.00691340129768548 -0.0637847766358947 0.330483887651205
0.0103986262482101 -0.0609181949163235 0.330483887651205
0.00804794407122625 -0.046093134877592 0.330483887651205
0.00920394396288901 -0.038024471342227 0.330483887651205
0.0120383731252664 -0.0209704084303205 0.330483887651205
