ply
format ascii 1.0
element vertex 878
property float x
property float y
property float z
end_header
-0.100939065327899 0.390802957486967 0.60593220338983
-0.104691166813949 0.388404171297613 0.60593220338983
-0.11210999194473 0.377946606429168 0.60593220338983
-0.124613148448486 0.370092223592016 0.60593220338983
-0.136408614151282 0.361872292717872 0.60593220338983
-0.143036275674583 0.353499899894573 0.60593220338983
-0.152206069070187 0.344995716599418 0.60593220338983
-0.1627905579656 0.339644445256645 0.60593220338983
-0.176726627960604 0.329352194209332 0.60593220338983
-0.174279718893184 0.326887749354363 0.60593220338983
-0.186687952197329 0.322669727361311 0.60593220338983
-0.197643648346213 0.313627268105701 0.60593220338983
-0.203201993902708 0.307104512070871 0.60593220338983
-0.214818563360888 0.30134646634031 0.60593220338983
-0.218554969033366 0.287240108188103 0.60593220338983
-0.232103499361885 0.287266152619015 0.60593220338983
-0.244451767762141 0.269886898309604 0.60593220338983
-0.255284896727694 0.270682268993689 0.60593220338983
-0.269143415529721 0.257272065995871 0.60593220338983
-0.270417474880823 0.249257924924159 0.60593220338983
-0.289342497784332 0.235711711765457 0.60593220338983
-0.296543701113227 0.235422898570479 0.60593220338983
-0.303021343474814 0.232248893570554 0.60593220338983
-0.319435560462633 0.221600552027459 0.60593220338983
-0.325058162586785 0.211829173333386 0.60593220338983
-0.337831425213154 0.203000194917545 0.60593220338983
-0.350212565742669 0.195602999263747 0.60593220338983
-0.358243879478389 0.184947166752693 0.60593220338983
-0.371509348312616 0.169297338186283 0.60593220338983
-0.376919663679797 0.167860234477081 0.60593220338983
-0.388445360954882 0.158539668724751 0.60593220338983
-0.396558276281189 0.153990317882168 0.60593220338983
-0.416351057878328 0.146643822280239 0.60593220338983
-0.421429163413765 0.138983850139286 0.60593220338983
-0.434832746117277 0.119592732745589 0.60593220338983
-0.451495338169872 0.111579776924852 0.60593220338983
-0.457758692755491 0.101664087543212 0.60593220338983
-0.470763480124428 0.100270064316176 0.60593220338983
-0.484189470327081 0.0868291186802137 0.60593220338983
-0.489043266724034 0.0885900383999013 0.60593220338983
0.0489900750496019 0.5 0.442719461297229
0.0557859439338227 0.5 0.456171787511373
0.0582103046349061 0.497455089006182 0.466101694915254
0.0484667642853194 0.496365897523223 0.466101694915254
0.0428307664878955 0.490494983485253 0.466101694915254
0.0378786110842073 0.483648061025438 0.466101694915254
0.03124342869977 0.47414567504138 0.466101694915254
0.0211550959191197 0.475759930768761 0.466101694915254
0.0148054132649318 0.461998993298014 0.466101694915254
0.00928552253204327 0.458509681817871 0.466101694915254
-0.00617139231340093 0.452188057271976 0.466101694915254
-0.00357500895253672 0.448790474354439 0.466101694915254
-0.0192964760229885 0.443076346799988 0.466101694915254
-0.0216434466731251 0.436594747538615 0.466101694915254
-0.0220039150897421 0.435923933406216 0.466101694915254
-0.0369876266308401 0.428514895982054 0.466101694915254
-0.0430567535588654 0.420944782122634 0.466101694915254
0.060371987420036 0.5 0.604039917890279
0.0487203966573909 0.5 0.598843727086737
0.0558704166243717 0.493450324892956 0.60593220338983
0.0443736082668922 0.491737960487537 0.60593220338983
0.0414868450371947 0.481842516633534 0.60593220338983
0.0269508593929948 0.476929931666144 0.60593220338983
0.0150225159817024 0.472784965730412 0.60593220338983
0.0131609934218614 0.467100295178256 0.60593220338983
0.00446060153393161 0.456529628659988 0.60593220338983
-0.00269725826596547 0.453592002353005 0.60593220338983
-0.0162397566308499 0.446711980626902 0.60593220338983
-0.0133943620906232 0.440612747222034 0.60593220338983
-0.0257483413981698 0.429547297078718 0.60593220338983
-0.0320979305512414 0.429054044071154 0.60593220338983
-0.0476706363950885 0.422823840717409 0.60593220338983
-0.0486687861549686 0.419511744669422 0.60593220338983
-0.0562912170897943 0.409718816298704 0.60593220338983
-0.0588433552882184 0.401469908333564 0.60593220338983
-0.0830577913241785 0.396291903386434 0.60593220338983
-0.0881793733363384 0.383322809719762 0.60593220338983
-0.0911199446485697 0.385970886798165 0.60593220338983
-0.103259992323831 0.371531144852848 0.60593220338983
-0.11537626996162 0.361277395027084 0.60593220338983
-0.116650247526002 0.356450302519174 0.60593220338983
-0.126696742498003 0.351592912066595 0.60593220338983
-0.140136666729534 0.343037907640748 0.60593220338983
-0.147299500098475 0.342176650173091 0.60593220338983
-0.148951903262409 0.335882287394298 0.60593220338983
-0.16312542589587 0.325336229808106 0.60593220338983
-0.170561777155132 0.3183660778794 0.60593220338983
-0.180896669136468 0.313344283935649 0.60593220338983
-0.192605172146949 0.301857044285192 0.60593220338983
-0.20882161323436 0.292328736579285 0.60593220338983
-0.211061139761317 0.285965302100596 0.60593220338983
-0.225703354387937 0.283819829749482 0.60593220338983
-0.226187498339841 0.276207524003475 0.60593220338983
-0.238869403793454 0.262084823495165 0.60593220338983
-0.245457063041483 0.264213495301139 0.60593220338983
-0.253810339921575 0.25354116904445 0.60593220338983
-0.275355730829858 0.246165152317789 0.60593220338983
-0.285136743350106 0.229395042627144 0.60593220338983
-0.286910484045108 0.236045508148313 0.60593220338983
-0.300682031632717 0.216485118442824 0.60593220338983
-0.305593868373469 0.212300362528511 0.60593220338983
-0.317609266993094 0.211680369101596 0.60593220338983
-0.331662632946868 0.19480119584838 0.60593220338983
-0.344082218108993 0.182757361159595 0.60593220338983
-0.355567312608072 0.175546604291337 0.60593220338983
-0.366351582239046 0.163990429671781 0.60593220338983
-0.378193129516777 0.157098889746535 0.60593220338983
-0.384013164787451 0.146681543990196 0.60593220338983
-0.392410460191251 0.151012088191928 0.60593220338983
-0.404521222627128 0.139437948498756 0.60593220338983
-0.408703928005155 0.130712830004982 0.60593220338983
-0.430605428441683 0.111085742910138 0.60593220338983
-0.443251282022901 0.107758682417477 0.60593220338983
-0.451813462635484 0.102451477414391 0.60593220338983
-0.457186476447699 0.096365487189301 0.60593220338983
-0.481130524308193 0.0796785994003466 0.60593220338983
-0.494812975150792 0.0692726581767344 0.60593220338983
0.0781704587790054 0.5 0.435598814157708
0.071013466270117 0.5 0.437765157648209
0.068193378127106 0.5 0.442676149717047
0.0700624549847684 0.5 0.451038369132092
0.0712666566252382 0.5 0.461984966839494
0.0647280468782041 0.494481244348961 0.466101694915254
0.0599966188227264 0.48751506510086 0.466101694915254
0.0491766893900882 0.488129844362817 0.466101694915254
0.0485706761650362 0.477317220322979 0.466101694915254
0.0360293738354919 0.468740671816909 0.466101694915254
0.0345194708373107 0.469222857251993 0.466101694915254
0.0185196707802738 0.459945156473724 0.466101694915254
0.0199632926852353 0.460912725763029 0.466101694915254
0.0135623759881982 0.454498542357748 0.466101694915254
0.00305957068793913 0.445227563559846 0.466101694915254
-0.00175366032217103 0.443021316544557 0.466101694915254
-0.0103350697846757 0.433317518640401 0.466101694915254
-0.0173649654217348 0.428802721162992 0.466101694915254
-0.0330112442119293 0.419060785370843 0.466101694915254
0.0741925982778972 0.5 0.596642149323644
0.0644173193959379 0.5 0.599555451562067
0.0662821834561722 0.497331199251887 0.60593220338983
0.0579192562199874 0.489234819498528 0.60593220338983
0.0568602480684827 0.48847573342981 0.60593220338983
0.0472666128946072 0.478469992747259 0.60593220338983
0.0404860957867699 0.469918559139652 0.60593220338983
0.0295956503165125 0.471968582450188 0.60593220338983
0.0174948282637282 0.461439479675041 0.60593220338983
0.00896621199749711 0.455176938090021 0.60593220338983
0.00410689239812182 0.450489498572867 0.60593220338983
-0.00142472493069611 0.443708842137243 0.60593220338983
-0.0111967699275604 0.441273206511465 0.60593220338983
-0.0252780609380882 0.427889585959762 0.60593220338983
-0.0333001585414476 0.415719379825058 0.60593220338983
-0.0288399654702995 0.419598707930022 0.60593220338983
-0.0449283812666509 0.405532991295623 0.60593220338983
-0.0457369494264412 0.407161963826741 0.60593220338983
-0.0640352338876754 0.393730349073159 0.60593220338983
-0.0697337292986208 0.390854672026582 0.60593220338983
-0.0798030973529417 0.377517662647739 0.60593220338983
-0.0845108321487609 0.377425421083811 0.60593220338983
-0.0924946978601375 0.369809917186266 0.60593220338983
-0.105791016368144 0.360122371173016 0.60593220338983
-0.110681783869884 0.359994928249786 0.60593220338983
-0.125208707359565 0.34757092733756 0.60593220338983
-0.125632450654381 0.346014766386328 0.60593220338983
-0.141413256595725 0.331437793319247 0.60593220338983
-0.145727933229562 0.328434671838833 0.60593220338983
-0.160886921587521 0.314662960814558 0.60593220338983
-0.169626938480422 0.311623935526448 0.60593220338983
-0.174421917923396 0.308298238053593 0.60593220338983
-0.183342034111787 0.297932045135409 0.60593220338983
-0.189847689822765 0.295792745885864 0.60593220338983
-0.203877042730293 0.286009919361221 0.60593220338983
-0.206681078753212 0.2775840085655 0.60593220338983
-0.221952679256133 0.267813760577182 0.60593220338983
-0.233570298986676 0.262679167353399 0.60593220338983
-0.243972735049915 0.252534553304877 0.60593220338983
-0.252343264276353 0.240421057084652 0.60593220338983
-0.268273484043787 0.231272111485848 0.60593220338983
-0.273976295917037 0.222165352145986 0.60593220338983
-0.282613458466145 0.22478772130996 0.60593220338983
-0.29163216100666 0.21620644731577 0.60593220338983
-0.305026859036791 0.206025598375792 0.60593220338983
-0.309704911033679 0.196178031857813 0.60593220338983
-0.328738735938554 0.187251049353911 0.60593220338983
-0.342056006860313 0.174536683651957 0.60593220338983
-0.342882325151383 0.175155253928534 0.60593220338983
-0.355246046750327 0.159312765356666 0.60593220338983
-0.359796613050021 0.156304936701297 0.60593220338983
-0.367746842122794 0.146736555194259 0.60593220338983
-0.390742764583833 0.130298912160689 0.60593220338983
-0.396616494963345 0.123307773276335 0.60593220338983
-0.415424752864368 0.118367988985484 0.60593220338983
-0.412975325573124 0.114494062100935 0.60593220338983
-0.423986692920063 0.108472343168228 0.60593220338983
-0.439669868192055 0.0944218726046897 0.60593220338983
-0.458204279800412 0.084189529103781 0.60593220338983
-0.470969266193964 0.0737155127691565 0.60593220338983
-0.487296860072925 0.0607148377932524 0.60593220338983
-0.498990948272013 0.0491941456556029 0.60593220338983
0.0913798345648218 0.5 0.446693330169266
0.0861267074930519 0.5 0.450554265402845
0.0796496456100576 0.5 0.456469492192107
0.0817909793276217 0.497148344378848 0.466101694915254
0.0798278592830939 0.492767372801657 0.466101694915254
0.0725847449004745 0.487294664085786 0.466101694915254
0.0665566886025647 0.483173486515142 0.466101694915254
0.0562115713143212 0.472163319602795 0.466101694915254
0.0526932660704094 0.470965379181723 0.466101694915254
0.0461533054985384 0.46741218589585 0.466101694915254
0.0423866672053699 0.466064008274167 0.466101694915254
0.029959534680616 0.460252001013577 0.466101694915254
0.0160445048148437 0.4447522145997 0.466101694915254
0.0114408957999988 0.44432369741921 0.466101694915254
0.0052107629945296 0.435943215564292 0.466101694915254
0.0053059098352654 0.43092232084007 0.466101694915254
-0.00891006046922566 0.429641685342004 0.466101694915254
-0.0164564407428285 0.421724404239152 0.466101694915254
-0.0235455869099752 0.414089603710062 0.466101694915254
0.0825082105573206 0.495847831269589 0.60593220338983
0.082590369625 0.49445413206826 0.60593220338983
0.0706071127504029 0.489615617464184 0.60593220338983
0.0655221216224259 0.479650839547484 0.60593220338983
0.0580788168382816 0.471946343814723 0.60593220338983
0.0469437951640897 0.470579526232169 0.60593220338983
0.0453629202815771 0.465318962565165 0.60593220338983
0.0320871832340305 0.456576211690466 0.60593220338983
0.0278433993487539 0.456296441734173 0.60593220338983
0.0179252412929675 0.442494350465191 0.60593220338983
0.00629544982085767 0.435121604670935 0.60593220338983
0.000154760833886167 0.429803325383297 0.60593220338983
-0.000716743577925894 0.425561703605361 0.60593220338983
-0.00911785824646108 0.427345205075467 0.60593220338983
-0.0240075115805626 0.415413479690009 0.60593220338983
-0.0213163507509333 0.408782172856877 0.60593220338983
-0.0424999276045911 0.395547363858425 0.60593220338983
-0.0428939001786351 0.395712187892859 0.60593220338983
-0.0557768468703771 0.393343370779645 0.60593220338983
-0.0604328852094771 0.386660290490995 0.60593220338983
-0.06496467112046 0.376681758404812 0.60593220338983
-0.0841147724677005 0.367979159393282 0.60593220338983
-0.0868505822310308 0.36686832324104 0.60593220338983
-0.10168827398255 0.351474933203702 0.60593220338983
-0.101272291616712 0.354233904874106 0.60593220338983
-0.119206566162737 0.336397785231641 0.60593220338983
-0.126201817326808 0.333777191674802 0.60593220338983
-0.127783342913415 0.323252927442457 0.60593220338983
-0.142481508383467 0.31905318642938 0.60593220338983
-0.153709392937786 0.306182119112982 0.60593220338983
-0.158417943943156 0.30447105827525 0.60593220338983
-0.162389059142678 0.298483989059939 0.60593220338983
-0.178244339989287 0.287262992922745 0.60593220338983
-0.186247606440229 0.278273864870492 0.60593220338983
-0.203265425473201 0.272531126101276 0.60593220338983
-0.200334938021678 0.264179317751744 0.60593220338983
-0.21150355828647 0.261022330662634 0.60593220338983
-0.227047075521175 0.24830171919365 0.60593220338983
-0.24333795799831 0.237892766239526 0.60593220338983
-0.244117270355906 0.236513847652382 0.60593220338983
-0.249842936423715 0.235781321106975 0.60593220338983
-0.26772234808248 0.223963515563686 0.60593220338983
-0.280267104595247 0.208624663035337 0.60593220338983
-0.28455026178789 0.211844300989348 0.60593220338983
-0.30152541938958 0.19258608962539 0.60593220338983
-0.30588239306471 0.194622526836481 0.60593220338983
-0.32405494542431 0.181555973913062 0.60593220338983
-0.330819751734129 0.166927556236798 0.60593220338983
-0.34097717372341 0.157455973361665 0.60593220338983
-0.347144232844756 0.163708881359446 0.60593220338983
-0.352496199240964 0.149924535755643 0.60593220338983
-0.376914449954092 0.140441388734405 0.60593220338983
-0.373817814248255 0.130381215419844 0.60593220338983
-0.398120472214565 0.118743317601519 0.60593220338983
-0.399015876306478 0.106655797981581 0.60593220338983
-0.412986729383945 0.102596641088704 0.60593220338983
-0.426920200010671 0.0844363523708358 0.60593220338983
-0.436255938165536 0.083682958117875 0.60593220338983
-0.445966537485683 0.0703766630017721 0.60593220338983
-0.469341147223912 0.0651378494783995 0.60593220338983
-0.470927882577278 0.0609943069272076 0.60593220338983
-0.489202726224483 0.0422732773381273 0.60593220338983
-0.491959707764122 0.0438224376604143 0.60593220338983
0.101871818341059 0.5 0.439141010427948
0.0954959665080438 0.5 0.451367359063446
0.105086815997149 0.5 0.465197229810592
0.0986315630178985 0.5 0.465363164382022
0.0905514606139061 0.49675577310641 0.466101694915254
0.0798917429963343 0.490135209251179 0.466101694915254
0.0707362719010361 0.48165504987198 0.466101694915254
0.0707821743637121 0.481777929803244 0.466101694915254
0.0700445285393896 0.46981267356422 0.466101694915254
0.0589593359843603 0.467282148481231 0.466101694915254
0.0456983499176657 0.459256673386398 0.466101694915254
0.0401704357891398 0.45337851668115 0.466101694915254
0.0359580368244886 0.44843075996228 0.466101694915254
0.0254812282137481 0.440955761016018 0.466101694915254
0.0225038567975181 0.431776469155227 0.466101694915254
0.0111295009723625 0.432650779200265 0.466101694915254
0.0102991681590115 0.422724438347362 0.466101694915254
-0.00195829849050445 0.424177702270233 0.466101694915254
0.100807731138748 0.5 0.603698270284681
0.098756743134357 0.499748186456793 0.60593220338983
0.0937371707273123 0.493911782505465 0.60593220338983
0.0842866214629435 0.484126516443056 0.60593220338983
0.0817382951888585 0.488295029518751 0.60593220338983
0.0703846438390167 0.481079444763604 0.60593220338983
0.0643528078811866 0.471614754218732 0.60593220338983
0.0551015841853867 0.46188777491046 0.60593220338983
0.0514496827497913 0.464492195799932 0.60593220338983
0.0353375724779161 0.452395949899054 0.60593220338983
0.038978491621001 0.450129963256977 0.60593220338983
0.0252095316672595 0.444111377167493 0.60593220338983
0.0137576479211195 0.428757025598822 0.60593220338983
0.00991572393222312 0.425334053893308 0.60593220338983
0.00695216697952084 0.427487290083018 0.60593220338983
-0.00870573511223767 0.41264348757338 0.60593220338983
-0.0164719035157243 0.40634309820486 0.60593220338983
-0.021585971133452 0.406858262100262 0.60593220338983
-0.0276135372094569 0.399532321279147 0.60593220338983
-0.0417479407209308 0.386433115562366 0.60593220338983
-0.0443943849439163 0.385837188997176 0.60593220338983
-0.0571316312812853 0.379127297689534 0.60593220338983
-0.0644457013013293 0.374637137278188 0.60593220338983
-0.0713924640753151 0.364380063362246 0.60593220338983
-0.0822846429943987 0.352239715672271 0.60593220338983
-0.086431450632799 0.34850865214359 0.60593220338983
-0.103543797656907 0.343115576493774 0.60593220338983
-0.107332804788051 0.339496172762951 0.60593220338983
-0.114855275888365 0.32627808925478 0.60593220338983
-0.122553887743899 0.32554341265369 0.60593220338983
-0.127725301676841 0.319451494741933 0.60593220338983
-0.148280210795523 0.302967539306974 0.60593220338983
-0.156165395132979 0.300033859493095 0.60593220338983
-0.156593518513616 0.288114232444887 0.60593220338983
-0.172555813251692 0.277495634139413 0.60593220338983
-0.181448850404457 0.272953599474153 0.60593220338983
-0.188536926146521 0.275626046750205 0.60593220338983
-0.193374208263053 0.266933364651098 0.60593220338983
-0.205940753476187 0.249319561095121 0.60593220338983
-0.213758159571663 0.246282123806065 0.60593220338983
-0.234849227438706 0.239464057033599 0.60593220338983
-0.231079482714211 0.236477489100775 0.60593220338983
-0.249228667547634 0.215210828108318 0.60593220338983
-0.251050298554318 0.212506782606037 0.60593220338983
-0.266930263040987 0.202508566269662 0.60593220338983
-0.27939277186576 0.201066071157947 0.60593220338983
-0.294764708680317 0.186288889390339 0.60593220338983
-0.304528475386359 0.178518187756961 0.60593220338983
-0.304734753702652 0.174439284175433 0.60593220338983
-0.319993108298322 0.161345252392219 0.60593220338983
-0.326527279117095 0.160214028537877 0.60593220338983
-0.341914231785383 0.149929268043424 0.60593220338983
-0.347270711416044 0.145472370426255 0.60593220338983
-0.360414985932485 0.126322995442304 0.60593220338983
-0.369076392005259 0.124710135689222 0.60593220338983
-0.38222697272124 0.120079448588909 0.60593220338983
-0.396695143772059 0.106981201758525 0.60593220338983
-0.40738827875019 0.0887428074816375 0.60593220338983
-0.420824163606906 0.0881682114371363 0.60593220338983
-0.427671475871799 0.0743872903736678 0.60593220338983
-0.441473243112399 0.0689413442521982 0.60593220338983
-0.449519275854047 0.0564556075557156 0.60593220338983
-0.465566884142527 0.0522197065002754 0.60593220338983
-0.473573087618082 0.0378489435430555 0.60593220338983
-0.486912296072894 0.0372335620149384 0.60593220338983
-0.495389132977823 0.0235677329249877 0.60593220338983
0.115107874648239 0.5 0.442422761606335
0.121822420621056 0.5 0.454601776608727
0.106608106868221 0.5 0.45431555086537
0.111865306393841 0.49624885698041 0.466101694915254
0.10549194897062 0.494591286826605 0.466101694915254
0.0948455026148374 0.481997759694344 0.466101694915254
0.0890888696833613 0.483935936784807 0.466101694915254
0.0890612414632874 0.478806635865626 0.466101694915254
0.072580561281465 0.467082186814669 0.466101694915254
0.0687164120784873 0.462408147753211 0.466101694915254
0.0636223685262179 0.459921108786169 0.466101694915254
0.0545340662387414 0.456116789523251 0.466101694915254
0.0495623501679001 0.448970467681636 0.466101694915254
0.043674742019498 0.445649120492362 0.466101694915254
0.0329383720157829 0.435342579973286 0.466101694915254
0.0322522294487584 0.428837563907689 0.466101694915254
0.0121267155260273 0.423193727417611 0.466101694915254
0.0132512844556583 0.414143929700014 0.466101694915254
0.11163051661506 0.5 0.59835187223911
0.112099459050907 0.497327040511532 0.60593220338983
0.103938469734375 0.492259713520728 0.60593220338983
0.0997997336059453 0.484973872684842 0.60593220338983
0.091376930949424 0.483810428232646 0.60593220338983
0.0855624520345339 0.480816772613145 0.60593220338983
0.0763632006958587 0.471951698877782 0.60593220338983
0.0668107758182201 0.463628049286759 0.60593220338983
0.0573599367225722 0.46186524367891 0.60593220338983
0.0562875421329863 0.454157070621247 0.60593220338983
0.0507757300032034 0.451115386208783 0.60593220338983
0.0465036164772819 0.443263121350048 0.60593220338983
0.0369479939950797 0.434062420358614 0.60593220338983
0.0224432358094882 0.431286284154971 0.60593220338983
0.0184712473518422 0.42038979105291 0.60593220338983
0.00748917114279885 0.422730599767118 0.60593220338983
0.00512571380485212 0.415536642045669 0.60593220338983
-0.0083046723505608 0.406722061512355 0.60593220338983
-0.0172425633928304 0.392989136978841 0.60593220338983
-0.0301011431761268 0.384675793419717 0.60593220338983
-0.0346266218288631 0.379778336481148 0.60593220338983
-0.0388041127095307 0.374082475427785 0.60593220338983
-0.0473058409038032 0.370151293692277 0.60593220338983
-0.0537561862570458 0.368169330608293 0.60593220338983
-0.0612421574563099 0.360173724620403 0.60593220338983
-0.0732953332138869 0.35280697640301 0.60593220338983
-0.0780285740353278 0.343563031742549 0.60593220338983
-0.0934554161433069 0.330020072776414 0.60593220338983
-0.099719978929357 0.331477270928517 0.60593220338983
-0.10967151209412 0.322739261911412 0.60593220338983
-0.120051628117785 0.316626226759973 0.60593220338983
-0.124951371044093 0.306990195835661 0.60593220338983
-0.131499306148514 0.301427324701669 0.60593220338983
-0.148547925837524 0.288912303772328 0.60593220338983
-0.154009373929172 0.277015297925741 0.60593220338983
-0.162594096536183 0.281687176802534 0.60593220338983
-0.171304772777877 0.273877621297323 0.60593220338983
-0.182330148227481 0.26311456092381 0.60593220338983
-0.190674767587626 0.256495201639817 0.60593220338983
-0.205194314439988 0.247421615416341 0.60593220338983
-0.211373677419712 0.235280125326232 0.60593220338983
-0.216660253194792 0.239855737271276 0.60593220338983
-0.223846328226104 0.225241172573429 0.60593220338983
-0.236918427671796 0.214253405614492 0.60593220338983
-0.242812406417177 0.204758634108932 0.60593220338983
-0.265530848886731 0.199580784421865 0.60593220338983
-0.267486283822637 0.18442138528455 0.60593220338983
-0.273328878932839 0.181088410614541 0.60593220338983
-0.292878993803563 0.173265575273763 0.60593220338983
-0.295761064640281 0.164501001562882 0.60593220338983
-0.313768396999925 0.155200211519327 0.60593220338983
-0.323204194629685 0.148017779957798 0.60593220338983
-0.328568809698352 0.143286338743939 0.60593220338983
-0.349842291219712 0.13220027981365 0.60593220338983
-0.362450898751479 0.115286478519906 0.60593220338983
-0.361579863985918 0.111047236156011 0.60593220338983
-0.377013531696429 0.113061196195415 0.60593220338983
-0.385076555997852 0.0950542304861906 0.60593220338983
-0.404930627219163 0.0826580766535782 0.60593220338983
-0.40159127807942 0.0799240768774465 0.60593220338983
-0.416990963522293 0.068018715528482 0.60593220338983
-0.436220389033576 0.059449260185499 0.60593220338983
-0.448470411474762 0.0487606733886664 0.60593220338983
-0.453917042773064 0.0374520405787005 0.60593220338983
-0.466587295847469 0.0336793194034326 0.60593220338983
-0.489498087745918 0.0158949754289796 0.60593220338983
-0.494998610335514 0.00858687125781465 0.60593220338983
0.133632663017031 0.5 0.439421788061117
0.12343941437489 0.5 0.448657140718498
0.125547689182525 0.5 0.45010893107588
0.125941407558181 0.5 0.4548655462199
0.128403556477127 0.495590018712715 0.466101694915254
0.117631122914705 0.493411199141857 0.466101694915254
0.111554361968946 0.488475815980124 0.466101694915254
0.102880086959309 0.483669313698573 0.466101694915254
0.0924952548322083 0.477354890010785 0.466101694915254
0.0964306151113161 0.472345146359992 0.466101694915254
0.0863399458406977 0.461468391836105 0.466101694915254
0.0772133885416487 0.452586428618613 0.466101694915254
0.0729245015451584 0.452670074563022 0.466101694915254
0.0628214850045173 0.451356847687509 0.466101694915254
0.0547829983336711 0.444133640457397 0.466101694915254
0.0443008200046778 0.43375214996648 0.466101694915254
0.0402743301162592 0.432710378669334 0.466101694915254
0.0370273864548573 0.422707482033967 0.466101694915254
0.0307113552962405 0.421707311561002 0.466101694915254
0.127261174181886 0.5 0.599458046396777
0.120179815867618 0.494414369857808 0.60593220338983
0.119126144523958 0.493915259246009 0.60593220338983
0.117915747115801 0.490733375406007 0.60593220338983
0.107438871071694 0.480584499648435 0.60593220338983
0.0966801852992073 0.472615997464549 0.60593220338983
0.0917878815215099 0.4754288591817 0.60593220338983
0.091258273567386 0.46584155878203 0.60593220338983
0.0734708452152635 0.45807979507084 0.60593220338983
0.070934102424669 0.44817262919759 0.60593220338983
0.0662684907326004 0.444572372183838 0.60593220338983
0.0533517489267641 0.444554357912251 0.60593220338983
0.045046751970033 0.435355825686926 0.60593220338983
0.0413429624377716 0.431651983064184 0.60593220338983
0.0249714399699512 0.419341674008704 0.60593220338983
0.016554550247362 0.416171095222748 0.60593220338983
0.0138469642739224 0.403208912510655 0.60593220338983
0.00801865217045026 0.39968267838489 0.60593220338983
-0.000541804749349529 0.398109586305204 0.60593220338983
-0.00333566064091597 0.395350748473761 0.60593220338983
-0.0234084774894016 0.383324904888809 0.60593220338983
-0.0201042154796381 0.378431634817721 0.60593220338983
-0.0314308550308863 0.366244873623504 0.60593220338983
-0.0368860884633853 0.362461169041575 0.60593220338983
-0.047526273890123 0.354535553059582 0.60593220338983
-0.0571443938106496 0.344226688499331 0.60593220338983
-0.0690355599567521 0.340356039996183 0.60593220338983
-0.0795965816651776 0.336587173914679 0.60593220338983
-0.0893716584824679 0.325538799738068 0.60593220338983
-0.0971286314543611 0.322890149949606 0.60593220338983
-0.108731822141656 0.311009929474251 0.60593220338983
-0.112217559661875 0.306051941270234 0.60593220338983
-0.116228656042955 0.302314585082225 0.60593220338983
-0.126775757543686 0.294033547750308 0.60593220338983
-0.141008491759703 0.284643172712229 0.60593220338983
-0.152808597121654 0.273518235341955 0.60593220338983
-0.152043417841338 0.270350554560766 0.60593220338983
-0.159379864981068 0.26269441375031 0.60593220338983
-0.181365782096108 0.251327127157646 0.60593220338983
-0.180253508397498 0.244427372382063 0.60593220338983
-0.193844908799871 0.247854416579114 0.60593220338983
-0.210259159533763 0.232627184693378 0.60593220338983
-0.217251212972827 0.222520981406583 0.60593220338983
-0.227638181762197 0.216245893486212 0.60593220338983
-0.234671948367616 0.203717423278705 0.60593220338983
-0.241401734414653 0.197364395153455 0.60593220338983
-0.24952025406843 0.190719411392785 0.60593220338983
-0.266233820977987 0.18391694726129 0.60593220338983
-0.282681580217848 0.169314966158789 0.60593220338983
-0.285922041189845 0.166569256810883 0.60593220338983
-0.288317847989912 0.157206961175169 0.60593220338983
-0.302375420253169 0.155827026571622 0.60593220338983
-0.318613552517468 0.136877709630011 0.60593220338983
-0.33005220893464 0.133120656505786 0.60593220338983
-0.332530290039305 0.129443859847411 0.60593220338983
-0.339371405235 0.114864699489099 0.60593220338983
-0.358527519368204 0.0982925860377565 0.60593220338983
-0.366230775366435 0.0911597570072528 0.60593220338983
-0.376241214447661 0.0955277370937893 0.60593220338983
-0.388982543143137 0.0805780364677654 0.60593220338983
-0.407109776929197 0.0630439329449415 0.60593220338983
-0.418735922060407 0.0612663148430496 0.60593220338983
-0.415869681543637 0.0566684030703945 0.60593220338983
-0.44197818978825 0.0404781649725008 0.60593220338983
-0.452087734111751 0.0288614293971539 0.60593220338983
-0.457399983525509 0.0170234551809228 0.60593220338983
-0.469718128415299 0.0160876703384223 0.60593220338983
-0.477563179491164 0.00397196281676123 0.60593220338983
-0.498007412172855 -0.0108282910580926 0.60593220338983
0.139005265253463 0.5 0.449801487782388
0.134306409355335 0.5 0.44620121175996
0.146578722460724 0.5 0.462750123070979
0.139097758842151 0.497473701373954 0.466101694915254
0.12579086793869 0.492186466131338 0.466101694915254
0.128577149834942 0.488221110674203 0.466101694915254
0.115895620078007 0.484095567577298 0.466101694915254
0.113466857064092 0.475849929856307 0.466101694915254
0.0972929068243603 0.469357180453193 0.466101694915254
0.0912911318937416 0.461099843393166 0.466101694915254
0.0873063379563521 0.459441724563143 0.466101694915254
0.082046615985239 0.456909848350238 0.466101694915254
0.0717864021254245 0.444797583412048 0.466101694915254
0.0679511463913379 0.438925256882881 0.466101694915254
0.0658148870621532 0.439092213132376 0.466101694915254
0.0559499694872681 0.427636677113974 0.466101694915254
0.040118883588345 0.416472428075815 0.466101694915254
0.0376522367818422 0.422173305284436 0.466101694915254
0.0306496517352544 0.414912533087431 0.466101694915254
0.132519524373293 0.5 0.596012575090037
0.125522522652234 0.495222811190755 0.60593220338983
0.124666506065446 0.486637267711516 0.60593220338983
0.117611084610246 0.480931833411487 0.60593220338983
0.11160532471154 0.47278534321631 0.60593220338983
0.104259553359712 0.473959442881212 0.60593220338983
0.104596414012253 0.466859330615811 0.60593220338983
0.0917399085079563 0.455673336629107 0.60593220338983
0.0820718419350499 0.458283544632878 0.60593220338983
0.0783470794992924 0.446219747234353 0.60593220338983
0.0643824037162389 0.437489026183142 0.60593220338983
0.0626055751095407 0.437346041021759 0.60593220338983
0.0489332919662109 0.428242376897999 0.60593220338983
0.0511155634714317 0.420775728733683 0.60593220338983
0.0299383288308425 0.413668219370903 0.60593220338983
0.0303433924042266 0.410342738080619 0.60593220338983
0.0203765456196 0.407576677858301 0.60593220338983
0.0113216620992116 0.392462499922361 0.60593220338983
0.00692237791158722 0.387603861585664 0.60593220338983
-0.0020076566998267 0.387615358356847 0.60593220338983
-0.0178773563667379 0.370937421140164 0.60593220338983
-0.026153801221583 0.367319326073047 0.60593220338983
-0.0235307008995504 0.360272136944002 0.60593220338983
-0.0355329794564288 0.357988676895219 0.60593220338983
-0.0418901623391068 0.348798630323402 0.60593220338983
-0.049465423488302 0.345539062875465 0.60593220338983
-0.0554291173587004 0.340198297853179 0.60593220338983
-0.0649302503077892 0.332592357410426 0.60593220338983
-0.0773443439510098 0.326233392449584 0.60593220338983
-0.0871028423286991 0.311370650123591 0.60593220338983
-0.0964805074214234 0.300427801300304 0.60593220338983
-0.103284999918736 0.299277344790117 0.60593220338983
-0.117590788440237 0.292140620965427 0.60593220338983
-0.119453987430431 0.281568951159102 0.60593220338983
-0.130356204123508 0.283809789147121 0.60593220338983
-0.135389767292721 0.276134878072048 0.60593220338983
-0.152992344175079 0.261175251260089 0.60593220338983
-0.166415544332413 0.255773511849724 0.60593220338983
-0.165961072006959 0.250122579470571 0.60593220338983
-0.180924848854998 0.237258669661805 0.60593220338983
-0.181193665236413 0.239453927219008 0.60593220338983
-0.196770946344996 0.225733009123404 0.60593220338983
-0.210430189124863 0.21261662982304 0.60593220338983
-0.219734193683822 0.209947783816003 0.60593220338983
-0.223985062826988 0.199059664719887 0.60593220338983
-0.239416495228028 0.196970320998739 0.60593220338983
-0.254212883898071 0.177777370500323 0.60593220338983
-0.255942130417538 0.180604679607384 0.60593220338983
-0.273066368812446 0.160851104160261 0.60593220338983
-0.280567353034172 0.1579641983783 0.60593220338983
-0.280425668477284 0.157368873103979 0.60593220338983
-0.302170851461358 0.141104253864019 0.60593220338983
-0.303002307070404 0.132957926089441 0.60593220338983
-0.311515549843183 0.123413915331256 0.60593220338983
-0.326482390238014 0.121211638347644 0.60593220338983
-0.344825019077216 0.102489057884704 0.60593220338983
-0.351844896969603 0.0970107088761983 0.60593220338983
-0.353198563312091 0.0902385957504023 0.60593220338983
-0.378268554598918 0.0727897782403992 0.60593220338983
-0.388169179726742 0.0685127183760398 0.60593220338983
-0.401870679671177 0.0632771419821915 0.60593220338983
-0.411124846269154 0.0485494553210825 0.60593220338983
-0.408778786696802 0.0491365942225543 0.60593220338983
-0.434457018438612 0.030382766846992 0.60593220338983
-0.438330879062189 0.0226800776347761 0.60593220338983
-0.447005670860743 0.0168012135117112 0.60593220338983
-0.461198904745222 0.00317579813521453 0.60593220338983
-0.483382927396901 -0.00842765147259897 0.60593220338983
-0.47962017414019 -0.0110193141999692 0.60593220338983
0.151356133425981 0.5 0.454244082847987
0.153381202212878 0.5 0.459222688087559
0.149496720408123 0.5 0.462764482161542
0.144223346753875 0.495270273414409 0.466101694915254
0.135514285233807 0.481780533650889 0.466101694915254
0.136467643369526 0.485064731402798 0.466101694915254
0.122243831100634 0.479420018038104 0.466101694915254
0.118022243144445 0.469259334163286 0.466101694915254
0.110741114767564 0.464733033085103 0.466101694915254
0.0993124577780975 0.457468024552759 0.466101694915254
0.0992811196145058 0.457416944953871 0.466101694915254
0.0888003627242458 0.445970624951039 0.466101694915254
0.0753550425604086 0.435669241034386 0.466101694915254
0.0708802901927957 0.438695383633908 0.466101694915254
0.0630866951323906 0.42876500970626 0.466101694915254
0.0662347130877964 0.423139055961909 0.466101694915254
0.157913513898466 0.5 0.597235404485942
0.157662078269369 0.5 0.595659227788804
0.154721141748657 0.5 0.604146208861085
0.147308800300849 0.494563940987517 0.60593220338983
0.141176613495054 0.490575358062163 0.60593220338983
0.137125651658352 0.484704843703204 0.60593220338983
0.127578256827039 0.475886903153875 0.60593220338983
0.115297416495188 0.466170100024312 0.60593220338983
0.106510985461938 0.467296679292125 0.60593220338983
0.0987994693437269 0.4622429529495 0.60593220338983
0.102334829810435 0.45318417846946 0.60593220338983
0.0912903523691792 0.449666190704765 0.60593220338983
0.0857143140415241 0.443546835372142 0.60593220338983
0.0745491547634805 0.429601586443016 0.60593220338983
0.0719107243522137 0.431809521213168 0.60593220338983
0.0564212263982087 0.421856495170314 0.60593220338983
0.0554738055473444 0.421041577550741 0.60593220338983
0.038562107836826 0.405329620382251 0.60593220338983
0.0351203055393167 0.407122963429707 0.60593220338983
0.0242579553943411 0.395416353727233 0.60593220338983
0.022827364270378 0.392184728103788 0.60593220338983
0.014496899645956 0.38564394985732 0.60593220338983
-0.000650770720217821 0.375361072548914 0.60593220338983
-0.00579728603158557 0.371022133931301 0.60593220338983
-0.0086621931006857 0.363371263459183 0.60593220338983
-0.026232634141391 0.357443337389186 0.60593220338983
-0.02769948420986 0.347981284433087 0.60593220338983
-0.0375648504089966 0.3448061421786 0.60593220338983
-0.0429192933213363 0.336536286107747 0.60593220338983
-0.0487536978300952 0.330364315976581 0.60593220338983
-0.063262759584949 0.31819922987385 0.60593220338983
-0.0695939483219781 0.319757510680478 0.60593220338983
-0.0853444320551828 0.308328042612426 0.60593220338983
-0.0892241401205724 0.302317787966419 0.60593220338983
-0.102718548442236 0.291697421067603 0.60593220338983
-0.105097749870127 0.290217441682088 0.60593220338983
-0.118540205307784 0.277145314757465 0.60593220338983
-0.129592652092017 0.267042772374656 0.60593220338983
-0.128478350798012 0.265243483295296 0.60593220338983
-0.14414302058176 0.260429601110551 0.60593220338983
-0.151917484945122 0.252607200085805 0.60593220338983
-0.158515944430943 0.237958629148835 0.60593220338983
-0.174020848898655 0.227526394643042 0.60593220338983
-0.181656244938977 0.229066410494946 0.60593220338983
-0.192317258524851 0.217735513547833 0.60593220338983
-0.195229951572585 0.205283485821973 0.60593220338983
-0.215053053855078 0.20469325375576 0.60593220338983
-0.218106896171967 0.194399047797031 0.60593220338983
-0.228088681426024 0.185412513961652 0.60593220338983
-0.233170895426517 0.184337745850555 0.60593220338983
-0.251034222931681 0.166105595601774 0.60593220338983
-0.256012923194192 0.163634967706458 0.60593220338983
-0.269042511302683 0.156537235535154 0.60593220338983
-0.282721569899584 0.145412133149978 0.60593220338983
-0.283809733754289 0.134968958125599 0.60593220338983
-0.30556933951968 0.119794899998308 0.60593220338983
-0.306194390841568 0.118170565956976 0.60593220338983
-0.314384057045097 0.114297358058713 0.60593220338983
-0.330503117424895 0.097380607930623 0.60593220338983
-0.339696265312042 0.0946295906476721 0.60593220338983
-0.350536686249022 0.0921101340589729 0.60593220338983
-0.37317472781868 0.0702748517584926 0.60593220338983
-0.381580308228782 0.0587470148817442 0.60593220338983
-0.382988231196346 0.0550530735545691 0.60593220338983
-0.398439411645805 0.0385010301295574 0.60593220338983
-0.41304586055178 0.0328488666985224 0.60593220338983
-0.424398593221409 0.0280377627782072 0.60593220338983
-0.42461664770588 0.0219794949917484 0.60593220338983
-0.444068917125672 0.00683779209261537 0.60593220338983
-0.456345841904688 -0.0100599960730339 0.60593220338983
-0.47113934921018 -0.012884381362479 0.60593220338983
-0.485972047998616 -0.028014571169461 0.60593220338983
-0.492183251278389 -0.0296814419347991 0.60593220338983
0.163598629069731 0.5 0.464228022614586
0.162404577847926 0.490645937575175 0.466101694915254
0.156706698262122 0.490064869422655 0.466101694915254
0.146096799859682 0.47887097934517 0.466101694915254
0.147785714891431 0.47837809474064 0.466101694915254
0.137097021731159 0.473482681950961 0.466101694915254
0.132124660512087 0.473412470224361 0.466101694915254
0.118048412957643 0.459840555141347 0.466101694915254
0.110525660316842 0.455989842806466 0.466101694915254
0.110403393326501 0.456109348005664 0.466101694915254
0.100415850879994 0.442460624579484 0.466101694915254
0.0994280197777752 0.441981754167 0.466101694915254
0.0856540867344916 0.432475239949824 0.466101694915254
0.0820795566665494 0.42893859443984 0.466101694915254
0.0737550854254475 0.419987939220285 0.466101694915254
0.0651026826263432 0.417434294764371 0.466101694915254
0.170777359133945 0.5 0.602084754348593
0.169762552332503 0.498564553313328 0.60593220338983
0.163373923520884 0.496328436432231 0.60593220338983
0.151784501526202 0.493232190195963 0.60593220338983
0.144576277965262 0.488923576523995 0.60593220338983
0.136371259861126 0.476497883628847 0.60593220338983
0.125594918464096 0.471903193072811 0.60593220338983
0.124883520207384 0.46825375360548 0.60593220338983
0.119072551191668 0.453655964774416 0.60593220338983
0.111679248982148 0.459412158315941 0.60593220338983
0.098167529122899 0.448531899989123 0.60593220338983
0.0915092682335806 0.443338323925276 0.60593220338983
0.0873303986646809 0.43022763371737 0.60593220338983
0.0821814486908853 0.431736763930853 0.60593220338983
0.0722851332745926 0.426910850121613 0.60593220338983
0.0638669298646949 0.41422994516199 0.60593220338983
0.0578937839659466 0.409325174557954 0.60593220338983
0.0503722505896828 0.404831968251514 0.60593220338983
0.0457467534315118 0.397960917545171 0.60593220338983
0.0359449754604131 0.390793041271184 0.60593220338983
0.0262420259463683 0.384988392121593 0.60593220338983
0.0198433379764123 0.377772469332706 0.60593220338983
0.0134090124224043 0.375108142971267 0.60593220338983
0.00963925022219675 0.363887076042474 0.60593220338983
-0.00510454301451597 0.358768185098998 0.60593220338983
-0.0193789895750458 0.345165355525806 0.60593220338983
-0.0208179269947555 0.337819743437028 0.60593220338983
-0.029186101955999 0.336394440118837 0.60593220338983
-0.0435172601111663 0.326756059519299 0.60593220338983
-0.0439175259252173 0.325594304831381 0.60593220338983
-0.0541159888832849 0.315097569564503 0.60593220338983
-0.0671751624606164 0.30596925565223 0.60593220338983
-0.0756029267570843 0.299382048246224 0.60593220338983
-0.0831278390521005 0.294196661136107 0.60593220338983
-0.0910054661586262 0.284277391969296 0.60593220338983
-0.108212578931193 0.271297631715244 0.60593220338983
-0.109534987172161 0.270699794063217 0.60593220338983
-0.123424408783908 0.263485096852335 0.60593220338983
-0.127677927293201 0.260338424426975 0.60593220338983
-0.143776362565553 0.250867770585016 0.60593220338983
-0.144496332032513 0.238093400021413 0.60593220338983
-0.152848434325476 0.237051181742323 0.60593220338983
-0.160821783806977 0.229710410712824 0.60593220338983
-0.181515734255597 0.212770086663254 0.60593220338983
-0.178759091438126 0.217323488631906 0.60593220338983
-0.190742372085868 0.199598434560363 0.60593220338983
-0.194896786390529 0.198451108075255 0.60593220338983
-0.218076356917462 0.183814341886183 0.60593220338983
-0.214403191133533 0.180348024407689 0.60593220338983
-0.230128412131532 0.168706770029676 0.60593220338983
-0.245716852246811 0.158524019516405 0.60593220338983
-0.245505515842585 0.158127623073357 0.60593220338983
-0.26434581918985 0.145109163990858 0.60593220338983
-0.277385390031723 0.134631927260636 0.60593220338983
-0.280184113891318 0.128001952746949 0.60593220338983
-0.287642750349473 0.122563565140643 0.60593220338983
-0.304924839657515 0.101887204474042 0.60593220338983
-0.314326488113435 0.102633800154715 0.60593220338983
-0.324460824008474 0.0875829689764624 0.60593220338983
-0.330045224042744 0.0827604296845827 0.60593220338983
-0.349073676121557 0.0670677388216398 0.60593220338983
-0.358578170259951 0.0714907787969599 0.60593220338983
-0.364680293440004 0.058613934618556 0.60593220338983
-0.37386595071267 0.0494177864184557 0.60593220338983
-0.388484594238841 0.0409114220257694 0.60593220338983
-0.409140455997803 0.0237730757474944 0.60593220338983
-0.419971211696807 0.016690766137603 0.60593220338983
-0.427633928513098 0.0144541647917558 0.60593220338983
-0.442402884628172 0.00235847864225349 0.60593220338983
-0.441337145276202 -0.00748921353562684 0.60593220338983
-0.457270811498572 -0.0227466962051088 0.60593220338983
-0.478131823706594 -0.0307554586893851 0.60593220338983
-0.482166667253431 -0.036986061134188 0.60593220338983
-0.495884543636607 -0.0524584985445813 0.60593220338983
0.170700891246664 0.5 0.462452230806145
0.164159136172245 0.488961104114055 0.466101694915254
0.162607795566212 0.490778394401235 0.466101694915254
0.152413013371494 0.476155886465903 0.466101694915254
0.148013208048753 0.47932794750406 0.466101694915254
0.145302073722719 0.465438269863506 0.466101694915254
0.140031045679551 0.465650389913257 0.466101694915254
0.131363150377438 0.458995369833141 0.466101694915254
0.122844676289547 0.450382269835254 0.466101694915254
0.116012586076403 0.448770554119576 0.466101694915254
0.111164472168173 0.443670212770079 0.466101694915254
0.0945412896956521 0.431873227503139 0.466101694915254
0.0923825059942439 0.42684084136466 0.466101694915254
0.0869325319309991 0.423190592701669 0.466101694915254
0.181868139334635 0.5 0.595564263183877
0.182550860585085 0.5 0.602608410273846
0.173716817630638 0.495585469312783 0.60593220338983
0.1704854081205 0.491190192332682 0.60593220338983
0.168256333923536 0.490346128194028 0.60593220338983
0.1592134735353 0.483551831122305 0.60593220338983
0.151830618391567 0.480570978004751 0.60593220338983
0.136715047119351 0.465567362228558 0.60593220338983
0.135038392119441 0.46305325775766 0.60593220338983
0.126798431102189 0.452416581275203 0.60593220338983
0.12392654187227 0.452222745655895 0.60593220338983
0.10953517045051 0.442386601732743 0.60593220338983
0.1061618057426 0.440066665374578 0.60593220338983
0.100442699692837 0.434295937336754 0.60593220338983
0.0938134765545642 0.428216975390458 0.60593220338983
0.0826184062362932 0.422468679967397 0.60593220338983
0.0766188170481666 0.420843369522782 0.60593220338983
0.0673309090811929 0.413456399819677 0.60593220338983
0.0694847209426691 0.403750460918248 0.60593220338983
0.0516520988313246 0.398806891568383 0.60593220338983
0.0441753179541376 0.387813222214519 0.60593220338983
0.0422171462570251 0.381817876675889 0.60593220338983
0.0274140847142225 0.376826519212197 0.60593220338983
0.0180104434382048 0.370847397628898 0.60593220338983
0.0175094422693101 0.368090744106684 0.60593220338983
0.00512220187788521 0.355333291809557 0.60593220338983
0.000177123640781447 0.351434015726362 0.60593220338983
-0.00623014218650165 0.342825542692834 0.60593220338983
-0.0200025576896305 0.333466265932122 0.60593220338983
-0.0266547835873407 0.32771360391143 0.60593220338983
-0.028661391321016 0.326637873680429 0.60593220338983
-0.0433715418532797 0.319034354611033 0.60593220338983
-0.0521485065429507 0.309417473631538 0.60593220338983
-0.0557190857582135 0.30826126280375 0.60593220338983
-0.0623177913035709 0.294393209975701 0.60593220338983
-0.0757024319127595 0.283469440691198 0.60593220338983
-0.0888180019176301 0.279868272157568 0.60593220338983
-0.0952419160195808 0.275409798499267 0.60593220338983
-0.101678572702522 0.264129278876209 0.60593220338983
-0.106865952433683 0.253137404426807 0.60593220338983
-0.126653608799124 0.248226412720044 0.60593220338983
-0.135079504791851 0.242270897325965 0.60593220338983
-0.140493147850728 0.227714538407919 0.60593220338983
-0.141449830326851 0.224965971323008 0.60593220338983
-0.15222146295326 0.217260271609676 0.60593220338983
-0.170164474723237 0.212627866247795 0.60593220338983
-0.171954824762381 0.203472329789171 0.60593220338983
-0.186533172376259 0.193491017655207 0.60593220338983
-0.191695375943448 0.188093170212004 0.60593220338983
-0.206703124887901 0.174020894801256 0.60593220338983
-0.213326600617199 0.171107130442527 0.60593220338983
-0.223250512346902 0.164995907642557 0.60593220338983
-0.230476330147289 0.159806216909777 0.60593220338983
-0.237701808974509 0.148189722908135 0.60593220338983
-0.253297804596912 0.136005267444437 0.60593220338983
-0.264528301457672 0.137491415033772 0.60593220338983
-0.272425600574617 0.120559899087291 0.60593220338983
-0.285701184802539 0.116726894389393 0.60593220338983
-0.29858241403061 0.102759868578202 0.60593220338983
-0.302780859184165 0.0985318740006427 0.60593220338983
