ply
format ascii 1.0
element vertex 849
property float x
property float y
property float z
end_header
-0.226578394064355 0.22750935119529 0.341543552082362
-0.225355694842691 0.218057180874863 0.344396146694562
-0.227896166066732 0.208037848624779 0.344639127199985
-0.22469883143993 0.204480012688526 0.347689458405086
-0.224404986448583 0.187010060989025 0.3502527557517
-0.2283389372914 0.184194301184112 0.347941327165567
-0.223936175864812 0.172817940206498 0.351183504278054
-0.229409107941986 0.154603627192277 0.348394188204496
-0.229679488006407 0.15395523631064 0.348247146726496
-0.229456429408012 0.138002951083909 0.348887655813465
-0.228325106182249 0.125888214371771 0.349969850135945
-0.22882020951546 0.12326374354081 0.349745855356234
-0.235952497756837 0.0903799631195887 0.335114018066112
-0.236786361422291 0.0523787718366922 0.309136664291931
-0.239438837996587 0.0305937982172167 0.292405486735356
-0.204887748955537 0.326567297266402 0.31889323230326
-0.201663017367528 0.325951385466283 0.322056391565898
-0.20888601458964 0.309843317643052 0.32655798678933
-0.205541971141936 0.311533074037899 0.328540981442827
-0.210997402935324 0.306293512217002 0.326352619783413
-0.208628964325156 0.298955434630154 0.331354954590269
-0.211711234151581 0.290138130301941 0.332587566467006
-0.206506359215904 0.283123371421242 0.33973978422846
-0.209959121926286 0.276519011431791 0.339740911375829
-0.206626983704925 0.267869582450358 0.346100092629302
-0.208938214307769 0.262640190340401 0.346475935892174
-0.206166723910072 0.255615071283297 0.350296382996352
-0.207483930306647 0.251582182215984 0.350203929388956
-0.207092569597412 0.241135385391862 0.352710220446467
-0.214983000172564 0.23231973360267 0.348890518566392
-0.216233766169187 0.221150509351852 0.350349511533136
-0.209614453039324 0.219894983075522 0.35539613884224
-0.216204888920742 0.210695855393219 0.35254058880636
-0.216006406707108 0.193833689164001 0.355150778823644
-0.215746450023386 0.189521397068019 0.355506424553196
-0.221389270280447 0.172346110454958 0.352783472509777
-0.218307700788427 0.169030471399933 0.354815534699051
-0.218310773269241 0.160596966362229 0.355079213451131
-0.222357140516944 0.143319344842703 0.353117186507897
-0.22295296236126 0.13173297761072 0.353113033037663
-0.224492792613352 0.126713491294407 0.352317407803829
-0.218421887775115 0.117176738253312 0.355517842601711
-0.226390590478101 0.0983580187590924 0.349650427448676
-0.224573533799436 0.060710880476902 0.328762186089838
-0.224966313844356 0.0256116649321126 0.306601297881629
-0.227179294764218 0.017980159138571 0.299558899351618
-0.231232113535121 -0.0674765110251578 0.235942454723651
-0.199324669807211 0.330178020580874 0.321142266159757
-0.192613228840346 0.3262756924431 0.329586984289087
-0.197009013096646 0.322377350818598 0.32848738964902
-0.193799146206717 0.314586673760819 0.336623564005175
-0.196877837114666 0.311632963922266 0.335482196057655
-0.198905470226876 0.300851572148427 0.338392809489092
-0.194985019793931 0.297680301397012 0.342889555023663
-0.200645461762547 0.288460967971606 0.342213626151609
-0.199824292049895 0.283277417049745 0.345060616487838
-0.200639297339722 0.276048490692006 0.34745107139453
-0.198686551105436 0.272653697468815 0.350456066113877
-0.196338698490755 0.262110483176654 0.35600876909228
-0.204990530064725 0.249119197255749 0.352528245302806
-0.203603913854973 0.240013694731045 0.355467514760994
-0.200600682608349 0.241863821562676 0.357241775315672
-0.207645285149525 0.225286283527614 0.35568492860006
-0.206980735765561 0.221258920824196 0.357017282703248
-0.20195261501914 0.21890284283934 0.361141875128977
-0.204154664185943 0.197437653396112 0.362334454280741
-0.208192489839249 0.186879051273181 0.360307893032948
-0.206953882807619 0.180448881186802 0.361365680212505
-0.205253397100711 0.18057226909775 0.362414151418482
-0.213021445878784 0.157190788035839 0.358462427727476
-0.212140256578091 0.151318790422497 0.359193109673124
-0.204774706957903 0.142533945295505 0.364031614950357
-0.2142203165904 0.130653681469052 0.358555593039125
-0.208147785228029 0.126704694739887 0.361528237936352
-0.213296460753018 0.100405356832032 0.356388783795126
-0.211071843377664 0.098747948008803 0.357321757120242
-0.218257981206686 0.0381192154190454 0.321781520302536
-0.219559253355188 0.0407512291643223 0.32177281741253
-0.225812621878081 -0.0598217796509661 0.2495738766932
-0.186520303230928 0.336369884983182 0.327955722383254
-0.18834416428086 0.329054660774236 0.331371447149982
-0.19110452192407 0.323652094239933 0.332676012659089
-0.18781890845818 0.320661388991575 0.33754671844878
-0.190120888512709 0.317435446934765 0.337763846778965
-0.186249784349255 0.307155793287937 0.344060582723033
-0.190006988438846 0.302952399000566 0.344679414762662
-0.1934567284869 0.297570465255027 0.344167664709035
-0.194379412806616 0.288282779564412 0.347339199412958
-0.191468291439158 0.275567619826151 0.353805561447544
-0.190479796721822 0.275328083953242 0.353985931542572
-0.195719714169087 0.257823764993475 0.357368118893249
-0.195246802500962 0.259298233874787 0.357395659344317
-0.194784426762059 0.248333012826936 0.360063571995157
-0.197772391979257 0.237635341656804 0.360183667417385
-0.197036039639606 0.226556443135725 0.363073566847955
-0.192941233571556 0.223629746776187 0.3666526754003
-0.191336125414152 0.223089894321747 0.367926348608687
-0.194340177819468 0.209401039298222 0.367878282191594
-0.193707353178931 0.201687909671468 0.368618448439542
-0.193761920218794 0.191180660732664 0.369058572016323
-0.197966034964948 0.177693333398476 0.367061042322329
-0.194153285348476 0.175575152834623 0.369519898442615
-0.195293528099112 0.161938723155994 0.369292710268126
-0.200317256870258 0.154392102581544 0.3664189121557
-0.20173814908835 0.133612960106639 0.365363446345904
-0.203211682939313 0.124298310962405 0.363796214741248
-0.206481118088483 0.110066761248183 0.360804084192013
-0.204910969974602 0.0977325983897106 0.360283173515674
-0.200552152406818 0.0873935647473293 0.361362041916672
-0.207162105533912 0.0772853405092892 0.357001841994011
-0.207391150624125 0.0364205812662175 0.333625958799673
-0.210345752508952 -0.00622419791891721 0.305385200491332
-0.22242825651273 -0.155141865733788 0.181633732947355
-0.173096099923037 0.341632876426014 0.333375117231251
-0.178134444778597 0.333154177617988 0.335878952731558
-0.181619285466984 0.327006438244574 0.337710969374689
-0.180771412693525 0.321953062503992 0.339581441068967
-0.181281435502747 0.315464705866452 0.341826064360618
-0.178697226900911 0.305950114699367 0.345235354468658
-0.179705349030397 0.304264299326038 0.345679866160675
-0.181327923824995 0.288902077049082 0.350513922568838
-0.178853509200768 0.288314781923789 0.350961417893862
-0.176861605904605 0.281215082399363 0.35347944838172
-0.183355818393577 0.272123665734444 0.355767127500123
-0.182966485549492 0.27013134586642 0.356456169458268
-0.178988892335611 0.261127569422163 0.359614641775115
-0.180080965641098 0.259108693095492 0.360104544863079
-0.183724733958322 0.250398520646443 0.362326609433691
-0.185660040323713 0.238586766372145 0.365645190545957
-0.18247842409957 0.229294168215032 0.368733727520179
-0.183976121218504 0.221543954833827 0.370888055260129
-0.185311582733538 0.217794190723711 0.371838396877047
-0.18413414449763 0.205727951940182 0.374370117071182
-0.191668964788453 0.192344689132952 0.370303373654051
-0.186174340705695 0.19158390803441 0.37374350279324
-0.186260513099041 0.178372943184092 0.37428599149465
-0.191966040270123 0.171661871123055 0.371047398517296
-0.186525110030167 0.150604296257148 0.374518950537548
-0.187060683049619 0.147459481692789 0.373970678659228
-0.188208151240897 0.126803159246298 0.371561063082938
-0.190614097239088 0.124556697542538 0.370152221419717
-0.191694788788248 0.106339925705357 0.367775323694243
-0.189943160741902 0.0969872667768567 0.367659774416423
-0.190550176634868 0.0927341895458833 0.366908127448649
-0.198139048792109 0.0620452952670216 0.359886182472997
-0.198487569117099 0.0353083867383342 0.343492792390902
-0.212016627708893 -0.133011292501421 0.207865445497812
-0.203117478028918 -0.0587596420556891 0.275344826643153
-0.167572911922201 0.342867348600017 0.333480931217759
-0.168197248225142 0.33150517749447 0.337438030023675
-0.172259870398047 0.331812987462819 0.336930198385476
-0.167324294663909 0.325321191186476 0.339710823108294
-0.173277894094923 0.319871550033822 0.341053501833673
-0.168852833797739 0.306543588461376 0.346061660232174
-0.171199464936897 0.299608984148011 0.348076608179526
-0.167110803171586 0.293326486072282 0.350545702764582
-0.16714404855935 0.287155538117679 0.352551584929775
-0.176476342041287 0.283268909432603 0.352850601135187
-0.174358699928377 0.273914829172454 0.356115703894437
-0.172252782383222 0.267344307637047 0.358448650628917
-0.171572555798651 0.255454565282691 0.362056058557406
-0.17860252799178 0.252062074098234 0.362351724940117
-0.178010908902743 0.245026645566764 0.36450551477799
-0.173718708955067 0.234563018925896 0.36805532827226
-0.175529749615763 0.227148229842835 0.370078014105761
-0.172100311319176 0.219104759608967 0.372707553924625
-0.176504455124523 0.217719665798486 0.372675355526715
-0.174360897742414 0.207229878438303 0.375723329297733
-0.174079001689513 0.197671996703303 0.378345544073302
-0.179157143010243 0.18997441780179 0.378165673322311
-0.177463845741907 0.180886662470678 0.379625172504793
-0.18104901171291 0.164947978192129 0.378020298410333
-0.182438947331855 0.159774071206787 0.377322373446749
-0.183747744533703 0.149148511489345 0.375786026386714
-0.178849428955824 0.139113142998663 0.377358115684204
-0.177320733125843 0.133365028072137 0.377616615652188
-0.182406066976319 0.114519696792961 0.373266072558368
-0.188464176509691 0.095336308158562 0.368222035633663
-0.188012089318394 0.0843236785634467 0.367283835879202
-0.184541603274673 0.0789289025490164 0.36844254814409
-0.184635278226604 0.0604958973653501 0.366189871856185
-0.189493001159327 0.0535535449431323 0.363050933087256
-0.186681389851793 -0.0252720717378279 0.312809344747248
-0.155187674039619 0.345170845658483 0.333882555161913
-0.161438593465926 0.336880137883856 0.336200823783043
-0.157591881342348 0.33294512578598 0.337970269451606
-0.158261246719111 0.326986490270171 0.34001190024455
-0.164684142725748 0.316398593648586 0.343125717122061
-0.162067881765656 0.309380623144645 0.345840584181269
-0.160032540308101 0.300811397500427 0.348841606488327
-0.165657359146485 0.289347607895861 0.351991794929436
-0.161248518767552 0.292863310970196 0.351303652333109
-0.160029242425814 0.286454083312246 0.35351683986313
-0.162993849771993 0.276452787250292 0.356466333264879
-0.165090174107403 0.265411389482449 0.359751269299626
-0.16472573982206 0.261011270496956 0.361097732592785
-0.167871659233603 0.259588655225605 0.36120161497694
-0.160671675534446 0.245773567562182 0.366044103799051
-0.167262827687235 0.241481383515999 0.366652078251226
-0.163578371625439 0.225308070545886 0.371812905451598
-0.167095635157593 0.217968910336273 0.373480170299422
-0.163012257861304 0.212520222647513 0.375338787222535
-0.16869391351097 0.212058424106481 0.374937338813514
-0.170878695211362 0.199311318430463 0.378197053955815
-0.167145194345327 0.192326009614524 0.380440596458749
-0.164660938324291 0.190933648869899 0.381049157864755
-0.172345854361268 0.176016680009046 0.38301720016406
-0.17380163539057 0.170456133999282 0.382335508353204
-0.168128238166935 0.150506243936419 0.383758759323168
-0.171205342750695 0.145392966346757 0.381758149745156
-0.174295120993823 0.124832098737528 0.378380561907662
-0.173347751027371 0.127171548585171 0.379064396088193
-0.178071049175337 0.0994325562993261 0.373831493757407
-0.172794064379805 0.0960082642569574 0.376098170709261
-0.176505499568648 0.0758807493810567 0.372123254227884
-0.176384257816708 0.0592265556931545 0.368977845647838
-0.175495996353344 0.0560486345638303 0.368648287388949
-0.176040219437806 0.0476616723148437 0.366729134095788
-0.181936065596589 -0.0490397870855332 0.301511460681012
-0.147097555050218 0.341402372814316 0.336009825313256
-0.146511279572772 0.334190254677088 0.33861808028283
-0.149540484396831 0.328288765891003 0.340407752221384
-0.150151050105637 0.323797144708827 0.341936324583962
-0.156462794593303 0.318737379984357 0.343105945704747
-0.154515002637068 0.312968053563341 0.34533764224709
-0.150078570847433 0.305205651010009 0.348441686984807
-0.154428970798145 0.296312076714218 0.350886973215844
-0.156314276429063 0.291637649842688 0.352213761483615
-0.150678579367383 0.284146257423322 0.355236705393424
-0.156154895068533 0.278930890695034 0.356367721838391
-0.153417973291146 0.269743594792547 0.359642654346931
-0.155606184130232 0.257447670368318 0.363084370031986
-0.158826514822813 0.252710052041198 0.364167224065102
-0.158826592834493 0.246844582341846 0.365912750741522
-0.160413655737993 0.233413027592835 0.369748741948025
-0.157197480723011 0.231426838814776 0.370666437429167
-0.16138293955538 0.228201194670051 0.371201322801638
-0.159844581408668 0.213486416546374 0.375370103489866
-0.161731991297188 0.212867467523862 0.375363193664472
-0.163432743863696 0.20073599279863 0.37850057934959
-0.161593328207565 0.193762731055383 0.380565204369263
-0.159405519078706 0.189620700075531 0.381893129606388
-0.155215234131425 0.182587861873017 0.384191941074822
-0.159021059766247 0.164351001477534 0.388465297471364
-0.165493723357737 0.160900691280589 0.386005447828023
-0.16552411300094 0.14369608530011 0.384463669896979
-0.162005017773582 0.143757576989664 0.386238251724139
-0.161680763544835 0.134015002180967 0.38553683914016
-0.162184825914532 0.117762203754244 0.383680640624351
-0.160916313464895 0.104411357771012 0.38290208480488
-0.163416134240198 0.0865912465390898 0.379038918021071
-0.162889940740976 0.0765044167243961 0.377312792775651
-0.170943425383455 0.0682314186774614 0.372746817053674
-0.167648210135114 0.0518093818015089 0.370629346193018
-0.1677757110224 -0.000146901670767309 0.342536290346531
-0.167628734264323 -0.0382779130477687 0.318579047537145
-0.179949594962657 -0.245645547919636 0.150723093867299
-0.185127821451866 -0.353747855426583 0.0657852223699163
-0.13985772150258 0.348267900736049 0.334245120146462
-0.141573923982263 0.335911519331042 0.338494200734043
-0.145633116268467 0.336691013437933 0.337819887362511
-0.139771803486344 0.322850683738835 0.343290349300952
-0.142575941144071 0.31918304256975 0.344312088372639
-0.140802110600491 0.311325074597344 0.34726538219723
-0.143557184888497 0.303802668579678 0.349573908346429
-0.144115329048652 0.292430861804705 0.353218882792367
-0.146203079553486 0.291362862859852 0.353350413907078
-0.14707085094408 0.28041891206883 0.356824007028754
-0.144393693125805 0.271862682780053 0.359887268110312
-0.147689232895957 0.268389886682922 0.360632019323986
-0.148029853715418 0.259933761992574 0.363113928536174
-0.147121281965427 0.253059526897627 0.36525193583424
-0.148014118672894 0.247224667322705 0.366897689832915
-0.150061039801802 0.23969376488891 0.368930975806122
-0.143284161870451 0.236108431206657 0.370686172639382
-0.149108639728715 0.219537770598176 0.374722041271354
-0.144782802844302 0.215483794745736 0.376224316299186
-0.153371002300401 0.207534413699297 0.377587080834951
-0.149486028617958 0.202227784534524 0.379388713713169
-0.146988625050031 0.197955738699552 0.380780662865582
-0.146131900680377 0.184794247543075 0.384376394216526
-0.146265493091903 0.182443492991978 0.384951932306106
-0.146127541039655 0.172119850632665 0.387536097201428
-0.155835001309615 0.158112783436534 0.390269227399131
-0.151895325257678 0.147253438790122 0.391630789331913
-0.154641818355499 0.143700065485036 0.389934789834152
-0.153602391806744 0.137591097832054 0.38991530635278
-0.149580258970995 0.124590182243261 0.390680179528938
-0.155547443989611 0.108613079782558 0.386020145246901
-0.151361187312142 0.100440462398304 0.386152754314956
-0.158318868106472 0.0734790590931913 0.378433580166874
-0.152967465695591 0.067914867021704 0.379268656219435
-0.159017007216838 0.0422540021642749 0.371803886878219
-0.158423557509859 0.0365887341367752 0.370856690517664
-0.1606109105532 0.0235125305171301 0.363516115308634
-0.160479229739738 -0.0192455779444063 0.335578526103425
-0.178378333168475 -0.316265290526916 0.101634093053189
-0.13046620905418 0.344592618648084 0.336443446694222
-0.133036895013291 0.335111872784406 0.339615387239988
-0.12909506748368 0.335807309140594 0.339756542291128
-0.136683775268206 0.327022653940901 0.342118125749591
-0.132671897773223 0.318903783853045 0.345383479116667
-0.136992254367483 0.308201806374925 0.348744122356879
-0.132025558590694 0.305747068254195 0.350100033674422
-0.13718785640654 0.29391186285078 0.353454105819249
-0.133249806238356 0.290817662297483 0.354869459067758
-0.135946937595972 0.285653125592192 0.356271754469892
-0.137878347565757 0.276284606627812 0.359122213417555
-0.135139204635244 0.269241761040204 0.361653011892003
-0.136488005961903 0.262961832873191 0.363384911037658
-0.138177651872809 0.257205062368236 0.364926506919721
-0.14056411962255 0.248389359550998 0.367307660761596
-0.139758333586558 0.238988421587668 0.370187163956603
-0.133913289516379 0.232558949333597 0.372594400121304
-0.141775299981323 0.231499518997312 0.372153085954714
-0.137695134675827 0.221425515859675 0.375267714670134
-0.141866641669288 0.216021410205412 0.376348717412587
-0.143795395345902 0.198838710448948 0.380836953244272
-0.14199495112702 0.194840202802378 0.382089973513068
-0.140582829522699 0.187319975723303 0.38418034302914
-0.143018964980309 0.180919819969358 0.38558538624674
-0.143676994301072 0.164988284671715 0.389505248686928
-0.142670352782511 0.160510498049868 0.390700079328641
-0.14551600178476 0.15343014805233 0.392242680749009
-0.146313873054261 0.14521456449078 0.394228252860728
-0.138690579022002 0.139740966996269 0.396188259092354
-0.143048491867263 0.134614677901605 0.394956895346677
-0.147791846129229 0.110074168995301 0.389313110427982
-0.145588587131996 0.0970314469054237 0.387646547902012
-0.149444519942089 0.0836262797844111 0.383661346713476
-0.143309113020063 0.0803804012069544 0.385320916160525
-0.150020294769398 0.0560365625523405 0.377901355581493
-0.143660628710775 0.0459261867950245 0.378136713487588
-0.145475645364186 0.0279577070632727 0.373789253827773
-0.156243337989785 -0.0378116895734101 0.32713748012307
-0.151205247433758 -0.068149489144811 0.311976450240388
-0.15207125265822 -0.112810420728179 0.277385902081798
-0.160579923992459 -0.224738287229026 0.190455859180271
-0.163967642788772 -0.372000242336623 0.0833993905058181
-0.123263288156987 0.347395319146562 0.335995788529477
-0.126450889570576 0.337270159948754 0.339498853401211
-0.125202212737498 0.33021070928911 0.342118166217907
-0.126157906682933 0.320659172932742 0.345402364397205
-0.122788716822252 0.315240598615002 0.347649600270066
-0.125742736775555 0.312128884763584 0.348460007652755
-0.129068753944378 0.303254421230244 0.35125125293822
-0.127586431734985 0.296851723505442 0.353491240109872
-0.126114710720374 0.290051063155461 0.355858026974976
-0.125842595291869 0.287073988470759 0.3568555756421
-0.125871678989952 0.281468552631759 0.358677752152016
-0.128629684597049 0.267905894680614 0.3627116271667
-0.126043260536807 0.270534061049063 0.36219403135312
-0.124629912387826 0.258232188540217 0.365996667030495
-0.128396213128671 0.248718632365268 0.368445370937394
-0.132037123306576 0.240035033198093 0.370659817687145
-0.126548885703122 0.235586880296264 0.372454893187095
-0.132108976434602 0.226082794784027 0.374520747689153
-0.126905640871731 0.217044304484658 0.377458270156916
-0.131973043690972 0.21043332152103 0.378784000450206
-0.126669105482454 0.202851016153202 0.381335329044474
-0.13301126516823 0.193545714463357 0.383219999893426
-0.133463417259833 0.189894764705857 0.384094750663434
-0.135578551858044 0.17844088163796 0.386784621940732
-0.128523029083581 0.168742378734605 0.389753416424811
-0.130066194269471 0.162836623017966 0.391104986297704
-0.137093416061172 0.153590839832852 0.392860668218667
-0.13754120316293 0.140577681928866 0.396069489059418
-0.137604709644769 0.137935563099241 0.396723131580871
-0.132729742445813 0.121055038516592 0.396997009163874
-0.138658242667515 0.115887261441676 0.393811503302319
-0.133966811901561 0.105510107871226 0.393576499781142
-0.135705392102462 0.0883291598936498 0.389658142401246
-0.136678880853191 0.0782922652631146 0.387316413276707
-0.132511204095031 0.0541364764630127 0.38387256735713
-0.143093697899102 0.0400336453460029 0.377133234485786
-0.141866090774676 0.0309134520267903 0.375707306258781
-0.140814885052906 0.019501365883451 0.373746876592293
-0.138008424630071 -0.0138901185796001 0.355221346544613
-0.138070343359697 -0.0615276568503407 0.324312959350148
-0.151400998566966 -0.239731352032789 0.185288897666801
-0.156290703997754 -0.291005317972149 0.152914413577864
-0.163816351972584 -0.391246113625103 0.0712333289576922
-0.154703051668538 -0.400289213779071 0.07805926610072
-0.117390845863918 0.343926541511135 0.337814716516045
-0.113776608147861 0.339634851681342 0.339752823254244
-0.118106450913071 0.332649604001224 0.341952451696258
-0.117372836685235 0.327601028536709 0.343810004937598
-0.111758326210424 0.323169258223627 0.34592874363451
-0.112722912546159 0.310167949573427 0.350432135140005
-0.120001951454134 0.305476999438282 0.351376326002115
-0.119383511924732 0.302178641676195 0.352602369771034
-0.113354288323909 0.289621557176589 0.357319427918379
-0.118750428452307 0.28434634920424 0.35847823278366
-0.115541009693865 0.273075887434164 0.362480400658118
-0.116147441717044 0.271317574102431 0.362966577716181
-0.11913960400602 0.264358320275414 0.364731123732732
-0.120108932056325 0.257130069394055 0.366783776046077
-0.119348737124841 0.252813470379488 0.368145575306021
-0.117642805289133 0.239136099222395 0.372316761297773
-0.122968643985928 0.229049935119377 0.374562440684871
-0.120400421366463 0.225584306299885 0.375741921382611
-0.119025294082329 0.21574548610312 0.378541822785381
-0.122969253047827 0.212527568106727 0.379050123338427
-0.123665582635468 0.202322757279402 0.381757340034847
-0.116955979047917 0.196065008889725 0.383846386419494
-0.125646287668182 0.185137089867978 0.385891442047228
-0.124838757435661 0.180238323400941 0.387175654598332
-0.122812596681055 0.174393415484349 0.388790922658222
-0.127232750279946 0.165601476859698 0.39063716030808
-0.124070426673363 0.162722319651737 0.391601918679636
-0.127460609901023 0.146097665279236 0.395481096891834
-0.119398175410978 0.138876224585141 0.397653349621789
-0.12610001306877 0.133990073650926 0.398388497597958
-0.120538459242366 0.125889009289685 0.400592992726186
-0.123183093078618 0.103833643577072 0.397260811729248
-0.121732743745822 0.0981721375845633 0.39672079721434
-0.128885229800601 0.0713727674445123 0.388727681359817
-0.129290699385449 0.0674102240349115 0.387767054759528
-0.124384374753897 0.0541842991767896 0.386834931444814
-0.126727108618348 0.0326557949764208 0.381565048958614
-0.132380761618698 0.0210768191548411 0.377134430999075
-0.130166556123286 0.0124748071924879 0.375779969775542
-0.127744329063468 -0.0463078792232969 0.338581823236462
-0.135907769242746 -0.203908304479671 0.212294720454861
-0.143310395511651 -0.28288610513553 0.163717282074166
-0.138859488051534 -0.308483763513582 0.150779249666729
-0.142761704165123 -0.333636801800916 0.13467536910563
-0.145452178619086 -0.349868401146351 0.124212715476063
-0.104160405877601 0.34438778612351 0.338771366690915
-0.107916464632806 0.346240319602071 0.337746931714846
-0.109874342033773 0.337708014626879 0.340817967240657
-0.107807971382167 0.328163302807289 0.344550465235291
-0.105196654724359 0.320062678278168 0.347671823709098
-0.110134978481138 0.312411232585077 0.34989291061566
-0.11116469594956 0.311767666488026 0.35001939456428
-0.109250833941002 0.29608981995977 0.355638273279302
-0.109210393197882 0.291296209287981 0.357203311401466
-0.104463341411845 0.287796845810705 0.358834375216924
-0.105383002794865 0.280655276500399 0.361064499063545
-0.106645923294865 0.276588889120407 0.362257761410494
-0.104965933397636 0.263989817876714 0.366280181799824
-0.110509780052659 0.257461691031115 0.36765991981409
-0.110252102731342 0.249563338827564 0.370036598305889
-0.111792824415796 0.249272396106276 0.369966714892452
-0.108313635577325 0.235190473762369 0.374253583599839
-0.106858356413711 0.227489575515527 0.376480223978643
-0.108307874106379 0.217405473889544 0.37908480829469
-0.108132219779181 0.207618731688458 0.381655762209331
-0.112317915676576 0.204728875287663 0.382049098435747
-0.1084784808836 0.194729095579839 0.384841724687177
-0.11449744242414 0.191726723865477 0.385119877596863
-0.10949684874772 0.176908232208603 0.389204389559458
-0.114925905808619 0.17246006444565 0.389889026117488
-0.109314182785287 0.165691826229693 0.392014588157982
-0.113727247802409 0.162257613651154 0.392525852722781
-0.114503436453281 0.145410203655901 0.396429835216978
-0.114562181720649 0.141392992965561 0.397356505136778
-0.115987044340572 0.127678107354763 0.400447809340375
-0.117022430815144 0.122565736471664 0.401570316504031
-0.112625832476333 0.109880824361722 0.402332358025042
-0.112372483345806 0.0946893488799573 0.39951265840509
-0.118947224643111 0.0856016498837234 0.395258738007353
-0.115429859893346 0.0696117508191783 0.393254684945981
-0.115096338159919 0.0580703284811765 0.391001314823939
-0.121401846777142 0.0361171464647468 0.383879430743493
-0.121552388515552 0.0192963047536743 0.379441194089071
-0.120602329531196 0.0145302943971511 0.378399702500185
-0.125249630742469 -0.0741135226081761 0.321245588430081
-0.124525957086277 -0.0875728867503933 0.312656137149272
-0.130186356196454 -0.229887166024295 0.199657379681938
-0.134926663392491 -0.279177447553887 0.169290766130124
-0.133119617033381 -0.298484791313288 0.158897025338025
-0.139194578821612 -0.355984423338637 0.12324947212838
-0.100044071534696 0.344967400171094 0.33890347656504
-0.0944196039352181 0.340370369746376 0.341129431182796
-0.0982600915505092 0.333916280647005 0.343250625068672
-0.0962004721622228 0.330729577448167 0.344636343911477
-0.0994069102131925 0.32525321793652 0.346402275407711
-0.0978187662230386 0.315497984680338 0.350010745351464
-0.100614584645311 0.305970364620275 0.353105775748678
-0.103109010409848 0.300560516258024 0.354774089237576
-0.0951376700690129 0.296220113049315 0.35705519020054
-0.101951366813171 0.284309230494723 0.360230135109641
-0.0955071277441433 0.284955589998816 0.360687079464814
-0.0978723367018621 0.279447649636256 0.362235566656848
-0.0957808685554884 0.264519963924954 0.367055193464481
-0.0984263091443031 0.258403109101853 0.368606883832022
-0.102651261251434 0.255197281463965 0.369131861208843
-0.100066187872665 0.239247308669588 0.373916497721218
-0.105966141287854 0.234355484262045 0.374698071656263
-0.0976416307446312 0.229988294741201 0.376656231856474
-0.105429269900559 0.225063103060775 0.377271817016556
-0.105588670791752 0.213798731765664 0.380316618603458
-0.105362817845286 0.203599373915615 0.382874041417015
-0.103148970600329 0.203183821145075 0.383150591147816
-0.106670365078912 0.184684947591109 0.387486706933231
-0.102551376890327 0.182332509171261 0.388394912161411
-0.103419604628995 0.170745488389988 0.391215389700337
-0.101856217726622 0.162629747773427 0.393190489923642
-0.105955310733092 0.153331942391361 0.395100974881767
-0.101260360043374 0.142255285451084 0.397943206580781
-0.101029374627215 0.141401339491326 0.398154583786033
-0.103059734594875 0.131096506034457 0.400420531569939
-0.109468188594157 0.129183532115962 0.400484615586218
-0.100943319933705 0.11123772546187 0.405143737456601
-0.10859076356226 0.105388122534511 0.402974622513887
-0.110082559295397 0.0905398206182283 0.399492913144627
-0.105540587991773 0.0774246245676725 0.398149860665879
-0.109681427737197 0.0707500446898649 0.39550061073901
-0.108635955500778 0.0356355006161777 0.386531427255688
-0.104884807553913 0.0253115983175379 0.384643871085327
-0.105758608040773 0.0207843140650053 0.383267990786997
-0.110223821693431 -0.056032102149911 0.339324926990457
-0.114649094789628 -0.0560176969374115 0.337525324914083
-0.115031467914242 -0.0876256855640429 0.316502757831299
-0.123342547456908 -0.26894055715494 0.181926007223443
-0.122196428124586 -0.300746339828295 0.165334588381714
-0.120227830571756 -0.314756803416721 0.158945029872255
-0.125298091167101 -0.356320287807156 0.133133533949902
-0.12234395671525 -0.39390989073404 0.114527895727755
-0.124085719792398 -0.417197413601787 0.100756679819907
-0.0914038715187711 0.351665517027358 0.337100222773855
-0.0930597418271243 0.339016953917268 0.341759453273941
-0.0925893431550192 0.333046121335443 0.344065972165407
-0.0931871740060737 0.330248275508218 0.34507678098027
-0.0848407611923179 0.321066031455939 0.349275925972082
-0.0862948614968479 0.318642879349547 0.35002696969315
-0.0912949539645209 0.310321380310481 0.352482204380192
-0.0860361891305667 0.303567069379483 0.355387410350078
-0.0940667004728754 0.294031694728393 0.357880984408942
-0.0883287813477697 0.287832456286767 0.360493776211732
-0.0926016474679534 0.283586953272331 0.361433631656044
-0.0903109300215226 0.276290748899369 0.364046593245813
-0.0870982312306758 0.268185051938859 0.366846238451247
-0.0951880728542894 0.263753753685764 0.367343414620857
-0.0956544534572834 0.251568986835262 0.370922177773259
-0.0876035234302757 0.248044030360604 0.372682874929808
-0.0915201436331222 0.2382916172292 0.374968584093513
-0.08955258849462 0.229402585895678 0.377565445607268
-0.0947574201056323 0.221661658746999 0.379185342549085
-0.0899047407389472 0.214030025594751 0.381481695277526
-0.0953307399804707 0.207716521993824 0.382631545277078
-0.0905009260415645 0.199902698064825 0.384956652422754
-0.0970760755816928 0.190872158345978 0.386694000032661
-0.0969715404342631 0.181421956097483 0.389057830636546
-0.0981792051497799 0.177807657392266 0.389864418347284
-0.0993800306144872 0.166431676530143 0.392456576786806
-0.0929541563679995 0.152436428622853 0.396076903431537
-0.0930767786982133 0.150768752055081 0.396455787342986
-0.0950602480277173 0.145362584527743 0.397590272747687
-0.0969764314597523 0.136030206179248 0.399637808525186
-0.0937376863815299 0.1243630826937 0.402530670847498
-0.0951645130961613 0.117889307732557 0.403945256206311
-0.0982179496200615 0.102982945622415 0.406357393649198
-0.0932678427332629 0.0927177605860438 0.404835653724868
-0.0941566440267914 0.0849617165121167 0.402601268313514
-0.101508367645928 0.0492312498310938 0.391643354259915
-0.102842198224434 0.0543859539041819 0.392703129725593
-0.0993047171562928 0.031405201871573 0.387454172968739
-0.10291898886647 0.013316539770142 0.381930102039073
-0.102009944464146 -0.03179713486917 0.358255662325981
-0.0973356538491132 -0.0321863324576939 0.359687681689769
-0.104411659867256 -0.0808768760207967 0.325299556286739
-0.102487291783055 -0.220801381905875 0.218570254642935
-0.113818620573364 -0.268715689234978 0.188035360208589
-0.111350440000398 -0.303126782843734 0.170701213251749
-0.111542095359852 -0.338111306154141 0.151690159736086
-0.114374911168081 -0.3695632659577 0.132788962171852
-0.113249054333567 -0.390454882803983 0.122124026283247
-0.0820742965076795 0.348062434241887 0.339264630392748
-0.0839665383559893 0.344504545259879 0.340454414463244
-0.0810980495925581 0.336292720843152 0.343816651696382
-0.0765956131154619 0.329410338949157 0.346814053833599
-0.0767822225705212 0.32314583844803 0.349175837070913
-0.0825129036990285 0.316841620648344 0.351034612343259
-0.0799422457687325 0.307958008406743 0.354432940871523
-0.0764600457956578 0.304851092075117 0.355873720446434
-0.0789116386446992 0.296057565351079 0.358742931778898
-0.0781971397679587 0.288360065049045 0.361371277560915
-0.0828210908942105 0.276981148471782 0.364597486587348
-0.0850729836953433 0.276143654054396 0.364636963409744
-0.0780257182222538 0.266150732132255 0.36837299230076
-0.0849992290984375 0.263386544134325 0.368487412656428
-0.0781664513518434 0.253281420120477 0.372144589828098
-0.0836586240308158 0.244336225090345 0.374055798793579
-0.0828061247280226 0.237441900626367 0.376007462897379
-0.0875422438375796 0.23034632410103 0.377495537677435
-0.0839238835956528 0.228271182768844 0.378394722757668
-0.0832996817974804 0.207939589896307 0.383515908422696
-0.08054912411536 0.211505765664237 0.382841860163248
-0.0815193842124238 0.199929152001229 0.385651771880274
-0.084219302631258 0.189693181342365 0.387966868958754
-0.0836161733775535 0.188724369670017 0.388226841921156
-0.0806262667572168 0.175523917093475 0.391460019968361
-0.0821552450394756 0.163878803161323 0.394065935442134
-0.0826543172303851 0.157077123938211 0.395611289103821
-0.0836557166160665 0.151497937716819 0.396843891626655
-0.0834327585446309 0.134848163490387 0.400712151580017
-0.0867627837510822 0.135367174236005 0.400395120929317
-0.084790359176193 0.129897647173044 0.401778134877884
-0.0849448985895944 0.114780987039713 0.405122542989789
-0.0838290677258936 0.10980406882582 0.406255787436036
-0.0919686811269651 0.0941740007334753 0.405521351182285
-0.0897226194522151 0.08689138163263 0.404105919511783
-0.0838544091200066 0.0660034971652793 0.399914020176779
-0.0835556863724666 0.0484875835639429 0.395355487167124
-0.0842004124494562 0.0320769428100732 0.390917138986878
-0.0907650008400705 0.0179362320234779 0.385785004631017
-0.0903073701808762 0.0099698452927929 0.383798152645428
-0.0899555655453685 -0.00576671150025685 0.37911561939299
-0.0885688383586153 -0.0891042802973804 0.326344935175684
-0.0987179220468859 -0.211379705973044 0.225407589815281
-0.0956824350729897 -0.264745845712239 0.198331471793196
-0.0965127045068448 -0.299270961872001 0.179684061415866
-0.104595326598205 -0.319059750272349 0.164959762516456
-0.10088908409042 -0.351707148396854 0.149315498802453
-0.100215975669188 -0.387254749483075 0.131119890066731
-0.0982038331341829 -0.433501677931852 0.108194435340892
-0.108788576478777 -0.45548523496713 0.0876953114188965
-0.0719230619384012 0.351124912057684 0.338733015314324
-0.0677764843710699 0.343407561738705 0.342101837521772
-0.0682862474825137 0.339877233805282 0.34349763683505
-0.0753262831466628 0.327473542146788 0.347657759210529
-0.0674860736701349 0.327547978506202 0.348300150497584
-0.0743132583869665 0.318258695436822 0.351241987604936
-0.0724941022887225 0.308819042423921 0.354859867408921
-0.0716148741344212 0.298724499986656 0.358516306793688
-0.0691392882103919 0.295583824401718 0.359870171340914
-0.075461792071285 0.292767046212594 0.360215560996262
-0.0705113075121821 0.281303201442246 0.36446505918645
-0.0694160913780017 0.273464956678837 0.367073406153651
-0.0765332613740706 0.269027663258541 0.367668396942115
-0.0719224315820074 0.258826606157519 0.371172429197388
-0.0691978859696918 0.258760831212064 0.371468692122368
-0.0715137053048238 0.243719730068012 0.375349490515103
-0.0767205406961307 0.238798036885165 0.376203452604157
-0.0738380032888225 0.2261011040589 0.379727991623308
-0.0722140283152926 0.22337098729002 0.380535409756436
-0.0710453466988576 0.21118085659225 0.383665365747064
-0.0773838044290433 0.209203546181982 0.383663038643368
-0.078227138846457 0.197006622241743 0.386627754229844
-0.0721483155513128 0.188912538969779 0.388861212083197
-0.0784206629979952 0.185042647954202 0.389386445729341
-0.0709637389904628 0.17737163230407 0.391603415130528
-0.0792879827391339 0.171048960572755 0.392575263482681
-0.076900704928902 0.16665552277006 0.393733644963016
-0.0734501158417781 0.148939373258389 0.398035032043622
-0.0807814110709752 0.146446305910567 0.398183462320098
-0.0752661030450022 0.129571526526091 0.402232076689123
-0.0749873464239426 0.125116335747308 0.403220072252779
-0.0739179741121188 0.118459596921793 0.404720271042925
-0.0765392376933041 0.109359619203285 0.406621105740751
-0.0809850821147479 0.10477298523459 0.4074643995858
-0.0794445805007498 0.0920792015343981 0.40784996657343
-0.0750051031589406 0.071742089171695 0.40347517098131
-0.0760081940293418 0.0638874136262281 0.401159573821196
-0.0753556317387834 0.0483507167867052 0.397186563811956
-0.0791734505388209 0.011224774658504 0.386549814833588
-0.0790645389330611 -0.00487110588069205 0.382357912517293
-0.0840121389798737 -0.0313774147566178 0.364987613513895
-0.0863809404855085 -0.0798333577330671 0.333359645744274
-0.086379993262953 -0.215524807668374 0.229502149538329
-0.0906247313368939 -0.245835566782573 0.211569816171827
-0.0834896742630105 -0.235210672362882 0.220539490085718
-0.090035219505519 -0.286095744739975 0.190848428713099
-0.0903445683119334 -0.334726469592275 0.165147630246925
-0.0926322509001876 -0.349264410821181 0.156021977270088
-0.0966433104397245 -0.413391596141023 0.119763779652966
-0.0902465046933476 -0.451420691296169 0.10402825714414
-0.0638581759035598 0.350107203640974 0.339674918799963
-0.0639401387688077 0.340349333169733 0.343582004921828
-0.0602399895759043 0.334365169026588 0.346233262507007
-0.0578928882662374 0.33175873656081 0.347437902162018
-0.0662749906242571 0.317827317795138 0.35209330671663
-0.0581318294762555 0.313695927182513 0.35435797040733
-0.0599364052461163 0.310515302209879 0.355410842532948
-0.0628582814320139 0.299834148475031 0.358983803128522
-0.0647790255770885 0.293259390851363 0.361120443623041
-0.0644628640870166 0.284619053871608 0.364011797617775
-0.0636159369227076 0.283245539113679 0.364546741488049
-0.0657028971949424 0.275147414501004 0.366953170691515
-0.0659808846305595 0.273689667203082 0.367355549881699
-0.0662754505868258 0.264198467284636 0.37014726381738
-0.0628119299861819 0.25461020189592 0.373198410980766
-0.0617800371185749 0.251504101729078 0.374137768585632
-0.0622175805173398 0.242980703088175 0.376412285010457
-0.0670772403589791 0.23223439213774 0.37872734714329
-0.0682353970894565 0.222738019661715 0.381004034536097
-0.0643161752645612 0.215964085487315 0.382998783972456
-0.0631294361949347 0.208293769315632 0.384906856703636
-0.062581868152266 0.204582943092172 0.385798429610669
-0.0641349475180568 0.194270869678935 0.388094268853785
-0.0638140539802902 0.183288838653815 0.390656012291805
-0.0623294289939511 0.180232258339282 0.391451496922943
-0.0684865054639837 0.161869851639718 0.39533913400249
-0.0646817653040598 0.164392738973674 0.394970245307463
-0.0620079346812388 0.144711478519561 0.399396407908905
-0.0682073454195025 0.13906484148274 0.400407920971921
-0.0680136642596867 0.132925795038246 0.401762337915013
-0.0711562652551847 0.127786115918759 0.40277487756602
-0.0709660981117746 0.117019230635648 0.405144811533578
-0.0660752745692451 0.109298531854253 0.407018885123395
-0.0641726202060784 0.104818483202625 0.408071986761407
-0.0707258364906494 0.0868898988045571 0.408480875046136
-0.0679937914495892 0.072099795865425 0.405184952333808
-0.0731299561035753 0.0451954271078296 0.396861795288644
-0.0668915567874595 0.0497281408857515 0.399501570771948
-0.0681633213615792 0.0200004085493261 0.391319167472955
-0.0676662653853798 0.00519608651239767 0.387504707272391
-0.066604387219727 -0.0137730349496552 0.382420051072675
-0.067244918032094 -0.0244647512522664 0.375400589533337
-0.074275237924097 -0.0863162386477855 0.333598663628253
-0.0795342542827197 -0.223020057541339 0.226433733111474
-0.0805856784485963 -0.25695475830352 0.210097817451894
-0.0795838044109033 -0.285686606727766 0.196449861104524
-0.0772928842315662 -0.302501345431527 0.188372915012499
-0.0788174232239232 -0.334253388338161 0.172700118902632
-0.077680938610139 -0.400240036813763 0.139119810763526
-0.0738737682157277 -0.408782519371276 0.1371426790936
-0.0813919966277842 -0.431362604127985 0.120363363285067
-0.0570399738844697 0.34670810344366 0.34148914164759
-0.056390531155777 0.347677807909536 0.341143318292593
-0.0552267867476269 0.336057391624077 0.345879667786252
-0.0563432507000065 0.329140250095637 0.348598799680776
-0.0490952671451306 0.32673882154956 0.350021904765937
-0.0566822702807849 0.316519704413051 0.353410175156296
-0.0559570770283415 0.307063074015784 0.357061553811161
-0.0507979435053703 0.307033023159474 0.357514267376496
-0.05121659927511 0.291255652296737 0.363160995428889
-0.0538958280785287 0.290024131485591 0.363333428629633
-0.0570833665847084 0.284069539576855 0.364954992226681
-0.0533665799850589 0.27482581423121 0.368299739910709
-0.0551230197525333 0.270384772303438 0.369438824689722
-0.0530541258523598 0.267385165941642 0.370541597163234
-0.0591554841075493 0.254582138095532 0.373545108880569
-0.058379318617777 0.24646401612627 0.375822097251938
-0.0531283977487926 0.239880089608315 0.3779112958304
-0.0585506447959551 0.228353776077651 0.380360842470671
-0.0512011729967001 0.225487038718602 0.381631092961274
-0.0544025031268188 0.216298463739333 0.383569359305969
-0.0514652477474869 0.211083682299508 0.384950426944139
-0.0523251731511984 0.203451830582391 0.38666666593108
-0.055084045521739 0.194380673751093 0.388603901864797
-0.0580475709272548 0.18890903882409 0.3896956081416
-0.0564325629003763 0.172793050670867 0.393438301322385
-0.0522716453897505 0.168395297837529 0.394556294760812
-0.0559261306878898 0.162482341734448 0.39571973816749
-0.0610332185329557 0.149068649634744 0.39847596800686
-0.053253473463626 0.146061933847347 0.399421608700744
-0.0596167037763263 0.132764124594298 0.402106264478803
-0.0580781452428434 0.124544869801666 0.403966614599137
-0.0567665005473484 0.11712354511373 0.405643512199304
-0.0585602776169924 0.115175217261906 0.406005210065186
-0.0573606101126934 0.0995583836427801 0.409476617264973
-0.0570865532497668 0.0888381205694472 0.411839400836969
-0.0563027248161383 0.0830672681967988 0.4107883197578
-0.0551393273374732 0.0628626651107558 0.405694142570968
-0.0590354362583973 0.0474152980296906 0.400697187576419
-0.0638893340050533 0.0355204204792992 0.396422434959088
-0.0634463500595655 0.0192041139128305 0.392194252898848
-0.0569510107589988 -0.0132806045545116 0.38383005042805
-0.0587865685050681 -0.0302701063139862 0.373127781814734
-0.0564920006686469 -0.0752331284734821 0.34425841912895
-0.0625869960469469 -0.229803215180185 0.225198213337566
-0.0639927760371556 -0.273996063123467 0.203714566398454
-0.0613463211042889 -0.273838167102276 0.204108672444273
-0.060826192524135 -0.309681685747852 0.186883392443818
-0.0690004310566083 -0.355902776572902 0.163608321706596
-0.0662140055883095 -0.386801159157429 0.149040419419556
-0.0677085318985323 -0.392637093495418 0.146046120950542
-0.0721767466583153 -0.422651731941484 0.130916309780994
-0.0409082537066274 0.348501496627045 0.341721683047577
-0.0448283776340922 0.345491644954594 0.342785221408614
-0.0403701237326445 0.334617546351862 0.347440403014257
-0.047414349343589 0.330089091024031 0.348789848103955
-0.0401282325699154 0.322119758754587 0.352467522178042
-0.0462441163029399 0.31523311616679 0.354787844193393
-0.0491131718047465 0.3113575674534 0.356016962796627
-0.0464397380217357 0.302284637870739 0.359689355160799
-0.0419627244017502 0.296701278116886 0.362135603585727
-0.0414551969090732 0.293638824268614 0.363276767338489
-0.0487476306923762 0.285963329223966 0.36519990810785
-0.0476652102406082 0.277320589387165 0.368127924356903
-0.045161680328534 0.270421549194081 0.37043949438495
-0.0486672130054061 0.261768870829232 0.372571839113776
-0.0451754201943025 0.257918693950126 0.37393526834633
-0.045366972030628 0.24579577557022 0.377043073496933
-0.0468290265215366 0.24229678828817 0.377801042317669
-0.0483308949638257 0.230539781126769 0.38061438722252
-0.0442805090673298 0.219460898317795 0.383435507081983
-0.0445761267628306 0.21252166803543 0.385024736742239
-0.0435318237453282 0.205017914895288 0.386812628699158
-0.0420322982446468 0.198537571893147 0.388317259226702
-0.0459930581210043 0.192674634345187 0.389458474950992
-0.0455295941117665 0.181633470585532 0.391898642310525
-0.0451719998350397 0.182961030152923 0.391620425695174
-0.0446315079443398 0.168028336334208 0.39491747502441
-0.0425514713755227 0.164790049750887 0.395704569815871
-0.0467372462950552 0.147589373332736 0.399325750684001
-0.0432755867012536 0.146704398021852 0.399647128486567
-0.0495475928903473 0.134572222482259 0.402079320039745
-0.0446920467320376 0.126797183087684 0.403964023617769
-0.0496170590640265 0.118559746793043 0.405590937506394
-0.0442619111490818 0.104233576573277 0.408901112500818
-0.0446048096367165 0.104979008989029 0.40873782608708
-0.0528291506225691 0.0853806518025133 0.412202307723847
-0.0489281780542211 0.0807320567286325 0.411545224501057
-0.0447203915070563 0.0622640888040354 0.406519519442669
-0.0496429956224601 0.0390760989426425 0.399470534296473
-0.0473710593827755 0.0261844803131478 0.395914162535966
-0.050683248023324 0.00945189106339202 0.390844946964301
-0.0473035116268278 -0.00785086894508016 0.386095605864182
-0.0514785516547454 -0.0348129870269758 0.371119474409127
-0.0479864655073463 -0.102128057599777 0.327905852379078
-0.0569539661110291 -0.230364495381245 0.225604265476793
-0.0555566880633156 -0.262216605938349 0.210409473277765
-0.0581115742261057 -0.264097937066548 0.209195134578772
-0.0513328477006735 -0.300937566829955 0.192241339526543
-0.0543305080507222 -0.327799987260395 0.178925118710198
-0.0552666868845566 -0.385111479342802 0.151297012393072
-0.0560320868469803 -0.420021169381359 0.134678807911376
-0.060066691190562 -0.459651935423475 0.115164841024553
-0.0627750881418197 -0.468865321642634 0.110373814355264
-0.038828107971553 0.350738074655123 0.340877417360827
-0.0370164340435652 0.342066802915405 0.344565065823251
-0.037289621120401 0.338843785465156 0.345907698545506
-0.0379351547636935 0.330799362579657 0.349132519609642
-0.0395793673388173 0.325114596588063 0.351303044638179
-0.0383876817887609 0.321644292657785 0.352773378120396
-0.038705461097724 0.310804435296292 0.357098501248084
-0.0320392332264862 0.308025312568627 0.35868041568236
-0.0332535750572281 0.298249817248132 0.362348738575028
-0.0369160010623225 0.290733722497266 0.364749974266969
-0.0350053752929612 0.285481411972199 0.36677458903062
-0.0338405314215371 0.278062703313305 0.369318054655698
-0.0325477318557805 0.276064135079896 0.370046139256322
-0.0398678632781442 0.263805714511821 0.372830944418953
-0.0378781123295465 0.262755160644505 0.373298312134626
-0.0406698450633166 0.24923395523516 0.37655301336271
-0.0363203751802626 0.243735012448647 0.378263558741606
-0.0388567449992191 0.229421395265219 0.381449892706979
-0.0398186462787177 0.222008808122447 0.383109334846872
-0.0358476965127239 0.218709038570493 0.384092875172589
-0.0363589997776416 0.212997178776707 0.385352286896138
-0.0347837310456434 0.20114342051014 0.388011629798141
-0.0333709045393808 0.19323600702123 0.389798923322259
-0.0341090770348367 0.18646140443736 0.39125859245251
-0.0410989838214739 0.180234117622247 0.392368500199001
-0.0338339407854999 0.172547077717976 0.394322399094598
