ply
format ascii 1.0
element vertex 834
property float x
property float y
property float z
end_header
-0.0191176111045776 0.0900275480944429 0.223765550285432
-0.00915948079206594 0.0811954607216417 0.224451451123894
-0.0115661024683828 0.0734818990739263 0.229957470886997
0.00281233682526038 0.0702690335535828 0.225453642916337
0.0151857122308574 0.0593114995297325 0.225021151386758
0.0107141096340673 0.0597404553151182 0.227406913614223
0.023651047761648 0.0427440876719211 0.22746729032834
0.0358888194204657 0.0412291804016617 0.221088670692318
0.0381924740615296 0.0365339318140756 0.221836881997475
0.0420664026705191 0.0202240386378959 0.226200544789319
0.05575153703073 0.00625219999909171 0.220903606936182
-0.074575475542019 0.156504517954637 0.158120316629423
-0.0738384344762923 0.152920154589098 0.167867949469984
-0.0732591546929476 0.15367212426493 0.165552907871995
-0.0685688944976403 0.149214260230238 0.176287369262209
-0.070357860662696 0.147674674092268 0.181020583864478
-0.0665774057957144 0.143624819531533 0.187896729192636
-0.055041641886117 0.138217017978835 0.189315720668417
-0.0576862663924706 0.134547929744318 0.197750663883961
-0.0458857718914535 0.133269444413597 0.191919338736403
-0.0426767883804136 0.12944832338815 0.196171970303757
-0.0360947083558169 0.120973749909453 0.204292273312721
-0.0302572901231542 0.117297467691844 0.20606990138019
-0.0246097968893649 0.1125723862995 0.209440273019067
-0.0292228551777114 0.113514453199879 0.210808762974999
-0.0197272207086853 0.104303840989884 0.215812810539235
-0.0195236302137891 0.100056149923818 0.218169210333361
-0.0033591656035664 0.088377229604844 0.217751943658622
-0.0047491689080224 0.0875936814223912 0.218817491653613
-0.0011502151867621 0.0823240603499481 0.22026195049338
0.0170614244874829 0.0696383837261773 0.219377149332257
0.0163311949420525 0.0624651000906894 0.222967774202967
0.0352336708045551 0.0510499056723054 0.217125951836104
0.0284266921713857 0.0480797172516696 0.222358898496607
0.0443410395887401 0.0436360390010035 0.215157130780138
0.0514646634950059 0.0338019257393386 0.215400378529317
-0.0693905215226962 0.158620337727077 0.150298261836732
-0.0577240622687691 0.155295937886112 0.149243630210152
-0.0600975160279347 0.151695832602447 0.161181416054058
-0.0552082796891321 0.148771263533146 0.163524007910959
-0.0431181316941333 0.144876453628255 0.160624765813293
-0.0490533150303571 0.140503811318802 0.178417471236413
-0.037202342975097 0.137881844935913 0.172460934979505
-0.0335758834308412 0.133070622309749 0.180874301336148
-0.0310336355295457 0.130946026123467 0.183289649537882
-0.0370013225350698 0.129634724486887 0.19181714157579
-0.0293139020336671 0.124194736809518 0.195774300025823
-0.025055430344185 0.12140778128286 0.19721951840765
-0.0165576446928643 0.111582792895774 0.204757826142585
-0.00975755595448622 0.105569330092972 0.205722924842408
-0.00620393819393491 0.106751316492412 0.20098123487531
-0.00523980872642717 0.0980643163438158 0.210621893216518
-0.00156149002879829 0.0918344378307751 0.214755379268666
0.0159061356911296 0.086215617327845 0.205312014649132
0.0159212517629891 0.0806676169870848 0.212028162506727
0.0179034463411772 0.0721185422484063 0.217719294991493
0.0223509571840509 0.0677977371168596 0.217144180338186
0.0344516927522741 0.0591351142733027 0.212726692430059
0.0638177958055703 0.0352352281103584 0.19890667632863
-0.0489337479244434 0.157103687008504 0.135051255351596
-0.0476483160408255 0.153349284472672 0.143443399338722
-0.0424679511127425 0.149002663467312 0.14917587299711
-0.0419783646898753 0.146075785714788 0.156271216892075
-0.0360272474739989 0.144473772225966 0.154023333727336
-0.0218817623783263 0.138137593006542 0.15526557285376
-0.0323009517229215 0.137734600117401 0.167556396868562
-0.0285277701124833 0.135608748456933 0.169022692972829
-0.0140434861595887 0.127290168295423 0.175062907771248
-0.0228560702010895 0.129906783392437 0.177755295661226
-0.00905744738154923 0.121590724085324 0.18072493399665
-0.0050413840693635 0.115816831064269 0.185936045641421
-0.00526896424717186 0.112270771387497 0.193137774443469
0.0112235138281016 0.101832736791782 0.188846398003937
0.0212466895624831 0.0969710754555261 0.183369853686776
0.0259219372456073 0.0921409392970444 0.185775197454413
0.029441515685473 0.0892611907960396 0.186121824907381
0.0446713430979738 0.0759770252486264 0.179093935427562
0.0418140856219975 0.0689029428895512 0.19470320812215
0.043929536052538 0.0639743696279608 0.196724671619802
0.0685440158960882 0.0479223288733764 0.173847692940305
0.0676784781296506 0.0452579342446562 0.180248108817754
-0.0234315585829588 0.148490142474985 0.128850886615044
-0.0191558478907716 0.144102235373302 0.136788679269237
-0.0209561061481822 0.141668801958157 0.145069253694455
-0.0190614560651287 0.139463996515572 0.148767927473323
-0.0172272711573466 0.136254360599543 0.15514908940357
6.8693428397002e-005 0.129427199589678 0.147716844376647
0.00461451487926935 0.122070676950757 0.156369204326182
-0.00571493185427891 0.126737538613907 0.163659001073228
0.0141744316692611 0.112554511987217 0.161246474122853
0.0246767033465515 0.107017044537117 0.155607331838186
0.022514347692688 0.106486309178204 0.160505596028988
0.0255182921914732 0.0992134183148515 0.171617169731424
0.0497687586501868 0.0823795098306144 0.156704270635241
0.0278705074735549 0.0951771507218539 0.17660798807252
0.0624684810949563 0.0667432261276389 0.155135059516705
0.0597302639205165 0.0679651655782846 0.159162406456476
-0.0034853754877586 0.141846736265915 0.111730680716118
-0.00318114967499333 0.140486169544816 0.123110370236418
-0.0124981090530721 0.141662120038271 0.135961408681779
0.0184495631332114 0.124530032031729 0.117281898915429
0.0104611027441588 0.128437206999012 0.132095001077097
0.0308814540317282 0.115363823141841 0.113892892647413
0.0199171975388837 0.118816736462937 0.137383755435084
0.0195740299078472 0.116563021096562 0.143013566525222
0.0304215556552548 0.109822320051575 0.139473126959282
0.0340081544371398 0.100449508397385 0.154281565297578
0.0423466135152469 0.0965340369693787 0.148728212691399
0.0321437504026756 0.120819830157051 0.0555384299552833
0.0461213722517599 0.111964287397974 0.0385545128493449
0.0293131489300438 0.121145580145661 0.0723078363621018
0.0474933750137741 0.108638878063127 0.0591967859603356
0.0479059146706612 0.107174041048804 0.0696266175891414
0.0436713354585948 0.107462389367336 0.0965209173957916
0.0326135306522437 0.113761231979735 0.116377285163115
0.0476625582132309 0.103446855457919 0.105176633897251
0.0412668881161225 0.10431006660116 0.133188805326692
-0.0137281001492076 -0.472812862070753 0.00627629185010647
-0.0184189432369915 -0.469631721239786 0.00627629185010647
0.00211943310977005 -0.465093943459076 0.00627629185010647
-0.00159563597171741 -0.474560694845934 0.00627629185010647
-0.0185086156725423 -0.45623955681217 0.00627629185010647
-0.00377048598454647 -0.455907440726771 0.00627629185010647
0.00877973075896222 -0.458290553987883 0.00627629185010647
0.0135581277471887 -0.460400770767915 0.00627629185010647
0.0207708248982569 -0.462119407919462 0.00627629185010647
-0.00722819288440281 -0.450277097689716 0.00627629185010647
-0.0120654452500905 -0.451699236905297 0.00627629185010647
-0.00180764446333312 -0.451752866724491 0.00627629185010647
0.0154358923355047 -0.455566644253517 0.00627629185010647
0.02389088251265 -0.457844397059386 0.00627629185010647
-0.010721045662776 -0.44283335141878 0.00627629185010647
-0.00586437243153371 -0.442612352451182 0.00627629185010647
-0.000922278180510794 -0.440015224265518 0.00627629185010647
0.00653989844419901 -0.441071534517618 0.00627629185010647
0.0299788185864536 -0.440294290466481 0.00627629185010647
0.0267793738993034 -0.448660178074644 0.00627629185010647
-0.0171720570272247 -0.428440785616111 0.00627629185010647
-0.00996379328870692 -0.426075300741762 0.00627629185010647
0.0102156866896423 -0.427096528415983 0.00627629185010647
0.0116271600823586 -0.434046383798055 0.00627629185010647
0.0145553690443354 -0.429848259390267 0.00627629185010647
0.0347665003951152 -0.430792267950849 0.00627629185010647
-0.0148087231003116 -0.422530209912935 0.00627629185010647
-0.0148878624295465 -0.420754641626731 0.00627629185010647
-0.000921273259861534 -0.421759979315388 0.00627629185010647
0.0199876226401131 -0.427065344198074 0.00627629185010647
0.0176282644577846 -0.425007375849469 0.00627629185010647
0.0408442537383629 -0.427857385586544 0.00627629185010647
0.0473639951980302 -0.424036145587979 0.00627629185010647
-0.0177728464158132 -0.404011145444169 0.00627629185010647
-0.00429709111716062 -0.406838724503829 0.00627629185010647
0.0029726911948186 -0.408186930474234 0.00627629185010647
0.016746876850503 -0.41080333244036 0.00627629185010647
0.028129323239368 -0.415854970035114 0.00627629185010647
0.0420205153018881 -0.411164742639384 0.00627629185010647
0.0498966460805819 -0.413714193182754 0.00627629185010647
0.0605671767262652 -0.421044574434003 0.00627629185010647
-0.0153201924451926 -0.393433125034384 0.00627629185010647
-0.0106675013865235 -0.394727816756432 0.00627629185010647
0.0072823203354944 -0.404137275281971 0.00627629185010647
0.0127751876161192 -0.404002333380955 0.00627629185010647
0.0238528261571351 -0.404074933801594 0.00627629185010647
0.0344302075472923 -0.408192476128686 0.00627629185010647
0.0445233386181573 -0.400589794665851 0.00627629185010647
0.0536239740765331 -0.405199451086144 0.00627629185010647
0.0659757296862468 -0.412544461247602 0.00627629185010647
-0.0159998431803295 -0.391404332088502 0.00627629185010647
-0.00785517393694999 -0.388573706132986 0.00627629185010647
0.0117883587979413 -0.391644845112281 0.00627629185010647
0.0178619344805082 -0.393593724515243 0.00627629185010647
0.0177545194282843 -0.392265241088453 0.00627629185010647
0.0350165322039044 -0.39398989471624 0.00627629185010647
0.0428353175792376 -0.398958744018478 0.00627629185010647
0.0588992365463685 -0.401232584123285 0.00627629185010647
0.0686531487528981 -0.4018899558344 0.00627629185010647
-0.0185140268088576 -0.374805569442613 0.00627629185010647
-0.00599246968092073 -0.383066417159659 0.00627629185010647
-0.00518396567501396 -0.384792145763987 0.00627629185010647
0.00707113293636276 -0.385756392750418 0.00627629185010647
0.0208723443725083 -0.384180153529111 0.00627629185010647
0.0416029612540362 -0.383781309702045 0.00627629185010647
0.0422727940095138 -0.386866042637162 0.00627629185010647
0.0469395093568456 -0.385983884095572 0.00627629185010647
0.0615622654471283 -0.387591148829887 0.00627629185010647
0.0706493191040906 -0.38717873034233 0.00627629185010647
-0.0108170152582146 -0.367120380704162 0.00627629185010647
-0.00747043776319367 -0.373258008027871 0.00627629185010647
0.00669354837595644 -0.370868551411183 0.00627629185010647
0.0228611697463421 -0.369022096519623 0.00627629185010647
0.0203852941954156 -0.368734057609222 0.00627629185010647
0.036116424073165 -0.373487161339181 0.00627629185010647
0.051566855013517 -0.37976486114212 0.00627629185010647
0.0516407496030945 -0.377684216237432 0.00627629185010647
0.0596089490533101 -0.378555372430946 0.00627629185010647
0.0794269215449912 -0.381278239822102 0.00627629185010647
0.080719177090967 -0.380195394274525 0.00627629185010647
-0.0104452481417987 -0.359023993437174 0.00627629185010647
-0.000127023529363921 -0.360731728247537 0.00627629185010647
0.00307390543718853 -0.36315962940164 0.00627629185010647
0.0142868818230776 -0.365354029012364 0.00627629185010647
0.0264247467658576 -0.358770756106727 0.00627629185010647
0.0307478240155964 -0.366715615273513 0.00627629185010647
0.036143784453611 -0.366248219826856 0.00627629185010647
0.0525290146323507 -0.366784506942993 0.00627629185010647
0.0683145982201223 -0.364116369535447 0.00627629185010647
0.072669444130745 -0.36632019289434 0.00627629185010647
0.0873629917205607 -0.373517669093885 0.00627629185010647
0.095191934538786 -0.367890225844308 0.00627629185010647
-0.0208453814400361 -0.352064905434727 0.00627629185010647
-0.00205952104181683 -0.351251118018689 0.00627629185010647
0.00450397930671634 -0.345596164530808 0.00627629185010647
0.015325801155208 -0.350975667958229 0.00627629185010647
0.031296193194098 -0.35123038314006 0.00627629185010647
0.0330108565486323 -0.359139402855793 0.00627629185010647
0.0396964171590118 -0.352060050468584 0.00627629185010647
0.0554427549784671 -0.359807116763319 0.00627629185010647
0.0714657473508908 -0.35877962056175 0.00627629185010647
0.0678415966576846 -0.361971012139116 0.00627629185010647
0.0782650783714861 -0.356819813765407 0.00627629185010647
-0.0121746647177166 -0.33636200217628 0.00627629185010647
-0.000638911840521296 -0.33580687324447 0.00627629185010647
-0.00449795633437183 -0.344863856489574 0.00627629185010647
0.00633100542126619 -0.343383735002326 0.00627629185010647
0.0215490993723193 -0.341225682550719 0.00627629185010647
0.0362626781411853 -0.344196902490084 0.00627629185010647
0.0371809632897189 -0.344454745117295 0.00627629185010647
0.0485465950806535 -0.342305561510434 0.00627629185010647
0.0634635465290235 -0.344674819837824 0.00627629185010647
0.0700072561086898 -0.343437132357922 0.00627629185010647
0.0889960847909139 -0.35145276404165 0.00627629185010647
0.102411636197722 -0.34663988857445 0.00627629185010647
-0.165654971037497 -0.307846346334872 0.154644913077453
-0.135928624725572 -0.318878855456608 0.13474630284215
-0.119461957077056 -0.320128319250175 0.131255466091365
0.0142925375938469 -0.333383351202605 0.00627629185010647
0.0290175725137318 -0.331625436234989 0.00627629185010647
0.0374480239658611 -0.33416288865584 0.00627629185010647
0.0423821916643332 -0.330218024045467 0.00627629185010647
0.0596240786605856 -0.337470400186624 0.00627629185010647
0.0587183933719349 -0.339070774052678 0.00627629185010647
0.0789870642035796 -0.335061641959455 0.00627629185010647
0.0900892931266676 -0.341361706631275 0.00627629185010647
0.0942038958350467 -0.344483462415333 0.00627629185010647
-0.186641874847003 -0.297291265509765 0.176425058045107
-0.158660324382023 -0.30789597298566 0.157080154071978
-0.174639770555042 -0.297815639080318 0.179375998078798
-0.147879743694253 -0.306635286688285 0.164571107922488
-0.146449586914517 -0.302979373431598 0.175316239551097
-0.111545458405152 -0.312691424842312 0.149125556218317
-0.110326711432489 -0.311000183690867 0.153401942880483
0.0570931760057656 -0.329732783560198 0.00627629185010647
0.0581113849986188 -0.328901534232845 0.00627629185010647
0.0794633139684284 -0.3320367783806 0.00627629185010647
0.0841457212551503 -0.327119355506354 0.00627629185010647
0.100932497820302 -0.32865754699747 0.00627629185010647
0.101455050164672 -0.329615615228107 0.00627629185010647
-0.197759033121206 -0.290247815027123 0.182876671832061
-0.187039442733946 -0.28846515846172 0.195777147323735
-0.176174841259599 -0.294551955879995 0.186805283391912
-0.175753393730403 -0.291885482548431 0.193386952393459
-0.164622671366368 -0.292596306463304 0.194711574700329
-0.147059100564227 -0.296507545432344 0.191337909151071
-0.153512479057752 -0.289954257621305 0.200939647387416
-0.143051719879302 -0.295964840597979 0.193923589170957
-0.134853305747181 -0.296645682229141 0.194516067306616
-0.122783283759093 -0.296476773841944 0.195249749680084
-0.108553424169663 -0.296272267949566 0.191996808464818
0.0951331299034991 -0.323337989029861 0.00627629185010647
-0.0690071279983715 -0.298652345856603 0.172717331757859
-0.201971736898855 -0.284550441635787 0.191766984490305
-0.195796594059371 -0.284406297302155 0.196396507877478
-0.193540102427374 -0.27914280363236 0.205145720954907
-0.186850451537803 -0.278269739946554 0.210292126080367
-0.176437130499426 -0.280464910730601 0.21074608286394
-0.166579162786596 -0.280962643701366 0.211953091032214
-0.149344304614126 -0.289473930468247 0.202497092047742
-0.156204602723914 -0.286692054594752 0.205341800768871
-0.140429921510284 -0.28549117124369 0.210316671515902
-0.134151987264414 -0.28306976276173 0.215175029619368
-0.120085663649231 -0.287633358199805 0.208101813379173
-0.124153040244273 -0.286075878720718 0.211270697720125
-0.0948153680295477 -0.285873964393165 0.20572746663507
-0.209681501225146 -0.27426702279805 0.202589813049627
-0.204514103583825 -0.27322962175848 0.20706472425579
-0.199690940620753 -0.269303607967692 0.215266359448516
-0.198206822534138 -0.271129739090545 0.213709590637342
-0.187636760426096 -0.272943013452956 0.216191189768846
-0.175526520135392 -0.269806719660577 0.22081937525153
-0.165612142082667 -0.274246310252509 0.218556909229772
-0.160591159898055 -0.273682000345078 0.219435937709721
-0.151735395256954 -0.274817803916744 0.219452159677483
-0.141617265894231 -0.278396405271836 0.217828974272804
-0.130159204067423 -0.281015930512995 0.217044966178191
-0.120676528615138 -0.281342032449613 0.216387351894865
-0.111082187697485 -0.277831442044033 0.218004931416419
-0.0982084091515877 -0.280215515361182 0.2149721224951
-0.0790973935541066 -0.283823790845868 0.205691037126643
-0.075815773664026 -0.280251863756554 0.210449132471082
-0.221112691299825 -0.260448029901948 0.215269868851141
-0.216916104072228 -0.263732647291724 0.213221837861623
-0.208573047858559 -0.26048859999605 0.218717094305261
-0.200643911805751 -0.258594008920538 0.222193011362499
-0.196434411524874 -0.260087029140289 0.222361358373901
-0.185974440212841 -0.266870465249636 0.220725802795621
-0.179640370245763 -0.260067024996199 0.227054293890783
-0.16908662231319 -0.261450124122758 0.227441614619023
-0.161159725368305 -0.262720725566418 0.227274437619714
-0.144820256868816 -0.266303941680732 0.226242090998831
-0.134093357156974 -0.271370674439543 0.22360766457722
-0.129127952752067 -0.26660369227189 0.227519104989703
-0.116423241048894 -0.271217992864729 0.223270939130066
-0.112443356477277 -0.274300486634192 0.220675253852198
-0.0959794851631047 -0.267666050863827 0.223890248184258
-0.0805207290697213 -0.274141521627165 0.217764848660885
-0.0697618362040967 -0.27481629581728 0.215504477110082
-0.0591498122781839 -0.270263589858476 0.215613691282442
-0.23444731487246 -0.249336252608069 0.218116820391457
-0.224499709025963 -0.245787423444668 0.224170215173958
-0.216505006008554 -0.245851638710203 0.226342271781779
-0.206321470104008 -0.25115243330625 0.225612089812969
-0.198224018746769 -0.256284259606685 0.22441789563168
-0.193931266623559 -0.248768533459656 0.230660977678813
-0.180129369996095 -0.252508429392687 0.231989040151481
-0.174725723310372 -0.250711238211464 0.234609321252907
-0.169476965006119 -0.258132660461785 0.22979307410615
-0.162909530441102 -0.253697367143295 0.233599929323073
-0.144406691309423 -0.254675932028493 0.23462829014042
-0.133188565968191 -0.259776595717712 0.232051356941748
-0.1281022396314 -0.254539362996201 0.23594230110541
-0.128230711194553 -0.25429084469385 0.236024407470637
-0.101487837862827 -0.265561114761483 0.225927182357794
-0.090333315497633 -0.258040005355154 0.230283430553518
-0.0758201657647543 -0.266897799100637 0.222496393759869
-0.0541614607825742 -0.26589405700368 0.217157495795381
-0.0500338646535326 -0.264466664905431 0.216967508446311
-0.0242762048717611 -0.262802416182571 0.206240514239814
-0.239972060622401 -0.236354370609996 0.223151941570441
-0.224001447372442 -0.239916843280277 0.228158044186337
-0.220035332362716 -0.244608171440472 0.226198595633478
-0.209870479570216 -0.242579329470382 0.230383524475484
-0.198248835819973 -0.246526930114325 0.230965417146779
-0.202605463473591 -0.240726779217902 0.233635539230007
-0.190911546754518 -0.246445961328002 0.233059930198656
-0.18353528849962 -0.248876257572326 0.233470922986163
-0.165773381192683 -0.249898506452591 0.235829338606809
-0.156334622316315 -0.24914147868618 0.236538241052196
-0.149851864188981 -0.248493135016029 0.2370706506632
-0.146209139704668 -0.25006637805614 0.236682933108549
-0.135467686809632 -0.243708902609427 0.23943805432133
-0.124897583294436 -0.253027235542483 0.236366988740705
-0.10959641788884 -0.254978082625679 0.234286600095856
-0.105432126414397 -0.249035116246823 0.236873741807372
-0.0930053581411635 -0.25152747931095 0.235180164891356
-0.078318622281364 -0.24893807269238 0.235191823006156
-0.0571550742498833 -0.252064750165046 0.227259403470123
-0.0416366392558352 -0.253190418372129 0.222195569375239
-0.0334156245415018 -0.256658537889052 0.21758489518138
-0.237665307823315 -0.233585765717012 0.225765878728475
-0.22799682147668 -0.234938404717029 0.229259613683918
-0.218449561743468 -0.236022939195586 0.232400649264695
-0.219694472593604 -0.228686882022173 0.236053065095432
-0.203871333928749 -0.228218141054057 0.2385931847439
-0.199405776510604 -0.233214859549992 0.237553560737119
-0.190227050171734 -0.235026416712025 0.238211090897582
-0.184577081665036 -0.234961353375574 0.239005704080772
-0.172414423173381 -0.236359680263828 0.240208054978969
-0.164269615742994 -0.2391485372051 0.239710502785215
-0.157848872430001 -0.238675372181233 0.240177915306203
-0.155954018937981 -0.233743368930244 0.24201480071459
-0.135447278263742 -0.239885683901655 0.240794379118019
-0.133294207927196 -0.236021088703312 0.242264908410637
-0.118323457347267 -0.240427889439015 0.240526763756646
-0.0943595709351621 -0.243724075852756 0.238239782066823
-0.0875551728516601 -0.245289912530693 0.237367099630529
-0.0785464510331723 -0.24085949926151 0.238115988103461
-0.0726858089832208 -0.244506948338788 0.236109100803788
-0.0456214468915263 -0.250004648248269 0.225439500544272
-0.0419667250783985 -0.245974040118458 0.227126683409814
-0.0132417102095106 -0.243575101414919 0.218033250600396
-0.238753872234614 -0.220823648811248 0.232634896607451
-0.231394411359634 -0.222258928197535 0.235020083653417
-0.229263158985409 -0.220857865698804 0.23619113320167
-0.219838580406137 -0.219774217107478 0.238550034426847
-0.213222941943071 -0.222019792282188 0.239353068713638
-0.200513705293136 -0.223140871194438 0.240729912947281
-0.194999335411416 -0.224921761438652 0.240896157878644
-0.187822214404688 -0.222913174615904 0.242541786420833
-0.178582246444467 -0.224700112205492 0.24320176647766
-0.173020507300939 -0.229865188339843 0.242270585741235
-0.156018644797135 -0.22620749670198 0.244583019620015
-0.15066194891775 -0.230409347183593 0.243416281849288
-0.133038698440394 -0.232209168690465 0.243589900829592
-0.132907181211294 -0.22649488534184 0.245502392409365
-0.119950730153397 -0.228157372577086 0.244836595891472
-0.105350107938114 -0.236164499847691 0.241432686209172
-0.0941825667488751 -0.235668538394257 0.241087295834617
-0.0807968260510245 -0.237796462587947 0.23943579920244
-0.0725068160657128 -0.237689701579713 0.238336695576135
-0.0605893033079926 -0.238507692669089 0.236435725561743
-0.0467278401512058 -0.238437774585112 0.233492071482239
-0.0348563250859807 -0.236435024463502 0.231547396816225
-0.0111043702065057 -0.235953869510166 0.22147799796502
-0.245390818034416 -0.207299599593666 0.236526747881277
-0.237651616756598 -0.211894679060937 0.236907847824013
-0.235808852610971 -0.208048649682735 0.238400009686825
-0.221214136866 -0.215032486183547 0.239595741141286
-0.215062733654954 -0.214104089241948 0.241198113124223
-0.201054659486262 -0.216716984687588 0.242778031229968
-0.203622431571104 -0.217594471343132 0.242136788419081
-0.186654799911885 -0.218266124291556 0.244162628321061
-0.186946041990788 -0.213641841034419 0.245562972924977
-0.174063922869604 -0.219054820154789 0.245539021339845
-0.16082916708092 -0.219877814972365 0.246483754669712
-0.14703449889244 -0.219097876031136 0.247349989095982
-0.144767716931666 -0.214800453017735 0.248883510034409
-0.136920026407986 -0.216965985078788 0.248505668348426
-0.121147426153064 -0.218983011595664 0.247950421674653
-0.105029705442549 -0.225188109214258 0.245171897067031
-0.0994738833068251 -0.22392212719185 0.24535026115035
-0.086649303303006 -0.224314485527973 0.2445896905628
-0.0768099354662717 -0.224665738355347 0.243213224082136
-0.0699071816551997 -0.220523319722401 0.243612218142549
-0.0551724084103122 -0.228442465306054 0.239019561630708
-0.0366714049708113 -0.225209095704402 0.23725289041088
-0.0280013910662778 -0.230628257367628 0.232012417445038
0.00344125903303263 -0.23008235630842 0.218431478732045
0.0127072578062371 -0.227600841894359 0.215765766669508
-0.248858210672426 -0.202913713218793 0.237016169005662
-0.239011404790986 -0.204106230214998 0.238821277534316
-0.230503176919917 -0.202415447093321 0.241152943822955
-0.221832773340195 -0.199582504645856 0.243792940582165
-0.217753119175927 -0.204133590409545 0.243413615862104
-0.205196497982991 -0.208625548360863 0.24477217210021
-0.200911827760148 -0.204473399120786 0.24661506245035
-0.195684279896 -0.206918864079245 0.2465279557606
-0.177665173083588 -0.208899694010056 0.248232793996021
-0.171164805755875 -0.210482261704226 0.248577924112903
-0.163855120482865 -0.208988692550237 0.249760204982745
-0.152736176905289 -0.205262299256848 0.250972036959505
-0.149150684453404 -0.21330688988548 0.24918933479036
-0.142176917517531 -0.207178239217443 0.25084927445962
-0.124376966612813 -0.207495596747631 0.251118456194991
-0.106999753988654 -0.215976386764562 0.248332162171566
-0.11266543337076 -0.209865879124636 0.250205038046334
-0.0959605503457931 -0.208611248122377 0.249984487728986
-0.0781882979586497 -0.218437898593408 0.24532720635191
-0.0582405238375696 -0.218225655055411 0.24281452868823
-0.0600507464431208 -0.211309608297579 0.245207642391427
-0.0400917575121711 -0.215874997743926 0.240645304500593
-0.0272845526635452 -0.217156453620487 0.237493977187433
-0.0155786310785223 -0.216437721657018 0.234661853269932
0.0202702402887343 -0.218318893885149 0.217273954057959
-0.247113473853522 -0.191520858156892 0.240499089384093
-0.23444322574606 -0.195216368771216 0.242337523776257
-0.231320267292484 -0.195806251562718 0.242849975423826
-0.225836249575563 -0.191250240687926 0.245197472055113
-0.217516268247948 -0.191330567555354 0.246880633065489
-0.211186165111408 -0.196866117750783 0.246699524871196
-0.203473504807458 -0.19925830686077 0.247640974799654
-0.190718578319046 -0.193496879424412 0.250709479678282
-0.185478448821597 -0.192518304549166 0.251394636652729
-0.170307267320557 -0.199289757268387 0.251288604436601
-0.16705939256345 -0.198616301327645 0.251727831777518
-0.162269558418831 -0.20213464173865 0.251394005690832
-0.151090671715505 -0.201159853844442 0.251980470036311
-0.141690861453636 -0.197171183537082 0.253200695461693
-0.131660220177807 -0.204958946202399 0.25169071146257
-0.115703433018296 -0.206395621227786 0.251108669313068
-0.111483839544113 -0.206725850190659 0.25090186172586
-0.0933331886936808 -0.203046380282846 0.251203029812403
-0.0848402870349827 -0.203144077608563 0.250428505411332
-0.0776179012549362 -0.202624460043405 0.249890669560568
-0.05982195672307 -0.206132373574879 0.246787962824763
-0.0568435622151515 -0.201529922628393 0.247835430448976
-0.0279559620375365 -0.212032907522618 0.239093569678716
-0.0204268408357404 -0.208989545410254 0.238318008868847
0.0113920239708687 -0.213824086863844 0.224281446946447
0.0172303319904825 -0.214438682353691 0.220739495993938
-0.245938398587799 -0.182774041770458 0.242736394754179
-0.244742135269247 -0.184683532258156 0.242660101985391
-0.233013689500453 -0.184112590094046 0.245632748053137
-0.229775564334058 -0.185530934302438 0.245917472248351
-0.22148407430586 -0.183502773525448 0.248157775920221
-0.216899266654498 -0.189857026237198 0.247400490343509
-0.201279753455065 -0.18390557068597 0.251303435619458
-0.196822002796918 -0.189533336480395 0.250891055025426
-0.187316125656611 -0.188145261280456 0.252180473889356
-0.183385221982134 -0.191068520014391 0.251898712955582
-0.176306420309865 -0.187508358905313 0.253311253586465
-0.159372662663428 -0.189536006244057 0.254396185053117
-0.147616536852516 -0.186044800677516 0.25561637263398
-0.136723511659677 -0.188378237712237 0.255406391056414
-0.131816790913825 -0.191344247277309 0.254864703395544
-0.113637287772808 -0.191495696200605 0.254524042307213
-0.103583069654787 -0.195260600420215 0.253335946904828
-0.098792077910363 -0.193561151714886 0.253585471122494
-0.0842548527452509 -0.198017049299934 0.251491242106731
-0.0713365396470012 -0.194835350126096 0.25101927639032
-0.0625475098228593 -0.194851693660432 0.250223642703773
-0.0512903973104359 -0.194853087818833 0.248689698482274
-0.0424691968595274 -0.200924602110032 0.245261265192824
-0.0354631619406468 -0.193007420254726 0.245939798823025
-0.00490517045891293 -0.199422249438871 0.237653376617904
0.011859642968733 -0.202933598290116 0.228917036991668
-0.25253392393814 -0.170968696280135 0.243408155749809
-0.243264993143797 -0.175684996302004 0.244916739113781
-0.238342434362815 -0.173642174805788 0.246649630493796
-0.232972657345664 -0.177059162795688 0.247383319059882
-0.221592289800465 -0.174509122148002 0.250146955572977
-0.213375331218608 -0.177519040271177 0.250762603617114
-0.206185997223629 -0.174205840577099 0.252412297143421
-0.201342401445445 -0.175405381146227 0.252882571305577
-0.194044776822522 -0.173437531204709 0.254296433696356
-0.175872414241754 -0.176197686408949 0.255811249992923
-0.170829719510111 -0.179841885468869 0.255472828710746
-0.161949044407103 -0.178609995803025 0.256541190126591
-0.148254090505175 -0.181978087491211 0.256546284667255
-0.146881704589219 -0.177623941167466 0.257605090381068
-0.134659968513033 -0.180418896033559 0.257328194891419
-0.124075394637244 -0.181469917315414 0.257185747554398
-0.117066419985981 -0.183061390178409 0.256598718755911
-0.107285293831294 -0.182175060005327 0.256505003346057
-0.0934102737771334 -0.184839028730114 0.255183505039766
-0.0781879332678956 -0.18487735688439 0.253803310529072
-0.0710483498649095 -0.182681567349379 0.25363762466312
-0.0617641161822476 -0.188705463037792 0.251490288739779
-0.0299228957405889 -0.189698383981818 0.245688236071263
-0.0286922526395893 -0.186076379459443 0.246403199186404
-0.0175707510328418 -0.191672049137929 0.242608924371872
0.00413728138730694 -0.189123246839159 0.237500525397407
0.0398606906769859 -0.195491767827729 0.216079141342871
-0.253032662216232 -0.168693798512484 0.243741073438289
-0.243626680055491 -0.163553558921945 0.247305671322746
-0.241829085861516 -0.167870615736992 0.246901156407872
-0.234596957416882 -0.168120740586872 0.248780936110771
-0.224695433348371 -0.16839898315096 0.250728246215167
-0.217145531611851 -0.16699944126532 0.252187509383854
-0.206170897237068 -0.168776045412011 0.253428927545795
-0.198443135500828 -0.165002739284626 0.255241774332116
-0.184597782756852 -0.173332816481752 0.255648224310182
-0.17872226707975 -0.17315326242218 0.256216798651555
-0.171065056416451 -0.167436538162623 0.25815067349248
-0.170594326102526 -0.168301141231514 0.258004983029205
-0.158355897666506 -0.167869596332447 0.259104917171185
-0.145963776648684 -0.16820736448494 0.259258264416283
-0.134302660108575 -0.170073490710544 0.259239461219729
-0.129551925014194 -0.169299394807771 0.259318986697887
-0.114561032989236 -0.169406581510267 0.259228562889795
-0.109985751694603 -0.169303044044028 0.25920021927301
-0.0975037731625308 -0.17229467345735 0.258281713895722
-0.0863288845459184 -0.170629225083809 0.257636974260698
-0.0721949695373391 -0.178001622418679 0.254759183385435
-0.0520049835295828 -0.178387641891195 0.252033096391894
-0.0418186361271115 -0.174298081116235 0.251336825640085
-0.0227169526715626 -0.182387541194534 0.24616391575613
-0.0154002472672059 -0.176616321313648 0.245601451418013
-0.00791339971201038 -0.182946468129996 0.242263582041638
0.0281456633801042 -0.186504043224809 0.226798087967643
-0.254922258913848 -0.151249541782215 0.246810541212527
-0.248390908924373 -0.158778423672916 0.247011927086115
-0.239643629457284 -0.155088833436067 0.249843598992073
-0.232412871967161 -0.157949598062244 0.250784418823325
-0.223485429528063 -0.154480501976457 0.252949697769696
-0.213944636869051 -0.162102545156133 0.253561298827017
-0.202534708676518 -0.154614720814327 0.256596023816908
-0.195557563249321 -0.156291064993574 0.257283085434768
-0.190305684287101 -0.158863876602614 0.257555319403976
-0.183490114168681 -0.155158108761178 0.259110504275463
-0.16914717303849 -0.162126479697736 0.259172334562326
-0.159219464337742 -0.164480466379015 0.259265431759639
-0.157629606235443 -0.158854039357129 0.259598221690079
-0.151900794132958 -0.162726280984898 0.259518834075676
-0.131533458417227 -0.160623641875188 0.259797141168583
-0.12555548508794 -0.158787797841274 0.259914196289895
-0.107015515315428 -0.163419602986915 0.259512311288328
-0.0963553748746652 -0.161798102033003 0.259411600539508
-0.0937486693204123 -0.166572412000389 0.259101628151086
-0.0849803674384215 -0.161360625287603 0.259185280750839
-0.0740712418656394 -0.160997482762658 0.258445619518049
-0.05486455517934 -0.16908412615262 0.254181255584821
-0.0505152657657307 -0.169503305426851 0.253479415725225
-0.0340531076526377 -0.172605096481378 0.250539848757939
-0.0124303205772052 -0.170574480164603 0.246046321987985
-0.0043455417523005 -0.167050087335263 0.244609715421172
0.00973329328852939 -0.172271489118086 0.239581254880643
0.0508957862108592 -0.171190401291187 0.219483400308528
0.0510521638080507 -0.173904903103121 0.218624413785493
-0.259336765539594 -0.141638255450736 0.246960519985938
-0.242111213797411 -0.149694837255863 0.250155867124939
-0.241660277322966 -0.147363328914737 0.25057436694096
-0.234369258030984 -0.148175503090686 0.251820135911371
-0.229231713044264 -0.148488629257408 0.252735109105558
-0.216065479831179 -0.150185113824323 0.254951786095125
-0.212423531965264 -0.150248474832641 0.255623139053815
-0.200028608684596 -0.149381522215171 0.257933038469949
-0.186325793178015 -0.151274994321745 0.259188130466288
-0.180573415423004 -0.147589876691945 0.259556389750978
-0.173637261827011 -0.153621190631826 0.259524211196156
-0.166332146544196 -0.151606042507637 0.259791134229911
-0.158797653515943 -0.154083629404974 0.259825197177301
-0.148273844972414 -0.156859357539191 0.259885805329461
-0.129774370032443 -0.15628516891267 0.260056823480488
-0.130322363583376 -0.156101180357598 0.26006317872686
-0.108369796139591 -0.152305829128257 0.260153954843198
-0.106385896659342 -0.149598214648647 0.260277582382793
-0.103489865837447 -0.154393575343145 0.259960149680817
-0.0821906562174016 -0.154323165703564 0.259496729420963
-0.0722050084889396 -0.158583545869112 0.258629075764023
-0.0645937339913008 -0.157165924408305 0.257802766092376
-0.0479083882621991 -0.160278487169723 0.254829189967051
-0.040923886563753 -0.159014421162346 0.25398552132848
-0.0164201717430609 -0.159566714968826 0.249328237541849
-0.000697992299556789 -0.164876556227847 0.244081111787831
0.00319002574013666 -0.163063046464669 0.243414539817891
0.020316091113061 -0.156227282641616 0.239806608548115
0.0563906064812468 -0.159112840103564 0.219153335952526
-0.25910843245293 -0.139755322568976 0.247274026949738
-0.249136670402116 -0.134664387946979 0.25049214491166
-0.244183673380377 -0.142005422946889 0.250871033627093
-0.23665727893329 -0.136010905892665 0.253085958660906
-0.221183034225187 -0.142439707640946 0.255106055109601
-0.222026301730149 -0.141109453187888 0.255139212878346
-0.212825272451807 -0.135671195008935 0.257637910132317
-0.201942604390791 -0.136062044277302 0.259205502239057
-0.191621415063436 -0.139931294681786 0.259519157370264
-0.17933403613181 -0.141119061910811 0.25989385501519
-0.177916205516902 -0.145795325485597 0.259730696380238
-0.167996529146404 -0.144809371261616 0.260114514580874
-0.150893986509019 -0.137504436303972 0.260876416278446
-0.151875790238003 -0.138014019233278 0.260827900216888
-0.135718658376423 -0.147299074654811 0.260522967648636
-0.127875232365654 -0.147567739328622 0.260566376740318
-0.119588022209537 -0.140568598262355 0.260904815223177
-0.106990200550107 -0.143452199651644 0.260616268737884
-0.0977540927630743 -0.145723445626298 0.260293433472383
-0.0793002493909383 -0.141521487559456 0.259988881920148
-0.083147376170121 -0.142178005753001 0.260093256100563
-0.0560696604934367 -0.143028371676649 0.25908185329684
-0.0458843136137198 -0.14760551779287 0.256547897845871
-0.0417076155004912 -0.145288883246035 0.25609966985992
-0.0272211714419375 -0.148407119551149 0.25294608522699
-0.0101306967340795 -0.144748262382463 0.250277559774228
0.00273083227917472 -0.152828515753479 0.245634011703036
0.0176146019588081 -0.15266883629988 0.241185973216947
0.0389457262858592 -0.148778328536623 0.23371000508552
-0.254079313054134 -0.129420445319564 0.249889355631641
-0.249552500127076 -0.130667790010997 0.250761850241245
-0.244246916701244 -0.132160883090617 0.251781636206229
-0.238086577078436 -0.129161921099454 0.253392222339352
-0.230455353451482 -0.130433032065363 0.25493800729796
-0.216902350495224 -0.13087646361138 0.257563559655419
-0.211208463000934 -0.131364132581255 0.258557453239165
-0.202643819978372 -0.132845344291561 0.259285848573434
-0.194016884626171 -0.131147077780602 0.259737361665614
-0.187912803895909 -0.1344997028766 0.259895520965722
-0.167374006976809 -0.131010166027822 0.260770783033651
-0.170237783017061 -0.130683851120431 0.260685703679326
-0.152251681523859 -0.130393676175503 0.261223154156515
-0.1424655559153 -0.136549625955878 0.261083305846823
-0.145960031357904 -0.132660930008583 0.261241095411325
-0.127046295543478 -0.136884518116288 0.261169947899098
-0.108902565284224 -0.13103177834677 0.261315875052555
-0.100886902458129 -0.139345993732869 0.26069983131814
-0.0951214226412176 -0.131956559638343 0.260964650548113
-0.0922817935225344 -0.131451996281228 0.260899658725953
-0.0693377239357535 -0.135158182300716 0.259930626204552
-0.0626555087701152 -0.138455652024727 0.25954084874681
-0.046559335945543 -0.141822428427585 0.257503090243553
-0.0341940234424155 -0.138969793257684 0.255601799962106
-0.0212154370699617 -0.137644248440605 0.253367002916335
-0.0206604421115074 -0.138384429720689 0.253157197524088
-0.000218876361172537 -0.139673971211535 0.248509933807523
0.00940122785052963 -0.142032560425053 0.245214928289572
0.0455733218527763 -0.137762844373741 0.232339490075502
-0.261991117278649 -0.121940790204729 0.248672098380066
-0.250083457430673 -0.114875311549385 0.252069565804314
-0.245841682610587 -0.123312678674313 0.252232070811164
-0.242318957468308 -0.119466028022546 0.253345181147333
-0.226343580838295 -0.118230964195289 0.256932277859028
-0.219822925242948 -0.123329717828789 0.257891482844646
-0.209545542768111 -0.122225053338098 0.25934257214073
-0.203415951274717 -0.119826806843442 0.259704954899372
-0.188193790103248 -0.124735966250009 0.260225816410758
-0.186383712507609 -0.122400434143475 0.260389605729354
-0.184082765120777 -0.122852141159345 0.260478468252099
-0.166705574067204 -0.125105425364267 0.261062589070143
-0.156509884209881 -0.119297082747707 0.261682416365156
-0.152682790761145 -0.118760199610648 0.261829693003461
-0.143069272532677 -0.125874447921126 0.261663842642454
-0.128740144559316 -0.12711498122651 0.261722083337466
-0.119276831806252 -0.123513924522519 0.26187157646598
-0.112412762182351 -0.122664268714675 0.261835923843412
-0.0895513940987596 -0.128080066552507 0.260957714884514
-0.0847036837901025 -0.122508292556845 0.261041923833809
-0.0762743006147838 -0.128895849893344 0.260457386187894
-0.0667064431776913 -0.122863339961951 0.260269055143416
-0.0524111409155457 -0.127292027553002 0.259464541343162
-0.0406069318495116 -0.129784099345928 0.258116824134182
-0.0243191257817617 -0.126088110016894 0.255196482148774
-0.0204603637797738 -0.125278600787646 0.254429878323687
-0.0101158870657649 -0.130740368144063 0.251686991051461
0.0150596298380196 -0.133595995582045 0.244542106206065
0.0339662126058305 -0.135109823945218 0.238186900698247
0.070676780185241 -0.137528890098457 0.21556798508728
-0.25469292010655 -0.108081082449269 0.251678980744286
-0.255995330807725 -0.109337380688293 0.251282393828607
-0.24237407148949 -0.110088529355096 0.254178301195876
-0.237608280912679 -0.114099175317989 0.254853758611786
-0.232968611456237 -0.109260415672121 0.256299294561598
-0.219571430400474 -0.11036594349983 0.259083669884484
-0.217379697351037 -0.110902682706021 0.25918795033606
-0.202837771746377 -0.114373978183585 0.259881812578416
-0.188036910600803 -0.116915115220194 0.260505817807453
-0.184037632744447 -0.108801708324838 0.260970737657379
-0.171386309962942 -0.108950499678794 0.261540793354162
-0.171246986325771 -0.11389919915937 0.261374469002149
-0.157141640063882 -0.117440109052396 0.261744809833465
-0.147378520599308 -0.111513858636887 0.262329724566479
-0.138945811444015 -0.115485910035429 0.262304355682827
-0.121431371508284 -0.112859713721415 0.262493093094766
-0.119123076166251 -0.111640093620191 0.262545127006935
-0.105200304921659 -0.119732540848291 0.261832970827349
-0.0975094606077742 -0.118772139315322 0.261658595594191
-0.0784195411709195 -0.117773905234407 0.260979211237747
-0.0705509158075486 -0.112491607665829 0.260805728703457
-0.0670168915962179 -0.118514873363428 0.260434888297959
-0.0528920553936092 -0.116374195061774 0.259856137230084
-0.0426808685250579 -0.120549739696774 0.259223872619991
-0.0202963659697361 -0.117655668317302 0.255081184744158
-0.017384246982537 -0.119778643951185 0.254256264719804
0.00325390218540893 -0.123120703439322 0.249464795290621
0.00389499268060918 -0.115750528247591 0.24998952101563
0.0361282931731584 -0.125115101906897 0.238840292572415
0.0617338901008122 -0.12768346158532 0.224300967318742
0.0574840588033307 -0.118287497458615 0.228776309443803
-0.26497821393684 -0.0979262106490898 0.24958968362971
-0.252695040930637 -0.105372612050042 0.252228706895066
-0.242748586882458 -0.0981945017995775 0.254771683196066
-0.242591868644586 -0.104526075086446 0.254613650217755
-0.226414366430876 -0.0972265843751987 0.258615203221662
-0.21799528725431 -0.0975280661549911 0.259438291666587
-0.216995861878171 -0.0986290322436556 0.259477468360069
-0.203693976277699 -0.102563930233037 0.260095502270355
-0.192317738701578 -0.101727923775638 0.260716211502512
-0.183619500189631 -0.09879509294085 0.261241109256838
-0.180067610741111 -0.0996490511702666 0.261410452722222
-0.164805684327726 -0.107035916642344 0.261906809389357
-0.162470692855289 -0.108550919490374 0.261960121658506
-0.153548570995213 -0.100956415298672 0.262619673708142
-0.145932214691747 -0.108089783271326 0.26254275118423
-0.131894452395062 -0.109908189681831 0.262676219432922
-0.120618492282034 -0.108807486206705 0.26271726978739
-0.109197963677934 -0.106541567082488 0.262619114061549
-0.0922882568895887 -0.110337312463198 0.261859954477586
-0.0892611544545992 -0.108522969999984 0.261794935579018
-0.073573301630143 -0.106515118077809 0.261151673250324
-0.0679558210144962 -0.104174355415124 0.260921340754298
-0.0580011884837563 -0.105628475712249 0.260362348824778
-0.0449573741735973 -0.105808619431342 0.259667725988441
-0.0327571148393497 -0.11206632365229 0.258296010556478
-0.0130363904791232 -0.114565279874609 0.253780128351714
0.00418090640316306 -0.106336003211588 0.250594579476853
0.00934898624665031 -0.110196871491538 0.249269241277169
0.0411577201161477 -0.11377488931775 0.238232847350555
0.0431773675436698 -0.109105489039644 0.237734791873605
-0.256794652910466 -0.0930492805112984 0.251650318677442
-0.258279437398164 -0.0891261388165749 0.251424238421518
-0.243671874502739 -0.0920828515663998 0.254743974892785
-0.238613690741328 -0.09301556652044 0.255896305876191
-0.231458219625625 -0.0901167815030164 0.257656093581352
-0.22272896389084 -0.0966106366998065 0.259176175452914
-0.219644393917778 -0.0962049572649359 0.259354483247577
-0.200912318619236 -0.088897258818884 0.260473554208113
-0.196622384394376 -0.0902327957553964 0.260707328079956
-0.179127185000497 -0.0981686251850374 0.261492718086928
-0.176735757041319 -0.0970652222506213 0.261643545102586
-0.170028819475599 -0.0927280587438471 0.262093803951518
-0.157272519781516 -0.0926627058748904 0.262750816169379
-0.156556880027796 -0.0932964424073829 0.262761244857678
-0.137997830061066 -0.0991508804079502 0.263190089560971
-0.127367979582207 -0.0990904775960024 0.26331990623909
-0.110984518558742 -0.0980049537630573 0.263073007864203
-0.107526751331193 -0.0988597394313238 0.262913500419906
-0.103056065450041 -0.0964365758730795 0.26284387303891
-0.0851244217703647 -0.100781949720437 0.261876924081739
-0.0665762501177568 -0.0982562074457553 0.260978093046475
-0.0639919721685059 -0.0971177059866128 0.260866225537961
-0.0502118207079992 -0.0985043774631977 0.260106151174976
-0.0433038426441329 -0.0973402762019721 0.259765904608555
-0.0371869544573487 -0.0962336802962242 0.259436384928797
-0.0229697948416242 -0.0997316430696276 0.257136823719289
-0.00680390761214929 -0.101955876795679 0.253293989210729
0.00992031085201263 -0.0975672072580787 0.249524065462429
0.0258801165714791 -0.103948813879947 0.244041056446319
0.037769193833343 -0.103237943712661 0.239925899238393
-0.262520481430021 -0.0797903831805469 0.250720994107944
-0.251438825555574 -0.0807622795994059 0.253278500796265
-0.248333740955185 -0.0808576565655337 0.254000554406784
-0.239277147132932 -0.0803982413727285 0.256129239541878
-0.229813607027014 -0.0868439148781541 0.258140686671924
-0.225757890506196 -0.0814816724766989 0.259117241389339
-0.213383406237436 -0.0834923265751629 0.259805349175644
-0.210006970404734 -0.0819200728252238 0.260008968455431
-0.198403252292423 -0.0816904421841905 0.26067003855762
-0.182920111567903 -0.086252022355591 0.261515704947076
-0.176289121065589 -0.0812439033746095 0.261929959263871
-0.173070388871113 -0.0875655399389969 0.262045980226761
-0.157218618716684 -0.080426412941243 0.263019708391174
-0.152978066919528 -0.088510383934315 0.263089148554811
-0.140526745401211 -0.0858305161438103 0.263750609052768
-0.131000775635695 -0.0850248986173111 0.272110409179152
-0.133979334808897 -0.0834931432971175 0.272179625989025
-0.110370294171797 -0.0880780834271497 0.263468072433762
-0.0997462061233639 -0.0830113472060914 0.263068807321822
-0.0918920808172305 -0.0887268060647502 0.262527575028297
-0.0716151949087181 -0.0924859968512053 0.261371461986917
-0.0638823904890555 -0.0927238501786428 0.260956792146457
-0.0480161276697526 -0.0865503818320321 0.260124164679103
-0.039184239971756 -0.0914898177190273 0.25958536368692
-0.0301756595652401 -0.0860561525175925 0.259114121917682
-0.0224519342295515 -0.0888925018446828 0.257349092578576
0.00328331982325184 -0.0862801618528819 0.251420640601087
0.0104040586788234 -0.0878726851007349 0.249709115032593
0.0299778063093227 -0.0912824406092347 0.243230182525161
0.0465718240687814 -0.0889775647683052 0.237470835538925
0.0622439564477924 -0.0952831012308826 0.227530227366239
-0.254394418840863 -0.0722448139082727 0.252739159232553
-0.253935011595511 -0.0748121829863358 0.252878581052441
-0.240428608364806 -0.0753139895188881 0.256016675665111
-0.239273198081605 -0.0724570760508788 0.256276236268778
-0.229196321391336 -0.0721988685331106 0.258621081646033
-0.220514427108272 -0.0767360382321042 0.25945068934471
-0.20776184313662 -0.0760145422276862 0.260180720435776
