ply
format ascii 1.0
element vertex 846
property float x
property float y
property float z
end_header
0.0553095147880477 -0.379266942405772 0.120682504219409
0.0447035238188489 -0.378921118376824 0.121685968403963
0.0386009828567712 -0.38946230379354 0.122575927791366
0.032569721778668 -0.383466670495832 0.122995837465871
0.0212909021356965 -0.389770982528668 0.124080425022838
0.0189087648314636 -0.386658432012214 0.12399475735853
0.00550298594849926 -0.391316159279069 0.124595792448703
-0.00174201125320894 -0.393227474658192 0.124507948316482
-0.0163172890542415 -0.388569536103885 0.123579551171947
-0.0360034965834739 -0.399167560550461 0.122107569877071
-0.0446795390903118 -0.397566974182543 0.121206583531893
-0.0522538856021191 -0.401681079129029 0.120505859764927
-0.0662120437385919 -0.393660262544663 0.116430411631093
0.0986256241591318 -0.36840345633512 0.0883810727110372
0.0987454257622904 -0.362195791849361 0.104877571287784
0.0981858229533756 -0.368801100528569 0.100123975728967
0.0884525294791137 -0.370861330369841 0.109778758897231
0.0802804306635839 -0.371461694375831 0.112134427745888
0.0732640388667984 -0.374428453676336 0.113691329800806
0.0655680838306929 -0.369065699299592 0.118196210463249
0.0624293936599911 -0.372744554838151 0.119258799646799
0.0450485106316517 -0.368797680943971 0.121358370076411
0.0419842463374812 -0.373740533819939 0.121795053002246
0.0358134703323862 -0.37323933817594 0.122370157569104
0.0248880194832445 -0.376181132291721 0.123316372665102
0.0184943418074487 -0.38136614051471 0.123747789865404
-0.00222645029668389 -0.383896192658346 0.123986598568974
-0.00880293452108831 -0.379710907850083 0.123458844681914
-0.0125995441739029 -0.380216689967984 0.123367428534986
-0.0300345824591062 -0.385772558858156 0.123071738202233
-0.0347711396195602 -0.386096058404336 0.12222703066049
-0.052646443038119 -0.387111526821195 0.120239265815837
-0.0745638678161357 -0.393539472142184 0.114569603063469
-0.0825361170655513 -0.385684744026921 0.109999757083947
0.102859804341168 -0.355325335169096 0.0923693613109095
0.102667841827351 -0.353429787388573 0.102754113502451
0.0942394452414347 -0.362070687350019 0.108050114053562
0.0925218921397216 -0.360825269302019 0.109134652422883
0.0876168062714566 -0.356561554653851 0.111369884261949
0.0714114671841387 -0.362150790477949 0.115058184896584
0.0669776185991096 -0.35781855580662 0.118420660318607
0.0576239187170153 -0.367201827745398 0.120110194359289
0.0572094352475543 -0.361780462565544 0.119992020753024
0.0394833899712096 -0.362621907903467 0.121710445157949
0.0332121357093017 -0.365883107076666 0.122490713167481
0.0224328758225465 -0.366467532237556 0.122910295471051
0.0130505436491537 -0.368910572430271 0.123291046014147
0.000229968540398065 -0.366452057733511 0.123459622968607
-0.00529627525376897 -0.365588158340351 0.123019062362923
-0.0152582328121813 -0.375191723414595 0.123096914288096
-0.0211445050447234 -0.373063822355357 0.122843392791135
-0.0443320161351708 -0.378676264734205 0.120947405899581
-0.0604277086047807 -0.378028395913984 0.119312069859044
-0.071961676969732 -0.379862320793995 0.115606157834596
-0.0756272880021099 -0.384474124857915 0.114634085185555
0.103715781988611 -0.351827342876025 0.101335570166526
0.101742091564369 -0.349196177149752 0.106028023640421
0.0995954688337157 -0.352484248949186 0.106665216593657
0.0914346484675073 -0.352402666692318 0.110708931839913
0.0823736604861705 -0.352751532456596 0.112974356123191
0.0794147725485978 -0.349518409054348 0.113959066561314
0.0663644044748924 -0.355215218041822 0.118660471740539
0.0539936929688269 -0.357637065287314 0.120178734600367
0.0542732091030685 -0.350756850721776 0.119951782958436
0.0416301452811925 -0.352084728807245 0.121198624888438
0.0315113211116241 -0.354369183661976 0.122066375891608
0.0180351617146481 -0.35393440411332 0.122420616578186
0.0137818456648087 -0.360587575973009 0.122864113986717
0.00744655089567596 -0.364306837291946 0.123222306670625
-0.00535674549980041 -0.362819723466387 0.122911021198728
-0.0284206402800934 -0.359526561549014 0.122111310294187
-0.0236371418741661 -0.360086275943302 0.1222724388868
-0.0438172823416462 -0.364290193061104 0.12077528278588
-0.0543728565517587 -0.366739113744775 0.119747593740956
-0.0547099554498282 -0.37009567341055 0.11976584208201
0.107761012055939 -0.340187296725634 0.0969751166239365
0.101438249917982 -0.34137297650898 0.107347111579406
0.102194935295368 -0.339355070235925 0.107249838249929
0.0911484792430825 -0.342024570663258 0.111540735579232
0.0826821940162319 -0.344135951388372 0.113526819431898
0.0762759788651999 -0.339481433384477 0.115487156955213
0.0695189749911226 -0.338660708382605 0.118142824144814
0.061885338358524 -0.343160769649894 0.119003278190197
0.0501704727413461 -0.342551676375855 0.12010504643697
0.0419208142125711 -0.343623687204475 0.120924599354932
0.0325816427032277 -0.347127419586155 0.121682813274021
0.0305369657042395 -0.349912622156914 0.121875832654785
0.00988802138614184 -0.347781606593408 0.122347067932632
0.00928599408945559 -0.352114301079747 0.122575482444033
-0.00905001501721445 -0.347328655588724 0.122208527724176
-0.0190673195153553 -0.348943903866077 0.121978104935086
-0.0299898134918152 -0.353681300672831 0.121841111852917
-0.0507353808469841 -0.355875750448404 0.119945660557182
-0.0534229013362875 -0.355148350071151 0.119662960270553
-0.0638204006982308 -0.357473952755212 0.118649311675233
-0.0795406709958388 -0.363070854855941 0.114473137652875
0.110034719735533 -0.331287079450367 0.102799258080391
0.103517867747058 -0.327650756284496 0.108292027165316
0.0996505581233197 -0.32967077451174 0.110018756414611
0.0934219377401366 -0.330341382485859 0.111820874742513
0.0828134297147229 -0.328571573581791 0.114632610082799
0.0801568752546981 -0.331460575868121 0.115092873765664
0.06574135168956 -0.332457966116528 0.11832329761813
0.0552414699428916 -0.328254564009713 0.119204351534591
0.0577484010446994 -0.335287837102515 0.119169479483955
0.0448661271131462 -0.331648783663384 0.12024941275524
0.0307905986412018 -0.332275454001113 0.120417328566155
0.0276703677357044 -0.336469099732574 0.121299022816789
0.0115438125178582 -0.342918046744696 0.122063361646202
0.00267486234964234 -0.337303409655989 0.121764565223457
-0.00601109901320086 -0.339439038949207 0.121994371066775
-0.018574913930131 -0.341298937665941 0.121699001151255
-0.0387862290252797 -0.344893236237746 0.120981133188153
-0.0394761082049926 -0.343721107591287 0.120893214705686
-0.0491695195226499 -0.350512662449015 0.12002022856202
-0.0655939706509682 -0.347226473755382 0.118310598301193
-0.0860750546886875 -0.349760697491224 0.113457415391855
0.110525489526257 -0.320794253902194 0.105637047842315
0.107323422461894 -0.320345711007933 0.107381229592827
0.101679433600113 -0.314242840931947 0.110911134708359
0.094915541177078 -0.316977818037971 0.112421156947378
0.083129143561797 -0.321310644002041 0.11508412709263
0.0772793974358223 -0.318872618307213 0.11674156988067
0.0748985133756562 -0.326887777858575 0.117083594657485
0.068057835150951 -0.324422669754256 0.117868072148397
0.0478956127640024 -0.329459193336897 0.119662713795503
0.0432015320308538 -0.328982355221101 0.119534945407455
0.0273734412990231 -0.329876649128411 0.119774570737715
0.0275173750951342 -0.323094872656205 0.12347209606254
0.014614501023741 -0.323878806175677 0.127691435892484
-0.00179555233009506 -0.331100550688636 0.120102514172392
-0.00610771629804724 -0.330125557819441 0.119841265620465
-0.0167308886609506 -0.32773392157476 0.119200428620114
-0.0258474894810639 -0.329352254724909 0.119634059680781
-0.0372840589103492 -0.332657752652017 0.120519765180932
-0.0531963955314612 -0.332199481573211 0.119328347456803
-0.0689164976675089 -0.336949237410325 0.117815017237672
-0.0745941334656444 -0.337441112964436 0.116431237027159
-0.090899595111577 -0.33696405060506 0.112806371569932
0.11858476796953 -0.305877082857979 0.102646410093715
0.105524371598323 -0.311540899874018 0.109629248859836
0.0947080992414517 -0.306997663465255 0.113203934902449
0.0878972373268094 -0.310481421747673 0.114577635224031
0.0879348158468155 -0.314381301022976 0.114376151296864
0.0787579914311971 -0.310749335006419 0.114649422365354
0.0738723258775014 -0.313180960403685 0.115300974426846
0.0585063648163994 -0.31827561570484 0.116666083200504
0.0536407294210754 -0.316057985123613 0.119901499184754
0.0493300334436111 -0.314881604422895 0.134350398751068
0.052207039634931 -0.312432192592955 0.142042015000378
0.0446440018966813 -0.314862583085594 0.144393326835712
0.0334982821982197 -0.318532332080223 0.141450288749921
0.0320912395513451 -0.314451143732292 0.155850429682874
0.0276960291567288 -0.317818004929004 0.148201762648739
0.0277223803670505 -0.31394689895368 0.163091693237066
-0.0355896219160718 -0.327046939950182 0.119016352448594
-0.050209170815886 -0.330198900768599 0.119598815144568
-0.0592810039271447 -0.331305760479227 0.118700039303652
-0.0766301534531905 -0.327386855519271 0.116311489126288
-0.0892870746866877 -0.324850484001993 0.113569872237007
-0.092475529949424 -0.333304674867143 0.112576367846248
-0.102732711765786 -0.333011876610052 0.107215546275175
0.113909794901423 -0.302038181269986 0.106644726258467
0.114544931698692 -0.295009378878488 0.107354069100692
0.10287058403807 -0.303904185248862 0.111366531107103
0.095896978372107 -0.302683983558694 0.112488317958264
0.0872691398746133 -0.302892464743202 0.11254418032329
0.0767764196733791 -0.30690954658995 0.114106803936421
0.0840613613865872 -0.298607992127726 0.134056373815208
0.0816291528979269 -0.300309441165597 0.135285952069212
0.0701622689749932 -0.307263740051276 0.132459660390527
0.0744215660925848 -0.301462342861631 0.152065913946674
0.064233261294247 -0.308202430089733 0.148875700124121
0.0674233254317482 -0.299476938008503 0.165629425129968
0.0489785025460228 -0.306717497083515 0.163682563580044
0.0626470710609385 -0.299566683338479 0.182007043878522
0.056384270046239 -0.300188064607619 0.184953559476362
0.0420115927974691 -0.302280615541185 0.181254024291062
0.0301948385799398 -0.302794701682668 0.184501221702053
0.00282961754330666 -0.315077311804179 0.163775186689677
0.0111367639987606 -0.310742077119233 0.172369870119766
0.0123170322802544 -0.307794215677336 0.188327379340361
-0.0343878496224211 -0.310443639473089 0.16495598952976
-0.0870030229320887 -0.320752199545324 0.114216361227848
0.117157126085603 -0.285394381730154 0.107410997655981
0.10218878049463 -0.292149593211982 0.10966563657211
0.100167054665193 -0.290885589964492 0.109326947922715
0.0925319321514786 -0.294629751607123 0.115416964430622
0.0956949082571435 -0.291286151367747 0.122961608175559
0.0933946966210418 -0.291960757048499 0.1346685667239
0.0993828050597456 -0.287154498947227 0.149293116184428
0.100342058310449 -0.286876304426248 0.164392068840309
0.0940832648378848 -0.290252875604018 0.166744876003238
0.0804911293712944 -0.2964556867553 0.155482182052137
0.0830723257962666 -0.288647492052321 0.173897394414226
0.0789196933597352 -0.29128965994568 0.174721945454151
0.068428332956469 -0.295920639054636 0.175470311270393
0.0672587547160731 -0.293185673298382 0.185052823752686
0.0608597379807692 -0.294287103250694 0.192545852200034
0.0601539465013524 -0.29160106691355 0.197775925415624
0.0390121852417036 -0.29721417974472 0.192198015045517
0.0354155053014335 -0.295208737069826 0.197224549420545
0.0312111123101169 -0.293163964684984 0.201784535795845
0.024773507454579 -0.295354197468344 0.199104237119308
0.0181104740500601 -0.295666697399035 0.203931409213807
-0.0203780286082667 -0.30543352406945 0.185798975693599
-0.0156366726598048 -0.302874823027691 0.187193930393149
-0.0200359273597636 -0.298949859534018 0.197590716211928
0.117834228549508 -0.275528601989051 0.105212055396524
0.106916142225683 -0.284250908751604 0.112334742073266
0.111739629395455 -0.277822524110724 0.120545556586557
0.111653560928056 -0.277345150043778 0.134889257400262
0.107747196184226 -0.282160873091774 0.131640483909608
0.111138853804297 -0.274734453990577 0.148394911704941
0.103714977074453 -0.281958662752924 0.147193844285582
0.106663352577371 -0.276282239972028 0.160140981528468
0.0948982528300912 -0.282296524955177 0.167788382806507
0.0954430931676659 -0.282876906464589 0.17840760481027
0.0914330903108398 -0.282330623323565 0.184881214349672
0.0923851278780538 -0.277024014081796 0.193307785261919
0.0809293995946846 -0.281558669101247 0.189814011982439
0.0798196534447873 -0.281019069908272 0.192317429881903
0.0769310791342152 -0.278078699961071 0.201851347804534
0.0667558746018349 -0.278425439001069 0.207827382316772
0.0591157831617781 -0.282996466679476 0.205309945738739
0.0534507312983039 -0.284577774912225 0.205765264634794
0.0386940437989272 -0.285500934196586 0.211043980106851
0.0374134411066001 -0.28851733585164 0.207741898507298
0.0189096197276292 -0.288671346658087 0.210463745182851
0.00366510076237888 -0.293619999397789 0.206363904330566
-0.00567438462389891 -0.292735928790767 0.207214516376593
-0.0148011164236287 -0.288555740927748 0.210810635010413
-0.0205788079162573 -0.288269137362877 0.210043156537086
0.115289196763532 -0.273640441411978 0.111450732347236
0.114927042320308 -0.273876039640351 0.117652069603351
0.114759790357113 -0.27362688846177 0.128997231390115
0.118343302155398 -0.265446043455333 0.144631184206701
0.119594785328905 -0.266055840376177 0.149732402910629
0.111274418760292 -0.273877167694314 0.150724771276866
0.112282360777687 -0.2689839719571 0.162786644338785
0.109744340533911 -0.270539981522166 0.168919584416258
0.108847700883996 -0.268418537132609 0.175065083878863
0.104227720804684 -0.271395823701824 0.186463822614148
0.0986089330949619 -0.271689008633974 0.194592089226941
0.0929602961843356 -0.273731544827795 0.188118737646198
0.0837310106801877 -0.275587108912119 0.197327881788857
0.0835776709393795 -0.273418878536001 0.201586898974143
0.0786631310787732 -0.274367948216712 0.205041070302484
0.0714669458129303 -0.271217940344428 0.215722872815818
0.0586550197393865 -0.278844343707615 0.210828837967282
0.0607884522478151 -0.272910416007519 0.217881618420694
0.055393131409091 -0.270908748224957 0.222884605859769
0.038600643352926 -0.2756166528562 0.223742560611055
0.0296844464361643 -0.280818186587655 0.219140233236087
0.0206454038086873 -0.282190844531847 0.218602802973126
0.0248150369629073 -0.274315326209318 0.228362280981516
0.0101006603873178 -0.27630019954107 0.227815266824931
-0.00990755642790159 -0.282098915496954 0.220103206993299
-0.0215710400517419 -0.281439604410618 0.218658048268876
-0.0516019356116189 -0.289032844273771 0.199443982209249
-0.0694906537293063 -0.284116712850853 0.199516705685717
0.125374040232499 -0.260036559869786 0.119453747272527
0.128746480971101 -0.255597910981973 0.133432417811491
0.122942897319698 -0.260734105374532 0.137943547053676
0.130968961038582 -0.253538835483889 0.153111107681518
0.12529289606769 -0.261478743050921 0.155536514964375
0.123756303415149 -0.262241869081771 0.158559575541367
0.11556268911095 -0.259703199818978 0.171038628509056
0.121155180890452 -0.25628563369457 0.17604947145724
0.111938642507614 -0.261429335585407 0.178294298351514
0.108966277469274 -0.261758564081707 0.186099930159874
0.107739273864748 -0.259311238752918 0.193731733767995
0.106225983049683 -0.256020678890001 0.200821735981554
0.0945859882081433 -0.263459085008943 0.203689705688781
0.0966026227499098 -0.258461129407745 0.208250545013143
0.0931682675069953 -0.258048464918339 0.212065469173298
0.081293958063184 -0.258502173669324 0.222740420988096
0.0770209549829661 -0.262626961886365 0.221341126658804
0.0712427725938684 -0.261470671575657 0.228319678049377
0.0656530337920745 -0.263283640950451 0.228958392417228
0.0519640210448753 -0.269902782006261 0.225699759320304
0.0458008579418587 -0.263920303817127 0.234398862482846
0.0312315350594736 -0.2686147939287 0.233709660500494
0.0290902967824957 -0.265048874130504 0.237401419175906
0.00682731404137157 -0.269697666800285 0.23526803498919
-0.000721571804786319 -0.270860700992341 0.234959608865589
-0.0140162720444504 -0.271399884057851 0.232366768268731
-0.0402986461510789 -0.277381574104024 0.219719994896688
-0.0393834958958021 -0.27148797291388 0.227578115220847
-0.0460996869853877 -0.274649601532537 0.221189687900113
0.131311578948297 -0.251592906123426 0.124185805512072
0.133213498653141 -0.246875513579534 0.131898772731981
0.131010861009139 -0.247392060695487 0.142038579155914
0.128250156304985 -0.251177462264056 0.14332092922787
0.130376891554128 -0.252276888446783 0.156932026369544
0.125638431910855 -0.253309770448792 0.16728421092808
0.124028467887284 -0.253039653061009 0.167353063147941
0.122452413752344 -0.245135486346625 0.175982754404301
0.117877006799744 -0.247559705786601 0.188419133894511
0.114602012096004 -0.245733903120191 0.194716522751468
0.110620815407495 -0.249110936351274 0.199149925580282
0.107460866631368 -0.24784017606314 0.206670098710959
0.108395486321436 -0.246112932521941 0.206575631129993
0.10088167747343 -0.249975657247556 0.215534374747932
0.0927921835305835 -0.249809937914845 0.223441858985095
0.0916899116636515 -0.249756628712292 0.224560429578822
0.081715369356865 -0.251775552768352 0.229750712812961
0.0706353120878565 -0.253926499828746 0.235538659226057
0.0674235832826461 -0.252855383984207 0.238740569003401
0.0614322488582952 -0.251445221598456 0.241917718787598
0.055381697734329 -0.253101706487034 0.241990960108279
0.0471028241474345 -0.25389805460991 0.243565528079733
0.0313547246018119 -0.259348108192681 0.242736790415507
0.0238375176657489 -0.25969828480272 0.243144032099148
0.0136653560898303 -0.263089529372363 0.240887045018571
0.00503326654225333 -0.25702622910541 0.247641425087113
-0.00588319849467879 -0.260517116717856 0.244111303887157
-0.0232570089750592 -0.264646329542252 0.237398119946028
-0.0496002363211867 -0.266955187699081 0.230279740386562
-0.0448112745785653 -0.266967572675259 0.231281290711337
0.136573475189896 -0.237981496987726 0.132602348848649
0.135291238786805 -0.241207131286375 0.132793503017698
0.135493590348077 -0.237824164139999 0.140602874306141
0.13125697388778 -0.243568227807686 0.152199498157111
0.132797842775382 -0.234235092725338 0.163075747349164
0.13060366742672 -0.235455229863886 0.16871738686959
0.128865379601901 -0.235568441956013 0.17336786209817
0.127685375763877 -0.243305612158075 0.179823104163257
0.122149892436639 -0.237821008489549 0.187840912062862
0.118642192357536 -0.240238646281812 0.19231186583778
0.1129414619746 -0.245009843913107 0.198725356496729
0.108123991734659 -0.241636886331353 0.211644010913206
0.105070888859973 -0.244818544292427 0.214444516723848
0.106486218538114 -0.239911306278492 0.216485956703576
0.102526992231552 -0.240704030219857 0.222951970730285
0.0941493477501804 -0.245187600195005 0.227009904076842
0.0895240046027635 -0.239382122359192 0.235629060468963
0.0794255440018854 -0.243098771868972 0.239150868481341
0.0731700133094753 -0.240079875555118 0.246310434443733
0.0688344288224643 -0.240310595541798 0.249099007286774
0.0683053163796711 -0.240542951669834 0.249246677153439
0.0501963618976168 -0.249868612292618 0.246719595557253
0.0364668280688966 -0.249751696069856 0.250772462762613
0.0316180613058724 -0.251658834566363 0.250211236635235
0.0248606566338573 -0.249750956999797 0.252591505862553
0.020298671987416 -0.243826992544164 0.257169720604965
0.0119724632577351 -0.24597753143066 0.256269167733282
-0.014151921798691 -0.254526329840159 0.248563078462495
-0.0318831266573126 -0.255481318450863 0.244844291825396
-0.0266425632994682 -0.24888158521437 0.251821426111612
-0.0441601591201449 -0.251656482962264 0.246122237150415
-0.0565621606312859 -0.25082419362031 0.2447351083585
0.14023997841791 -0.229767804875348 0.129300987817417
0.139417412187746 -0.228062865818819 0.13971897045359
0.136353299222025 -0.233778394916965 0.145611346102345
0.137405582878318 -0.229902011193757 0.153261936437602
0.133220148151308 -0.228280086727471 0.169558549772105
0.133339869092278 -0.232728678660418 0.163276493373223
0.128769077346939 -0.230823485431701 0.180835091200068
0.125859130278034 -0.231405899892758 0.187020591158948
0.120084559083617 -0.234520089027165 0.195257769800759
0.120343395226558 -0.231075689448551 0.197971182404992
0.120794594739442 -0.225753575233405 0.201956968182137
0.111938879059494 -0.233349668759534 0.212012330656499
0.109762319867372 -0.234665779275982 0.214985821176199
0.107867701040541 -0.230261606297262 0.221366359281399
0.101780328685792 -0.232860992803582 0.228999927461002
0.0945973411367647 -0.236122390507789 0.235186577489952
0.0983083182107272 -0.228322121009275 0.237124970407587
0.0825142015273482 -0.238111427682378 0.241688370828259
0.0757987335887668 -0.237286860445919 0.247122706300191
0.0767316615834512 -0.23044171016733 0.251754081937854
0.0734052205116527 -0.231720623582752 0.252683325607225
0.0616420593368757 -0.235409327589264 0.256133423165515
0.0513864953740695 -0.232150799398224 0.260516707556857
0.0357913678381369 -0.241500509687193 0.257081212381189
0.0299655664211984 -0.239963746021003 0.259267506119187
0.0240983034907627 -0.241987856959095 0.25821380955817
0.00523722421546437 -0.237492369051465 0.262842076618532
-0.000402933604695863 -0.235120490151799 0.264966034430909
-0.020986580633775 -0.244523519564607 0.255665856125409
-0.0228830619204073 -0.239317764377168 0.259134920571251
-0.02727014135377 -0.239777941970762 0.258237039208711
-0.0596696579031335 -0.242094720142231 0.252810927691883
0.142248780216748 -0.222402734597065 0.135307314256598
0.143771394576602 -0.217766532258754 0.144199420372517
0.141119041388958 -0.216310673113834 0.159274486814659
0.138805156012658 -0.218331099493815 0.164253102464404
0.139965482816579 -0.215999827671755 0.163500558957942
0.136961187304035 -0.217086034604347 0.17277474305757
0.133051837780594 -0.217575730902489 0.184137813200699
0.130067218603146 -0.22003686464047 0.188352300556375
0.128271348511296 -0.216104007974989 0.195390021035797
0.124887120189541 -0.22485412785625 0.194930273026958
0.12082091977626 -0.222356043577759 0.20500318795548
0.116584550423413 -0.223203836577133 0.212352752094241
0.114533193483959 -0.219073825170706 0.218231984853272
0.109590125498147 -0.225408581447033 0.22178517465621
0.105212912159551 -0.225696635139041 0.228264401245865
0.101383315938321 -0.223188503438996 0.235661668780054
0.0972167991918232 -0.221104330038877 0.243122854606017
0.0928835075440732 -0.222398617665929 0.24820173492659
0.0901531140721691 -0.219047187410552 0.252170258457576
0.0751850696901414 -0.22155462580083 0.258311317411896
0.0749416238143614 -0.222281306900323 0.257970351103964
0.0651586166055536 -0.22460822276853 0.261629831518909
0.0569206821433346 -0.223837221113003 0.265599044067565
0.0437494155479827 -0.227448885939711 0.265463345777335
0.0344759161207693 -0.228090467369758 0.266800492248063
0.0301766215133629 -0.231796227632296 0.265088483253457
0.0182984821565354 -0.228016614267108 0.268725540135155
0.0145850227077499 -0.226560950441936 0.270038253321069
-0.00857380559105326 -0.227637504092625 0.269328277798625
-0.021176630248125 -0.233460278730576 0.263536785262262
-0.0217996246178583 -0.228606780983663 0.266919755379814
-0.0374336540853007 -0.230234408769636 0.263828574729949
-0.0602196024117336 -0.238266635948625 0.25552129676321
-0.0589944427700586 -0.231343394017405 0.260962118518032
0.14796289552682 -0.209718434336716 0.138628463013702
0.146826913902306 -0.210130156422035 0.148576487907
0.144468385638968 -0.21126848664663 0.154869879371639
0.143678377543466 -0.210412012500303 0.158615650105626
0.142091663658613 -0.20727157812538 0.170715268342637
0.140427307991762 -0.20818471807788 0.175709708780714
0.138011427804595 -0.205940843683607 0.183408771511922
0.133418959403909 -0.211326531538594 0.188564233524327
0.129780507479424 -0.214520916252908 0.193540575286307
0.124359782080292 -0.210876961654899 0.208231861479182
0.12200233883672 -0.21427756875035 0.209824714754693
0.121064251810188 -0.212723901956634 0.21209274969
0.118126210862757 -0.208854702170091 0.218642823057646
0.111042341859415 -0.213508054787268 0.226656178405264
0.10879267651276 -0.214685400010345 0.229368285527868
0.10236227268131 -0.216327658867285 0.238079746804084
0.0996183817237203 -0.208585777015811 0.244937985770494
0.0936126883556995 -0.214591580058229 0.250156747583712
0.0942762683823087 -0.210638804007717 0.250783102141542
0.0819337100393586 -0.218122702572439 0.257082557616805
0.0800348423862772 -0.213281285727982 0.26132938749875
0.0648904184819804 -0.21623249621324 0.267250433386102
0.0638527518860547 -0.212744250962927 0.269870313348389
0.0583361846770858 -0.213126936579544 0.271908045106018
0.049374815359597 -0.217784708371167 0.271157497745827
0.0387556953317254 -0.220875704201238 0.271008407415602
0.0317992910658493 -0.215299833039704 0.274767158472999
0.0141527286903583 -0.215121772635353 0.27608655100336
0.00503032140209654 -0.218395330088707 0.274876552447507
-0.00518130859969228 -0.217956463327479 0.274934623950176
-0.0251471176669312 -0.223909179025864 0.269724474818233
-0.0316177582486063 -0.22432797777957 0.268732832250179
-0.0437435581031889 -0.22675278785984 0.265816914456477
-0.0707581463989299 -0.228678491092571 0.258788542462292
0.151538574066511 -0.201806656626582 0.141068356650137
0.150783612348824 -0.200643237810732 0.148175183500449
0.150518165713934 -0.1949344274998 0.160126017474732
0.1457484219667 -0.203920391474873 0.162304416148017
0.143048600595725 -0.20286499394 0.175239081663594
0.141918138326583 -0.194991453909634 0.184698084638373
0.139561729634512 -0.19673736354072 0.188281135096442
0.136276945152639 -0.200787835644853 0.191579146332535
0.131837153448813 -0.203401710919299 0.199039173747657
0.13028204486644 -0.196494527352302 0.207513307433805
0.125830217760914 -0.20588671038125 0.208851333209645
0.123045945602167 -0.200151854402528 0.216214563972415
0.118982121944403 -0.200624280251877 0.221990350579114
0.115583202723553 -0.201200953163881 0.226719067773762
0.11232676251393 -0.202711754271825 0.23074384331233
0.106929726024012 -0.200314336163649 0.238935750249887
0.101747148943684 -0.202614711970637 0.244493419459202
0.0965794172896623 -0.199760038344311 0.25185427220483
0.0929008746262438 -0.201861970857581 0.255691358221854
0.0849638452009746 -0.208537668305607 0.261946218471009
0.0813294915057057 -0.202591917229806 0.267419338918034
0.0737345411471454 -0.202729879320337 0.270399000398493
0.0672172861403435 -0.201662107981461 0.273487197382923
0.0627337593362556 -0.210660983895071 0.271251621653355
0.0568444274540174 -0.206593341926699 0.275432151991367
0.0434313805640659 -0.211005711457059 0.275391305021218
0.0265977884015713 -0.211382754404483 0.277438028534535
0.0141587807013181 -0.211242236360939 0.278085446940119
0.00479092356762631 -0.209364759946456 0.279528195528458
-0.00374818867097517 -0.213197979396719 0.277531478333827
-0.00694325635363325 -0.212207979142648 0.277694699578677
-0.0276741854437481 -0.207476290268938 0.277885452383923
-0.03024043806672 -0.209706276137748 0.276621700470017
-0.0549928394267136 -0.216205789610377 0.272331702426711
-0.0764468470980121 -0.218002017034715 0.263230211420897
0.154718576479733 -0.185819026734713 0.151783530307168
0.154889549329967 -0.189173731778254 0.146112132792468
0.152706658613766 -0.18821448300996 0.160457175302408
0.150174479641791 -0.191174295898203 0.16868066856793
0.149807599123926 -0.18924842819518 0.172594222426787
0.146032903177191 -0.187776129180106 0.18281408493668
0.143921461534219 -0.186701472191132 0.188794264778899
0.138100161185865 -0.190866372254413 0.197801423729327
0.135095263919575 -0.187838530931518 0.205224152728266
0.131576727974576 -0.192784837657984 0.207674141454242
0.127493861871655 -0.187492962430021 0.216843839593704
0.121265796834815 -0.196468693616689 0.220931603193957
0.119034978692504 -0.19390995858071 0.225725618482216
0.116207605260483 -0.195041984286873 0.22937372311136
0.113447979050454 -0.195124197266638 0.232873164220761
0.108628150233664 -0.187958024301876 0.240946767225578
0.101801104554969 -0.198132063235922 0.245959865470633
0.0999918924172962 -0.189649853038632 0.250811186907503
0.0941111634489006 -0.189546276936493 0.258051019978701
0.0897256313351546 -0.195716659384253 0.261510102738417
0.0847954737061353 -0.194173266348141 0.266897745045426
0.0729482183770231 -0.191886862366158 0.27569400202351
0.0709047820048659 -0.199433854937701 0.273008653508833
0.0629522675558004 -0.199808345634619 0.276025551664354
0.0571278268178533 -0.200075295315591 0.278238417806945
0.0450858498282927 -0.200381633312134 0.280793224261109
0.0400864715510421 -0.201418701838463 0.280832378378396
0.0235983093120483 -0.196427322610724 0.285204440550241
0.0222810564638524 -0.19655057698162 0.285202895506025
0.00725638120935397 -0.195069395383879 0.286170999090732
-0.00155892468731269 -0.197561491962033 0.285507413365121
-0.022235511242192 -0.200738053679207 0.281930715099974
-0.034932924031266 -0.20304294333549 0.279939819963028
-0.0382241871874086 -0.202012371001226 0.280451956759099
-0.0663213381733659 -0.204407663613008 0.275133330676634
-0.0779464721429391 -0.20114787495952 0.272526324052985
-0.0824960475332531 -0.206286310571069 0.268527206652799
0.156090073389793 -0.178153124684582 0.155434612550638
0.156877096177739 -0.17615195433605 0.15407045279538
0.153651241266631 -0.183853037864877 0.160873467207947
0.152295401201532 -0.17738504439449 0.174510735918575
0.148368773443575 -0.184610687682571 0.18076798787615
0.145399944730321 -0.182477129365778 0.189829835519356
0.144296456147678 -0.184453085608161 0.190292089550085
0.141888972774926 -0.182955576830055 0.197396380441253
0.137460445238185 -0.186042191352632 0.202717896671892
0.135309349952772 -0.176748807197473 0.21186749642211
0.130747344480072 -0.184890484534851 0.213517819712497
0.12668477875607 -0.185854170467887 0.219204306903197
0.122212399502973 -0.183244226950296 0.227686144927734
0.117122777396376 -0.187256694937118 0.231798385165354
0.112364787964728 -0.179218976060078 0.240135607722008
0.108163203153132 -0.178962633056703 0.244890454809629
0.104133156683888 -0.188545356579106 0.246078443176022
0.0998651849519299 -0.188166922495375 0.251426960765145
0.094904802933537 -0.182513022189677 0.258400870999824
0.0902392030478911 -0.183652677087957 0.263028751057253
0.0829856053291288 -0.18005696667333 0.271117659941327
0.0775162438523668 -0.186219899899133 0.275738882802172
0.0776252975948674 -0.18304216596043 0.276155521056577
0.0639778571962643 -0.190615466085209 0.279823276624973
0.0519465044128446 -0.18875112801502 0.28525687736219
0.0544736303261767 -0.184253444843695 0.288115556535321
0.0364668205085064 -0.191493255302923 0.286020552735944
0.0246510820050434 -0.190963758255372 0.28702461639126
0.0175621616258061 -0.184621186272013 0.289444721949798
0.0149489317411726 -0.190187642969677 0.28760105361992
-0.00482904361641219 -0.190505361087478 0.287618645398668
-0.0115534803849451 -0.195023584494135 0.285473174804892
-0.0254306461762969 -0.195476533143721 0.284069908705174
-0.0414857754544466 -0.192206355238436 0.285696706132344
-0.0544999634916753 -0.194176664347559 0.284025149720298
-0.0775491288922105 -0.191615018274821 0.277285917876102
0.159103861893822 -0.167469025319781 0.156969098230477
0.157972725003563 -0.168754575842539 0.162488187626173
0.155888616033511 -0.174360743192314 0.165414053186232
0.154025362645688 -0.169371422255942 0.174998313742579
0.153117800096724 -0.173083579283874 0.175086025038815
0.150383542288579 -0.170278097456031 0.185512351749523
0.146455507257312 -0.175047343154944 0.193517189524397
0.143016451047868 -0.175883415249277 0.20043383061626
0.13971030701828 -0.167169413489024 0.210741226256058
0.136477843250571 -0.168417143589727 0.215634550318041
0.131771491053234 -0.170076601712841 0.221857901263191
0.126373578474007 -0.173003577462093 0.226976703478056
0.12083342157882 -0.169207334740685 0.234643772494615
0.116493061305207 -0.172436937661196 0.238147845213878
0.11357825476188 -0.173616499539638 0.240939684302869
0.110383983415862 -0.173586291208604 0.244585743407574
0.104938474661945 -0.171983293710969 0.250962584373702
0.100432595469415 -0.177874274604379 0.253397726402038
0.0995602102788319 -0.176060859588387 0.254514274608359
0.0900871554686789 -0.171132951398933 0.2648896955542
0.0874099721332431 -0.174461678708734 0.267262581723187
0.08155972751827 -0.176174688589492 0.273106646123362
0.074718990808232 -0.176286444306672 0.280164204320057
0.0668569590381606 -0.172238437780265 0.285519792565433
0.062674887447255 -0.177738742831204 0.285171209692928
0.0495044963827314 -0.181478621505204 0.290372926143746
0.0415049664055771 -0.173790413263385 0.291883146261627
0.0315609363947577 -0.181200064015783 0.289856024644019
0.0224664161653702 -0.178879939852151 0.291277916649743
0.0112235399868376 -0.177173550851748 0.292185650688656
0.00737701179975048 -0.180826256832687 0.291030361223548
-0.00966756127943941 -0.181601823440382 0.290218535568439
-0.0257081717954179 -0.186122063716468 0.287382355710846
-0.0337344706499935 -0.180655265436063 0.28960011681869
-0.0379620894931939 -0.179860617547401 0.290038949092484
-0.068051934518433 -0.1790411493081 0.285876601182831
-0.0700469455610779 -0.18572165988911 0.282731464961733
0.160371119397982 -0.156750373234133 0.151330127264792
0.159922862245956 -0.164475148481724 0.154993118737291
0.15880647873136 -0.158292283601274 0.166345860680808
0.158120881246386 -0.159825186006365 0.169706335960757
0.152869526452032 -0.16006551947242 0.187171090950992
0.150776221215354 -0.162057773449873 0.191950487171365
0.148106470992988 -0.162787708105338 0.196719713562788
0.144125024247492 -0.162406940499884 0.20442548404594
0.142590740838194 -0.161288192644293 0.207812779039472
0.138573650284777 -0.164418889257707 0.214076697411899
0.134573407755638 -0.165389932991674 0.220633792423989
0.131756909793239 -0.160563722901172 0.226053598133328
0.128676536896087 -0.162513635019755 0.228692160663324
0.121469715513686 -0.159927081103836 0.238034926028753
0.116545900695512 -0.158396156925463 0.244313300492216
0.112953742104563 -0.160874299789206 0.246911654802823
0.109872058690276 -0.163276091930985 0.248924867885556
0.103269633267621 -0.165609405462639 0.253923765981404
0.0929430226345595 -0.166667756468319 0.262466746419001
0.093671137743269 -0.163834993759371 0.262450617123584
0.0876564186426829 -0.162474780698245 0.26842785940119
0.0825034723049434 -0.168973072456446 0.272984292471769
0.0710305482311655 -0.166001025232703 0.283418430229346
0.0677287388690809 -0.165313112875273 0.286322340348698
0.0680810370136165 -0.162340761631369 0.286010538140043
0.0519848574761327 -0.164000882983554 0.29226658257512
0.0450028908409659 -0.164735523049752 0.294082995829237
0.0335901762419548 -0.168077519095148 0.294366458215965
0.0332724133021498 -0.168126323555168 0.294366389742301
0.017716149354574 -0.168906368223453 0.294881148454443
-0.00307811487090448 -0.16535591972678 0.295708539939929
0.00150901510908009 -0.168310704395953 0.295297429588412
-0.0149405738777267 -0.166479072029153 0.294616422303673
-0.0269891779831443 -0.173393454649618 0.291994771756124
-0.0396364568118977 -0.168752188581795 0.294474882957092
-0.0544983766664037 -0.177125150077582 0.292126346067351
-0.0703314784254623 -0.175664259120228 0.286328603588108
0.160763202119131 -0.152799648715841 0.14664938256376
0.160181017289051 -0.154217900494142 0.159214970480792
0.159091618286743 -0.151239726415768 0.164909019988177
0.155906714846828 -0.148291184637156 0.180471069515543
0.155206250953173 -0.148166548693712 0.18409420254345
0.154005764824575 -0.147214790389701 0.188775508258307
0.151476117494963 -0.148186962475862 0.195904306401816
0.145222985199817 -0.151733480175277 0.207685040954439
0.145993304880628 -0.153833554008558 0.205039395689543
0.140668052135257 -0.147987755899735 0.217702887533698
0.138655868584598 -0.150791450033896 0.219629917595807
0.130777190593184 -0.153623658321415 0.229393180868107
0.129462617747093 -0.148241761886499 0.232616333311092
0.123465102698019 -0.154510063844875 0.238167537611715
0.119815966251214 -0.153648905318225 0.242699324484612
0.113517043653978 -0.151463560594552 0.248730847669542
0.104364751652648 -0.15626565853996 0.255278153550593
0.103653675961695 -0.153962748606289 0.256451091135423
0.097082444616144 -0.159450181790883 0.260642872019538
0.0937764621002913 -0.1594169310441 0.263438865359948
0.0844883253544623 -0.150833738523402 0.271718328253556
0.0767212146702137 -0.151256322899375 0.278177421117591
0.0719226923517425 -0.159440190748147 0.28262945777513
0.0681562929301416 -0.157670694033723 0.285941336947722
0.0662603484850506 -0.161520812736285 0.28761153303962
0.0606283110158238 -0.155175780782118 0.292341721849477
0.0548747836012267 -0.154468853455253 0.294077865101884
0.0427693230576768 -0.161531088181013 0.295644371682611
0.0274065702678979 -0.159386569133186 0.296673669669657
0.0206272133944697 -0.156302303795385 0.297333856185205
0.0119258828102172 -0.159989187460215 0.296719060551535
-0.0129316786545696 -0.158535229017917 0.296236405165258
-0.0219866930327926 -0.16410946719835 0.294688917918496
-0.0284427087776844 -0.161520284145998 0.295849212169942
-0.0360350827938496 -0.157397724548197 0.297442151400569
-0.0576650673099129 -0.160621064717076 0.294047562847513
-0.0635464532888183 -0.162974422058846 0.291908215609189
0.161326179424823 -0.14327561212365 0.146014311723237
0.160128607498789 -0.139308528422197 0.159767417108477
0.158763177496716 -0.138351223235225 0.166615277421138
0.158211788200541 -0.137910793441269 0.169497441507073
0.155925682272139 -0.142537876014675 0.180879411545922
0.152887375051101 -0.138103344259494 0.190720944268181
0.149892205389033 -0.14065454749824 0.199338648127058
0.149172545639527 -0.13821128273319 0.201022852765221
0.144937745120984 -0.146581401452262 0.211037963205021
0.141418951148204 -0.145808641337619 0.217292231957406
0.139576958152317 -0.146544770132031 0.219554688411644
0.133119546701765 -0.148242171153608 0.227726599685543
0.129649801170264 -0.140126197493036 0.235007893917059
0.126604746727633 -0.146156892921799 0.237100423181431
0.119684493815484 -0.147550610216486 0.244565607801528
0.117713751272321 -0.147632735437706 0.246226407997795
0.108481397593652 -0.146531323325461 0.254426978149189
0.103947039105881 -0.141215760851224 0.259804606800819
0.098136613074095 -0.146092947297326 0.263390659828017
0.0891092214656361 -0.149429510467955 0.26894460714196
0.0881583193967718 -0.150329959279242 0.269435436454824
0.0809178564866862 -0.146172928635935 0.274612829682787
0.0789397975509892 -0.147313905586605 0.27602705203066
0.0720526289093301 -0.148881728524126 0.282220105010454
0.0640642209114898 -0.144273000269208 0.28876175246865
0.0585990175176044 -0.149374544432398 0.293677027219884
0.0545709892851161 -0.148071491350377 0.295004536382059
0.0371004789487743 -0.151349838170055 0.298176432517046
0.0256227948774551 -0.15320900452087 0.297858246696584
0.0173240948383385 -0.153482550716863 0.297901363781819
0.012562966886101 -0.148568192479669 0.298863267482769
0.00246633965097417 -0.1456531882614 0.299490525265868
-0.0146623994674505 -0.1524266897041 0.297237955525306
-0.0277542879732872 -0.152533281910432 0.297688880722749
-0.0331930353631532 -0.148762165358748 0.299129833612571
-0.0568887497430938 -0.156903459139351 0.29539271730411
0.161425366366862 -0.136856420999173 0.152599650014192
0.159164424009864 -0.132583743731492 0.165053520707558
0.159301885180928 -0.128854405655707 0.164672750467462
0.157742095064879 -0.131847800017273 0.17245296422844
0.155111315922975 -0.13057889074776 0.183610400872788
0.152889844785509 -0.134098915554944 0.190207825742164
0.149413859358386 -0.137326697266686 0.200242693862636
0.14737185963778 -0.137735381151602 0.205958554856204
0.145400796384046 -0.131526807355749 0.210505581603598
0.142116166124022 -0.133478631240723 0.217042611995307
0.13898616045233 -0.132393927468457 0.222694533119889
0.133758947403711 -0.133210040322753 0.231770923321115
0.130828588948996 -0.131491113411038 0.236328375585881
0.125203573525018 -0.131192187808066 0.241971307055017
0.118798035370979 -0.137344985285766 0.247261945259862
0.116775713853819 -0.138666216185287 0.249032154629437
0.110542434203435 -0.130329560252316 0.256561084868597
0.107578314670528 -0.130481044889673 0.259405651776065
0.103134647028109 -0.138486433933109 0.261270519078718
0.0959291401014052 -0.132083773805546 0.266896886152582
0.0913716941255843 -0.137254472226127 0.269088612680575
0.0799104584685179 -0.133402067439336 0.276994210839803
0.0737353318458996 -0.141576905909294 0.280394098446532
0.0680219498404779 -0.141498077003019 0.285341981229416
0.0654015784574609 -0.140796268691761 0.287220351831279
0.0608428665472418 -0.136804511948871 0.290067149874915
0.0483088170282673 -0.142136653368691 0.297108725130101
0.0473343954808502 -0.139430571073424 0.297689619885662
0.0312449155842728 -0.141329423560127 0.300216327021008
0.0275649767709183 -0.136836155487493 0.301119486357236
0.0106614810895403 -0.135982582848493 0.30094556041317
0.000554638895261024 -0.142549334242038 0.300088964825131
-0.0111495029587982 -0.137264209490403 0.300199553095884
-0.0216745645047536 -0.145753762206752 0.298550006186353
-0.0371651706152457 -0.136639928125334 0.301561650481992
-0.0525791612739966 -0.14722848155753 0.297621104598491
0.160876791641676 -0.126141982903984 0.146480368160413
0.158600427517862 -0.120000022551346 0.156928908461633
0.158374922509141 -0.123747878903609 0.16569053917025
0.157359198788433 -0.125816208747061 0.174958128304716
0.154912712921054 -0.121283864687982 0.183107616460014
0.15233565470473 -0.127657738241799 0.191014558382326
0.151325444151449 -0.119649187525586 0.193116283132213
0.144617800834659 -0.118970645856031 0.209510684041551
0.143546434563531 -0.126713439997118 0.213036258139079
0.141693950775947 -0.121044527790706 0.215395663148375
0.137721750895272 -0.12623551192713 0.223856099043553
0.135035322288512 -0.123159774364853 0.228322794508941
0.129476932659346 -0.12214534753212 0.237027712263825
0.125861756429462 -0.129194094785387 0.241689977600081
0.124634502561521 -0.128479670524504 0.243045673273264
0.115502781424421 -0.12367633618556 0.253028511959874
0.114219624693464 -0.125411699756995 0.253939412203271
0.103314736744353 -0.125664083433955 0.262833831310056
0.100275771315082 -0.122793325349098 0.265236428200903
0.0962671551365573 -0.125101709810979 0.26777381172006
0.0870258908451031 -0.129196181234713 0.273076459034697
0.0821438184895587 -0.124894103388109 0.276891129554951
0.0775208646807576 -0.124930530926279 0.279182403167919
0.0652906289189696 -0.124817358351639 0.284966581660382
0.0584918822539089 -0.130824581016767 0.290926307967913
0.0546416857004025 -0.125062562608633 0.292785871130496
0.0468394638635137 -0.131104662290863 0.298973118560168
0.0417087894833884 -0.123452278176423 0.30042446896755
0.0329301816521902 -0.12397842566667 0.301518692204049
0.0293892514967826 -0.129394793331658 0.30195067561918
0.00916375189081318 -0.126226268999298 0.301306370268307
-0.00387278026800117 -0.133110819060581 0.300796608900402
-0.0193313409571348 -0.125656244019639 0.301133159517749
-0.019041460437746 -0.133050388737993 0.300541078059528
-0.0281511266959956 -0.129516499574561 0.302236639235488
-0.0457383418080639 -0.133763683115177 0.300766450760868
-0.0698193035418339 -0.137742108444099 0.288413024540053
0.157132435939422 -0.109647251125663 0.150395556039148
0.158419790091226 -0.116599984612411 0.152235623394106
0.154874484742929 -0.112038291327603 0.170285596712981
0.154350485732635 -0.111062456435115 0.171954972984254
0.152499127745936 -0.113541641415195 0.182918366101849
0.150793737992424 -0.116045262930436 0.193030308051036
0.149746351265679 -0.116921569120789 0.197316073053287
0.145694996679839 -0.111094574354547 0.204767089494746
0.144628257217335 -0.112052377396958 0.208194400955713
0.140816487484066 -0.11151135860905 0.21528118243257
0.138714062155667 -0.110861075682885 0.219125258687181
0.134845721009056 -0.110766899635803 0.226400879512619
0.128405537337306 -0.118893856283158 0.237674929822949
0.124327840283365 -0.117359471639269 0.242843598966448
0.12008344369452 -0.110701016550329 0.246960469315475
0.115971357700062 -0.116495796097334 0.254005007976694
0.116901484054623 -0.113612365461177 0.252019103200593
0.104843267199961 -0.120253578256915 0.262123872764193
0.104157822747917 -0.114406281888702 0.263083561269397
0.093274562558009 -0.120183445686262 0.270469661753993
0.0858779004378965 -0.121322285187773 0.275049035144191
0.0852001779459839 -0.119621913881993 0.275722185454068
0.0797553262889809 -0.113449892088984 0.278523777462878
0.065539696508864 -0.113800658518066 0.285215080658722
0.0603045939358037 -0.121849849808579 0.287771165105458
0.0570474831698206 -0.11626686297777 0.289206078248499
0.0496885239769915 -0.113346121688568 0.293526420078081
0.040786490852597 -0.115835199380949 0.300106516925563
0.0410776072556041 -0.113972190574373 0.299360356924477
0.0304429353945429 -0.116305068039332 0.301783164681382
0.0183161298406874 -0.115798381609856 0.302080658089664
0.00373270403437288 -0.114991572783111 0.301700222741851
-0.0171513101322254 -0.125257505369709 0.300819360600804
-0.014359103190568 -0.124062648777182 0.30050069529286
-0.0283969551840233 -0.117519870717023 0.303069185281301
-0.054577768076336 -0.126473986362505 0.297085300306473
-0.0843723384771587 -0.127157699512368 0.280148383261278
0.156461366034365 -0.105484589226081 0.147904208816557
0.15399727540137 -0.10025877524203 0.154593791587437
0.154112647593399 -0.106028136457682 0.164346880944139
0.151437237347834 -0.102028102637524 0.172418396293329
0.150825508711202 -0.103423548187336 0.176684658659049
0.149814906988951 -0.108080214338495 0.186753847452973
0.146894254173058 -0.103618932579001 0.191559786154637
0.144324619246478 -0.104778048653389 0.201204835489824
0.140968007707637 -0.103165574930571 0.208133876113522
0.138034810752031 -0.105259694565163 0.218145820252769
0.134371885993245 -0.101631584453774 0.223300662038788
0.13365300516055 -0.103732823768121 0.226747201639205
0.129619919621247 -0.103699287934959 0.23222968300768
0.125184601624036 -0.108630276828979 0.239498720615424
0.123851162380769 -0.105887153007973 0.240629565368533
0.118299015820615 -0.104457566857433 0.247831779345399
0.110725406042127 -0.101986895998909 0.25533715747835
0.107569475563332 -0.104868241010915 0.259402366020445
0.0961520124177222 -0.109080345287885 0.269412562090623
0.0998835522049646 -0.108206659448111 0.26681086350048
0.0896191550019793 -0.102621889699995 0.273686412015706
0.0781172348611511 -0.107237241032219 0.279608697664507
0.0759981677674173 -0.103187155648395 0.280728261405916
0.0695279864739579 -0.109388317480526 0.283554326503106
0.0602713001026106 -0.110692796199794 0.287857439902974
0.0521066799997015 -0.103466732243014 0.290369362512855
0.0472129600592417 -0.108202898577435 0.293582428357687
0.0433573963781813 -0.111340277480499 0.29708079616593
0.0390707824615662 -0.110752692854137 0.299716992827378
