ply
format ascii 1.0
element vertex 831
property float x
property float y
property float z
end_header
-0.128884157155392 -0.0317309154523996 0.201079815360027
-0.126629953504062 -0.0448897773898599 0.207854287018779
-0.124235496709349 -0.0486759010177912 0.212765681489715
-0.120981505011649 -0.0511227963272117 0.2183807717572
-0.119247162640757 -0.0530112650583703 0.221629684912867
-0.114349366731863 -0.0506231911216134 0.227442831704355
-0.107349428463452 -0.0548840166610133 0.236593417549994
-0.105501650913239 -0.0565627296767333 0.239227687441651
-0.106006284041411 -0.0621234414853264 0.24086905205647
-0.0993024586715983 -0.0695623133124723 0.250956706977117
-0.0927554732946183 -0.0736594980665407 0.259409305116043
-0.096894715006389 -0.0790463525431791 0.258807184213422
-0.0892800487654258 -0.0833815815771845 0.266033614924059
-0.0868150816010063 -0.0879863155738144 0.268211285812359
-0.0777859270513819 -0.0871904160004074 0.274081534235193
-0.0795609917846316 -0.0960488454682034 0.275419337926785
-0.0728129840694964 -0.101693727884335 0.28391116500741
-0.0684002615776949 -0.103880315591894 0.287962739536793
-0.0633297189593622 -0.114601062262387 0.290417987179698
-0.0545341356728567 -0.112963019471496 0.294481299489669
-0.0523462461798587 -0.123599565147913 0.298166671980339
-0.0523486869612586 -0.126456739511754 0.298577418946107
-0.0410026980329255 -0.139480958019183 0.300550865883424
-0.0277584416444846 -0.14429863488773 0.299537326642061
-0.0241190776076897 -0.153159224563957 0.297211890583312
-0.0159568332552455 -0.165538881886406 0.294714678000144
0.00131421250148215 -0.173626575169729 0.293675149332577
0.00862884555530146 -0.184895328967455 0.289602521793873
0.0276109683008758 -0.215154760901744 0.275400516853835
-0.157953379890418 0.0068388057078525 0.106025056108502
-0.15756656126743 0.00239900655869144 0.114240394920877
-0.156695928180071 0.00451556818118203 0.120768710524374
-0.155898708726278 -0.000129361786971793 0.126228497928295
-0.153706730653332 -0.000739895968186678 0.137033616055949
-0.151903035654558 0.00113978575140377 0.144970538085307
-0.148721727715528 0.00407859757691212 0.154112835852843
-0.146152065068119 -0.000298502411108157 0.162486898432415
-0.144084805664838 -0.0100653607004559 0.170839128293309
-0.143307256036487 -0.0116750908263838 0.173342312918005
-0.139338597394297 -0.00319661993158229 0.179891188788274
-0.140041265408799 -0.0159571149976863 0.18004385603863
-0.136147348505738 -0.0214331536616941 0.187404671736096
-0.131985921411191 -0.016941059674665 0.195408261280422
-0.128612062682142 -0.0233042390537026 0.201401347682579
-0.125208840472296 -0.0332528296674069 0.206140949441293
-0.120505928573502 -0.035008522076883 0.212615950890117
-0.118819569400001 -0.0364576899491044 0.215559945316673
-0.113736081569812 -0.03398014046269 0.221914588210054
-0.114510821146561 -0.0449536925167503 0.225122025517219
-0.108156529093722 -0.0495796500186318 0.233637501506703
-0.106176062766204 -0.0467628992938143 0.234697341199512
-0.0993110214960604 -0.0493725735142831 0.242992505664519
-0.0985127597822503 -0.0618313615005888 0.248764502782265
-0.0982977276070954 -0.0622767788921043 0.249169818414711
-0.0934791434066927 -0.0621755874154363 0.253297113736907
-0.083423654061543 -0.0662056482023833 0.263168322215023
-0.0796541940002034 -0.0692616119156059 0.268235343531453
-0.0796215306297547 -0.0736125625813696 0.270816001250149
-0.0770271788006616 -0.0784463585931698 0.273633657616405
-0.0684493004955482 -0.0850034571011475 0.279341206949078
-0.064057499934883 -0.092427691269173 0.286148425469479
-0.0609174467922703 -0.0923493951637372 0.288281270959061
-0.0550087589660687 -0.101462886547111 0.292519636528876
-0.0459965182243784 -0.103477397099814 0.296625448798737
-0.0468803473190178 -0.117650560197429 0.299902293182142
-0.0450357549119489 -0.117501328094607 0.30088032554874
-0.0396886273776629 -0.118546480357764 0.302284115165775
-0.0229781980707821 -0.142082094857782 0.299489362759953
-0.0128724751415136 -0.144592518122156 0.298821318105033
-0.00153169737658868 -0.158118689537049 0.297163269964774
0.000371010742065835 -0.165566146632981 0.295820097766882
0.00777982789574817 -0.173275830855162 0.293623358079647
0.0407058090916688 -0.208424184198743 0.277065368145835
0.0504674412567011 -0.214261231743414 0.272799195411186
-0.156097756403571 0.0153811888744364 0.116229918607903
-0.154513498887591 0.0199565820024019 0.119346305632063
-0.153514981461998 0.0171867907352406 0.127931831890436
-0.151766276997298 0.0173479881081352 0.136915922107511
-0.152523108962959 0.0118244406960439 0.138183792398248
-0.148991693635165 0.0118101335268432 0.151352246369868
-0.145437855782254 0.00852412287592215 0.162217740855113
-0.14418854942703 0.00953522559742429 0.165477064521122
-0.143322079983264 0.00604250442428091 0.168822375287565
-0.140629730962222 0.0023738362982373 0.176294670152634
-0.13790751251646 -0.00046467860184442 0.182088272230841
-0.13148751060924 -0.00195064898395275 0.194736109956244
-0.130569567581067 0.00205687797979469 0.195733461374362
-0.129996565851982 -0.00822087113169512 0.198837556335847
-0.124987604900038 -0.0164089738900224 0.206366510852448
-0.123742735187816 -0.0153222482573921 0.208153387831741
-0.11999259646512 -0.0175160817913315 0.213412669810766
-0.112207016142378 -0.0237832559534339 0.223876049819254
-0.114278819302141 -0.0296185132660618 0.22122771414886
-0.107356030266751 -0.0293647108249565 0.228892400430729
-0.104552957591066 -0.0416423531706184 0.234547148823951
-0.0953042221805821 -0.0365899908004793 0.242387640570284
-0.0907971457001138 -0.0409458223485899 0.247567705322582
-0.0899470091855127 -0.0474765038973364 0.250521528789054
-0.0851256207062181 -0.0482144524721771 0.254631645809342
-0.0860870357485479 -0.0586659810940507 0.257871813477633
-0.0790505469952631 -0.0595205470629368 0.263810943290449
-0.0759941494824058 -0.0608908317310077 0.266764388986831
-0.0699686875869416 -0.0628330501115667 0.271460090377348
-0.0730249996799662 -0.072670808332453 0.274977447402638
-0.0677470953870025 -0.0761844207327102 0.27802300726478
-0.0633301271731965 -0.0842947777783849 0.282529857963748
-0.0576743390375567 -0.0919830360262437 0.290340965316464
-0.0461425191303596 -0.0983870491530234 0.295237584497076
-0.0479294333962802 -0.0990662017905987 0.294696229307433
-0.0397650110772615 -0.104633831944473 0.300479950249991
-0.0365711224971893 -0.108870790969632 0.302642766941775
-0.0310871211044797 -0.113750324766402 0.302904414783097
-0.0119836829102495 -0.125749199625536 0.300581360907905
-0.00527621173688954 -0.135735998178966 0.3006129633413
0.00070915574408948 -0.147589862465537 0.299151821096064
0.00920833964081714 -0.165903291386443 0.295653595242919
0.02245082809228 -0.174218791811042 0.292860855530465
0.0351615683490734 -0.18577805408207 0.288051183247367
0.0585562217216539 -0.211007204728855 0.272769462167295
-0.154323551265679 0.0247337295620835 0.113873334003324
-0.152411121861535 0.0225059825131986 0.127303100873522
-0.150210206884601 0.0267699572322908 0.132704622544451
-0.149615034212647 0.0258464240141064 0.136475749090171
-0.147183755425134 0.0234699949529035 0.148116982773103
-0.146601248839014 0.0232630691742279 0.149967077016054
-0.143388285601281 0.0161218972264554 0.165404100869803
-0.143638820514953 0.0154585369952414 0.165264500356808
-0.141085769965269 0.014552552310789 0.17292371110457
-0.136096059482503 0.0172210058681727 0.180793513558844
-0.135708815756548 0.0104786756100471 0.184157439171518
-0.133642014333149 0.00342795033610226 0.18952430371733
-0.125357670994986 0.00613725046199584 0.203391829497957
-0.122762453825128 0.000358430778923 0.207898648636211
-0.121510987318582 0.00163456602519088 0.209458134793398
-0.118631447415778 -0.000816849648708992 0.213886116014306
-0.1169840228766 -0.0128951064263546 0.217776259184535
-0.111830275876832 -0.0138898342349556 0.224401318008764
-0.107445188998006 -0.0198069824138598 0.228919764353107
-0.101747866808396 -0.016092148340431 0.235208582071987
-0.0978231138266841 -0.0256545379067521 0.239064573485774
-0.0941576978116423 -0.0230462916978646 0.242989469202436
-0.0899942078257285 -0.0320557416690148 0.246017369518445
-0.0826767026947699 -0.0386403265517786 0.253167444825297
-0.0813689749098468 -0.0471059229120739 0.257185037551963
-0.0768249351656944 -0.0494055886384609 0.261677189200785
-0.072103737409406 -0.0482479572691383 0.264327931866676
-0.0676947902568888 -0.0564898094728727 0.269950775087767
-0.0683206463297349 -0.0603049240027524 0.271012878200518
-0.0652740633695952 -0.0631975378600752 0.274692684162022
-0.0598437965068626 -0.0739069338306632 0.281350195771024
-0.0514708917847141 -0.0723422063931257 0.285023457523654
-0.0450958639955119 -0.0825146157916877 0.293677884581721
-0.0460969524109803 -0.0822537326910708 0.293319894611536
-0.0342915396486619 -0.0910477536193143 0.299009888528377
-0.0324123958398311 -0.0942505884560979 0.30116625834297
-0.0325629258076228 -0.0999751848332454 0.303040086182717
-0.0188473184527867 -0.113168838478349 0.302039275841424
-0.00237311426472739 -0.125074886825562 0.301189255030615
0.00230113606840167 -0.133929546649962 0.300968733847262
0.0101641435415585 -0.139901883784039 0.300518977430722
0.0223406280007261 -0.150631521241278 0.298382126885084
0.0302362893366182 -0.15980671190826 0.296561478867913
0.0433575187940659 -0.179627464377259 0.289687945232905
0.0664216056631064 -0.197840338526367 0.275517793865998
-0.150181527025039 0.0376858561190572 0.118245645204643
-0.147330634971652 0.0380034472637262 0.130758355312558
-0.147803814049543 0.0319801665906782 0.136750137327712
-0.14630919559852 0.033190736876992 0.141799587987035
-0.141699502188001 0.0323785316811782 0.155491511853786
-0.140514016153699 0.0283407051134895 0.162279740815997
-0.140281838341322 0.0278372947227363 0.163345617358628
-0.135500134029086 0.0286486903805526 0.173919150232016
-0.134582113197334 0.0205485136518675 0.181289743375936
-0.132306717128552 0.0235290540793539 0.18344738412668
-0.127421518231995 0.0181769135958701 0.19609006377148
-0.126147669160886 0.0125587944999131 0.201339856501591
-0.122822516724522 0.0122557562865611 0.206038847396308
-0.119585510781352 0.00594788855429059 0.211587105021676
-0.115017770382948 0.00675931180145412 0.217965204507051
-0.113558278623906 0.00704258071177688 0.219999798633222
-0.110585811148607 -0.0026980722450877 0.224785350379135
-0.104745596477231 -0.00168046910477308 0.230839802901065
-0.101451344367831 -0.00451045255314382 0.23462585164939
-0.100253617820691 -0.00896417821969599 0.236332852894202
-0.0972064661318674 -0.0217222062897182 0.239889505690581
-0.0900639142178987 -0.0226183608624556 0.24630255720647
-0.0847780459446205 -0.0201030480334963 0.250779909316148
-0.0795217274000014 -0.0323275071602794 0.254443296137531
-0.0803041917654886 -0.03685123736847 0.254397550520978
-0.0737454699612909 -0.0411696449378165 0.260927936718125
-0.0701334339316448 -0.046758226313992 0.264905240405044
-0.0612577047551003 -0.0467949163908634 0.270016586297872
-0.0636028016985455 -0.0495299259651703 0.26970894621505
-0.0577316839038975 -0.05454976382397 0.274982908032059
-0.0557704651381976 -0.0643251821483029 0.281464413398365
-0.0426808063414173 -0.0718090251108447 0.288964474092006
-0.0381450920589775 -0.0773520912496958 0.294074734218872
-0.0351845158670034 -0.079575843496093 0.29515964472292
-0.0259074315832153 -0.0862181270221394 0.300884487086892
-0.0288492760197314 -0.087565067980216 0.300085851268531
-0.0182741555246422 -0.101016691840716 0.302463382725944
-0.00538537891459201 -0.107721582222572 0.30165825213071
-0.00331148479341423 -0.119295289659987 0.301349389429771
0.00407635114902115 -0.124621761497728 0.301333534569905
0.0137859590744301 -0.132115839073433 0.301120622690384
0.0186134861146529 -0.131818233077643 0.301333014749515
0.0257565376960625 -0.144708721277302 0.299508386013448
0.0514384620164345 -0.164997551946323 0.292133016529802
0.057515645204814 -0.171001923957379 0.288601560611086
-0.142308524031258 0.0526679501779073 0.12361163394539
-0.140222829107667 0.0525535687650774 0.132712611977552
-0.141904328057238 0.0442563000886495 0.141481285180176
-0.13899183049613 0.0469214191203593 0.146525973022127
-0.139144322898511 0.0399153867135056 0.153702048030664
-0.13450448571402 0.0393493929651352 0.166204948374125
-0.130728709095068 0.0414727032000131 0.171402682413122
-0.128320592038322 0.0403608491948429 0.176379681598745
-0.130143168663956 0.0292961689324988 0.183188482403985
-0.129018414178206 0.0294766164235808 0.185025207908934
-0.127816085774883 0.0273968646610142 0.188651834776197
-0.120022081656186 0.0298026244427351 0.199483269081266
-0.118089946977632 0.0244962903862104 0.205089880501367
-0.116468722265936 0.0220967113413386 0.208554528532908
-0.111430137263925 0.0142573336561462 0.219552815349293
-0.110215728761002 0.0110684770945001 0.222788865462977
-0.103887971235358 0.0113797560404642 0.228521259014411
-0.105774735554959 0.00916660187052693 0.227844432593662
-0.100646480579244 0.0030230025467881 0.23482555973527
-0.0973458787048787 -0.00461906990976355 0.239055793749704
-0.0916994550693568 -0.00198477685065687 0.244480046982897
-0.0878654483112941 -0.0109400786053326 0.24805895189432
-0.0841136077488914 -0.0117855294674791 0.25111371452463
-0.0796445748784294 -0.0212541307093279 0.254974773071208
-0.0762275166663972 -0.0263614371757206 0.257490209712726
-0.0651141883329486 -0.0330627815322672 0.264446541251156
-0.0655720009779601 -0.0321871653108408 0.264222406907959
-0.0581110961081005 -0.0399199290003481 0.269460192081285
-0.0566562436780744 -0.0468836469671823 0.272692957107286
-0.0487200421801808 -0.0517407202137144 0.278487373008543
-0.0429562602381548 -0.0582086228859196 0.28408974110945
-0.0393394046520267 -0.06570498498462 0.287572972132449
-0.0336906720617175 -0.0649264704011927 0.289528775945718
-0.0337962971689505 -0.0697197212429627 0.292401326774125
-0.0265504901857481 -0.0748418551180461 0.296000244358614
-0.0215858153701958 -0.0827127297560969 0.300809255522924
-0.00461243882952749 -0.089098703911761 0.299735585493162
0.000609828549001818 -0.0987581849751948 0.300997256433835
0.0044058800627772 -0.114204007414423 0.301740135198095
0.00701611129400339 -0.111041981262979 0.301899301079799
0.0237780766463037 -0.125492313178009 0.301855587970584
0.0336709195000909 -0.136783675583861 0.300829196318412
0.0380338765177729 -0.143404093834112 0.29904249006439
0.0497417848460024 -0.158711842440988 0.294472130724937
0.0689309733534568 -0.171565788241047 0.285113626699783
-0.139154150140106 0.058358852848138 0.124458408987996
-0.135330171686004 0.0584357498423961 0.139440430596666
-0.135395347461646 0.0569207483966157 0.141147812452068
-0.132723295212861 0.0527024872580288 0.153023126597853
-0.133534194856103 0.0468056540073312 0.160570356606888
-0.126801987290379 0.0538990058996529 0.165767334295907
-0.126272894270742 0.047095461825669 0.174478049779239
-0.126619504869114 0.0454795741399451 0.176072124394799
-0.121905498026545 0.0421208298600289 0.18658187968133
-0.121711836001087 0.0356622370757196 0.191930471822274
-0.117096636738644 0.0368851864934419 0.1975950590413
-0.115356107972961 0.0345153476843535 0.201043026454883
-0.10942913724683 0.0358198856281611 0.208101326819241
-0.111862195300977 0.0258750207062816 0.211999552989142
-0.108939779213492 0.0252806772189568 0.215991622042268
-0.106015828965193 0.0191769201426156 0.222746113734094
-0.10029361843186 0.0202370111597398 0.227470066519248
-0.0965875727497632 0.01536601192601 0.233256589048884
-0.0891992510323464 0.014502964178174 0.240329822478559
-0.093610781188056 0.00461604654984463 0.241353217969178
-0.0850238086571413 0.0024188560837977 0.248365143928766
-0.0846629316997094 0.00144752144767998 0.248999536999633
-0.0803266623790298 -0.00971956672282828 0.254084915360876
-0.0732139209854673 -0.0114311563265859 0.260003599190968
-0.0720352981844973 -0.018120196991788 0.260970716404236
-0.0622096199479719 -0.0209726676737797 0.266912075964144
-0.0608789603008332 -0.0206037064374228 0.267710539971189
-0.0495176621547815 -0.0308314266197924 0.274167072831562
-0.0436118438958935 -0.0415685868683097 0.2768827026795
-0.0421738914061194 -0.0456402965998133 0.278769345281229
-0.0345400035922798 -0.0429804113506933 0.28083618390103
-0.0314237285612013 -0.0533044918550974 0.286155526942507
-0.0253940878035151 -0.0619483282724275 0.292126255074578
-0.0261365381606855 -0.0627030015332273 0.292200888496134
-0.0174496055828473 -0.0701622933704722 0.298002918322009
-0.0118756592394848 -0.0722646492061203 0.298932051190041
-0.00252779568353492 -0.0863790133924802 0.299539966671484
0.00309908636984939 -0.0944869934557903 0.300598451396621
0.0159379334712354 -0.101396663453088 0.302203180350829
0.0255073890689441 -0.111702231936498 0.30236983608002
0.0285218307040756 -0.119605861562178 0.302041175520871
0.0445680316669042 -0.132420339796908 0.299243174325886
0.048467405304413 -0.13154319923875 0.298583130287703
0.0585612217246688 -0.151857468311257 0.293663140909518
-0.130179979297615 0.0688053118642024 0.128198121075307
-0.129821306626563 0.0628280023853618 0.143934771317803
-0.132557890454061 0.0592224667350659 0.145213334623525
-0.129928439527475 0.0576288713983984 0.153570494457261
-0.128017945908353 0.0593773512096877 0.154830810142019
-0.12515275461672 0.0535445351800384 0.169253857922988
-0.123607420279128 0.0540537331059045 0.171386618885754
-0.119441180583704 0.0550326678080925 0.176857117840848
-0.121647579401303 0.0445515953233168 0.184653731692413
-0.111590173444532 0.0479216593396438 0.195969085631922
-0.113723775928851 0.0392889009272488 0.200831998266559
-0.111743298943344 0.039699494269619 0.202492267368184
-0.107405884020626 0.0342098486969189 0.211514297353538
-0.10375522648149 0.0357131945411199 0.214592086298943
-0.104704735919784 0.0300419193146953 0.217043826064963
-0.101831673085408 0.0264489910319743 0.22216698694744
-0.0913825627334331 0.0239567136333783 0.232951805039895
-0.0888153746941267 0.0260740931468302 0.233972141304321
-0.087821640979685 0.0180759610562179 0.239045385736336
-0.0825684527035764 0.0119101312861149 0.24606652348442
-0.0748420600833977 0.00913956085197172 0.251779258671334
-0.0759921813105906 0.00485919527111782 0.253253041704385
-0.0683114355346126 0.00506194746858704 0.257688008455887
-0.0659563736965536 -0.00632947359737699 0.263355273895952
-0.057812841373426 -0.00785992279440352 0.267508596831788
-0.0542246843041325 -0.0101871754890918 0.269880158961781
-0.0536742981287694 -0.0237814585757575 0.272093232866894
-0.0451000718533418 -0.024334613549205 0.27652846698744
-0.0399087112566852 -0.0252389572885665 0.278766861634386
-0.0322138710636801 -0.0339501420408969 0.281747654917236
-0.0342273805465889 -0.0450510976661303 0.281626080776252
-0.0251369459992079 -0.0443303412951678 0.284655100124986
-0.0188266868961017 -0.0473832139711695 0.287127198470269
-0.0124713700790453 -0.0579890731501619 0.293360263513569
-0.0132407451396969 -0.0654831516463879 0.296913214629486
-0.000859268499966112 -0.0734778957984825 0.297739049556067
0.00889007847522623 -0.0722247854812945 0.298449572081363
0.00937009747826804 -0.0833356830635004 0.299854962237786
0.0207347567292592 -0.088472294110329 0.300713772570929
0.028145341067428 -0.0996711771686193 0.301992764353542
0.0314159632489801 -0.102233067504857 0.301657714891092
0.0442498102050986 -0.123531686781195 0.300117463774209
0.0639300293319078 -0.140059262545036 0.288223104584453
-0.124682574189613 0.075864995362626 0.128776559293396
-0.128271781721942 0.0688390647246298 0.135542521694902
-0.121321702405737 0.0708113962759078 0.147991525243693
-0.121161138887352 0.0645642931634205 0.15906807285615
-0.118944104696339 0.0667603576989016 0.159871616934849
-0.114492573065842 0.0686229693345633 0.166141901677942
-0.115669123397575 0.0627389897178607 0.171233415176632
-0.111308316697577 0.0595897933538097 0.181473778738537
-0.114189768052814 0.0523501479536201 0.187878968402789
-0.111294617347119 0.0540806667666371 0.189012426916947
-0.104401507138816 0.0522303944697769 0.198572233648942
-0.101161707202378 0.051101376821981 0.202868243859239
-0.101807230963376 0.0467139827943873 0.206913474185147
-0.0952030703719546 0.039764707899934 0.220103453537475
-0.0977752684240607 0.0379506150210216 0.219030201581224
-0.0864561532247314 0.0372671183516425 0.227559000317284
-0.0843768408657979 0.0332447392776531 0.232445099491229
-0.0822562118852867 0.0341227901390826 0.2329387250973
-0.0766500851415249 0.0248949532373377 0.243504071053043
-0.0745307790363902 0.0175841465387267 0.247968948244758
-0.0735614712044672 0.0156833469459561 0.24968513087075
-0.070499422252995 0.0136060867142194 0.252476684541111
-0.0654467233883313 0.012820930689671 0.255805735847664
-0.0599689022570358 0.000683156562780394 0.263134647163647
-0.0575238008224772 -0.000501389926212678 0.264740840993079
-0.0518552675154765 -0.00317508164317221 0.268452815923478
-0.040233640561449 -0.0110593964381686 0.275286573652463
-0.0374103209461294 -0.01575400876057 0.277232880614754
-0.036340197266109 -0.0223241663669657 0.279483523884064
-0.032074699389923 -0.0326991887871497 0.281861766216662
-0.0276960434149486 -0.0295024555343551 0.283750702686736
-0.0187376250009823 -0.0374633728400397 0.286375458996676
-0.0136634284687657 -0.0425718410632905 0.291389945835025
-0.0132816062930193 -0.0462584664291977 0.296239636864285
-0.0101863046275701 -0.0517849970417561 0.296357514552375
0.00305518308473133 -0.0645435299057024 0.295670588280532
0.010465303959012 -0.0715059887154594 0.298327142251206
0.0203177938301797 -0.0780331257468112 0.298261222980659
0.0262078270614799 -0.0851999242459723 0.298123305312918
0.02870825898471 -0.0907972976621211 0.299208155350787
0.0497107453598765 -0.103089912462898 0.291128976245255
0.06254998239992 -0.115438286434588 0.286561184058444
0.0942268097615982 -0.14868481612808 0.265766768859321
0.0844543120882474 -0.143604615027865 0.272685353126195
-0.119717658051321 0.0789708112710787 0.130694699269979
-0.118900690730487 0.0793417405745624 0.131958158212849
-0.112986643064646 0.0765902545517346 0.150222398512781
-0.118437975673451 0.0733538777808317 0.149483050350372
-0.115298964083633 0.0735952474145455 0.154006357842347
-0.108759858806059 0.073798560177865 0.163996171535904
-0.111910553658936 0.0650189837711074 0.174156917761717
-0.10565407937038 0.0678667750545711 0.177773818872098
-0.103685961129865 0.0635577788609731 0.188008665075396
-0.103270972166163 0.061006274212835 0.191828804092244
-0.0962136151677716 0.0585370116226099 0.200725244798701
-0.0948748962033239 0.0554407896434746 0.205822265637185
-0.0933406835959047 0.052859172804359 0.209662053402006
-0.0925910598626469 0.0481438066910992 0.214279834226336
-0.0895490570661396 0.0489491526072886 0.216971434579513
-0.0870344189912863 0.0404592112975061 0.224665584710172
-0.0809002145878937 0.0379154929788887 0.230994241590281
-0.0795065363232747 0.0343459189923412 0.234680606970489
-0.0738308928675576 0.0301018421557912 0.241140272093952
-0.0704376160266756 0.0258489119376686 0.245411227434685
-0.0620075077116998 0.0245871099768195 0.251069222614153
-0.0664404979360227 0.0181733715786543 0.252308931267861
-0.0524107475451916 0.0163721171646522 0.259248410160045
-0.0532962155574774 0.0106707416256415 0.261602199771782
-0.0483618852677042 0.00352735167568557 0.266617056266603
-0.0483321476202305 0.000702189947576412 0.268292188191971
-0.0345499146584262 -0.0045139508825892 0.274241999432251
-0.0308322028647336 -0.0133219307709696 0.277964280128143
-0.0210886095974473 -0.0129936489378673 0.279315711011531
-0.02623474289279 -0.0150757273263343 0.27970986778827
-0.0131690523749025 -0.0236136454705578 0.283969495387581
-0.00856987940364453 -0.0302981392951882 0.285984827383713
-0.0128800260625758 -0.0376860731319264 0.296637040911331
0.000277341850632155 -0.0389087122567977 0.29768244928709
0.00561521889153781 -0.0440088019851979 0.299049014211141
0.00616092071796319 -0.0476513985988751 0.300025045032128
0.0288356635801833 -0.0679809693642712 0.292723361908325
0.0374239437665459 -0.071726990004005 0.291635747334619
0.0440637392076009 -0.0842896052678626 0.291979080137346
0.0562452059032037 -0.0964116845143621 0.288603739052761
0.073617394377773 -0.113373283576299 0.281424352084683
0.0787157352435171 -0.120769104233866 0.278750426885434
0.111747316185344 -0.164324886404167 0.247087807790146
-0.110476083999388 0.0884388807175437 0.12430728769595
-0.111288816577998 0.0824046495110025 0.140201140991312
-0.112949140129344 0.0787899074530974 0.145249076078982
-0.110098929284632 0.0802453510055076 0.14724913774046
-0.10646946096824 0.0798071510994274 0.155058651039527
-0.104391627035939 0.0791726168508907 0.160389541120584
-0.105484245615043 0.0711132316135673 0.172122460670798
-0.100805931630745 0.0704919070550607 0.178680792789567
-0.0969251941111914 0.0685863588128964 0.18630442282959
-0.0944728838197473 0.0697707147116911 0.187458834313435
-0.0939342605625848 0.0613453774002892 0.19819808063403
-0.0887143906218125 0.0636590375313582 0.199866367384468
-0.0846135491124246 0.0609726574246393 0.206483421497957
-0.0822449904827363 0.0548226667323161 0.215293281617388
-0.083865322868494 0.054396147509854 0.214608316418497
-0.0794056170255964 0.0495811750904956 0.221643292102115
-0.0728922582619803 0.0426334040824464 0.231662415439051
-0.0665831037335841 0.0387519241857374 0.238383229016501
-0.0676664415060671 0.0357722351216746 0.240010856312059
-0.0605844485321571 0.0320640502114257 0.245462440031456
-0.062180027621459 0.0307314202113397 0.245738857884311
-0.0536828444312526 0.0255866111323174 0.252900597321031
-0.0545500960682173 0.0229415676062439 0.254245814433981
-0.0428592486613597 0.0152894750215787 0.262273661929978
-0.041750050053534 0.00947242139924905 0.265461099932004
-0.0368546927490776 0.0128265473422244 0.264732911935497
-0.0295482218511768 0.00177869103585847 0.272139388067448
-0.0207429909067549 -0.00397917336640006 0.275481295501219
-0.0182862429550012 -0.00723044901153731 0.277117052711534
-0.010783202539591 -0.0146632871396478 0.28089507124383
-0.00960703444824099 -0.0225971124846214 0.283768198100045
-0.00488017550345614 -0.0313221145198895 0.286326324870842
0.00121175393915571 -0.0316544699994889 0.287584066226874
0.00584670335731706 -0.0312138273435297 0.295620611088729
0.00907458604180009 -0.0403572369830188 0.298070580317697
0.0250370306586524 -0.0561668378801123 0.290816098228113
0.0300962563168436 -0.0605378236841151 0.291077663854185
0.037404479978981 -0.07191926542385 0.291664484493569
0.0480163047567047 -0.0779706144797466 0.290378466929317
0.0587765745811601 -0.0961050255948535 0.287759707068021
0.0747631894110374 -0.103364518563911 0.281366971120145
0.109298362041829 -0.140793713158309 0.255351176481704
-0.106009710623775 0.089932325939076 0.13032197800772
-0.104218243070955 0.0888562133638165 0.13670779887394
-0.105020075771094 0.0848525772035873 0.14638995033778
-0.0982863425367087 0.0852511238621147 0.155555535053663
-0.0996601123987908 0.0827601011630086 0.160298487354121
-0.0951103346794898 0.0817772001707679 0.166790164185177
-0.0935988165645373 0.0807140306437849 0.170151507810721
-0.0918480679824729 0.0778508846768435 0.177051159938065
-0.0919263567560139 0.0752297208252219 0.181802681212349
-0.0851689056428935 0.0738485241196258 0.190033146904899
-0.0829085312087675 0.0720335478641356 0.193885688190013
-0.0787919067933439 0.0664504215661581 0.203945492089468
-0.0745256504145893 0.0655512947273964 0.207841774777944
-0.0781004396142312 0.0582612899912083 0.215097892860424
-0.0715125061398566 0.0615825457223987 0.214620990068513
-0.0718518490389873 0.0503757869583587 0.225732648715436
-0.0607931339338237 0.0545843972267343 0.226258167643908
-0.0615545901635372 0.0500164424802104 0.230664766824205
-0.0581258654221995 0.0406829276977019 0.240290680478704
-0.0565872893894594 0.0406021776184295 0.24078331197915
-0.0503986782326414 0.0364918076216501 0.245750554898968
-0.0427643795119228 0.0279420058072306 0.254614717049178
-0.0382099565617932 0.0245218380863662 0.257560682246332
-0.0394028346641656 0.0255651248434843 0.256726164174207
-0.0267854408279791 0.0177083136938692 0.26357646450158
-0.025751675950199 0.0148139132568611 0.265493738405282
-0.0206089813790013 0.00964218943376374 0.269293882975535
-0.0143918179664086 0.00142728149829109 0.27351845825767
-0.00987586508859172 -0.00650522367961481 0.277292534001733
-0.00586164012829072 -0.00548027511294022 0.277004978690121
0.00437044656905904 -0.0106207775820666 0.279240484515069
0.00531600376228205 -0.0181362942155947 0.282571310799886
0.0107273173933844 -0.0234633587733404 0.284053052236912
0.0260598594583669 -0.04177615319844 0.283485677385631
0.0256291691370623 -0.0452282746885596 0.284331569582854
0.0431953579661199 -0.0574461076370263 0.282702246726174
0.0459712151993669 -0.0614349774976179 0.285662350458226
0.0574805696058677 -0.0697313423622359 0.2840664886909
0.0668338616793276 -0.0805071866556727 0.283264163740424
0.078591704182748 -0.0971262919533862 0.279428342880752
0.0826323698446932 -0.093307783171471 0.277436907949595
0.101471112852777 -0.114326080197563 0.265030386390439
-0.0922624423884136 0.0981650800118261 0.126152167311639
-0.0968413569765658 0.0940006276775873 0.1338653914237
-0.0926914526834199 0.0906868959263478 0.148996947054712
-0.0945113943247611 0.0901606205467795 0.147993039494904
-0.0911294679223749 0.0878878317214393 0.15917383409915
-0.0902905841021688 0.087398984116545 0.161122422642584
-0.0878798463993715 0.0856151379261713 0.166557526191666
-0.0791962100781089 0.0843873695271678 0.176215589835991
-0.0807713721549687 0.0806168754463467 0.182084400445015
-0.0834996359539067 0.0765482623222397 0.187318413786158
-0.0747871909392828 0.0780551717618325 0.190579825550017
-0.0726817406838916 0.0686685013567405 0.204737402268426
-0.0760892127296725 0.0675228655151934 0.204222659305017
-0.0658316496911917 0.066590963271499 0.211543496834372
-0.0615380150912517 0.0620760057975998 0.221437477921023
-0.0657579943402439 0.0573542019553052 0.221384776278953
-0.0563891518096962 0.055522295323601 0.227063384322827
-0.0495737143000938 0.0501640739936612 0.235222143553206
-0.0538145664620792 0.0456656114202557 0.23757560905201
-0.0431994792050489 0.0471226975368647 0.239398963127541
-0.043616898703815 0.0400194892711431 0.244871958892521
-0.035165177789551 0.0411109935541171 0.246005460266205
-0.0333344760550285 0.029326315591786 0.255608035146114
-0.0310466732891856 0.0297059635326936 0.255631835061042
-0.0240799188285519 0.0208919788042591 0.261904073018791
-0.019079700647229 0.0233046457194968 0.260940594585319
-0.0172792324224852 0.0160192658880127 0.265683914574585
-0.0133138768297703 0.0140493328492478 0.267257475937175
0.00077670130582442 -0.00128914386871955 0.275054835399128
-0.00192605571801083 -0.00257402257911789 0.275677233690926
0.0105104223096482 -0.0129847698499451 0.280356249994453
0.0144958404256344 -0.0138164853909998 0.280381866610048
0.0252476638619839 -0.0265188263293959 0.282962883295812
0.0325930030612918 -0.0275996461598493 0.280999023383148
0.0320359334373096 -0.0357240873716164 0.281168587834473
0.0438400351721977 -0.0482108558279003 0.278026776555734
0.0626602819823755 -0.0628233328141583 0.274795868973414
0.0651710064005029 -0.0690341534812083 0.279604074301992
0.0807008390057966 -0.0832326674001011 0.275467340428001
0.0901043542946121 -0.0832730043058691 0.268390086739973
0.104301546948502 -0.108752926054129 0.263566525078634
-0.0899243836318778 0.0986178966953366 0.129801198508571
-0.0862103843628366 0.100099781065736 0.130499139453999
-0.0880408024924603 0.0980072051921189 0.134089219599681
-0.0813394113004279 0.0977747988835518 0.143741634017738
-0.0797978144043342 0.0954694332850449 0.152465429218725
-0.0790943032479571 0.0933670183589388 0.159164454099433
-0.0742723044610794 0.0893597369086184 0.170874024569481
-0.0709391603250174 0.0879465723895508 0.176378731062719
-0.0744791653096129 0.0873828737518758 0.17447246198101
-0.0727224318285417 0.0803875003831842 0.188550819119331
-0.0661964910398803 0.0806064371532267 0.19200307474733
-0.0675794924200439 0.0791571351766053 0.193206384985569
-0.0618619246552626 0.0731220846225025 0.204819278710154
-0.058360658714198 0.0739207018817421 0.205731998722396
-0.0543561533670491 0.0704411305437515 0.212425090947294
-0.046395744279218 0.0635508487283656 0.22229771872201
-0.0501893094286367 0.0604027999773639 0.224507990310827
-0.0418951241531872 0.0564550038525651 0.231346084594722
-0.041635091954187 0.0563365835996192 0.231547845947868
-0.0338492605976412 0.0505710961712311 0.238374269404091
-0.0363560293629317 0.0447362153938365 0.242769054709929
-0.0291248166229426 0.0434292277484302 0.245187974705948
-0.0178913171173763 0.0374929138643233 0.251827435559675
-0.0202808062108138 0.0330440282904697 0.254700409486958
-0.0130907094703324 0.0318258603416264 0.256069818331318
-0.0100020586721957 0.0245542471653763 0.26087875428929
-0.00965440978231692 0.0184632851699463 0.264781046164256
0.00410821090521146 0.0142291920614544 0.267412490809013
0.01145695657089 0.00369242716214781 0.272788544084799
0.0132010754754514 -0.00118218106679578 0.274989184426218
0.0182177521457778 -0.00650941027562621 0.276920397414827
0.0265994164497359 -0.0102367456415489 0.277297646798767
0.0289829931633194 -0.0164037504979911 0.279547048826832
0.0514497586726285 -0.0343489724472752 0.272442185401223
0.042424581863066 -0.0293203121265202 0.27701189199528
0.0683964070707111 -0.0539004667164611 0.266629910601611
0.0728244930791881 -0.0653336860302205 0.269264978062103
0.0850204652464315 -0.0692180646450092 0.261178127240567
0.0786568713715088 -0.073642523573141 0.273019494810563
0.0936102746566691 -0.0846779980106999 0.266240260351764
-0.0766174968312136 0.107136070957663 0.117976736236406
-0.076352564721161 0.104073228296523 0.132235598132613
-0.0767998653739954 0.105224522005554 0.128311265630733
-0.0725969256834706 0.101062107780965 0.145964836711202
-0.068870959836382 0.101972745372921 0.146855274781075
-0.0732195597560452 0.0943765399315216 0.162186651339557
-0.0703236517155667 0.0969444614854688 0.159725435333905
-0.0677671061463359 0.0922446937434815 0.170848180854678
-0.0601842562611324 0.0916669343963626 0.17696400739055
-0.0618300673457467 0.0874897314742932 0.184569233267729
-0.0591133337147892 0.0841028438677547 0.190903124942147
-0.0496585383600025 0.0839760356456552 0.194876816247041
-0.0480501710153359 0.0806112732929676 0.200481129356102
-0.0523546672425341 0.0751302935484777 0.206836878743052
-0.0434925692630061 0.0743053723991603 0.211252999003561
-0.0420081812655254 0.0691283882406656 0.217360680409624
-0.0387221984855941 0.0674056996364052 0.220159403224784
-0.0383328374466028 0.0634851625019093 0.224583085494612
-0.0334679163025212 0.0599499153280835 0.22981094919953
-0.0260143039425143 0.0529277008575965 0.237685181942576
-0.0204044448012354 0.0475965753838201 0.242926063474125
-0.0174962714323479 0.0500192206071287 0.241237643103581
-0.0108567617694898 0.0401858052592984 0.250239746779365
-0.00706355262217339 0.0386346316734586 0.251672843501454
-0.00244563451195273 0.0333109292337826 0.255345358499322
0.00353656613099045 0.0253668088839545 0.260300988553655
0.0118390482099152 0.02544282660535 0.260017187131213
0.0110866750481574 0.0229370075569027 0.261640149847325
0.0196904154906836 0.0128865406491875 0.26771569089741
0.0199467963575153 0.00955333736181512 0.269777685772572
0.0340845838338838 -0.0048728002660655 0.273984755359296
0.0298056114196504 -0.00789074693291887 0.27587235088359
0.0373952288171526 -0.00943953942834248 0.275422634796359
0.0676232034453236 -0.0332112373465009 0.262781967367521
0.0595436410235469 -0.0311509961228001 0.267654156191451
0.0987183467602019 -0.0612245687302116 0.2447689365977
0.0881594149895015 -0.0599019770739501 0.25378689477179
0.104925005363219 -0.0776554361455958 0.24667277012717
0.12552961222615 -0.101242786676054 0.237185399056454
-0.0687663349146921 0.109076489328514 0.121762208101751
-0.063510449532091 0.110117133170301 0.125923793137822
-0.0611902186304668 0.110146818601717 0.128542916696397
-0.0659867645086685 0.105051167415474 0.139903109830888
-0.0592160086106042 0.105108600697577 0.146309134958365
-0.0585904611443475 0.101006838075652 0.158711331228877
-0.0565843914743318 0.0998954886302092 0.162196751324221
-0.0597156138174597 0.0966432548383435 0.167011294946473
-0.0547281201981716 0.0924169736537585 0.178685694185951
-0.0548396821903346 0.0949907634421253 0.173326335188431
-0.0469900369523205 0.0924758397404113 0.183193809126925
-0.0496803377032307 0.0871532524079846 0.190184411588524
-0.0461698848126703 0.0829295201870118 0.197816777473753
-0.0373544219498551 0.0839855205425014 0.199519599509614
-0.0340600365554684 0.0814288189814242 0.204272029244992
-0.0307451268031172 0.0775506837284959 0.21061588067376
-0.0325003335517955 0.0686320579230125 0.220373456906755
-0.0276294769404447 0.0664516705772615 0.223729243184497
-0.022282090687664 0.0621064523164966 0.229618739587922
-0.0138492814494352 0.0558362705395738 0.23663718583143
-0.0169839336576971 0.0536389947250696 0.238228048021238
-0.00888221816015379 0.049362939097138 0.242354012930568
-0.001772851783345 0.0460462208407303 0.245393948304041
-0.00619053186701228 0.0448844364316918 0.246291054486217
0.00229821193328852 0.0378223943999031 0.252368616138461
0.00933657244994259 0.0302862761442198 0.256951028244243
0.0153171612301322 0.031694911755395 0.255941260499522
0.0182640899658438 0.0260523732255965 0.259532072856374
0.0225594711006215 0.0209004424200316 0.262457255004067
0.0298703163098083 0.0105360636982389 0.267240250575462
0.0379347680305985 0.00693309706929836 0.267555501131228
0.0403833502651995 -0.00429845333674927 0.272943592661953
0.0551578877530436 -0.015285547664432 0.269864654318902
0.0718672573888113 -0.0190040331674075 0.260454584588686
0.079898602563282 -0.0438257328117746 0.256059400802316
0.101606532337287 -0.0570944995741878 0.241337645714205
-0.0588534883059767 0.11346093508245 0.114444229645528
-0.0637658295743996 0.110875770677511 0.120624153731529
-0.0583640200905903 0.110395831433684 0.130510741757329
-0.0516990214312073 0.110330648289018 0.137200819638276
-0.054296706097345 0.10757199958729 0.143338490589179
-0.0499136193750198 0.107660447470255 0.147325592790765
-0.0494478291154307 0.102137307602811 0.161856096920774
-0.0475212085527072 0.101546241252255 0.164224102613516
-0.0427789876480622 0.0994054455475904 0.170984303662308
-0.038235318895199 0.0963458815556645 0.179275934075874
-0.0418275255566532 0.0960692683889801 0.178478253786761
-0.035755493849796 0.0916282696551437 0.188310678699826
-0.0288660549718115 0.0907027070162673 0.191522922217108
-0.0252726601981365 0.088758058118138 0.195422479385453
-0.0314223579454339 0.0810409698545482 0.205552814394614
-0.0202981920203188 0.0800839075389756 0.209665675183729
-0.0184706224459963 0.0766751775464573 0.213852454965414
-0.0227970754717392 0.0722244197516484 0.2180901733249
-0.0175313346760396 0.0676396556597286 0.224235432434499
-0.0124596362401278 0.0639679136261125 0.228764833166421
-0.00767777068051399 0.0617536454237632 0.231517248303651
0.0020331838350988 0.0549842434543535 0.23755265484807
0.0119130621525984 0.0509506035466972 0.240550127422077
0.0162933814943689 0.04664835678885 0.244010184741509
0.0137415169243682 0.0417266328465401 0.248402881320228
0.0187526903945674 0.0364132529085918 0.252747142498014
0.02520075581226 0.0321509628653421 0.255194745381288
0.0235667635073802 0.0258557218480733 0.259271961108891
0.0343035324930855 0.0219145982613366 0.259874464555454
0.0390897757819764 0.013635909051299 0.263474311246431
0.0451058174315019 0.0117542769750783 0.263073769278528
0.0665403136257512 -0.00101349726608508 0.260132165934862
0.0716258135115232 -0.016105282399785 0.260313330092775
0.104007456138592 -0.0427160589669809 0.234453704520826
0.0931070307684594 -0.0380805455006473 0.244460146739592
-0.0452787702681673 0.116675294859307 0.11616860363794
-0.048576230090029 0.114743141888913 0.124759638471144
-0.0494651331435511 0.113664521349325 0.128226125318367
-0.0464184461248095 0.109480517081716 0.143976936149377
-0.0407714933049412 0.110598585637673 0.143811907872166
-0.045082542337201 0.106281209414792 0.155405531906063
-0.0415892519462791 0.104787964243495 0.159946968654354
-0.0368867688916808 0.100258512151295 0.171439710932831
-0.0282905053851263 0.103512475789074 0.167811955732743
-0.0287676388955406 0.0982733392963737 0.178818471934034
-0.032854513054251 0.0949811897568576 0.183969234069082
-0.025273335056314 0.0935637643949343 0.18811093587079
-0.0168508502571806 0.0911217951992883 0.193266088660481
-0.0195015289373796 0.0901083346637295 0.194662863473459
-0.0155108347129885 0.0805483719831891 0.209536629611314
-0.012457361900667 0.0791513587176963 0.211274708396126
-0.00882744683038676 0.0797201223379435 0.210772674899458
0.00267486258752263 0.0737976105529453 0.217695345770624
0.00215947800433074 0.0680615071588452 0.224331450365631
0.00479852748577408 0.0663060084449442 0.226170872820625
0.00421127742599353 0.0627667905966869 0.230283835803931
0.0150125303371624 0.0555952311756901 0.236371796119866
0.0176200163933188 0.0534908348769701 0.238033315207862
0.0202535977942843 0.0422663538512075 0.247589684063895
0.0280200848237359 0.0433386797308576 0.24587315074736
0.0396918331038642 0.0344828838013846 0.250440139204632
0.0349208230485855 0.0329481194792296 0.25323786320813
0.0506211280851154 0.0246386956403324 0.254220234739043
0.0612032941082058 0.0161020340984578 0.255758649258346
0.0697691432806152 0.00886996124776432 0.255401567836923
0.0743516528903271 -0.000601838351734099 0.254964816144134
0.0823654270288652 -0.0119660667995554 0.251353682139999
0.126555088376069 -0.0500480531499835 0.208073314993529
-0.037476915374074 0.116689756497838 0.125719692534082
-0.0315085153493989 0.118284512356897 0.123548453542911
-0.0280274311521022 0.114807034504383 0.137863573904177
-0.0383078814023869 0.111213546692965 0.143319107386367
-0.0312619131306092 0.11049120547971 0.150119207163561
-0.0251604642527774 0.111288000631847 0.151301665359622
-0.0187721784160057 0.108049341799814 0.160364108515206
-0.0216329924446333 0.106400608346902 0.163666037453102
-0.0194835097991459 0.101167769535343 0.175339274614748
-0.0114803790676693 0.10022280049941 0.178256563267624
-0.0164542550143373 0.0958902559257327 0.185884005870288
-0.0116940419516718 0.0928869026412743 0.190869617844563
-0.0116853948278208 0.0895249122307487 0.196093674133313
-0.00701026540511453 0.0876882009348848 0.199260983268315
0.000986961655941676 0.0837148540130303 0.205662943334948
0.00135324566424044 0.0788775241039017 0.211940143626224
0.00722721065229981 0.0775722914462209 0.213039904697055
0.00928582963589159 0.0714276239554141 0.219969902914436
0.0220738372349681 0.0694413936908763 0.221099138133201
0.0151597903063168 0.0655141768528738 0.226361253170563
0.0199704459652787 0.0558860963743607 0.235830574856551
0.0300676160599824 0.0538303170242327 0.236785860366146
0.0341953697057321 0.0521367778182944 0.237549102456772
0.0358921512511402 0.0491727560715981 0.239757296866566
0.0458105388133795 0.0377533450786101 0.245887023318523
0.0498693381054668 0.0339208092014504 0.247385076888245
0.0554783441197828 0.0294922652518289 0.248935142218491
0.0750500949046105 0.01404254653076 0.248799962547995
0.070336338674072 0.015498128247048 0.250795523874614
0.0964723648878434 -0.00732296977320416 0.238621282054945
0.0864835042447969 0.00157562462442218 0.245963957883694
-0.0238497215165524 0.118609914160894 0.126835243541215
-0.0170742702857201 0.118851581533931 0.127244146821526
-0.0241721293124845 0.115803625268837 0.136326039074983
-0.020611984312176 0.113964426573594 0.143231522831301
-0.021398880160292 0.109897229985053 0.156043417804032
-0.0192879835379378 0.109449279844108 0.157247471037587
-0.00981232023855875 0.107611305737865 0.162274355073991
-0.0069468390747286 0.104379480721142 0.169647245799392
-0.00128074006628816 0.102618083849531 0.174101783729954
-0.00602763776233757 0.101613672081529 0.175794065147891
0.00228606815774461 0.097856384741786 0.18359566653571
0.00145686166998401 0.0907845518123161 0.194648146471029
0.00260218712167827 0.0894229390533903 0.196651364044846
0.0108682826037007 0.0889492082282992 0.196595731670265
0.0114422378106354 0.0818243696322038 0.207596237245068
0.0190239772071301 0.0772122006685109 0.212553452689497
0.0169622156156822 0.0741474275390274 0.216288037331878
0.0242959877521635 0.0675608257968917 0.223012303591076
0.0288116840258697 0.0674462236081736 0.222671928318097
0.0372847304787385 0.0594515051059491 0.229890577958529
0.039073711854152 0.0541963569588044 0.2350587336141
0.0550444699611758 0.0488791741380753 0.234017978110543
0.0456920090135182 0.0489094423715258 0.237581557902418
0.0640067268629251 0.0396562389152774 0.238452782579592
0.0652004771191235 0.0377080471388363 0.239349944831218
0.0710466800940937 0.0304284198118868 0.241190531200778
0.077430784978093 0.0205270415186839 0.244030224126586
0.0983483745404967 0.00414544719976891 0.234660189073774
0.0903635801700455 0.0048674859104914 0.24187242649399
-0.00970181169918835 0.119317294109506 0.126999148029964
-0.00943387158019583 0.115174645640683 0.141144657263813
-0.0105946595206182 0.113606613610588 0.146269494694016
-0.000582680563716946 0.113315257345917 0.148950968684012
0.00153395696129108 0.11172066974269 0.153893146369126
-0.00163409519328167 0.10881750063255 0.160505417418798
0.00208715308683092 0.106146828965464 0.1660323367161
0.00911640438008878 0.104865101729564 0.16785424832764
0.0130903982155242 0.100855495595405 0.176056056799879
0.0137889944466645 0.0956833354552157 0.185867193631121
0.0200224927986886 0.0914196845793183 0.191817289046373
0.0198254381888949 0.0897157899793957 0.194470352669436
0.0321120539875797 0.083930975992084 0.201154877849257
0.0360430585122107 0.084204222718736 0.200036010963891
0.0366381969025198 0.0808412629248152 0.205108367426023
0.0390973641148294 0.0713243883818711 0.216294411891089
0.0457702964400556 0.0727251437207475 0.213093989637113
0.0521482809048779 0.0674777784480785 0.218670090796063
0.0550769840543693 0.0635156057289222 0.22274051871331
0.0491532618451254 0.0550777554002359 0.230695292822573
0.058973683368431 0.0468977531761888 0.234158139666988
0.0681611141398753 0.0448212908652085 0.231835261489506
0.0826895356213491 0.0389102260445605 0.227690380338017
0.0835087439968265 0.0295926572580075 0.235345599364077
0.100396460866979 0.0137779362783387 0.228313023335763
0.00461682266876715 0.117832921544583 0.132461019261699
0.00279551518439974 0.115961392028172 0.13921836529402
0.013039986757323 0.114954112764965 0.140360762467069
0.00921934659030993 0.111574966233375 0.152679777160268
0.0202358984002493 0.111661147144462 0.149939025972987
0.0127154552939582 0.108186253118457 0.160103582489755
0.0214309091182356 0.106009964239944 0.163644292926911
0.0254589474112462 0.10258184741929 0.16989645197392
0.0297122613472113 0.100774382986513 0.17251153431844
0.0297053587447639 0.0938906964232363 0.186233620077643
