ply
format ascii 1.0
element vertex 847
property float x
property float y
property float z
end_header
0.0680756058581782 -0.347369369351818 0.118405222425584
0.060130829781454 -0.349731394449525 0.11936217271389
0.0557642158759768 -0.350415636422307 0.119799368830666
0.04521361545202 -0.351764028736818 0.120846847958638
0.0340426929893836 -0.354863591943237 0.122019996253251
0.0164970632822926 -0.361126530670957 0.122814787933495
0.0097363061341863 -0.358942220272461 0.122896461299122
0.00903459885676727 -0.36389173430214 0.123157783126265
-0.00270639541597436 -0.355509524617671 0.122707764294418
-0.0132318351795396 -0.365964251290049 0.122801841558235
-0.0280219153717727 -0.358421834556514 0.122080541307277
-0.0391564120089055 -0.368914955556768 0.121317950604093
-0.0538523011557275 -0.363972020208875 0.119757052064142
-0.0609511599826545 -0.370102920317059 0.119135756564701
-0.0769175234890221 -0.366347237448733 0.114949723403696
0.10809827211713 -0.339157562738517 0.0969028511837952
0.102326924643968 -0.33350264835754 0.108048384153797
0.0951669535930755 -0.341831086249441 0.11053887513697
0.0902484181751519 -0.340833691201645 0.111855450699247
0.0826189110886553 -0.345058748031103 0.113475291178638
0.074671954778936 -0.340411736234663 0.11582463588713
0.0734948682284507 -0.342121141173608 0.116155885228572
0.0589407802559897 -0.343464418407936 0.119293503190148
0.0487143538396775 -0.342497934931398 0.120242631890692
0.0458517566520144 -0.346707647199175 0.120638705924474
0.0273738032078487 -0.351301805635926 0.12203182394685
0.0150926134571006 -0.346798620067095 0.122154039095755
0.0105645797514341 -0.35221506679615 0.122544780080808
0.00112756135647572 -0.344692134539618 0.122440243141216
-0.00943991489163538 -0.349130269307223 0.122266306728089
-0.0220937502607171 -0.354219291073902 0.122092269884126
-0.0249491775492539 -0.352127468017075 0.121928611150633
-0.0456266684622279 -0.356525488598636 0.12047162811715
-0.0597812166697283 -0.359795390980643 0.119093325607593
-0.0570107033214608 -0.359851850384574 0.119373954478272
-0.077870011001714 -0.354485854955182 0.115132098799885
0.109050117786661 -0.329296363188762 0.105149497132833
0.105726228103833 -0.327271924463111 0.107191153839964
0.0951009908026381 -0.333689537351722 0.111151336214047
0.0929952992008225 -0.331912617090725 0.111813764785627
0.0899712484626391 -0.327106989631876 0.112930023684982
0.0789388758086677 -0.334321576789436 0.115191466505538
0.0733512649376391 -0.336306416322517 0.117072906464779
0.0646015599195836 -0.334971143637545 0.118505361392782
0.0476219294777459 -0.331364376825645 0.120022996979488
0.0364912236247805 -0.339099969580992 0.1211817633384
0.0348215323463038 -0.332147701520426 0.120383097392124
0.0189902019349552 -0.337572866365274 0.121594789359178
0.0139843628891276 -0.342488386523398 0.121974374233709
0.00813743001231682 -0.335020877263119 0.121152962512091
-0.00926391898754934 -0.339737545686018 0.121910872494049
-0.0136896835101128 -0.339033471069903 0.121754645266067
-0.027110471138114 -0.348281391237435 0.121717872819787
-0.0421150041187612 -0.343914213579146 0.12062976333603
-0.0495270665704424 -0.342486953169689 0.119859105884073
-0.0628603829737046 -0.343457498172757 0.118527908268816
-0.0821600937927588 -0.352535187111644 0.114239158716372
-0.0872438371982544 -0.350618736783359 0.113167867006066
0.113402739559656 -0.322823486130587 0.0990878550246727
0.105244671267841 -0.320135789025649 0.108501486605317
0.101951202774778 -0.317509242475163 0.110603392264726
0.0947574697175283 -0.31741126084689 0.112429404741869
0.083883835268808 -0.325235425563945 0.114606104920685
0.0850283859124673 -0.317326121838995 0.114895508066694
0.068379025303818 -0.321884616440258 0.117633112033042
0.0649100802890847 -0.320484205395534 0.117257873024537
0.0505346421672974 -0.32467134849202 0.118379814635834
0.0374467171137171 -0.328513985520567 0.119409446124438
0.0356130747043221 -0.328334098435901 0.119361245525373
0.0273943437168096 -0.322776146777215 0.12495119463593
0.011709465696185 -0.331834940623592 0.120299293362394
-0.00859869011012485 -0.332121629542197 0.120376111426612
0.00451053527146231 -0.325935865687757 0.124629677840661
-0.0238380772387731 -0.329404135210387 0.119647961014968
-0.0330154039465189 -0.329238052492924 0.119603459284947
-0.0504329400400247 -0.332974493948075 0.119619456864095
-0.0529567609630831 -0.337358601035244 0.119432910008501
-0.0696238171398567 -0.335084363441483 0.117714546562669
-0.0769641666855938 -0.333446685915462 0.116035082664966
0.116553781992873 -0.307533527342497 0.10444468672223
0.112061700294151 -0.305916866997757 0.107037943058629
0.0984495477798883 -0.308796784916967 0.11212630170356
0.0956035584502392 -0.311234485901118 0.112667486923866
0.0870783734202951 -0.309796303964647 0.114394058467349
0.0822451773549411 -0.308832152711399 0.114135714917661
0.0704884086239929 -0.312767047792831 0.11519006687703
0.0563680455789911 -0.314650047810833 0.121136181117579
0.0553814705901275 -0.312820626056982 0.131965049633996
0.0579130753093123 -0.310949592920672 0.137933426947748
0.0498655357219552 -0.315107717454037 0.132169885001401
0.0486154239886093 -0.311138803917539 0.152303365331578
0.0333154769389836 -0.318206363347389 0.143105896559585
0.037597731758912 -0.313200731656555 0.157501025121677
0.0277479225631491 -0.315964593033809 0.157474710886049
-0.0282301532878029 -0.326907914995409 0.118979100824235
0.0123167384096937 -0.315031397873171 0.160771336412543
-0.0440624120280178 -0.327213784240914 0.119061058241557
-0.0478684052799049 -0.325989780056276 0.118733087308752
-0.0712031270302914 -0.324891334702393 0.117396296567756
-0.0806147976652014 -0.329204613347258 0.115361238863444
-0.100867031663757 -0.327799145513411 0.108962588080482
0.114327797125637 -0.300727773359715 0.106620005229579
0.10819846267494 -0.302894559322678 0.109510131178154
0.103711738744497 -0.302227865118574 0.11127652597328
0.09000277439285 -0.300512381915587 0.111906439051712
0.0870303847454529 -0.297830807030282 0.122972400372749
0.0771556217111677 -0.305892366405013 0.119458727977834
0.0765908147920251 -0.305496138492175 0.12557857994022
0.0744074353379393 -0.304455815941677 0.140741460593235
0.0716064715591571 -0.305994195241013 0.13736732424196
0.0769431384884241 -0.298721674241673 0.156666463804446
0.0682695626002359 -0.303781203666723 0.157646078332172
0.061693610335923 -0.307161798021138 0.155883237961698
0.0655484995281076 -0.299409763006762 0.167829800931799
0.0560648283890105 -0.303150454508267 0.166375085547339
0.0489416602104068 -0.302327360071434 0.176486583677183
0.0390015506342904 -0.303954910141077 0.180225420759392
0.0143166765698129 -0.312652304804915 0.166274533463958
0.0266114617140878 -0.303707690732722 0.183631827595357
0.0145181325087326 -0.304261879857337 0.187325513444784
0.00658262534837418 -0.307929216225777 0.1893176157718
-0.0317370875406198 -0.311920418788533 0.162073796539636
-0.106026400563864 -0.323374677612021 0.106916300978221
-0.0240519340562374 -0.307617901958894 0.185527462057086
0.114701597008459 -0.286343621389244 0.108109931110931
0.112152848983813 -0.287453073049699 0.108407207787391
0.106388877618064 -0.284480934817318 0.114485447990993
0.104821500646262 -0.285058545908599 0.120985609881261
0.09219648417494 -0.294985663635374 0.114692605549613
0.0971623480929564 -0.289229611141202 0.135859979120194
0.0938545836620961 -0.290961520491933 0.150304602047976
0.0843600673681455 -0.296239755731614 0.147386478208189
0.0964431875479253 -0.286991873036512 0.167450662019612
0.0861473742485099 -0.288795192320443 0.166256365932741
0.0767141955776198 -0.293906638026589 0.171712863699849
0.0754538298358286 -0.292067131392209 0.178026835240045
0.0667447092375342 -0.296633611411796 0.175120347181304
0.0707844992230867 -0.293267922953344 0.18225301007879
0.0670437798452739 -0.292087678794063 0.192454741008841
0.0471591861358556 -0.2962760125888 0.188595771437181
0.0470645832307493 -0.292103484007635 0.19607228414668
0.0387824593255724 -0.295239889447595 0.195855267089351
0.0238039235333162 -0.29779058070601 0.194875435428095
0.0246493189563673 -0.294365022266773 0.200925455573494
0.00695133401210999 -0.297299864596537 0.199194443871022
-0.0197156685654798 -0.302689202650903 0.18647983186611
-0.0200054969529415 -0.300510867626842 0.191814273948747
0.111452191375026 -0.278684637554523 0.106836536514175
0.109247352158126 -0.281379524411925 0.109804686607351
0.114340890127377 -0.273941270311233 0.13203088971847
0.109040591989601 -0.280822439783865 0.13243060257925
0.104685740527981 -0.283603383159239 0.139561048450625
0.104667836361489 -0.283894684518666 0.136908878198286
0.109831652441596 -0.275202283710143 0.153360277593283
0.100887740132742 -0.280738920857286 0.158532564873972
0.104391233133375 -0.279714525224097 0.171992121224005
0.105229131795148 -0.275628696720945 0.177851458917783
0.0942219181039844 -0.281462648764627 0.182666137712076
0.0928291562435665 -0.281774356629383 0.18399553178362
0.0764724268549574 -0.286721511110819 0.186434071693352
0.073581951591136 -0.28542850275943 0.192171879971665
0.0725691694329054 -0.280002114880065 0.203254196224565
0.062497719477811 -0.282475921600825 0.204495840384632
0.0586383706499841 -0.281431528911827 0.207523010390804
0.0430186646022338 -0.285859669921375 0.208691144399626
0.0338806652593021 -0.28774398253198 0.209456967269736
0.0366480430612875 -0.286020435421915 0.211274511232182
0.0306488446525667 -0.285331391865412 0.213077901012473
0.012917022962353 -0.290621408268647 0.208845973493934
0.00217861063860421 -0.289852413892928 0.211445083344549
-0.0195134615751757 -0.29053464213972 0.210852333555748
-0.0222776399874989 -0.292205652416761 0.21330389373788
-0.0485252542980284 -0.2913002623296 0.196309734619
-0.0524931356681469 -0.291304416659176 0.203249061459431
0.119656454901382 -0.268088085491427 0.111489065384638
0.120825416083393 -0.266019083677156 0.121645859499861
0.118676443010639 -0.267862663496344 0.134446066485066
0.11500405373822 -0.273144945606326 0.130802843980325
0.116420381801523 -0.273271809773884 0.14040461312786
0.116206136477214 -0.264625845308458 0.157951812511675
0.114062437557216 -0.265785759362848 0.164192113013295
0.109523855220333 -0.269595543075365 0.171152449909971
0.110227187086852 -0.26868285391486 0.170730442667679
0.103558347303658 -0.266094829594235 0.1886180167481
0.103068732882292 -0.265356817325566 0.190788925042801
0.100838093306201 -0.268194183732944 0.19740523428968
0.0879718102571971 -0.270480965662579 0.201122850968283
0.0842667624519832 -0.274455224061934 0.19885322694009
0.0820062281614796 -0.268967979067188 0.208663210880527
0.072955947866066 -0.277343811532119 0.206698818886095
0.06515600228264 -0.272829448800834 0.21616157915709
0.0523678344702526 -0.27741636511684 0.21541019982311
0.0489040532493889 -0.280130034728994 0.213451651369797
0.0405464610279608 -0.276465121019011 0.221804088013193
0.0277439000082418 -0.280748941232399 0.219502821261648
0.0290122467099109 -0.276129022160943 0.225392754844533
0.00668980996782218 -0.284376694081245 0.217831282903312
0.0083246819628257 -0.278391241366511 0.225317646156384
-0.0161485419672305 -0.286270454250134 0.213493476820381
-0.0166021194746612 -0.279442570307808 0.222212262636803
-0.0586551833332091 -0.288383867305556 0.202143643224907
-0.0542416261624046 -0.283986503592647 0.206473999919771
0.128437376889994 -0.255905625553066 0.119197393204298
0.124334730719787 -0.260768009116089 0.127561478941474
0.128858305897844 -0.254186502913376 0.144633557098325
0.127994715488099 -0.255224645324373 0.145349401040053
0.130496233302889 -0.253825492704091 0.15395257585437
0.121492347295944 -0.25844189042393 0.160206709995285
0.11819945914025 -0.260196314945501 0.162025472544331
0.114175498525718 -0.264860580329638 0.166140054470224
0.115192561801193 -0.257459313634343 0.175910930756325
0.109048258396946 -0.261615448481326 0.186113442323515
0.102947805217211 -0.264427666605285 0.192827301526788
0.105184050387802 -0.257503283193906 0.201378448919994
0.0985586859495054 -0.260362150739677 0.203849462225182
0.0932705581299525 -0.259453842070601 0.210088583625046
0.085157148695171 -0.265921139056255 0.20951133864945
0.0811891444893543 -0.258535034379197 0.222796053068768
0.0742107132851701 -0.262779555761417 0.223806297453093
0.0773260311178915 -0.259430009464334 0.225269365978041
0.0533346297800224 -0.269137032529942 0.22617385362196
0.0537693125634967 -0.265217613195308 0.230740279711804
0.0478350025621498 -0.266559780381163 0.231272594156138
0.0415923797117188 -0.263282647228349 0.236285994538764
0.0227610329825183 -0.270249159958685 0.233029050369103
0.0206675704138622 -0.26856517843569 0.234872369457987
0.00818317333627285 -0.268219230349551 0.236543836658748
-0.0139702654827739 -0.275797152493539 0.22743291819752
-0.0256321664252911 -0.27657401566064 0.224135386962412
-0.0504262211516116 -0.275896956294006 0.218101281739964
-0.0472297432038892 -0.274047578043336 0.221564939967401
-0.088820078437541 -0.280858744403946 0.194907986707061
0.133330698615072 -0.247907638225837 0.127550011681012
0.130111619922198 -0.251444176323922 0.134147652746746
0.128635838236081 -0.252474801065588 0.137759566324278
0.130186928521289 -0.244460873088393 0.154389946066346
0.131223503448515 -0.248155534563009 0.160305680894962
0.127223387651265 -0.252326253559492 0.16572532000695
0.121307119637317 -0.24886439595108 0.173369214252444
0.123254248257269 -0.247951646870951 0.184366517620836
0.115734803100044 -0.250532494715439 0.185748530018207
0.113443056922654 -0.250486058919186 0.191948343779979
0.11020302181366 -0.252532324524993 0.196509268454084
0.106428484733293 -0.246857394741903 0.209701816909938
0.106291739340092 -0.25024337866516 0.206542619611213
0.0941659319112658 -0.256395870023758 0.213327941690585
0.0978017840793323 -0.250068841475979 0.218335949203586
0.0883106404286723 -0.255608716541133 0.219943879994259
0.0855036830611919 -0.248549582257538 0.230011880679812
0.0721717991695004 -0.255144912649853 0.233371875988343
0.0702866598325988 -0.253211565765281 0.236424699044431
0.061178466109242 -0.253476801122056 0.239953139871143
0.0482030313071947 -0.257687407502935 0.239587104436535
0.0441193566666073 -0.260083080136161 0.238555314103797
0.0335872279635165 -0.261444888955575 0.240469045756304
0.0275982232686363 -0.254434546803577 0.247904042100541
0.0152047256353988 -0.261586852006196 0.242166468498211
0.00351498511057119 -0.257352746352734 0.247490376346915
-0.00841587321323916 -0.263956982215797 0.240405059215033
-0.0344636334175883 -0.264269079186783 0.235990450106445
-0.0295378764300635 -0.264366834053614 0.23667459331001
-0.0548310004801782 -0.268317985330346 0.227190850317701
0.135910517918363 -0.239868937097992 0.132101924508076
0.134677134106783 -0.24154026852294 0.136190412027456
0.134771589133736 -0.238287183942929 0.144401978004662
0.132057452587564 -0.241318820845011 0.155161741605655
0.132952948008199 -0.236488108611801 0.159581747367999
0.12753445353428 -0.23859232015506 0.172332816718212
0.128992972413245 -0.239052821756996 0.183401599934954
0.124846625396196 -0.235975652690064 0.185643062117859
0.118589546790726 -0.242536192073724 0.190089020461847
0.116738757158525 -0.24467181814315 0.191577154544106
0.113085067150009 -0.240662724132271 0.202844351556699
0.110908635410638 -0.236758004969166 0.210881051799169
0.105766324668322 -0.239839903595336 0.217931271955893
0.108222503054508 -0.237420917467397 0.215426894187531
0.101362675575348 -0.24493848585829 0.221637847319252
0.0986653561630265 -0.237720101266738 0.230695968326525
0.0831626047379995 -0.245761883215053 0.234150917678001
0.0814465579659307 -0.246765751388143 0.23444405519779
0.0765333677118747 -0.246467789006492 0.238136449487459
0.0651745718737271 -0.244857826869556 0.24745099823301
0.068740991249878 -0.244038002612774 0.245753015003761
0.0548105100951955 -0.24582252126033 0.249454470394953
0.0466939376319285 -0.248091887867183 0.249505328663349
0.0339302401564415 -0.249440806132489 0.251811354221554
0.0366836739045866 -0.242849818258958 0.255944549162038
0.015263685313144 -0.249721934848219 0.253344283329592
0.00380410823875351 -0.250728518456443 0.253499626588231
-0.0134677549271569 -0.251170753172941 0.251896736394811
-0.028726923884145 -0.257211155112372 0.243680258386193
-0.0251260160250085 -0.249496102030139 0.251579713192155
-0.0546816798076339 -0.257884698162644 0.237859710500774
-0.0587016190629137 -0.251087237219971 0.244074722788696
0.13797683723084 -0.23302722916241 0.136277344959944
0.137737689348419 -0.233297337644797 0.137217266196788
0.139139981207564 -0.228500094735284 0.140471430631997
0.135393817218527 -0.229396914792709 0.160892574060323
0.134763007557686 -0.23023971567538 0.161863489587877
0.130792995510195 -0.234080968187491 0.169909636481554
0.12943890017347 -0.227797817280331 0.182802172195993
0.127953799176272 -0.233236056316882 0.179349793355467
0.124239774799465 -0.228822836048945 0.19255411963403
0.12237425282727 -0.229464604376142 0.195545897598807
0.120807428993912 -0.228320091884219 0.199593100787642
0.112420816974755 -0.232318157025674 0.212028497782825
0.111253812579889 -0.226275960204009 0.21871076455772
0.105579215788389 -0.235627450843482 0.22148759640094
0.0992758268413611 -0.232095834020554 0.233289560899915
0.0987420225261762 -0.229347721250371 0.235822803273827
0.0982957642712186 -0.229475852737968 0.236421508033266
0.0897502156494404 -0.230262037529063 0.24407630130085
0.0779112310584412 -0.230507147508959 0.251089328932322
0.0707881815910498 -0.237011555817267 0.250646434244154
0.065704449858899 -0.232630542247321 0.256159354171289
0.0634335919353964 -0.237153013716585 0.25443620364489
0.0576250310634426 -0.232138038250184 0.259325479480907
0.0390216435703196 -0.237567091522118 0.259176825256654
0.0352811482170857 -0.23432073679017 0.262244407727152
0.0191774011420314 -0.240904432230976 0.25934221419547
0.00960795867804915 -0.2396660338776 0.260956492082348
0.00441882315011165 -0.23843596459559 0.262230694232161
-0.0111387940427758 -0.241116480313963 0.25937567375638
-0.0208940803319203 -0.240097457636791 0.258836648834234
-0.0424065314208188 -0.244146597120245 0.253308831378997
-0.0462392596885145 -0.243124018946755 0.253603963500677
0.142418743398522 -0.223028078371138 0.132409836230609
0.144222581439385 -0.217450007710715 0.139819727926268
0.140842588329798 -0.222910349679208 0.151390745976813
0.140803665032393 -0.222046188169435 0.152728492771744
0.138244914047923 -0.21531925530772 0.170946789883502
0.136941281402312 -0.216221309268822 0.174502816549133
0.133335277410494 -0.22218383580376 0.177733013641396
0.13200456730949 -0.218139739354294 0.185865745808117
0.129274549423362 -0.216174789052534 0.193226673436022
0.124898299928019 -0.222009401005051 0.197501674637724
0.118280354964557 -0.225100097551116 0.207373073541108
0.115547468032314 -0.225300195994189 0.21243039083385
0.112758423907167 -0.223198347133794 0.218349057808818
0.109845526143206 -0.21761148557337 0.226163310976891
0.105061632490477 -0.221797791442793 0.230936341606192
0.101365433272611 -0.222871451456235 0.23588744023044
0.0956605832307272 -0.226589387343975 0.242238498732906
0.0911640062857863 -0.227216566042162 0.245969162964219
0.0838794394389565 -0.228142387438917 0.249467435021631
0.0811541276118811 -0.224556271428341 0.253222268555316
0.071848072417411 -0.22521730569497 0.257706214839733
0.0693638822595746 -0.228364662926534 0.256983969621491
0.059719447274559 -0.227285439814951 0.262510624121571
0.0530463268329296 -0.224783113880736 0.265645263176407
0.032490748427711 -0.231910443179602 0.264524732033946
0.0244357655241467 -0.226738070954267 0.26922104602624
0.0249176866599699 -0.230811892529085 0.266240559384799
0.0113641701022986 -0.225013405923762 0.271149131438684
-0.00750265376028845 -0.227835505856313 0.26932600845299
-0.0247883959208501 -0.234356963185115 0.262428017466627
-0.0282954467389363 -0.234280269376207 0.262027521378956
-0.0360860199371912 -0.23061159080415 0.263712188589126
-0.0464609258342467 -0.232743174690682 0.261005665690954
-0.0689151298125705 -0.239000343830958 0.252861903401735
0.146534153368957 -0.212462979582261 0.140519038315564
0.147558358271862 -0.210473974890113 0.139311968977019
0.145974352048799 -0.205321276435422 0.158721213663985
0.14353637614966 -0.205395778789327 0.168443656569842
0.141722089266123 -0.208522966656439 0.169826390220033
0.139087525717379 -0.21057944693174 0.176568059733951
0.138576100818904 -0.210127212257662 0.178743015399068
0.132270306598163 -0.211699107684684 0.190664030061563
0.130073111887544 -0.210564910038632 0.196216397599827
0.128671958548977 -0.210272664006669 0.199398720098027
0.123425449731965 -0.210392961043368 0.209892961644327
0.118960661061266 -0.211330742545366 0.21601531297277
0.114144776899312 -0.213422814440505 0.222059578269964
0.108886707107224 -0.210178721386004 0.231736407484677
0.108328816969802 -0.215054076123511 0.229857396935303
0.103117578558338 -0.217207001840163 0.236459592935103
0.100182335156172 -0.211806440523092 0.2430637393101
0.0963698982748157 -0.210950777032595 0.248083964077002
0.0887915408009238 -0.216940695643635 0.254297521246472
0.0828036830205637 -0.209562688782108 0.262384578061882
0.0747448048753145 -0.21518694336254 0.262809399256189
0.0754960486667462 -0.209923176639741 0.265956845738481
0.0608209303614315 -0.215087678962673 0.270034694378391
0.0564747022525803 -0.212306239972681 0.273021121946702
0.044506823522997 -0.219198100280905 0.271090966011504
0.03538714167893 -0.21890193002755 0.27246004400983
0.0258961316552639 -0.218923388535227 0.273547792689363
0.0202416232815487 -0.220447693034342 0.273035614068689
0.00804611433583735 -0.221413992669237 0.273169831155657
0.00195945574401024 -0.215602671787041 0.276470016662818
-0.0106376786500121 -0.218342891110168 0.274147348828751
-0.0236543694958333 -0.219877264349129 0.271954872945073
-0.0417325628212949 -0.221123534152256 0.270234718758015
-0.061084955301113 -0.225199759413692 0.265515786435663
0.153590626363246 -0.19558496710969 0.144966013100757
0.151086073693564 -0.19915710554016 0.149782859525572
0.150827300986723 -0.195324278522725 0.158132443404722
0.148790490267666 -0.196208237456857 0.1646894863937
0.14365000169515 -0.199850337978334 0.176644911647326
0.140847064144233 -0.200185439272632 0.182246186783136
0.140012862526257 -0.198158625220477 0.185752805442157
0.13637284022881 -0.200354891854528 0.191813127964348
0.133038022800277 -0.19879388112079 0.201115193791602
0.131514478368142 -0.198454433270533 0.204579307345937
0.125845689375928 -0.198802336693341 0.212811079184172
0.118584803389402 -0.201264924744929 0.222220851614325
0.116725859707173 -0.202885570005484 0.224073295711053
0.117936208743491 -0.197364295138222 0.22537795337185
0.110579591606799 -0.20668270737062 0.231148556458659
0.105338349239731 -0.20693393613006 0.238479597337436
0.0994038923945801 -0.207065135418593 0.245758978032595
0.0991912167269456 -0.206751165335604 0.246136403281376
0.0918099429751088 -0.201332871962276 0.257211549958815
0.0861838335777459 -0.202881119278291 0.263612249479839
0.086749183426077 -0.20001814802797 0.26382247626491
0.0781086445835107 -0.206297786704858 0.267030921209581
0.073882288633866 -0.20212952338266 0.270608762797831
0.0604670679115705 -0.201909502818438 0.276079558462505
0.0437905822846104 -0.211599033046868 0.2750422628265
0.0391219431058689 -0.211304678893978 0.275815555469785
0.0282872173574461 -0.210689794331954 0.277575549733282
0.0196367983152363 -0.205528735600034 0.280804680220256
0.0143864721904919 -0.211499818892724 0.277940939970704
0.00882784555470264 -0.205243942971466 0.281451888938158
-0.0139116329300636 -0.21343075431076 0.276314987899987
-0.0192760988101495 -0.212311503326942 0.276310382510083
-0.0301913293003351 -0.208784101929089 0.277106002374782
-0.0590418218556504 -0.218516668373846 0.270842203021325
-0.056568837993253 -0.211019397794118 0.27518681892826
-0.0842670447099006 -0.214511268491115 0.261956630531251
0.155578331692978 -0.18488823079467 0.147948244914606
0.153717532242072 -0.188671421246837 0.153796498276439
0.151221958575532 -0.191866675962858 0.163123255142258
0.150950355883497 -0.185642477383394 0.172716280389655
0.148111221474983 -0.19163615631659 0.174116830370067
0.146814545652685 -0.186391448352006 0.182470949497324
0.141389535510924 -0.193307142162716 0.187680512702629
0.139234688356599 -0.187627923342631 0.198592784920075
0.134744594695371 -0.188962699309466 0.20511347264808
0.129135719449517 -0.193660741424754 0.210810581592958
0.12876046086204 -0.186763454844116 0.215358739234492
0.124846187143373 -0.191696163994609 0.21829196495655
0.121032082674018 -0.190841925190536 0.224670367722953
0.116388777933898 -0.189860086945154 0.231619763908303
0.110110513349152 -0.192507764151453 0.237569677117678
0.10858238646864 -0.192197179094218 0.239491323794685
0.102481082834699 -0.193636476960661 0.246522413239906
0.0995762810588742 -0.1940742560999 0.249946723455244
0.0902588446265686 -0.196431456550823 0.260634616915016
0.0853671167989777 -0.194126738098075 0.266315216890768
0.0800212173665019 -0.196100245675196 0.270944537031152
0.0784594700705993 -0.190145140905782 0.274111166437712
0.0666498157072122 -0.195975707954615 0.276276086388905
0.066904183956853 -0.199999461995789 0.274357363149478
0.0545189109642391 -0.200643059426499 0.279028850398473
0.0498795560447995 -0.195682684649734 0.282728754560498
0.0345424777145084 -0.19902172258413 0.282764973776371
0.0248999943726663 -0.195972469077309 0.285307446586268
0.0133846743501137 -0.194783953124941 0.286079862156323
0.00157895010883085 -0.197106001727799 0.285650356053396
-0.00377476791553363 -0.204406760841666 0.282040469519786
-0.0148347282038235 -0.198374526643387 0.283942560681572
-0.0256499768667502 -0.198318173356993 0.28280410298169
-0.0458510164734042 -0.199942913237983 0.28154068585996
-0.0499447481112382 -0.19881345393951 0.282135590507278
-0.0734893317684849 -0.205365072179124 0.2721587403678
0.156608156658866 -0.184925115731698 0.141757070748138
0.155713289065215 -0.180935372084486 0.152625093598231
0.155278357419523 -0.177620168546633 0.162651350466258
0.151472161105206 -0.182918733322274 0.173077456111358
0.149869503012396 -0.185091030753201 0.176293020804971
0.148704311234511 -0.183522395463211 0.180829119681071
0.143167190445461 -0.181103595527352 0.19640246898303
0.140477524469293 -0.18265867845791 0.200134802439606
0.136036382082709 -0.185820141352539 0.204959777133948
0.133440484040374 -0.18135912150911 0.211688344012638
0.128604526876736 -0.180650054472356 0.219702440596514
0.130125797738233 -0.178786498113587 0.218581022285948
0.120227005916889 -0.186286519577159 0.228727328537743
0.120128824696498 -0.179483246601974 0.231429021838999
0.108954304928493 -0.187178657688018 0.240882281167169
0.10618854244532 -0.181031224090086 0.246290839418456
0.104074791955467 -0.185775846476446 0.247009958682212
0.099388268108795 -0.180502646908407 0.2541060800289
0.0931612332383694 -0.185032743532009 0.25978162125295
0.0889354065038206 -0.185915952750932 0.263998103197989
0.0838827999515847 -0.185570599700948 0.269272931349359
0.0797807660027464 -0.188004666916156 0.273103292030738
0.0745804713180312 -0.182250459608075 0.279431459316363
0.0707861973153938 -0.18407111175256 0.280182285236927
0.0599875353559255 -0.18161546078913 0.287110201839893
0.0534652346647699 -0.184496925727424 0.28834652075095
0.0371215210369689 -0.184155196026385 0.288465188399418
0.0375120144692236 -0.187318884133206 0.287364285043353
0.0211314475334133 -0.184176830965959 0.289506993956503
0.00945666097568707 -0.188979033212908 0.288182735511837
-0.00885459846799802 -0.191271159026645 0.286995303083867
-0.00791218177858967 -0.187128456635048 0.288492411583506
-0.0256332590087218 -0.187594896808678 0.286850972894152
-0.0350014201925732 -0.195398237303779 0.284213597395315
-0.0572974816383926 -0.192860514118221 0.283655842490416
-0.0718216748593712 -0.191053274928566 0.279531248868705
0.160284131873379 -0.167444536182543 0.146857306309379
0.158386118500128 -0.171354175226548 0.153604267535338
0.155974468057483 -0.172343264654462 0.167167515636329
0.154988005334683 -0.166739843400499 0.174210648623134
0.150466577345559 -0.175120095309263 0.181492722674169
0.150311971480477 -0.169793692304356 0.186192235700759
0.147799281748627 -0.173420050280852 0.190774766725159
0.14263132016253 -0.172161948531525 0.203061919027919
0.141625046479356 -0.167051087333898 0.207164974532081
0.137730866461627 -0.169834778024385 0.212730395154694
0.132156525371449 -0.167441172454956 0.22268667613596
0.13226731545325 -0.167672434913252 0.222475734574902
0.125199522032426 -0.175464748837601 0.227340056397446
0.118104738027511 -0.169480604822353 0.237625785407946
0.110805315448051 -0.173837236710276 0.243995319389398
0.113117429487556 -0.176037886353068 0.240513738037269
0.101859081973708 -0.178239342098452 0.252034247727166
0.100848765910659 -0.17629665054149 0.253359835810824
0.0962786136482655 -0.172726708601506 0.258301210353528
0.0862613991112562 -0.177861832831957 0.268046987474254
0.0849528893601143 -0.177592227169579 0.269431442140387
0.0768255745841462 -0.177885449060561 0.277797350091065
0.0762520297849869 -0.179372265784397 0.278184770758053
0.0693746475154711 -0.174170991535836 0.284219684854281
0.0586482404822518 -0.179660334412713 0.288168949640452
0.0522497261688648 -0.177087955499748 0.288669584137813
0.0452159672260401 -0.177193944632064 0.290458789901909
0.0308612297149495 -0.182471112319802 0.289473487274088
0.0264480066282191 -0.177564648661865 0.291446495991996
0.0108604948948296 -0.175877339920079 0.292643704234691
0.000626004164151644 -0.178899401895804 0.2918960127981
-0.0147364665061165 -0.179874354751306 0.290351283613119
-0.0220664939917322 -0.184704678961368 0.288044915035229
-0.0397819158964104 -0.181862800945749 0.289359736246675
-0.0367548931282458 -0.180746935239438 0.289662851863851
-0.0523488560276821 -0.183815306261542 0.288482738996257
0.160337858256248 -0.164139732965204 0.147759377736757
0.159808815345069 -0.161781900887362 0.158551309613684
0.158325777859703 -0.158622169696059 0.168697475212457
0.156417408626402 -0.161462821917478 0.174608163369352
0.153441121185601 -0.161759382785477 0.183774168367818
0.15226858998621 -0.159427459199908 0.189674186530806
0.148624598495511 -0.164378726694924 0.195054333006744
0.146342229589315 -0.16402088286076 0.199531667019067
0.139500365059208 -0.166050134767867 0.211620034046339
0.138669862365948 -0.161345366752091 0.2152843381228
0.134663217683833 -0.1629118623552 0.221668113527295
0.129696018762422 -0.16427631977051 0.226751203924204
0.125304649105023 -0.163559788121586 0.232062964692826
0.124530064483164 -0.165009382364234 0.232301120104283
0.117416085762468 -0.161970649855159 0.241738792356026
0.109425648391188 -0.16117109931343 0.249814489301548
0.108612815868617 -0.163325019305677 0.249974841279709
0.10071716469869 -0.165301142709936 0.256151376291684
0.100313115795759 -0.162482288869942 0.257179305119714
0.090112511029619 -0.166229711579471 0.265444343245052
0.0869523352162775 -0.164280625811941 0.268941694709962
0.0821889538378538 -0.166890850005991 0.273556056292097
0.0736543887852824 -0.165875457719218 0.281110354824497
0.0743708845788569 -0.167648760755666 0.28048124827775
0.0630458923112957 -0.168001261996454 0.28787290426245
0.0509836049436986 -0.168776242927067 0.291167689808525
0.0495993321029298 -0.16854051024332 0.291645245445944
0.0398543386287801 -0.163075036730192 0.295816954951948
0.020686691811343 -0.173535894832288 0.293202231951796
0.0164515709825572 -0.164917468205097 0.295751333421133
0.0101880837089481 -0.166255421583316 0.295576730144426
-0.00759922079767116 -0.174304610797532 0.292892380289223
-0.0217585306309938 -0.167298452879759 0.293991373673386
-0.0208606571515112 -0.171427348190665 0.292679834993558
-0.0446345511468174 -0.168330698321116 0.294834091971225
-0.0525578685844753 -0.176203658824613 0.292113746905616
0.160454518335751 -0.155400681128959 0.150699973971668
0.159657443950968 -0.154550605036179 0.16216358702895
0.158498321158208 -0.156119000841738 0.167838803799029
0.15740205166895 -0.14912654774156 0.173154461892052
0.155629577554861 -0.149218604514715 0.181818626580743
0.153556437099957 -0.150243419243171 0.190402834972746
0.150524299205129 -0.147195403019342 0.198415015342664
0.147458724464945 -0.15514369482889 0.2014631081549
0.144947377526296 -0.156267140872866 0.205764316700991
0.143101607129214 -0.150289347937549 0.212616690634604
0.134551032529293 -0.156279562735728 0.223624049506254
0.134063596023191 -0.152163587689088 0.22539654824077
0.129716178897438 -0.157246213793546 0.229825443026813
0.122164447081749 -0.156099011203552 0.238942176131419
0.11992107889448 -0.151553187237283 0.243308567560793
0.113671851137859 -0.150877865814815 0.248762698513012
0.106531284191211 -0.158796066489945 0.252834267155759
0.105883039085135 -0.151535488508673 0.255232381303741
0.0935673161553594 -0.157013272296534 0.264207463269226
0.0929573842211565 -0.155458303043786 0.265168322722342
0.0846238095935674 -0.160206324549845 0.271457735792822
0.0784904711240797 -0.156160620321284 0.276826378620496
0.0764966108100502 -0.159964378985349 0.278606463911708
0.0703009018828163 -0.156794681392672 0.284054322676939
0.0653573140685557 -0.154323185356462 0.288401234093243
0.0638244699053045 -0.160948780536405 0.289716704260789
0.047276808431708 -0.15325926189485 0.295813385506535
0.0458825993227712 -0.158240943248398 0.295438019257665
0.0284319744620367 -0.158223969248176 0.296880709809434
0.0129756761092253 -0.161106387698201 0.296499404260384
0.000103093129416214 -0.164735211676363 0.295977438189004
0.00231735627141913 -0.158914483565084 0.297031495973588
-0.017513944200258 -0.158891976508928 0.295828809637702
-0.0275085589772577 -0.161327177486292 0.295801662973158
-0.0337370579583946 -0.157274213358647 0.297250668720608
-0.0500713105547471 -0.166263698378822 0.294101780784653
-0.11038497921441 -0.161846526361173 0.255460188870591
0.161409423667381 -0.138341000973289 0.150901560806556
0.160094075368736 -0.139056896843322 0.1599346667938
0.157569572148199 -0.144012111062427 0.172304376130047
0.157002075342647 -0.139477049779548 0.175597922991755
0.156772610884953 -0.143695737189002 0.176410086812498
0.151213995867835 -0.14563268253385 0.196307318448326
0.15062644883316 -0.138095036502955 0.196981554532597
0.148585435446274 -0.137937610355709 0.202614260748123
0.147219483585711 -0.143873855322415 0.207147797248533
0.1424147324813 -0.14345556989391 0.216601515486775
0.139896252107518 -0.144514567505661 0.219680577352025
0.133216873940374 -0.146297572251547 0.228125967456218
0.126659419744649 -0.145530945752096 0.237237903111768
0.126925885797419 -0.139392597786428 0.238952033515713
0.118422238911223 -0.14741675076008 0.24568206702108
0.113576920106539 -0.147907374400493 0.249683721507282
0.110438358506232 -0.146418070379725 0.252786755838798
0.101282976439123 -0.14828775140951 0.260081479378282
0.0953638880248075 -0.144865857579473 0.265538403239518
0.0906285542159187 -0.148753941370664 0.268060582586496
0.0905371668360444 -0.148945048572264 0.268094081160287
0.0758138101921387 -0.147235166972563 0.278802263017573
0.0779925400023492 -0.149740375231326 0.276978780210038
0.0659811144496461 -0.147828084714262 0.287569600726141
0.0663255712706106 -0.148764250348961 0.287305722861318
0.0587460900136414 -0.144165551205394 0.292774077933835
0.0559197437929046 -0.147639913042691 0.294794460689903
0.036508941141853 -0.145457587373309 0.29908464068611
0.0292608921102886 -0.152851861034749 0.297883043780825
0.0104661330516609 -0.150136862574426 0.298580695114404
0.00583721217463942 -0.14874591886442 0.298876987517053
0.0035518405040423 -0.1483406054143 0.298979077694148
-0.00707004347751776 -0.152798222036426 0.297735138700476
-0.0239313852902959 -0.155689912212278 0.296657711565001
-0.0284409725331555 -0.147573086928778 0.298841012945902
-0.0522778346007428 -0.149058679054604 0.297402487954844
-0.0947531333616015 -0.153414444362381 0.270502496194628
0.161466476584356 -0.129830919142033 0.146643648038788
0.159925409188107 -0.131381218371173 0.161235048631959
0.158375756200241 -0.132337819290693 0.169142176172948
0.157715455492223 -0.128120164632343 0.172918282617503
0.154381008575965 -0.134258770303679 0.186098241220737
0.152756261755972 -0.135795461677927 0.190792279199562
0.150171099979664 -0.128655297567418 0.197213867547177
0.147314331607003 -0.137904893966422 0.206136672815593
0.145806120400541 -0.131097831966016 0.209662024772417
0.143105018424367 -0.135827667121387 0.215650418308456
0.136842460157914 -0.135161511632935 0.226927021080188
0.136186955846605 -0.130750220871006 0.227617033646633
0.132072707782743 -0.135972487782178 0.233124847560227
0.129644240854882 -0.134989127186536 0.23675255146488
0.121668897720869 -0.132153419550289 0.245282043360991
0.112667819249285 -0.135163452051048 0.253622472650617
0.106661449568266 -0.138052160432413 0.258379618190998
0.106465535685816 -0.130780623160671 0.260187176228143
0.0980381405807643 -0.140191474803977 0.264438111903742
0.0933599908823335 -0.137212441119901 0.26782161586393
0.0892987583125002 -0.14067470038691 0.269968055698504
0.0761907573601767 -0.137369262216635 0.278789270885487
0.0745376932653621 -0.134451069952657 0.28028862472949
0.0662995216749676 -0.139503540709443 0.286343693707145
0.0648173812232953 -0.136131170423239 0.286954010623018
0.0591165644266155 -0.135205915943089 0.291131962455411
0.0540875264697048 -0.141656183772324 0.295921774546653
0.0449603435481169 -0.135903365580773 0.298668955538875
0.0394843843026236 -0.142972749995644 0.29879947006113
0.0156205737880899 -0.137078487102029 0.300956439866272
0.0178994146522839 -0.140203078243872 0.30039955061648
-0.00827462847997128 -0.139549081135069 0.300097481812251
-0.00221314385635305 -0.135407846319764 0.300810962423159
-0.0230206747516808 -0.145821375584426 0.298663174427808
-0.0310933992185094 -0.139621262921065 0.301050284598326
-0.0371101294161782 -0.14116283948505 0.300913841301256
-0.080539774732141 -0.143062685071068 0.280855366090995
0.160693222230686 -0.125400912512773 0.148092214631915
0.159185876729655 -0.12429580863831 0.15983997010189
0.158801936486949 -0.127023335459421 0.167411987617745
0.157465041593061 -0.123516585089355 0.172956308203583
0.156708949959872 -0.126712226617385 0.178232518003539
0.152644819959458 -0.127753417562759 0.190151351219824
0.149041700010208 -0.126528330080839 0.200201193944456
0.144956550796947 -0.121940742293226 0.209458345172589
0.146015141101634 -0.120179073960445 0.207129470539538
0.141271645587882 -0.121414700085047 0.216259507202362
0.135767034155745 -0.122691854433468 0.226857243440871
0.136489434913895 -0.120512738859313 0.225094513636642
0.129674118500493 -0.121201469513444 0.236523701104933
0.124918553301548 -0.120719062892146 0.242877784275208
0.11943959093958 -0.128099177878629 0.248244808626402
0.118029866857549 -0.124307718297308 0.250408301127844
0.11285868118893 -0.128357734989315 0.254679947964653
0.101329210231176 -0.130163030789111 0.26372436605577
0.101019403388713 -0.125974068602602 0.264468281013771
0.0968800558140177 -0.121642927477919 0.267771447463554
0.0842507534782864 -0.123983158972318 0.275678631599534
0.0826325452248226 -0.128632234435288 0.275990852197913
0.0755232335331929 -0.131482819480797 0.279917518132503
0.0699455136201345 -0.130866950274528 0.28257345299894
0.0608856982122283 -0.122447449071937 0.287437440414201
0.0566159606266925 -0.126211615360036 0.291480167642775
0.0517875577989262 -0.128209287224361 0.295611240481345
0.0413630985769799 -0.126199233521967 0.300483434481768
0.027726660038449 -0.123671392951977 0.302163689029306
0.0160976560541949 -0.127687221775969 0.301412043481361
0.00480309993807108 -0.133223330179254 0.301011909176122
0.00220778777544998 -0.133102009280429 0.300999523322435
-0.00656214356802284 -0.132031862759309 0.300674098236768
-0.0226319460146945 -0.135356412790744 0.300936015350075
-0.0388908218856775 -0.128858229852377 0.302269159505446
-0.0404796643086033 -0.13147333627896 0.301900972843595
-0.0821622420679041 -0.134668277747507 0.280714095810738
0.157615455164044 -0.110874969700617 0.148559725853386
0.155881711367644 -0.110699503411977 0.161219666595224
0.155903839884101 -0.11238708928345 0.164148966389478
0.154124105303749 -0.1111190924276 0.173235709028551
0.151114406990007 -0.109387484685358 0.183179454498282
0.15247461618434 -0.117869316458328 0.188577946721737
0.147215889594644 -0.110017053677976 0.199169553628776
0.148518518219808 -0.116112414392957 0.200704166679407
0.142250405891988 -0.115858380060943 0.213377360382273
0.139706308802331 -0.11829679469956 0.218622206575369
0.137093860881674 -0.118714426344307 0.223624239916237
0.134176568702139 -0.110645343114124 0.227640067836074
0.130222423861216 -0.113956021429306 0.233969051301589
0.125311705409957 -0.115100930144848 0.240940477463049
0.122158400997891 -0.118759789757242 0.246146645826545
0.113146518766863 -0.112590547974959 0.256047592729133
0.110643139105427 -0.118327568831275 0.258077034667207
0.106857006786631 -0.116175468213185 0.260966744034233
0.103560171814818 -0.117845540830307 0.263225261197025
0.0927438065518075 -0.119953834732404 0.270847057050282
0.0893842872675071 -0.112078993672376 0.273826123501578
0.087237711217612 -0.121275968724575 0.274181601998299
0.0727058455588462 -0.112346770410802 0.281906072831332
0.0643266747240804 -0.119821976700441 0.285581572575739
0.0657904327706232 -0.113228267859587 0.285125479316371
0.0572329966885562 -0.114043203415987 0.289123161633546
0.0475972492897094 -0.121277140305353 0.297261646935921
0.0441224207767269 -0.120447066814032 0.29929317623067
0.0376948712704243 -0.118703109329597 0.300897457136504
0.021841420031437 -0.121070720653068 0.30198360613149
0.0069255385797144 -0.123313204586273 0.30140183842665
0.0057515291377868 -0.119696515128796 0.301532298419263
-0.00868923794623675 -0.118072306830531 0.301069321666837
-0.0205062104612388 -0.118236963967059 0.301866448297884
-0.0311800336677474 -0.119062323929133 0.302865855848435
-0.0629487269248054 -0.127263246647008 0.291586454487982
-0.0466573912904607 -0.125162069089708 0.301752637031648
0.157273690630643 -0.105365131565074 0.139370163012358
0.154385256870611 -0.10289929714444 0.156852440117448
0.152973505995078 -0.1010542846574 0.162778670761176
0.152172088439585 -0.107907305647126 0.177001272069531
0.150792057648061 -0.104269625164578 0.177907000398945
0.149652106506691 -0.108667030259761 0.188166051426985
0.146178616043302 -0.100529479541268 0.189900698003814
0.142183824509751 -0.100529113707605 0.201986393088684
0.142197815820048 -0.108134977830553 0.210540966521722
0.137546106313476 -0.101999217971566 0.215737023398732
0.136525380676113 -0.108353285583775 0.222790309419305
0.133513565226928 -0.105680455412064 0.227423089165496
0.12705443679649 -0.102133598382773 0.235331733380661
0.125741513173596 -0.110172517749669 0.239125390898297
0.121378131493966 -0.108276310233901 0.244592710066995
0.118393643407148 -0.104602688676882 0.247739164765319
0.110840150029863 -0.10174993764806 0.25514985042898
0.111101533141415 -0.109583176834703 0.257225197069893
0.101294259670725 -0.105013051014841 0.265816842970522
0.0975318897136689 -0.10295233886778 0.269020982216495
0.0923139959206855 -0.104842115683941 0.272297733467403
0.0864793886599882 -0.110357391413983 0.275324347143153
0.0718484966015166 -0.102762548187561 0.282791764614256
0.0714947474493741 -0.104013885380368 0.282895902361889
0.057226707357708 -0.105854352939366 0.288839225528316
0.0524535911295831 -0.107774458113349 0.29050969751566
0.0522958044085421 -0.112019545913902 0.291416911045886
0.0436093085655049 -0.104454750242728 0.294762440803882
0.0355297223039506 -0.106743958970436 0.300844618126771
0.0265900126828638 -0.108783059575236 0.30222078586735
0.0102317483544432 -0.106509131443211 0.302098417223026
0.00535141374605317 -0.107330169583157 0.302030938891398
-0.0151942042650737 -0.105783221832127 0.302068698214164
-0.0182498723850926 -0.107578012976625 0.302462086217832
-0.0346257242585247 -0.115416418977791 0.302647669533682
-0.0358243344875096 -0.113559600397244 0.302602560468405
-0.0735097051618021 -0.109957118032317 0.28547075728731
0.156138765247811 -0.0916007441638246 0.14108752132915
0.154035347850417 -0.0956635178339752 0.152251921651455
0.152302759421214 -0.0958594211719469 0.160637042561042
0.149415329588829 -0.0985904697046128 0.175601873395877
0.147349522537662 -0.09548871110009 0.178782295359145
0.145038399381801 -0.0949450844421269 0.186350213913511
0.143841800082713 -0.0955305855486067 0.191456464420578
0.141193315316173 -0.0941583000615002 0.197372537731939
0.140553096642094 -0.0949655971720948 0.199953394716412
0.136206451091252 -0.098233545806774 0.214709232421467
0.131144667118249 -0.0912386186926607 0.218330931457186
0.128069995453667 -0.0914061342666424 0.224266322088683
0.125342722867223 -0.0921649647412605 0.230185302525108
0.123179584607459 -0.0915089820402466 0.233531460205949
0.119244941979399 -0.0952330327272883 0.244241891587728
0.113931871618725 -0.0971497128713067 0.250636197414206
0.110258477953679 -0.0970756248625995 0.25434364223141
0.106020229866984 -0.0995179702989974 0.259376542246822
0.100456892853108 -0.0998310574891522 0.265118106397567
0.0932689777052334 -0.0977779369278803 0.271025752937678
0.0936197207103263 -0.0939201836752043 0.26942744785076
0.0809661613227479 -0.0939884934432988 0.278277795586554
0.0715117339585858 -0.0987811510627124 0.283038791848042
0.0687330504437008 -0.0970891394371816 0.284493303233677
0.0565548608213459 -0.10282625929412 0.288880229620251
0.0518010283463032 -0.0957178869183947 0.290013037000007
0.0466032532626182 -0.0942949779936339 0.291625321252878
0.0406548817434546 -0.0948582176560415 0.293599419567603
0.0328997277485449 -0.100087263934317 0.300577784955502
0.0171601919859574 -0.0950339200977141 0.301762589851768
0.012429979335711 -0.0956551314046077 0.301308127954349
0.0109264323421118 -0.100577733560315 0.301614811434319
-0.00756272680929426 -0.0952649164005151 0.30026335166793
-0.0177587449877706 -0.10560900212916 0.302559130062239
-0.0367993690100119 -0.101230171224066 0.301227204038718
-0.0639179920279082 -0.105777684452537 0.289921231667242
0.153692816111677 -0.0883754670648955 0.152023631964357
0.1537029367872 -0.0817823297254036 0.150277773549436
0.150060186708491 -0.0813734316627543 0.165486537421959
0.14999424614406 -0.0835705157587611 0.166244381860527
0.145697366661014 -0.0847148930882601 0.178576742642021
0.142830117882963 -0.0814129830055333 0.185745347301295
0.143559386980018 -0.0843137529441623 0.184459708240866
0.138354300438014 -0.0892123404019481 0.198501807961766
0.13593000711397 -0.0860510349836601 0.200995642122442
0.131935558322302 -0.0885577582064761 0.213266811929495
0.129217858158224 -0.0859598278350656 0.216278767262276
0.123932496145747 -0.0830228703030224 0.222560548612163
0.124001333270584 -0.0895595830670027 0.229903275583821
0.119905688720963 -0.0898892127896673 0.237716992140235
0.116065580593531 -0.0911937852500991 0.245542290207583
