ply
format ascii 1.0
element vertex 829
property float x
property float y
property float z
end_header
-0.0697468374321301 -0.141087193029041 0.211824107516942
-0.064323138797254 -0.141866676384912 0.221302623025833
-0.0593497698832248 -0.135583876196333 0.22423676273455
-0.056421983394418 -0.136061938445928 0.228688440775628
-0.0501305205182156 -0.140181502643681 0.238412199975286
-0.0435479677119028 -0.136738590004661 0.241122847821479
-0.0363805372801521 -0.134275642567273 0.244482136665082
-0.0301261571411918 -0.133876981875703 0.247968640060216
-0.0216572616691818 -0.139853040019811 0.25479759359601
-0.0132505017674568 -0.139219037549965 0.258304839968698
-0.0161464041791039 -0.141159023868764 0.257762789008768
-0.00582155558356803 -0.138762035549033 0.260400889210201
0.010201046981638 -0.137769199046944 0.264920484943703
0.0134612235884601 -0.142667454229378 0.266636237349839
0.0284789732946321 -0.140302160759065 0.270538958986373
0.0336652201574724 -0.141656783978448 0.271587473611134
0.041830673275744 -0.137716200483022 0.272417083188236
0.047575735641028 -0.146193513413136 0.27452194243717
0.0625610079232981 -0.147353310153738 0.277179122629104
0.0644587738712572 -0.144847109735004 0.277150324836081
0.0866194865938471 -0.141402451691827 0.279878616964359
0.082977498116576 -0.146948920343949 0.279927020226341
0.106560048104896 -0.142580808620784 0.280516204322868
0.108718902307706 -0.145971726559277 0.280717671078216
0.120082368340081 -0.14130017075662 0.280836736534941
0.136329446781002 -0.147161237986594 0.281391244188335
0.153962002813659 -0.145363848954977 0.281478509119447
0.161480249894109 -0.143501991834731 0.281407128229814
0.177917942296995 -0.15064624985247 0.281651878974591
0.19084330471281 -0.144634141843414 0.281172646530319
0.204576898056572 -0.148416249378606 0.281033015467308
0.208030670081764 -0.154916440141059 0.281228483542646
0.222002378955954 -0.14672136155775 0.280451883746212
0.239280135504221 -0.146100479063613 0.279849975820948
0.249036258345537 -0.153018239139502 0.279414875117212
0.277883171300634 -0.14910280067537 0.273942841674142
0.281807108622948 -0.148684571183632 0.273211620277056
0.293156896747949 -0.152684070359536 0.271614868718388
0.313686613286701 -0.150937985768879 0.265974444126612
0.356517995855694 -0.158264920083223 0.250199849417909
-0.0954080610596335 -0.126970166970826 0.0815952359137906
-0.0933214027363457 -0.124526348723855 0.0921117563980585
-0.0919987955646069 -0.123130519997146 0.099398528431057
-0.0934463739339996 -0.130457361147142 0.114935503203117
-0.0905381204057332 -0.126367816303854 0.126821535157742
-0.0909334679518832 -0.128613706389684 0.132057602909941
-0.090469838729635 -0.128622590983062 0.136631772777686
-0.0883038164093562 -0.124705599141048 0.141952221545162
-0.0881945192591884 -0.127037833727799 0.152477988903551
-0.0849956682938496 -0.126779104652907 0.160783426768694
-0.0785834548667207 -0.124646750104698 0.174110286250295
-0.0775964921734295 -0.12485993128469 0.176702075697828
-0.0760628873517775 -0.125036292738328 0.180574715009495
-0.0720020162610978 -0.123469419184567 0.188798545461671
-0.0699589166123988 -0.128467719636255 0.198713523610165
-0.0687126159698879 -0.128794243034882 0.201966292807787
-0.062331712962302 -0.127166134570228 0.213151198694957
-0.0607046265101632 -0.125568950092062 0.214788961819797
-0.0576954708446121 -0.123700508807427 0.218054783429922
-0.0518053391566241 -0.122920580038592 0.225764286105116
-0.0456560723732768 -0.126274336657853 0.236187182712601
-0.0453033793928326 -0.13181075290517 0.238546035448198
-0.0335303651500206 -0.131189310376988 0.245149804887741
-0.0284428403444051 -0.127273948695623 0.246846999985505
-0.0247835460719291 -0.132447000031921 0.250601382373559
-0.0172923958614596 -0.127456274250646 0.253452383517934
-0.00877610103618416 -0.1320557059305 0.258492070386163
-0.00270031031179772 -0.128939880302164 0.259778305432647
0.012752423434072 -0.130420227210329 0.264517697700535
0.0120899803498926 -0.131830131569187 0.264544511773689
0.0297156482823056 -0.131929611164065 0.269244723798292
0.0363288044912096 -0.129572322131381 0.27038555599582
0.0370011098120311 -0.135269195054092 0.271280374814668
0.0520448334999817 -0.128016264013598 0.272809769808702
0.0587529598658203 -0.137345454737289 0.275190508181235
0.0693049984236793 -0.12951642876655 0.275782305814363
0.0795678392874596 -0.136433733809126 0.278339941398885
0.0946569597967298 -0.139097363348037 0.28004131690675
0.099805207078415 -0.129638382978951 0.279752446139093
0.108573990857352 -0.130765640274172 0.280078019207789
0.115354367098025 -0.139105427795467 0.280614202347453
0.130912427958091 -0.134892373793711 0.280718812493551
0.139477438458145 -0.132302839821665 0.280731242209098
0.170496906581437 -0.138806038383996 0.281142677542629
0.165790942036522 -0.134313637850148 0.280957566463773
0.175460059664829 -0.141087709908981 0.281204915338874
0.200155888962131 -0.134715094027325 0.280517608214627
0.219714590965953 -0.139086575761067 0.28024081437297
0.237018341121186 -0.141255104882776 0.279566224849525
0.231943143994987 -0.134710792684355 0.279249160900873
0.259119511125271 -0.140642807458515 0.27614544192902
0.273988056430362 -0.136830085090673 0.273080318079736
0.283255759629755 -0.137831128967934 0.271595950904077
0.314157967668579 -0.148355091265056 0.265548282501689
0.346082595747808 -0.140989195795294 0.253479103120386
0.340786450980182 -0.144091994399231 0.257239538964272
-0.0904931280080637 -0.116548869971122 0.0874514902629365
-0.0901234744494227 -0.115357166896632 0.0862380721476475
-0.0902639871253965 -0.118517895210164 0.0976777107361013
-0.0877641302406182 -0.114160940637089 0.104482028861848
-0.0882900720542919 -0.120517041759709 0.125104451611648
-0.0883521961616455 -0.121157297948787 0.127092249287432
-0.0858250856842547 -0.116571733406192 0.133236445994113
-0.0845086171972552 -0.115322636235675 0.141058046683318
-0.0832491694804284 -0.119750270342716 0.157975488502168
-0.0836716193525062 -0.117181394334142 0.154392438475521
-0.0779486669069076 -0.117245602093561 0.168250989714932
-0.0735416579468357 -0.112489090789899 0.174124578660855
-0.0736384604874207 -0.117829952844279 0.179223612541259
-0.0708197712514864 -0.119995203411207 0.188179508164554
-0.0687347538240699 -0.122037650498836 0.194980559280355
-0.0637147148063227 -0.118374151269966 0.201332351995541
-0.0615921180792865 -0.115949566799676 0.203118567689241
-0.0534340401996519 -0.113068867900123 0.216428050117986
-0.0532049769839132 -0.118169573391641 0.22039976049694
-0.0456133542114165 -0.113058254377277 0.227332796929783
-0.0428685058430981 -0.118853470447593 0.234607984209154
-0.0391305601539827 -0.11884800770386 0.238000953113283
-0.0340779770880906 -0.120862379930532 0.241558470893961
-0.0261940605887524 -0.121689770820039 0.246375119039622
-0.0191462531446597 -0.121229448949157 0.250376579380966
-0.0111160925162804 -0.123667423064449 0.255913486652855
-0.00213255008534448 -0.117820148895971 0.258208198664043
0.00159942028866873 -0.119921453948148 0.259625002442991
0.00725928611214157 -0.123272057658398 0.26179927829883
0.0176505956268929 -0.125180713021034 0.264991200494302
0.0317170587456551 -0.121402108803648 0.267660671161004
0.0286130670612818 -0.124802685063283 0.267576200339681
0.0434009687097593 -0.12149386151777 0.270485568770214
0.0559915617330167 -0.124252483970837 0.272959373813607
0.0586139432077384 -0.123500166881134 0.273282726303014
0.0744874304114859 -0.127035586140914 0.276246434105459
0.0837101387807603 -0.127850569926646 0.277554109471388
0.0951642160322011 -0.124024821077152 0.278242663038769
0.099754166806305 -0.125343480105198 0.278998748183972
0.120164748812954 -0.12120546392107 0.279893861039755
0.12091421254296 -0.121287158651436 0.279909681076163
0.142059467655229 -0.120418819142795 0.28018797833639
0.146733028545107 -0.130336445282854 0.280700892608297
0.16312093939362 -0.122575546069103 0.280358992153032
0.180046633536303 -0.122305439364795 0.280230996432296
0.187398413165013 -0.130607228934913 0.280566200208276
0.194163584223247 -0.125557202053751 0.280241534541723
0.214691669742946 -0.12584654846082 0.279770355790334
0.220693042081905 -0.13418339511329 0.280023305410788
0.245430753383374 -0.126424210409597 0.276089535437333
0.260368539536016 -0.13296839275526 0.274960069767067
0.267502130617666 -0.130510531458152 0.273410180458947
0.296405179974569 -0.129548657837166 0.267285559870535
0.305772909811376 -0.137838430999693 0.266283562637801
0.338696196963189 -0.130714241523578 0.254517047211128
-0.0868116212417055 -0.104349285958428 0.0740246037202579
-0.0875605559892212 -0.109453761209407 0.0873896451911816
-0.0851957861984067 -0.104873402756362 0.0919659083650407
-0.0838626991761411 -0.103032533081945 0.0975508633825096
-0.0856695205913599 -0.10983257602308 0.107435577016659
-0.0814514214527825 -0.102598131846431 0.119391944399484
-0.0816345591634815 -0.106454651325277 0.133235407563949
-0.0820228878976526 -0.108470095790702 0.137605846982833
-0.0805078809890537 -0.106441497696059 0.144210354868388
-0.0799049824053269 -0.1100255631205 0.156326990230877
-0.0759680365067378 -0.107103309959192 0.162898891822366
-0.0718106018312955 -0.10726958245679 0.173085864844182
-0.0729188865910551 -0.107752349215666 0.170896484650444
-0.0690976814466482 -0.110199043384854 0.182087323924931
-0.0621698057363476 -0.102980910806231 0.188631679853613
-0.0593297246909258 -0.108012681267557 0.199523621980295
-0.0594583864901197 -0.106423493375782 0.197631778085276
-0.0521912104038634 -0.107398525444823 0.213276755280172
-0.0504272963051936 -0.112116534598274 0.219966930656666
-0.0439469949689559 -0.106378410731178 0.224876611138054
-0.0403552036416609 -0.104058729139642 0.227722561370531
-0.0329929713301243 -0.104536303499984 0.237007721613214
-0.030222445972821 -0.105397368186866 0.238881225882668
-0.022221193017799 -0.109321807135573 0.244773592046376
-0.0210877348709125 -0.10445633011112 0.243901791095338
-0.0137913885656608 -0.114088172040703 0.251286498968754
-0.00119571915925383 -0.109163386814346 0.257130228459521
0.00275957864426179 -0.109131685182536 0.258223867520145
0.00878430333052666 -0.108719126081627 0.259604263021832
0.0160741001932286 -0.107874031037443 0.261206513583986
0.032248959983989 -0.112355139297164 0.266011192149378
0.0299151434773453 -0.110094348612215 0.265000606439077
0.0446114603787974 -0.112491445727579 0.269036927001223
0.0517068888837053 -0.113434187555462 0.270781647634593
0.0692473248218586 -0.113070784604208 0.273160665067248
0.0743643893848206 -0.113011044068674 0.2737959143047
0.081319236810274 -0.116360189934089 0.275255484817329
0.0974765678867649 -0.112755241761046 0.276545595301415
0.104708749923134 -0.113052722856378 0.277426938045329
0.110550219550934 -0.109570544455627 0.277209515994907
0.130268109522052 -0.113120847759454 0.279254957766415
0.144429783052543 -0.118331155671638 0.28008996125058
0.161752246492551 -0.113472139428426 0.279896854288716
0.166549019686864 -0.113801578940005 0.279927663354134
0.170441299727881 -0.12159129872897 0.280293305680304
0.190986406969485 -0.115824664102049 0.279801021261861
0.194097626381501 -0.120925861429321 0.28002015708976
0.217933735789696 -0.12317227416489 0.278968927448409
0.229560004924647 -0.116469929004459 0.276610047467008
0.239955022406043 -0.12269271452319 0.276242769858792
0.26105730748821 -0.117575243831596 0.27253552472966
0.273841906052325 -0.121758545718225 0.271204107413536
0.286547419012453 -0.125421902129707 0.269019347814326
0.318196244395603 -0.126481431409077 0.260808800658884
0.324458600169614 -0.12599606936473 0.258963965799835
-0.0815979896997693 -0.0927978182168331 0.0782223894483685
-0.0832883443598015 -0.0982360244670037 0.0837256148677447
-0.0823222986047253 -0.0994148976507941 0.0979612571004789
-0.0800684891714748 -0.0947421087511674 0.101076650829545
-0.0817230096016615 -0.099063481320647 0.102402484572104
-0.0808845710857163 -0.102053059105313 0.122730481782554
-0.0775821324116048 -0.0955626843712076 0.128740872077735
-0.0766250390118252 -0.0951531857990879 0.136448909148855
-0.0757289323830728 -0.0951088209464724 0.145040405709657
-0.0754247501021549 -0.0987282303058427 0.155846660491303
-0.072081829904666 -0.0954412129018168 0.16062255517499
-0.0682757648462919 -0.096479134177786 0.169648858981364
-0.0636692914228242 -0.0935483927744661 0.175920090163241
-0.0637709150692022 -0.0957700774843689 0.177997681609567
-0.059554247394072 -0.100145653048403 0.190989320760031
-0.0566958549460727 -0.102525007914223 0.199193302942725
-0.0545306722928739 -0.100240350107725 0.201209077302426
-0.0491960565905548 -0.0942595408150896 0.205814140607711
-0.0485252459274979 -0.0998587539976603 0.212917956649195
-0.0430768914696808 -0.101846446085668 0.222890482356451
-0.0369905459481864 -0.100820079623373 0.229670355141409
-0.0358673357528947 -0.100922783557329 0.231118420951825
-0.0287792228902834 -0.0980712467487892 0.237391577977654
-0.0212366712961887 -0.0995752605591861 0.242264374375683
-0.0154288582084114 -0.0969348029744614 0.244871361444088
-0.0135162599355715 -0.0983535426596024 0.246456097575393
-0.00509804881630786 -0.104759530364707 0.25348248421744
-0.00167977685264494 -0.103947166051306 0.25501620343692
0.00794562477484166 -0.100985255757014 0.257695060707998
0.0192180203629921 -0.104214296875568 0.261146987108962
0.0239923821879724 -0.0977334247527927 0.260833009552764
0.0358411659966538 -0.100363931293697 0.264288639054411
0.0532293914624082 -0.102902112690524 0.268894623508793
0.0571067006133792 -0.101934120234945 0.269361281648143
0.0748932876099758 -0.100778779124997 0.271736752393934
0.0786733729103891 -0.0976665247375717 0.27167280330582
0.0845149779646595 -0.107032989101519 0.274037687304341
0.0933481799399343 -0.102654284776135 0.274313247736598
0.10591484117826 -0.105409893018141 0.276018766316073
0.12217589273954 -0.104357837786121 0.276989079392122
0.130967695381813 -0.108742016427969 0.278434467648201
0.144387335657788 -0.100661523477905 0.27730696624739
0.147746006917071 -0.108182218891805 0.27892909680838
0.16014443299484 -0.107852592857429 0.279012651259309
0.179907876332916 -0.103885499951396 0.277828173873341
0.186203918776061 -0.10746134296293 0.278293925568485
0.19672486890103 -0.10398784155651 0.277142467293439
0.218333219437152 -0.11076557524162 0.27661903358362
0.227119466400964 -0.110401722813064 0.275730186517765
0.243056755043324 -0.107200479888917 0.273238419411537
0.259237529624038 -0.10793438394161 0.271172969698617
0.276850774715853 -0.108318310294101 0.268045813546451
0.296033064660545 -0.113648323989307 0.264462866920616
0.327138688694863 -0.111938715424344 0.254457067440152
-0.0811943413049523 -0.0902005947359849 0.0716431086843239
-0.0782400261560909 -0.084200407269278 0.0760014235355346
-0.0786704932923573 -0.089125975825126 0.0919903311703738
-0.0750244795366044 -0.0832443242385207 0.0968629756632685
-0.0767471842670023 -0.0868365553043089 0.101533935816881
-0.0750832862724566 -0.0868356318094225 0.117816945092703
-0.0759288708679962 -0.0891013961934215 0.118726531289498
-0.0748832059285229 -0.0900044192150323 0.132623089796171
-0.0705198724188278 -0.0831453489990767 0.134087704908785
-0.0744354589921959 -0.0922903688929999 0.146274049496268
-0.0693919146063356 -0.0895862209825938 0.160318654349255
-0.0642139175656269 -0.0860847850834509 0.166523519119527
-0.0634065967658209 -0.0869473901844035 0.169564561994
-0.0578041943773768 -0.0854090089636024 0.178717285177762
-0.0578056551408599 -0.091829974725391 0.185969930673087
-0.0502310819793229 -0.0858597408444906 0.195108237371162
-0.0508235950523464 -0.0868859330634943 0.194959667770443
-0.0471063662096297 -0.0886528507716337 0.204265036248279
-0.043077844867942 -0.0895981689302156 0.213353618463253
-0.0391956564005181 -0.0924160675557257 0.221299580585917
-0.0341622043589005 -0.0854445298848913 0.222743466921195
-0.0292149493129492 -0.089950996308656 0.231890562152525
-0.0261546498862461 -0.0893856386787434 0.235266360856668
-0.0197466031310484 -0.091657318131626 0.240635359686703
-0.0149431919049761 -0.0886647899780197 0.241737869177839
-0.0079944452364141 -0.0939757744470684 0.247465724174828
-0.000614078596493749 -0.0890526110583154 0.248733891434429
0.00500215287925336 -0.088144213182242 0.250992580872435
0.0148513227230368 -0.0857175723512294 0.254708362501981
0.0210515900978014 -0.0880735463942967 0.257937170594167
0.0338028766955996 -0.0911168579188415 0.261704083186094
0.0474768167036015 -0.0869342954355662 0.263804750678403
0.0482890754960441 -0.0961859680795247 0.266291396646342
0.0610980739315053 -0.0944166274204905 0.268193981932993
0.0677933546588302 -0.0947583327742301 0.269508486735825
0.0761850507562332 -0.0918164351799218 0.270304500017561
0.0866354227214864 -0.0888128836818035 0.271133169125767
0.0922177256700383 -0.0931447696830686 0.272506069852128
0.111013500902326 -0.0945263421910507 0.274228356236937
0.112400080553098 -0.0937674934781907 0.274182802615847
0.132703748004235 -0.0991514752825794 0.276650821736812
0.141789510061045 -0.0914489061063448 0.275281069480343
0.156049636583428 -0.0912970327899281 0.275516417931426
0.169864023892612 -0.0935048776785597 0.276004115575475
0.173204780703669 -0.094451311891408 0.27609236663149
0.195680800515981 -0.0930519553775337 0.274952896766874
0.204281105446475 -0.0914915736034893 0.274135786636351
0.21808935031601 -0.091870577978553 0.273002964004673
0.236618495655015 -0.101363092191754 0.27313498403818
0.251652065762182 -0.0992248081442608 0.270745418224508
0.254892284391187 -0.10143516692247 0.270676095608178
0.289431513958174 -0.100378449743224 0.263282210094737
0.286690623784217 -0.102901372819335 0.264511490827567
0.336447695583678 -0.103092186725047 0.246174772392212
-0.0722796290812369 -0.0746412709599525 0.0644474567831112
-0.0700360145655193 -0.0733592685640116 0.0750374341297039
-0.0749576883009062 -0.0808816909936615 0.0821861047583041
-0.0746746609782685 -0.0817525021354943 0.0901815385527737
-0.0722957866620031 -0.0812733637964368 0.107086664012705
-0.0725468524873413 -0.082720726220917 0.114311407126494
-0.0656882440649126 -0.0741693477585807 0.116807016246739
-0.0683271250782894 -0.0783518440890401 0.121601979913599
-0.066251159406742 -0.0774605149806003 0.133302525280333
-0.065219894924908 -0.0773764155298446 0.141428314364856
-0.0645716719435091 -0.0777814937642648 0.149489530864046
-0.0616031838249758 -0.0788512344175873 0.160438695070391
-0.0564747700281333 -0.0759492752732415 0.166444652920455
-0.0557930974957675 -0.08123242815917 0.17624651184719
-0.0517851452101106 -0.0751546413645968 0.174889327056852
-0.0517447736895603 -0.0824889818404987 0.186621576061594
-0.0479539233998603 -0.0776815511173441 0.186832655520617
-0.0429333594162203 -0.0818847064428987 0.203900003168192
-0.0388500254926575 -0.0779850472438507 0.20615823334057
-0.0330531444529124 -0.0755694464361863 0.212578305910742
-0.027392390373051 -0.0780430563755292 0.222863123372491
-0.0283803338450503 -0.0805070253198336 0.224304966462049
-0.0233120018624278 -0.0815523041291946 0.23134021911402
-0.013917607174762 -0.0776508037462933 0.237205371221741
-0.0134994451391499 -0.0765111772579021 0.236821246568908
-0.00632828864328729 -0.0826592184660113 0.243100152732227
0.00455376341511366 -0.0837704878372817 0.248785489091975
0.0132317182566278 -0.0761746805830762 0.249523034680105
0.0172755615500632 -0.075607003565146 0.25124662333163
0.027666498664495 -0.0767554224058062 0.256874957996694
0.0288476912031241 -0.082868555138227 0.258641377897625
0.0489861543900137 -0.0785497837707665 0.261963080519763
0.0523462724408413 -0.0808072424428979 0.263149850661555
0.0585949046222796 -0.0835743825640037 0.264995265128347
0.0709968433034174 -0.0841133373341963 0.267406424204622
0.081638097610762 -0.0789872120200393 0.267927682348574
0.0911506806596466 -0.0859485795885502 0.270980985842524
0.0960454182793131 -0.0815025500228235 0.27046579844829
0.111425351814175 -0.0783934633465935 0.271024931863958
0.115912367336852 -0.0825121702419199 0.27219586259283
0.140982234530877 -0.0795221375751819 0.272715497575426
0.140483982981321 -0.0871465745685689 0.274332901478789
0.165029435039594 -0.0828089433542296 0.273859862043416
0.162224429080602 -0.088311688851219 0.274970812429955
0.182729111432945 -0.0842728012892709 0.273612702306064
0.193224132055402 -0.0830636183552146 0.273002819274212
0.211150489740969 -0.0822882994970936 0.271729874433098
0.222786418226946 -0.0899495295680196 0.272215484905591
0.233074745858931 -0.091034660659582 0.271528904693086
0.247798332504022 -0.08653785332542 0.268570763078054
0.285165463258648 -0.0820698913055952 0.25982775227115
0.283017378709675 -0.0894557163550685 0.262096826536756
0.298070365126892 -0.0876343660252414 0.25825083466439
0.311212928913928 -0.0928530882585241 0.25601072299947
-0.0649778817854088 -0.0639834125288131 0.057081665030313
-0.0699535438717395 -0.0730897376163238 0.073992240366794
-0.0698083847539392 -0.0729247568480881 0.0741482862299821
-0.0669254589588991 -0.0704804649334285 0.0826155195481577
-0.0636585546214706 -0.067188966994677 0.088846025802129
-0.0603111674490653 -0.0653856565342169 0.105351388493155
-0.0584070135660769 -0.0640306838763617 0.11261742211541
-0.059056400587635 -0.0651345696493319 0.114278788633748
-0.0591629355274018 -0.06706707590856 0.125847406614681
-0.0590470416120326 -0.0681281994889697 0.133665473244077
-0.0573135161349284 -0.0674820548703852 0.144069033580304
-0.0554695698977222 -0.0658528878263055 0.149060525069433
-0.0554593262129069 -0.0716941883614158 0.161788356988486
-0.0513893886438707 -0.0698383336169452 0.16726490918461
-0.0496580440254256 -0.0692551832541206 0.169922322138998
-0.0432017058293063 -0.0681621453022701 0.181549861927774
-0.0409784639085985 -0.0722292350655755 0.192611113846209
-0.0348524577193137 -0.0642648023628925 0.192441396015906
-0.032490500206044 -0.0657922284469309 0.198722796753029
-0.0326268493947968 -0.0691568683558956 0.203587147223658
-0.0252075495768739 -0.0710260012094634 0.218021002969018
-0.0186853699028348 -0.0694864730583498 0.224032371540062
-0.0184315900313224 -0.0714645617077792 0.22641539768494
-0.0128575555353542 -0.0670932496258871 0.228330671416285
-0.00793969210575747 -0.0704493164043579 0.236571920263603
0.00174165183968533 -0.0677821033141331 0.240159116311124
0.00712019749619545 -0.0742366674065778 0.245660996185273
0.0128403106454633 -0.0655498773445761 0.244442762444341
0.0156422918855703 -0.0709462756480831 0.248300731158254
0.0275706743455042 -0.0712185878611484 0.254280588661488
0.0395804368085086 -0.0674728306222434 0.257347635516399
0.0463587080722325 -0.069259687595995 0.259033424043871
0.0569712363132048 -0.0666291369896636 0.260147179090127
0.0614169884072686 -0.0669314890832533 0.26100844632704
0.0769429617690856 -0.0676428665603773 0.263919430768706
0.0797115873346182 -0.0766483312425927 0.266933926711901
0.093710808937204 -0.0675092695892764 0.266143695451577
0.0963544484955406 -0.0677776118281196 0.266517461544771
0.11394316417448 -0.0765801622016601 0.27085491372074
0.119166378217965 -0.0766947769412295 0.271279519936352
0.138839516833107 -0.0728139895467603 0.271234727261012
0.14585775874476 -0.0763969510313161 0.272157042093278
0.165191771195745 -0.0783655613824684 0.272936980959193
0.178019062598001 -0.0729746525732358 0.271374876753413
0.183777565606893 -0.0766746307709412 0.271965762781439
0.203893524292414 -0.0792186460863218 0.27176214659924
0.212405709679332 -0.0772844458923143 0.270638555247346
0.226300227337168 -0.0728348177217307 0.267700401860164
0.237940378387399 -0.0744527496232123 0.26668234080988
0.258360734033653 -0.0722016464164634 0.262850940021982
0.27757326038616 -0.0737990845670312 0.259549144316876
0.293249637369255 -0.0811722426661079 0.257781704712825
-0.0618511675837672 -0.0588342611707173 0.0449532087321039
-0.0601196854927812 -0.0586262388515723 0.0633646480743623
-0.0566198142899571 -0.0543449662970094 0.065169586680316
-0.0613960790830887 -0.0629797419419401 0.0807148258205708
-0.0608018919507015 -0.063038687096644 0.0860893936052077
-0.0563566637161063 -0.0584490525402854 0.0938516070818483
-0.0574296571244965 -0.0611887475253045 0.102502867284469
-0.0542801427092207 -0.05866176161179 0.112677536857275
-0.0524343740288549 -0.0567194499959069 0.115664657756197
-0.0541416865693281 -0.0625351090843483 0.138823252685062
-0.0539283342885007 -0.0626681813682463 0.141474843534533
-0.0495008120484968 -0.0577074083387219 0.146694498460843
-0.0499716633371787 -0.0638526400829947 0.160692651794171
-0.04515162777128 -0.059358183726545 0.163531051616379
-0.0393576915106556 -0.0566732228581818 0.171259175352296
-0.0413143254108331 -0.063018030425155 0.177286340617884
-0.0350403568825444 -0.0596067877842851 0.184854542105598
-0.0342408741259975 -0.0587612062730084 0.185137645069502
-0.030048790295348 -0.0607210711239482 0.195149112660221
-0.0275978966662776 -0.0644129454184083 0.204856562925226
-0.0204561186641681 -0.0597197338967824 0.209753237409834
-0.015521766835296 -0.0617410756058807 0.219567929438574
-0.0144423826654403 -0.0615981463362244 0.220680730545227
-0.00716623891451261 -0.058197028729706 0.225485351645475
0.000218013370989092 -0.0559873160881415 0.230812790325902
0.00226946876411642 -0.0576743815778172 0.234521769176153
0.0117666392515714 -0.0648919641699968 0.243613106464994
0.0198432807584089 -0.0613195250343701 0.245933630216632
0.0242142431431284 -0.0563158498978372 0.245776897634983
0.0346193291909348 -0.0622000133814941 0.252924780075641
0.0355336719261189 -0.0653111190011541 0.254990250706354
0.0516215874397799 -0.0614772415899796 0.257765077121162
0.0541803491235409 -0.0566673849974623 0.256645460237243
0.0715975199460363 -0.059662371412636 0.260743063338665
0.0780527914487579 -0.0620835477302569 0.262550732122016
0.0853209305788245 -0.0592714571098091 0.262804132433238
0.0906019266323665 -0.0650882456875658 0.26509032598335
0.109668619982162 -0.0609063517809997 0.265987145691252
0.121141292770365 -0.0591077935901466 0.266518055040177
0.122207771650988 -0.0648493464834014 0.268438554841403
0.141154401623469 -0.0642548914041499 0.269019557684815
0.150085813774848 -0.058532025069493 0.267532873605401
0.162509728278386 -0.0652915001477096 0.270036048231636
0.180128612128332 -0.0657636538887175 0.269478985642516
0.1933652241251 -0.0659568648863125 0.268890543972939
0.196582970624122 -0.0622936844007677 0.267603373953664
0.207147074308149 -0.0616142546665649 0.266656021273879
0.235945032448365 -0.0649431770257187 0.264223843634452
0.251014338157909 -0.0600077399946007 0.260440129299044
0.259964935579837 -0.0707258735177917 0.262169975060029
0.272941223364566 -0.065124918381123 0.258433592168372
0.30430166627236 -0.0623142337311463 0.244425502830117
-0.055709464001384 -0.0508302372296854 0.046386888289423
-0.0558211674695523 -0.051446463106271 0.0531880641836571
-0.0513876326503197 -0.0467108472394471 0.0599104537960815
-0.0522742383420111 -0.0488590368246348 0.0663133468151499
-0.0529494506329521 -0.0531687612036147 0.0884343429565065
-0.0517188396335635 -0.0528825355802736 0.0969320686937259
-0.0468296832196078 -0.0474068439989394 0.102710879299623
-0.0476979461556037 -0.0487886891855866 0.104325258250072
-0.0461863919967777 -0.047895493690356 0.111269653266272
-0.0440994234381853 -0.047630187100679 0.127100340769424
-0.0459868919435204 -0.0508560539559984 0.132041263570382
-0.0421686260332454 -0.0472473681971724 0.140860425659197
-0.0411682493710459 -0.0473251197964926 0.149770480759508
-0.0422321744469793 -0.0524755697888883 0.158642597171865
-0.0360631938473157 -0.0468446910365211 0.162468178152739
-0.0316410659796692 -0.0454372221664483 0.169336296188406
-0.0287780343372047 -0.0525247876006882 0.184876806654959
-0.0236148744098436 -0.0498199508645856 0.189458571313907
-0.023104199431367 -0.0516702991109303 0.193117838011691
-0.0182775141667553 -0.0497310254384823 0.198293103853797
-0.0142875568205787 -0.0491460706604344 0.204112495528449
-0.0094819116697151 -0.0500580403678059 0.213568689801865
-0.00415347891525101 -0.0454974566405214 0.215618909355234
0.00103226848635019 -0.0489197137824852 0.224789891655357
0.00134513366738504 -0.047213431997275 0.22345342926672
0.0088205104087753 -0.0505671061394356 0.234262279175597
0.0109554385948893 -0.0543706087897296 0.238430520559808
0.0183056048191606 -0.0480685785750063 0.23908254483534
0.0264609335352157 -0.054358251241459 0.245718360643385
0.033999270792545 -0.0528798331644557 0.247461201781937
0.0413379043950954 -0.0535791647228317 0.250362913297359
0.0527589273847249 -0.0532695398010015 0.254199223463399
0.0594834630686881 -0.0548914762049055 0.257286886757825
0.0634279214230825 -0.0515318353847216 0.256993867950232
0.0811403049271759 -0.0501629766259457 0.259681288484333
0.0927973830410075 -0.0539955206652546 0.262101779225567
0.0987814272293225 -0.05212474521034 0.262161929383851
0.105821868043829 -0.0483243460962214 0.261633764397589
0.128885647509343 -0.0485358497548346 0.2637391267558
0.128979763483048 -0.0475057232591645 0.263422292500958
0.136626688348704 -0.0543796356245536 0.265805632844068
0.154324044653276 -0.0480443087712594 0.264265775935947
0.164244138883808 -0.0529780886782381 0.266003481219305
0.183886899045119 -0.0512556268567434 0.264821055539335
0.182721353822831 -0.0548586930641665 0.265989218320059
0.20160039711136 -0.0540088567341857 0.26462298260492
0.22085365585695 -0.051999261444174 0.262450416688598
0.238614610574729 -0.0547475923327618 0.260841040796203
0.241813154604697 -0.055888346142008 0.260674573047498
0.268047742278824 -0.0541429934010951 0.25508234203552
0.285112252466814 -0.0561633718589902 0.25013723349054
-0.0484292145944292 -0.0413424314819294 0.0344703820381899
-0.0471341027265902 -0.0404137651391023 0.0550488367112879
-0.0477986894150589 -0.0419622871412747 0.0594502146349881
-0.0425568931777513 -0.0354691561650508 0.0616309288448321
-0.0440691686533017 -0.040779004667531 0.0831665639073575
-0.0409723451285937 -0.0364655235649142 0.0813759841982537
-0.0403301276465897 -0.0367970438266842 0.0889122950272261
-0.0427522498150232 -0.0423495838588168 0.104365579400928
-0.0370486514932516 -0.0352293328375507 0.106383194520818
-0.0381104314271565 -0.0384432133991499 0.118187063997368
-0.0373264179955233 -0.038521745892262 0.125283532993961
-0.0375096187609332 -0.0409331182159209 0.139296286054276
-0.0375425190741731 -0.0416285955612658 0.143505366486045
-0.0324775111480376 -0.0358062063082995 0.148526185487269
-0.0284127666431467 -0.0369748465777529 0.161950720776315
-0.0325143356655775 -0.0444957149245215 0.166082988085861
-0.0248245920545242 -0.0444145054668647 0.179242803497526
-0.0156441913582951 -0.0363056384796786 0.182394568346831
-0.0176148806044063 -0.0444328295954093 0.191386079818401
-0.0145206377923869 -0.038966539797918 0.188310780918394
-0.00522125654557496 -0.0351206814081422 0.197392771267557
-0.00446207442066927 -0.037313070756815 0.202710598133393
0.000607803722756952 -0.0356258569619382 0.207696342301817
0.00189926713122948 -0.0361424513555661 0.210816759458226
0.00775060353513296 -0.0412837328195403 0.224187435012687
0.0160357181493473 -0.0400229503271039 0.230136854430175
0.0157190945839711 -0.0394081825026328 0.229052803131935
0.0239437251721071 -0.0427310205820761 0.238306546677328
0.0331085570663569 -0.0375417130181738 0.238514172436505
0.0328050342304405 -0.0434297551007062 0.241728229036213
0.0493885730215815 -0.0355415635182536 0.242950113896896
0.0595941135181347 -0.0389310819803797 0.248432428762785
0.0634610152460952 -0.0403658605360407 0.250625091871567
0.0724029362681027 -0.0450972276605352 0.256503199524338
0.0774448992341941 -0.0399341762134883 0.255342853158218
0.0926697290505172 -0.0439985126149775 0.259002321872901
0.110383496857516 -0.0442358615024545 0.260776600805005
0.111467571021654 -0.0466801812203686 0.261654639246832
0.134920407856554 -0.0393795709171658 0.261092017481971
0.13238440262092 -0.0423255988692561 0.261924393113038
0.148590772429085 -0.0432628538756715 0.262623207008484
0.157951270509387 -0.0405890508070955 0.261839025828748
0.16346638433866 -0.0413814416540123 0.262160039017979
0.191775618969016 -0.0378986585949891 0.260171627876788
0.200197147912428 -0.0399724284166026 0.260205947074638
0.214342840365459 -0.0396074545067193 0.259023639641266
0.230735840634071 -0.0477556914940671 0.259984109202795
0.244146730001913 -0.0424603283697649 0.255724169467365
0.245048753703823 -0.0428517005762942 0.255671184047294
0.272202503621074 -0.0482263388682898 0.250293445805229
-0.0441651504176108 -0.0283006936371088 0.0325027510952067
-0.037986685089411 -0.0277334620743489 0.0381474264068767
-0.0366814518288328 -0.0264367464660664 0.0527601033531903
-0.0394031179009411 -0.0314201402014343 0.0620247733935528
-0.0412198286753544 -0.0343332155561784 0.0655430324756265
-0.0369228778754356 -0.0293776184500339 0.0696985634863625
-0.032840097848327 -0.0270685094536919 0.0855925869964397
-0.0303136229752933 -0.0260953239981846 0.093707568360565
-0.0352473848964348 -0.0322107865336142 0.102054864596714
-0.0348550861941846 -0.0325962861741982 0.107838655365121
-0.0308826515851956 -0.0304051964833813 0.126263768424397
-0.0315416753702004 -0.030897650888403 0.124733556384112
-0.0301068848944862 -0.0307882727041357 0.134487146349193
-0.0224664996735377 -0.0254906381652955 0.139236535368112
-0.0290554673504622 -0.0320657837272125 0.152006485222905
-0.0239548206544398 -0.0316204208589328 0.160394434603522
-0.0144804726793146 -0.0280062821937956 0.16796129948023
-0.0145545470201586 -0.0330381213724122 0.178258721298811
-0.0100285862244805 -0.0294537943283383 0.178028069025827
-0.00220763287050365 -0.0297592626984713 0.191081882009182
-0.000979475888227293 -0.0317687209433705 0.197191733116902
0.000633539589077955 -0.0323282988834031 0.200911820644267
0.00279368827586137 -0.0313817360060549 0.202383425748926
0.0103663596109424 -0.0307012990326476 0.211611357281933
0.0152345898946067 -0.0285866755171291 0.213594188544291
0.0164547397057528 -0.0305929636007333 0.218033896198994
0.02708497583025 -0.0253270357199851 0.220192986902309
0.0316880561958454 -0.0270875003595467 0.226467984562185
0.0405211365398605 -0.0259097914937817 0.231737763215464
0.0455885767922903 -0.0301653686966062 0.238622274221907
0.0526753601946288 -0.0335438599652281 0.242947570022458
0.0712745376000306 -0.0263126959321717 0.245368641451748
0.0677868605882343 -0.035165343652418 0.249189106946322
0.0822723055006798 -0.0283005211336765 0.248982722405866
0.0879310625001994 -0.031041895995355 0.251759715010926
0.0955480208696448 -0.0349165952017386 0.255715052443475
0.115950541191078 -0.0285325324093807 0.255583620634177
0.117857465994288 -0.0270535150594054 0.25500325837014
0.123696681562168 -0.0318313551015593 0.258125421749065
0.137610476204634 -0.0365917247964627 0.260299608429578
0.144936947119886 -0.034974752022459 0.259843186003733
0.16474161973355 -0.0358107086277973 0.260331375253552
0.17545900059519 -0.0302765395298642 0.258615748700911
0.188126787534849 -0.0349259787132312 0.259488443714058
0.200992277385749 -0.0372206160298662 0.259259442787299
0.211169144063686 -0.0350337912523833 0.257788843063562
0.237592928031387 -0.0283547493085467 0.249569294867805
0.24950733293506 -0.0326074287025082 0.248337066007868
0.285571141064996 -0.0283701913901953 0.230918461459915
-0.0434985999705299 -0.0188687880645578 0.0325027510952071
-0.035002518532039 -0.0229291488480321 0.0325027510952067
-0.0308793028588697 -0.0213475989708506 0.0397420622781644
-0.0323140894269207 -0.0230079249997783 0.0548542887958706
-0.0277926115441718 -0.0200948281455933 0.0595306844476033
-0.0216580408854371 -0.0158910512686916 0.0637623462426076
-0.0294276727080752 -0.0238579047149333 0.0806152465452126
-0.0200134584438338 -0.0167534873708201 0.0816185448222091
-0.0188128961358942 -0.0164394431849019 0.0867221416558171
-0.0209878048016751 -0.020176282426572 0.104104312955159
-0.0216096045765105 -0.0208831849451245 0.106035698762026
-0.0199591026476626 -0.0215080170280255 0.121932915998252
-0.0118437179592492 -0.0150820664367608 0.120261945635487
-0.0105445266699311 -0.0151240955087432 0.128994613272549
-0.0111568621068321 -0.0167365322285871 0.138598431538841
-0.0077591118082943 -0.0155321051029511 0.150389197139729
-0.00859351942556385 -0.0167568007738313 0.154026634961978
-0.00420285795606117 -0.0172839791971946 0.162091226989687
0.000883218859879403 -0.0197635443562809 0.175301420477857
-0.000243180980632866 -0.0202191742472107 0.174455506191539
0.00261859884430635 -0.0246007135605995 0.188069754048974
0.0144053173311605 -0.0185769042859563 0.193582752178087
0.0197140612669033 -0.0157312107863517 0.194721055569194
0.0192736172240043 -0.0228492200000829 0.207682809885592
0.0183787195605713 -0.0239995183037327 0.208763167768132
0.032275259811841 -0.0151768615346187 0.209136968019447
0.0321499590555485 -0.0201599753541499 0.217708986803672
0.0420907946890541 -0.0195524245888953 0.225264981528546
0.0423007928217713 -0.0187159849996017 0.224415882394211
0.0502642404555539 -0.0226795370691532 0.234944769671677
0.0642492574960708 -0.0181760694840469 0.238243053883143
0.0623258379086838 -0.0176612605880927 0.237295727357105
0.0773833186153589 -0.0168580432121283 0.240842210208322
0.0870200646009349 -0.0246742938961012 0.247563001402784
0.0957053050631609 -0.0203403277915619 0.246420861837738
0.112278514825931 -0.0163753036684422 0.247040214718022
0.108423569294195 -0.0252608865629068 0.25200930854517
0.127750012339528 -0.0183597829439725 0.251289533268642
0.137304730935429 -0.0236861079749547 0.25499890238412
0.149151222427364 -0.0168146235545498 0.250727836274476
0.156781587220996 -0.01629892400926 0.250550746355237
0.173215169193849 -0.0221994407403417 0.254784454527899
0.187555901792937 -0.0164026569121663 0.250091978186113
0.194920876000268 -0.0266807516830304 0.255580234663543
0.202586928164319 -0.0192342681099174 0.249656121887823
0.23788661497273 -0.0164522844475847 0.242285249041144
0.238658380343074 -0.0222464097378876 0.245691146885951
-0.0514190353904614 -0.00932238932641101 0.0325027510952067
-0.0317327683689292 -0.00992686628002008 0.0325027510952067
-0.0234791025369771 -0.00493791497316346 0.0325027510952067
-0.0147535663123891 -0.00897388611769708 0.0396805069047708
-0.0108507632073867 -0.00597915996646108 0.0368246289705581
-0.0153369157733331 -0.0101010218496869 0.0558641184367958
-0.0091386472029644 -0.00654302600225028 0.0659346699700392
-0.00898450947221515 -0.00717823285001144 0.0722679891552085
-0.00839790478018731 -0.00739997732390491 0.07791526846958
-0.011781816063327 -0.0114227443163444 0.0899030751682173
-0.00362094720763333 -0.00503242203842957 0.0888249348440805
-0.00573108633036282 -0.00816192080623941 0.101519901929851
-0.00467356747612722 -0.00831004357858117 0.109585616053546
-0.00548963353520001 -0.0105134522196563 0.122842796598486
-0.00163835323663416 -0.00797038043175653 0.126306832016765
0.002589386859498 -0.00688042602008288 0.144412974579581
0.0019388533644021 -0.00680735837910347 0.139603063982342
-0.0019859300666885 -0.0118910186972841 0.154449708038637
0.0034883079316164 -0.013714864381312 0.166919164139176
0.0134434490923732 -0.00636301669631191 0.167513208019333
0.0176513590520701 -0.00646907415072806 0.174415896631414
0.0171199367290557 -0.0121835208709113 0.184796114009479
0.0212981597095234 -0.013052993276872 0.19159063586053
0.0244707858274278 -0.0109513091273379 0.191510082134513
0.0331705152813376 -0.0117367484570082 0.203712871640496
0.0415963087438844 -0.00709216121046531 0.20527663174594
0.0448992291903522 -0.00580992573443326 0.206911157310297
0.0481302862533506 -0.0123950995932835 0.221080112052969
0.0547861416526983 -0.0073918729957984 0.219922239486738
0.0547113289580037 -0.0147216420272129 0.228644919271401
0.0705411377224167 -0.00644223746200674 0.22768715469415
0.0742202359505985 -0.00559109054596895 0.228201560675745
0.0802364887272242 -0.0112264121672866 0.237804608347943
0.0860569568995146 -0.00824532383638293 0.236990696231803
0.100625144689484 -0.0138747134850423 0.243236315704774
0.105973925465259 -0.0118503027454536 0.242940812875552
0.120414480944779 -0.0133436389175068 0.246674978009521
0.124631800931583 -0.0138944381197315 0.247852060141095
0.133235693433111 -0.00923435796891172 0.245399457990408
0.14564216346784 -0.013671036694732 0.248583901192325
0.162784570754984 -0.0100485300391512 0.246482698086652
0.174074454414018 -0.00677406740001963 0.244448499269229
0.175930964369972 -0.0138923793606913 0.249252116279871
0.200227014495843 -0.0129323288009265 0.245968059757094
0.22088675444315 -0.00710996519552795 0.238909981067008
0.242430716098126 -0.00967264631696292 0.237139593594764
-0.0475482538326286 0.00349911256926777 0.0325027510952067
-0.0321875162505627 -0.00471547154551628 0.0325027510952067
-0.0217654098177141 -0.000906426756675274 0.0325027510952067
-0.0087381788111444 -0.00435811694484079 0.0325231958728699
-0.00150896223260597 0.00253676098228527 0.0325027510952067
0.00293515815800515 0.00496776781173232 0.0325027510952071
-0.00260125147086978 -0.000297943508025198 0.0556064133660616
-0.00549048339896982 -0.00368672301088712 0.0654558265512566
-0.000846542485617331 -0.00177292942982191 0.0793216304037106
-0.00221784450216097 -0.0035275193622636 0.0852251975398993
0.00421742391865888 0.00149483997351908 0.0845157452399116
0.00596941176598856 0.00196387797011202 0.0918730849183285
0.00772473885204386 0.00166234077318432 0.10572896559444
0.0087041906558122 0.001225884991839 0.115714729008878
0.00936204935503882 0.000164862652150503 0.128876053735369
0.0047149905057871 -0.00440929446630715 0.137351598380163
0.00556355544595444 -0.00444370928975042 0.143113859711174
0.00894371671289541 -0.00388012635814129 0.155227387152763
0.0184282791520783 0.00374407199002495 0.154510318942612
0.0180523293709205 0.0014864696503515 0.158586081863689
0.0279788891323562 0.00368376741993291 0.168064590998653
0.0244829706797347 -0.00286746402080186 0.176188618369227
0.0357025445914814 0.00435092137139851 0.17630963891231
0.0355835301097851 -0.00445992753035198 0.192878808142928
0.037967695487185 -0.00211814952527336 0.191371859516806
0.040637480992332 -0.00190968784958906 0.194263892004728
0.0525270481793736 0.00121219459699579 0.201461297708263
0.0632734796742204 0.00238998681483612 0.208684739381877
0.0608408525924726 -0.00120119514853453 0.214711276070002
0.0660584341059372 -0.00319360873165668 0.220638083514096
0.0742464046544495 -0.00182251269181265 0.222566898263381
0.0799168501559345 -0.0020941642279459 0.225732666521451
0.0902137839301115 -0.00314474868239884 0.231815296412853
0.0985683963536814 0.00432142151401803 0.22504716368113
0.112607282146482 0.00454687306307628 0.230240189201338
0.114457025671159 -0.00325411417634358 0.239064656484446
0.123849169747251 -0.00438590435559824 0.241577472226159
0.141847956281639 -0.0025984718659075 0.241180733941423
0.139929822009764 -0.00510758588599748 0.242825458703187
0.16742017553223 0.00185925581790775 0.238558891713654
0.175842359114816 0.00413163344926889 0.237155707267986
0.176678186006345 -0.00150231696921969 0.240948484114809
0.215478750887087 0.00382230545838561 0.227980786393394
0.20863817552527 -0.00163825250478166 0.237299189357706
0.22927026875518 -0.00288019821530637 0.232501494377252
0.237961650466864 -0.00394612838201154 0.231054973508088
-0.0435667810731164 0.00707079291334872 0.0325027510952071
-0.0399222796561682 0.01066521576466 0.0325027510952067
-0.0220002959053875 0.0100739078306243 0.0325027510952064
-0.0170001362436492 0.00559171708284672 0.0325027510952067
-0.00476905158513872 0.0148596647860644 0.0325027510952071
0.00229915592461758 0.0121199757382213 0.0325027510952067
0.015877026943445 0.014529794745311 0.042558890501975
0.0110898200590423 0.0106847950799323 0.0515952662798303
0.0149928303791808 0.013312212164402 0.0546839877114089
0.017820644820771 0.0138204259421954 0.0686507989920335
0.0150880210134705 0.0108179140886005 0.0762635480917307
0.0156084849429754 0.00946131637466118 0.0910231511174276
0.018819644505014 0.0109258752128248 0.0994239473171286
0.0184811298430019 0.0102037054326938 0.103310765172101
0.0158711851173859 0.00601376882929715 0.121695554925366
0.0152794143799074 0.00499843991266153 0.126413070774917
0.0273895924078484 0.0130683793214183 0.12995899823598
0.0229514398283027 0.00945507020582643 0.138435519094062
0.0338324213871023 0.015094652724744 0.136247340443973
0.0240400867848307 0.00896657870165663 0.149562940456304
0.0267048965016517 0.00501976772940275 0.163961195584571
0.0385301513037869 0.0116605280441247 0.162302298967445
0.0352553825256383 0.00584613457738297 0.172922331493145
0.0446004367592383 0.00999998562759561 0.17236545112123
0.0540217187697807 0.0124350258503842 0.175902389295459
0.0566490723389055 0.00657265471294756 0.192656058983353
0.0603233556610332 0.00809056185211511 0.192665774819859
0.0760801443991696 0.0142349169513157 0.192147647212767
0.0840835210790592 0.013772727129669 0.198731459108521
0.0833258500063305 0.00852843129159024 0.209484015963867
0.0948242751347121 0.015503715742287 0.202509004866153
0.0880624587705255 0.0081655326419098 0.213572728815285
0.0971561472374959 0.0089881852232075 0.217512197430249
0.109836184818291 0.00782167033872373 0.224752060535471
0.114554021487755 0.00780635515347706 0.226619666509091
0.123600108225487 0.0051339591244775 0.233754445364549
0.128361142594161 0.00799497149529626 0.229885377571833
0.154857439721626 0.0122427737939404 0.225376496461424
0.155672839063212 0.00718088502943731 0.232511085870902
0.171486331394451 0.00874716550341265 0.230794925785561
0.18069613586942 0.0124700185050917 0.225860243276393
0.2068644252382 0.00705664477760311 0.226132187543946
0.223083029480275 0.00997828106138177 0.216310956479063
-0.0503373508008146 0.017960183328269 0.0325027510952067
-0.0308565095251618 0.0211154021506611 0.0325027510952067
-0.0175979462353403 0.0203168162368756 0.0325027510952071
-0.00646992603528864 0.0219223319705734 0.0325027510952071
-0.00441372414638389 0.0200254239611846 0.0325027510952071
0.00748056379021766 0.0189752726178185 0.0325027510952067
0.013638499500754 0.0246852872740575 0.0325027510952067
0.0300379460787611 0.0231081314361218 0.0325027510952064
0.0204774620137453 0.0180598327311974 0.0485965566960906
0.035229206399062 0.0244688970269513 0.0486791626816945
0.0358422763031034 0.0242313981314396 0.0549628810197088
0.0217807510415689 0.0166864396811519 0.0701022681542118
0.0312882289831452 0.0192006298841204 0.0857414474351655
0.0334822528328108 0.0199075565280236 0.0877173924554987
0.0325437169923091 0.0182630197923272 0.100009383625439
0.038623712667429 0.0210625586509167 0.0972576717709153
0.0386362039858828 0.0187504507325041 0.119939952062131
0.0333197105509636 0.0163739532717807 0.121646385538379
0.0378585797948569 0.0174820356992775 0.129202754995078
0.0394791071258381 0.0174221094944262 0.136359681354476
0.0454928742156736 0.0192287796937123 0.143057957603992
0.044951965549357 0.017772485616576 0.153981802458795
0.0609794178301932 0.0251643118758629 0.147748558234654
0.0558561376619012 0.0167919688358485 0.167232035008608
0.0725142410790164 0.0239683970775235 0.166565769840815
