ply
format ascii 1.0
element vertex 847
property float x
property float y
property float z
end_header
0.0381843980783737 -0.00481121563636594 0.196747920178197
0.0339849468571898 -0.0101306187510628 0.201668637528452
0.0407348222848514 -0.00770826354450761 0.205384668340899
0.0445377104178041 -0.0115123350288958 0.216906466253235
0.0467720574070371 -0.0163040616484892 0.22477459179855
0.0469343089468953 -0.0202837943539759 0.229657929328208
0.0514665621291608 -0.0217981546009511 0.234762440607975
0.0485687414102738 -0.0267502124879613 0.23771625462065
0.0591405218535824 -0.0309925104578174 0.243735094974938
0.066962372460797 -0.037142322262113 0.250026100691147
0.0739007856438873 -0.036468651971001 0.252104363251899
0.0755549299084005 -0.0437466822316107 0.256850456536427
0.0768133611475899 -0.0519793125957762 0.25949443645842
0.0891836804262596 -0.0569769005558714 0.262566994753366
0.0918150041728311 -0.0651445275917573 0.265242344838906
0.0929532269664305 -0.067047152496068 0.265924279261165
0.106432502844812 -0.0767618670069997 0.270263364623394
0.106193294925922 -0.0760506884168828 0.270029286175414
0.118766208559963 -0.0903459590934625 0.273986193069204
0.127958820033098 -0.0954723303500706 0.275610932451598
0.128895359473978 -0.0958841413154098 0.275753976416999
0.137358146154469 -0.111535048947358 0.279407170508406
0.145637228949854 -0.119174017886951 0.280135955942277
0.160192179734428 -0.127184902161852 0.280582242139542
0.16916137001667 -0.139150391871723 0.281173245173635
0.181011538786219 -0.142221598074989 0.281204508022158
0.18463993426925 -0.15133716147051 0.281617107320089
0.193867488224304 -0.159093818258291 0.281753570270331
0.199189074641534 -0.174390787178438 0.28225830347195
0.205781415410393 -0.181861444122257 0.282319058652086
0.211702560293172 -0.178171170992449 0.281974560069339
0.232854326324781 -0.193797570154654 0.281432727155032
0.242113586243595 -0.213020504658264 0.281211903124215
0.243536946430791 -0.216021320186622 0.281149183987711
0.257684060945751 -0.233993813504035 0.280425725775328
0.269729424490715 -0.229031461448919 0.279869797757327
0.279669558005561 -0.249855822174661 0.277233166760449
0.300926590460469 -0.270035581609762 0.271804703635771
0.301785831793137 -0.264997404816622 0.272076607110341
0.313115514129594 -0.28209051021423 0.2674224088354
0.355787603156058 -0.315687565332098 0.243308497301546
-0.0140742622835941 0.0495040943462588 0.0325027510952071
0.000786106391483278 0.0421482434296972 0.0325027510952064
5.34123979161194e-005 0.0421727681606706 0.0325027510952071
0.0123233732464154 0.0225213373130474 0.0325027510952071
0.0119976986248387 0.0281873394853321 0.0325027510952067
0.0189395919197599 0.0194976357763156 0.0325027510952067
0.0197790461328187 0.0175239193769294 0.0448665531719876
0.0204843379661757 0.0165007085780515 0.0633019378455549
0.0253321382863087 0.0189524270766274 0.0640222514861818
0.0250532576698587 0.0176829029001664 0.0753180428388388
0.0294438130434244 0.0188563253027674 0.081633512763212
0.0314500522231523 0.0189301840615757 0.0890447601862251
0.027361619140062 0.0160122450869729 0.101030103894427
0.0264542410604875 0.0143381340630797 0.113737905078852
0.0284255505923347 0.0139556358342896 0.125474496735329
0.0268003723553163 0.0129105183872593 0.129115226094094
0.028438019900349 0.0124035007936035 0.140717835766391
0.0332738269647346 0.013182304849593 0.15270120490148
0.0283682778704913 0.00995495381838697 0.156267663168113
0.0325201581991816 0.00786843855154331 0.165442215760342
0.0361920943403037 0.00771656112288943 0.169474390501289
0.0355678184805646 0.00413784841391972 0.176547976524909
0.0382035653195469 0.0019653857878538 0.183915124276685
0.0479142400555505 0.00375460273351242 0.190727679205554
0.0454078135398888 0.00051271780206628 0.195542257402685
0.0513977790418274 -0.00265282387118025 0.208923767901874
0.0461088072450892 -0.00893651009139922 0.214332284990491
0.0507728471734616 -0.0133249465170563 0.224112478907764
0.0559140302359878 -0.0141427406566541 0.228825070776048
0.0578951600710423 -0.012078018220161 0.227791295673369
0.0637245344936529 -0.02164896045598 0.240023326844282
0.0612468652208539 -0.0261203721540673 0.241698805727548
0.0690574857810974 -0.0289506456389376 0.246088955212043
0.0741351563248205 -0.0355347273116795 0.251653898958754
0.0747287787724255 -0.0401386683575424 0.254495451772143
0.0797879823321674 -0.0415813782534008 0.256932593675767
0.0900332487626166 -0.0495859063990598 0.260507194808488
0.0962906044210253 -0.0596469880627441 0.264139918950148
0.105971497107463 -0.0550932712756165 0.263791661773734
0.112075620683124 -0.0658715035378556 0.267719229837062
0.12597932434427 -0.0742026768732113 0.271243644843095
0.128940474160721 -0.0762632221925513 0.271750014530991
0.138319616701878 -0.088436923128725 0.274560095045252
0.138865770524393 -0.100874050441914 0.277228835966244
0.145081875107322 -0.0972844439353871 0.276601172841388
0.151062903499641 -0.109757017817048 0.279297593348819
0.164403276301548 -0.113022750335032 0.279882106884064
0.165244852721948 -0.120832285766781 0.280277574122686
0.180347104553076 -0.134434511995558 0.280826788358038
0.193777579882353 -0.141122757693433 0.280948925040452
0.189843774563863 -0.152311837669703 0.281539794928574
0.211907269550736 -0.162799402072719 0.281395705558004
0.220251574509361 -0.172023441968171 0.281437835818938
0.230368732232492 -0.184981103967086 0.281371564380633
0.242389609352143 -0.197664389292025 0.281038488660443
0.251025858612137 -0.198904565284983 0.280645695231033
0.250174798629604 -0.205415639549065 0.28078370517647
0.263241886945395 -0.21284015864001 0.280148206884419
0.274276484285839 -0.223178562904674 0.279071866181316
0.297023163874972 -0.248972980726316 0.273680696022146
0.303111634453822 -0.253062361802704 0.272251577193431
0.318536791254508 -0.273511838159323 0.26696664211271
0.332288806606139 -0.276017496707097 0.262390261453844
0.362707706728274 -0.313174236932491 0.240108057731785
0.0120683315453292 0.0445490761098154 0.0325027510952067
0.0115693857027662 0.0446635354034304 0.0325027510952067
0.0239747532058464 0.0326228587483726 0.0325027510952067
0.031053110251754 0.028504934294179 0.0325027510952067
0.032932525182784 0.0257554947981184 0.0325027510952067
0.0337152404358999 0.0238417917920382 0.0344475937422315
0.0286514855302606 0.0211571167750845 0.0559001931265511
0.0363146534097566 0.0235635362203158 0.0634153523197185
0.0347906060495386 0.0217700913109283 0.0747909749980869
0.0301513097497791 0.0187695854651912 0.0853510606878708
0.034736955713732 0.0204086781742679 0.0878993895233512
0.0353509506642713 0.0200008394988336 0.0943808548555259
0.0417061893067478 0.0208296525957942 0.112035181952621
0.033796000767175 0.017241125072532 0.115089332680186
0.0393006306898097 0.0177169587320242 0.132749980770335
0.0416322828701112 0.0190886746124011 0.12877676842802
0.0400352657005424 0.0172177492421409 0.140614941495965
0.0379704155365621 0.0146301452553044 0.15458557095718
0.0438417082598228 0.0132039245182112 0.163885244533773
0.0451173140398361 0.013874848273794 0.163541644667885
0.0469697134280049 0.0111907455193159 0.171860783382748
0.0487508514472079 0.0061355481888529 0.18582399463332
0.053933727332474 0.00475042661553719 0.19433728245122
0.0508343858933124 0.00235304324524601 0.197021458772651
0.0525074074765187 -0.0015883852933609 0.208192128249315
0.0581332615576598 -0.000626104851541652 0.211489576798454
0.0638289621974454 -0.00382502276402254 0.220499644050999
0.0617247055787408 -0.00992101348980327 0.227989265037502
0.0677698054059913 -0.0121913826673478 0.234954262937246
0.0697197181315642 -0.0100793137394132 0.232737864241179
0.0711401411545275 -0.0138275448701294 0.237774620065848
0.0846717031582158 -0.0203593680230082 0.244400252381961
0.0835469449478616 -0.0302165850463029 0.250429866743761
0.0882034159240092 -0.0316766869840239 0.252211531719625
0.0905276554180821 -0.0363102227976447 0.255633258248567
0.106191038886329 -0.0430175036821782 0.259988634742615
0.110516374862836 -0.0530693987424897 0.263586701051959
0.111842782467873 -0.0585507377680685 0.265449730340325
0.123816077481302 -0.0624814951677695 0.267842986896347
0.122000282919721 -0.0619715474066917 0.26750732728323
0.13567404405836 -0.0753045425840702 0.271695883731056
0.142971090333112 -0.0803512146709049 0.272937078781523
0.14682147394771 -0.0919255937145889 0.275495460277688
0.150340014884055 -0.0920697197987309 0.275604959796143
0.161359678076913 -0.106535293657967 0.278753374937743
0.177618684468763 -0.111587951466633 0.27949743419996
0.182829518595388 -0.11579735511133 0.27988140754695
0.189846159917034 -0.123518266236267 0.280191336074744
0.201215363813108 -0.141983081219399 0.28081997933373
0.211120088224803 -0.149310518153383 0.280913814115631
0.22035225434396 -0.153058121011388 0.280745898381986
0.226619915054021 -0.170100117015026 0.281117874722892
0.232786692673452 -0.175143465698855 0.280998673329597
0.248159322815571 -0.184408162997372 0.280553624092779
0.252225041349089 -0.187498864280347 0.280408299207778
0.264132282284803 -0.204702816410203 0.280079259536273
0.283835464500341 -0.217498480599607 0.27701248882834
0.287051938219522 -0.221707986504099 0.276394654719277
0.307016760649284 -0.243102838175364 0.271758641197023
0.304517373297645 -0.244943055715422 0.272226814948118
0.335022114051413 -0.264927917939255 0.262344250952779
0.33786095507532 -0.275190327477157 0.260657127556373
0.0156285131455869 0.0535883968894923 0.028498866348946
0.0206601824452378 0.0532610775579315 0.0286762505849919
0.0195166400845078 0.0479615074370058 0.0325027510952064
0.0279171394295714 0.0402927452549319 0.0325027510952071
0.040044720294576 0.0367412068318532 0.0325027510952064
0.0405589896596806 0.0266765655380083 0.0395232368195274
0.0434304297107598 0.0278659549507059 0.0449680880515266
0.0448846418283963 0.0276394322621088 0.0582658130306586
0.0450687078803201 0.0263512136939873 0.071621585879597
0.0455721736122671 0.0256283219831577 0.0807387533885296
0.0422368314314878 0.0235378593961278 0.0876778703850926
0.0412653469863618 0.0218834583126615 0.0999328283446091
0.0424503470667124 0.0215651824496035 0.107852737651902
0.0476690259947162 0.0228710572302815 0.116229309336451
0.0510197929602195 0.0234191764285317 0.124449670460017
0.0517460370202925 0.0231037502751572 0.130481681750397
0.0528976036457965 0.0228882265958477 0.137260266242061
0.0534067238050483 0.0224173000245945 0.14393404582823
0.0502702016868587 0.0180919938184167 0.158521442882009
0.0570573562516603 0.0184612383384961 0.164407781448617
0.0606507002142382 0.0178925932431528 0.169366054271332
0.055130583498346 0.0108259347051237 0.180887998284016
0.0654532241676338 0.0127366596278612 0.186588655974569
0.060661989199931 0.00666548416777886 0.196438837222536
0.0681917026676319 0.00844259632882566 0.199099026328485
0.0680459526341932 0.00424308209813528 0.208031376309658
0.068291712088778 0.00280997248365358 0.211285969277473
0.0712501944054378 -0.000276483887308231 0.218792436856316
0.0748767137298688 -0.00510978857868578 0.227799684766691
0.0796091238771072 -0.0076915254839675 0.233777161325736
0.0819118449898571 -0.0121066890203226 0.238670215048787
0.0924437242565194 -0.0116254101245568 0.240305929106144
0.091265316131516 -0.0254732262315381 0.248850577008476
0.10003851191022 -0.0235812078704954 0.249292623466776
0.104694585178768 -0.0295363619512708 0.25403480247837
0.109755677505899 -0.0339648056640541 0.257463800207288
0.121730884239822 -0.047049999772589 0.262756215260022
0.119817648669401 -0.046592196772522 0.26242772194652
0.128244318284471 -0.0552019274080272 0.265788350596947
0.134374687588446 -0.0585644660936578 0.267031943331184
0.141691018954192 -0.0750943388523611 0.271785593263135
0.155341065717991 -0.0767096488905514 0.272435988153085
0.163376017188494 -0.0888019474340824 0.275086991277613
0.165845014254963 -0.0881675402903336 0.274985243593273
0.17539071237302 -0.103454557192186 0.27792842053399
0.185963022678389 -0.108798119310231 0.278577057694899
0.191655459192816 -0.111658244372895 0.27892200008289
0.195891560742009 -0.113824803540383 0.27918648681992
0.20490879909911 -0.121084533048334 0.279798693734096
0.220067357381329 -0.13849568291714 0.280206738344293
0.225646716529334 -0.149168266770704 0.280422056999177
0.22499773537976 -0.154808979889659 0.28065632381611
0.242930019914683 -0.168191987449036 0.280381718887487
0.24561122875915 -0.174903931064756 0.280454642961631
0.256410526992872 -0.177717949970389 0.280053968468575
0.264886868678821 -0.191924411427548 0.279873592758799
0.279627269115209 -0.200776050083111 0.277625051371276
0.293239955685032 -0.213445092130816 0.275000858134384
0.318181291958085 -0.238858885093715 0.269128797986956
0.314585216081224 -0.239223571577302 0.270219889720778
0.347920316629166 -0.264379491498497 0.258229620961289
0.350698674780779 -0.267567968294615 0.257094422325996
0.0331498507879988 0.0524486016876166 0.0268654678801081
0.0333626104282881 0.0466272501115882 0.0325027510952067
0.0354273489513716 0.0490247131704122 0.0325027510952067
0.0480369781714905 0.0399890870491215 0.0325027510952067
0.0510659299695356 0.0376169102530279 0.0325027510952067
0.055369242821968 0.0328111732600062 0.0420302352548193
0.0531900209468037 0.03160852482386 0.0530888539292923
0.058845051333023 0.0325482724924627 0.0668183581533412
0.0587792818328031 0.0322047832051928 0.0699138793701244
0.0570604933243044 0.0295394712127773 0.0890340409195815
0.0547034786271579 0.0278274034576726 0.0962358926703824
0.0583405399159893 0.0281450656254146 0.107872805758686
0.0555279281944687 0.0262291796364339 0.115222497904777
0.0590540950945922 0.0275650420010413 0.116443333324119
0.0594587109916775 0.0259271690297895 0.134115841453135
0.0604528864574473 0.0257257032025876 0.140118688425819
0.0582095850234942 0.0245447213821524 0.142583150026502
0.0566721944882936 0.0220829915532614 0.155293459159257
0.0692989747702208 0.0241606703193235 0.162892169363866
0.0678926067984166 0.0186942041431872 0.174664257371647
0.0650848017416195 0.0140711378094813 0.183004230608152
0.068582389597436 0.0139356339487506 0.18682286808158
0.0689850169419732 0.0103727807780705 0.195500794472656
0.0777334433539078 0.011884039183596 0.198359596161768
0.0748212963819968 0.00737993455360849 0.206015148721273
0.0801286976433883 0.00538142280584238 0.214021089143118
0.0830845629905885 0.0028323970052103 0.219891079653562
0.0919499607015911 0.00347856646532712 0.223235801394176
0.0892678507973037 -0.00330209596581308 0.231656534933083
0.0969762876385693 -0.00865142883169892 0.239259250494982
0.102813926816245 -0.00592129632400287 0.238607285537724
0.106898548560779 -0.0163890796021102 0.245999889995602
0.113165274288987 -0.0230071045692502 0.2514829582087
0.119729231865655 -0.0267786209151427 0.255191300341709
0.120827452876757 -0.0285863613835721 0.256569366933285
0.127067550353039 -0.0358657505460593 0.259726347251159
0.128062984277077 -0.0434414976051773 0.262130370026824
0.135281886788307 -0.0542086528662643 0.265708796193969
0.146097239279599 -0.0558848329418946 0.266581086412371
0.14445728093212 -0.0655164428251253 0.269518745911622
0.15930998153271 -0.0712525965124688 0.271359172960635
0.169629031623061 -0.0764202457049807 0.272388238088329
0.179335313528066 -0.0857527541551938 0.274040893930986
0.188870171964769 -0.0958702114492344 0.275814635665267
0.191040588891782 -0.0996975153101469 0.276505091727529
0.191150320790285 -0.099218981070146 0.276402749861905
0.206708991322679 -0.114720784052108 0.278442490310735
0.206327618244476 -0.122080232670677 0.279811423831272
0.222523138767507 -0.135444409366166 0.280009541874591
0.237942650144928 -0.144878987831649 0.279848734371336
0.233592819531799 -0.1439892385395 0.279960855448801
0.257564900718624 -0.157470913499077 0.278440567771183
0.2628671454668 -0.17290218011129 0.279243417553143
0.272151365503113 -0.174470297322431 0.277502247862555
0.292187381834727 -0.192034086661661 0.274712647327428
0.28898362945378 -0.201135072031754 0.275634600521589
0.315606684556362 -0.220526833171215 0.270362223777277
0.329467682245983 -0.230036351848514 0.26601068582916
0.333422142231502 -0.245869579400364 0.264085654578115
0.34829977968903 -0.251645133579566 0.259065837072566
0.0470125988855942 0.0489728032060477 0.0325027510952067
0.0486791290676878 0.0491998461797111 0.0325027510952071
0.0587672742298426 0.0374291957951519 0.0325027510952067
0.0677975498147132 0.0379591465737381 0.0423826523494593
0.0641839540215694 0.0357896029747632 0.0567375260387364
0.0659360533666517 0.0362330780395406 0.0595004558455333
0.0637094090680254 0.034553930526971 0.0669086544705269
0.0640659807860109 0.0332238250546202 0.0813738453344965
0.0651139178658917 0.0329766790684631 0.088041797850768
0.0715875295456394 0.035448492605765 0.0900938609705604
0.0655464286952662 0.0313286372172767 0.10592694081256
0.0667406871370017 0.0316359078328373 0.107761343282782
0.0635449468803033 0.0281904678114482 0.128529412110512
0.0699991042969486 0.031280866347389 0.124447695582974
0.0669540781603771 0.0275946833124414 0.148183295394243
0.0682841306149823 0.0281730099015816 0.147915087568329
0.0706239171797641 0.0245967023882568 0.163164004024736
0.0726295202108848 0.0254799019019458 0.163037576295465
0.0775672825805227 0.0225988457324902 0.174911899812793
0.0837423060982231 0.0226227213077013 0.179454739787624
0.0855108427387759 0.0198350920409791 0.186686725416426
0.0872875850866756 0.017859904943341 0.192176687981696
0.0895261934173073 0.0120534576478243 0.20623115673142
0.0948373785744268 0.0146048117869362 0.204451909778203
0.0923238192085717 0.00672573567541325 0.218551646620866
0.0888904597538176 0.00373679876785243 0.221360373351998
0.0930789132341476 -0.00135428207498707 0.230529541274601
0.106078285381718 0.00194887371121297 0.231177354993256
0.107031007957365 -0.00506564535422915 0.238842789621455
0.111390623698851 -0.0061682667292046 0.240343582893283
0.124551285158512 -0.0156416276440254 0.248961265950302
0.124427912242217 -0.019108706513071 0.251169444800143
0.127964736128689 -0.0260869651145208 0.25635206330267
0.133694416060525 -0.0289194771939039 0.257720453062671
0.137688888519989 -0.0345631119441474 0.259629564144806
0.146616155767321 -0.0457520317204524 0.263425292592718
0.150804374821816 -0.0469949942534949 0.263881128633966
0.162468278868377 -0.0575988945597466 0.267512642430572
0.167057463853655 -0.0632076727128453 0.26933070368833
0.171617823482475 -0.0638482727505284 0.269304988703533
0.177380807801647 -0.0793078875465804 0.272739700175832
0.197789464442883 -0.0840924961019005 0.273034502659542
0.198728619041698 -0.0923840132911114 0.274688421044503
0.207102872845303 -0.100259698393295 0.27560909962534
0.208413975450619 -0.104732724479883 0.276371930968283
0.22749904192746 -0.118069049000467 0.277123879469645
0.24260708816646 -0.133635679915104 0.277604601602067
0.249827559095007 -0.133894653406863 0.276644905553064
0.253493585420346 -0.142151067337909 0.277313494654517
0.263488903560179 -0.159590626061337 0.277652194474934
0.275157984325932 -0.168706182242606 0.276456123233373
0.28868591727734 -0.172228594853305 0.274014240143601
0.288609183348516 -0.18223802888039 0.274776826935705
0.297991971534592 -0.195715501938931 0.273589209755732
0.316114754652283 -0.214528542864089 0.270009353300275
0.330089452071828 -0.216532450565622 0.265660691289464
0.339687862669077 -0.232087743451997 0.262652701071226
0.367073942438749 -0.261699156319389 0.247498192908195
0.069770395363778 0.0442740465588812 0.0325027510952067
0.0745720828378007 0.0407652500306454 0.0404858850593725
0.0740785138889933 0.0405608070780826 0.0387379200614296
0.0762750347217172 0.0411071688629842 0.0537102331757295
0.0754546124684048 0.0398982445551749 0.062217199617061
0.07640473987963 0.038430639585957 0.0804348214686151
0.0785943843929366 0.0393390673788088 0.0804206544654706
0.075709487802734 0.0365366229035653 0.0961551826107295
0.074883568943612 0.0357533458966307 0.100473494532395
0.0810512944270991 0.0370225956569558 0.113056426868049
0.078575159136039 0.035180355684888 0.121049476252174
0.0833652503095494 0.0367670006113853 0.12494009361958
0.0846351116537791 0.0360148087985544 0.137451373745969
0.0805475167231881 0.0329377305987993 0.150997820170129
0.0782348356991959 0.0312305341636097 0.154772808681927
0.0890389104104699 0.0310181939778386 0.165093238196074
0.0859352101309439 0.0264648165927461 0.17272100779701
0.0930857837931958 0.0272910724895371 0.17593747542791
0.0883585770431894 0.0197486512908514 0.188861528432212
0.0972302575090188 0.0206219125712443 0.193178892010658
0.0961646866676873 0.0174099436141126 0.199344400235404
0.0970954217527211 0.0170495071772541 0.200769806107472
0.0994286966554052 0.00961551572541543 0.217677713570695
0.104284914054355 0.0100893538081453 0.219330206154161
0.114809226024803 0.0081936636694235 0.226198807338509
0.106673270311789 0.00227838517814158 0.230967231690123
0.114743528945138 -0.000503188467944241 0.23737688174035
0.118346327021722 -0.00169738022695726 0.23879618895689
0.126528840181935 -0.0122683009866213 0.247175048627686
0.133905097650888 -0.012097077106035 0.247298086059613
0.135593476577428 -0.0224254291936972 0.254132646787338
0.144342257632528 -0.0281881256323478 0.257592422924377
0.147306459743203 -0.0330521674952955 0.259232700301602
0.158001430831008 -0.0340190631151732 0.259666801369346
0.169070735218198 -0.0435659096413402 0.262942380082794
0.169332175049371 -0.0519597637215771 0.26572110671039
0.17118448681667 -0.0528367094295308 0.26593049506541
0.1847384411573 -0.0656712254395377 0.269224799957151
0.186981246752763 -0.0669514457618909 0.269509789149752
0.19588960648356 -0.0822880319667627 0.272745803616206
0.20408388955818 -0.0861510161281655 0.273105395355598
0.215376979757634 -0.0968531685076202 0.274217501854326
0.219826671933623 -0.100941082981614 0.274630399977889
0.232618859761867 -0.113057749889943 0.27562710370857
0.241231304624116 -0.112922127405077 0.274439931444172
0.2574881236927 -0.132410445147355 0.275352562892653
0.267647615677636 -0.140719530551164 0.274672988882741
0.268383942294107 -0.142856664183625 0.27481466679407
0.281961536486307 -0.153256157760234 0.273709099962355
0.294941546458789 -0.167559367943937 0.27240078629309
0.306000975959555 -0.183913533720345 0.271440564684894
0.313049374032825 -0.18998775502649 0.270163086964068
0.328471921667188 -0.207316482802708 0.265937387594849
0.351157204915428 -0.219380989105106 0.258723827937123
0.359071682093288 -0.223487199500248 0.255241747118337
0.0809932658163595 0.0455866338039709 0.0325027510952067
0.0844832983577667 0.0448706099186178 0.0425713471857846
0.0827466656143744 0.043265705098784 0.0588207214165058
0.0834198980856685 0.0424786790849937 0.0692539665852626
0.0817542214157214 0.0415259981090208 0.0718256999348606
0.08426675242703 0.0419444411964937 0.0779167840890217
0.0871004913130643 0.0420943717610807 0.0879384745707025
0.0879662749231637 0.0411643524347913 0.100552072277401
0.0881246123904011 0.0406035406022082 0.1066834453769
0.091798532647823 0.0407100580057609 0.115494966675533
0.0956182910409468 0.0406936946092246 0.120949186547191
0.0938159422091532 0.0390906370450228 0.135295484163682
0.0882016358660356 0.0368953928427463 0.143292242417175
0.0959551585181927 0.0378053080703109 0.151755094561719
0.0878352286749354 0.0334633362935074 0.158976041914862
0.0995396884430068 0.0334528200195329 0.165632335531688
0.0989154225583018 0.029545171039503 0.175159781421576
0.101181143757217 0.0253372505161706 0.185794379220066
0.102984563179507 0.0256445832192243 0.186392736840362
0.104331671293748 0.0248185702695071 0.189110500741084
0.106104398036321 0.0174037703272808 0.20629954351482
0.112608872256585 0.0197803775105048 0.205448694329015
0.109772557800646 0.0130461815963874 0.217569010756574
0.115724616166084 0.00954277144836497 0.224743183586906
0.123189973982573 0.00860452649638397 0.228501891373515
0.124894677967131 0.00645315111424454 0.232026779126518
0.131659578283915 -0.000514914954838233 0.239626349840276
0.136949835798802 -0.00381129985581608 0.241908766882647
0.143840722516159 -0.00960014741802681 0.245865906681189
0.150296121157212 -0.0153242330447306 0.249771150068652
0.148551944204323 -0.0198496122311655 0.252712863974531
0.165388786157458 -0.0309980586867983 0.258746702525906
0.165470939202747 -0.036161242929104 0.260455097548014
0.172505069445038 -0.0403582971372516 0.261918306675916
0.174280068629332 -0.0470936293466878 0.264007913484039
0.185047522532447 -0.0495154504949968 0.264227605347922
0.19210878103777 -0.0558656350508982 0.26584015638023
0.199255636458813 -0.0636726519376669 0.267897769854049
0.209869828012599 -0.0727214480090849 0.269756413324047
0.221402431468724 -0.0821082060702858 0.270798281928378
0.228750994880142 -0.0896062627471964 0.271626701464487
0.231469478966008 -0.0919449578687917 0.271847812161469
0.250368961019095 -0.105202973502027 0.271916397370973
0.260100245029619 -0.117345060639446 0.272626528140526
0.265034859822763 -0.117084026610339 0.271915733059564
0.265941832909294 -0.134951060275738 0.274241622549512
0.288777985228944 -0.147840660987527 0.271899146881369
0.294845592608194 -0.14971359486257 0.271047832624762
0.306146326122288 -0.165363176700934 0.269785340242455
0.320075170950779 -0.180337695685424 0.267274981988311
0.334954273505637 -0.184279073200358 0.262941211743006
0.343646523396439 -0.203964604234562 0.261042870296966
0.369887220897713 -0.226213727045871 0.248117996105135
0.383240202756943 -0.235041713429061 0.239284965887966
0.0928282713788257 0.047066256731229 0.0312090709591869
0.0993606423765662 0.0479262596882494 0.0271395147376277
0.0908707338979037 0.0467241420551493 0.0510390555345008
0.0929661231182316 0.0464768501949675 0.0565343566795502
0.102725178601763 0.0477631759089946 0.0565183726616847
0.0966784943293707 0.0448646009383789 0.0786035005667851
0.095859123490007 0.0442869940559935 0.083537665442133
0.104529761155785 0.0451552697035688 0.0864077725350953
0.104325099699951 0.0438057781246624 0.100300012879458
0.0983893955678854 0.0420783463733601 0.110236747225126
0.0977207775156096 0.0410795881185592 0.11980322635709
0.100286841536897 0.0406303110162268 0.128071106667763
0.107675878238136 0.0403920971318209 0.140791625886392
0.107846662687212 0.039823409292431 0.147001387537381
0.101774555441992 0.035932842565029 0.159978448772331
0.109426279636609 0.0349841019302254 0.165038214847856
0.108110138779408 0.0329302741293622 0.169902547596318
0.114946737944505 0.0289133607668091 0.18262101497824
0.108943362849377 0.0283654542285838 0.181993874957585
0.117622355104535 0.0259860244511796 0.191104154767312
0.119568994232371 0.0217044883141366 0.202841887627885
0.116464679831138 0.0208069645786571 0.204106326515252
0.128878123967795 0.0178269604314989 0.213769767038272
0.130178977106837 0.0134045523492458 0.221523126680671
0.132901473145873 0.00971172925319534 0.227556864147872
0.135966528183216 0.0102974233683449 0.226886888838276
0.136007022778404 0.00586049856982076 0.233766819411237
0.141558356405361 0.00464227034137974 0.235639837100172
0.146393639187704 -0.00301436302785775 0.241525510050119
0.160123414487616 -0.00520666262599559 0.243195075736919
0.162232275755659 -0.0155609728891523 0.250173876746544
0.168682824663959 -0.0194239075019579 0.252859340546552
0.170345305961868 -0.0269998738830391 0.257477452496436
0.177278700628787 -0.0274939002933864 0.257714956295659
0.184659255857366 -0.0395740575037557 0.261180920710529
0.199131062655019 -0.0426641340720148 0.261153478614044
0.203005554691616 -0.0548121673017847 0.264776053394211
0.207270702740808 -0.0602962499856111 0.266222043960418
0.217424728278262 -0.0689342138784683 0.267716055477002
0.232621923163052 -0.0757299099756335 0.267722573092941
0.240687396241901 -0.0906256809673037 0.2707761548789
0.250922557612185 -0.0917899610629317 0.269230658283968
0.257217880634249 -0.101848165124787 0.270430547565609
0.265841774586884 -0.104877298530389 0.269472518313239
0.266928772379245 -0.109404755267391 0.270357115933173
0.278572990807426 -0.128727969212428 0.271261221447867
0.290780700964271 -0.130298794123468 0.268844316576445
0.309965331698043 -0.155448418405601 0.267563571114505
0.304033976944811 -0.153955501654217 0.269125907012116
0.32270743751788 -0.165827196187561 0.265008979841717
0.345502588853685 -0.180664473768336 0.259254116202783
0.35822280568284 -0.194024989484517 0.255173583447761
0.368400862472787 -0.217030906750112 0.248963432693617
0.106041630866833 0.0488058285093451 0.03289866447205
0.105877220427871 0.0487841834644267 0.0403995933714946
0.111863109133541 0.0495722406628083 0.0422336449501574
0.105337390964848 0.0472397798513639 0.0656286282821457
0.102862987958258 0.046337401610359 0.0716855005811535
0.110302994348196 0.0475730582201419 0.0689947442390728
0.103318192710802 0.0450534253381915 0.0858020857685508
0.118178839592861 0.0461734248927274 0.094588197757384
0.114226622237108 0.044455646786655 0.107166488633644
0.119081751179585 0.0452328472212736 0.10571680432664
0.117445606809494 0.0431556550300318 0.125273328512358
0.113419122751677 0.0417982296039039 0.133963716365092
0.117763471860191 0.040937795657107 0.149009638044971
0.113261251817276 0.0405125187008127 0.147250701239221
0.111644310287385 0.0380094704710824 0.157967976523497
0.123360644151897 0.0374849806249555 0.163314511916199
0.128794911306012 0.0354515181769636 0.170424941643224
0.12956323898011 0.0330582140394562 0.176877222329624
0.121451876809213 0.0290938178252874 0.184369487434583
0.138298089089013 0.030022467592146 0.187333727140365
0.138307165575746 0.0256124967086307 0.197295561156998
0.132484541185897 0.0206538520427456 0.207809594902726
0.139252294987646 0.01778921363646 0.215077299908752
0.13953866229405 0.0172507241250552 0.216239725880085
0.147619673512338 0.0129423270211625 0.223681795878929
0.151324367751689 0.0101060401637277 0.228284467710617
0.157333251248786 0.0036353893519314 0.237221239780342
0.167475824670895 -0.000895703863429034 0.240408429138059
0.17056401025562 -0.00204313584861434 0.241223048070635
0.171882354736154 -0.00682504050110317 0.244451027045292
0.181045490325909 -0.0150499192155929 0.250102800821899
0.189106670913574 -0.0212292836439491 0.252955102020172
0.19567695935335 -0.0239107380861982 0.25369047678775
0.195417920493233 -0.0343801036107467 0.258763773420755
0.205635825130412 -0.0409017293070061 0.260096020377606
0.213148185653306 -0.0516059255339256 0.262979565832993
0.223749710838522 -0.0597485020711808 0.264292388462555
0.23120758183317 -0.0601178010124518 0.263449797966592
0.236070485559753 -0.0690053232299541 0.265366413985356
0.243721330203369 -0.0745071885925696 0.265808737327039
0.256436499958952 -0.0843984151806917 0.266353625998156
0.266007123586323 -0.098279189105173 0.26783942035637
0.274081654932118 -0.100100981444556 0.266688711259669
0.289835986136748 -0.118057137659473 0.266837442413583
0.287735462333558 -0.118911935232914 0.267524989804772
0.300411291942016 -0.131763844504988 0.266679671948385
0.316254234609348 -0.143784709977173 0.264376005606705
0.327496494218248 -0.153438579250505 0.262227847993684
0.33972436510834 -0.161629670303817 0.259258100074589
0.354173069389592 -0.176076845038802 0.255078570852092
0.373585135214368 -0.195556791507053 0.2450939326194
0.12341413469864 0.051092962028149 0.0388170681178652
0.127013441400454 0.0515668197450261 0.0346638804100877
0.120934041492543 0.050766451563317 0.0493562932125305
0.121756405595279 0.0497025036366753 0.0624656229145081
0.123910300401008 0.0488964788108087 0.0739108479760549
0.124248989162906 0.0487712439016883 0.0756947066571234
0.121736747808042 0.047438966191089 0.0862149822613911
0.128288015758382 0.0472256877525926 0.0975150270052349
0.120810047863227 0.0447291562652084 0.113397709315235
0.136112530617252 0.0469028828368033 0.111726325249208
0.127853809278141 0.0444697215760389 0.12586365461434
0.134710994881689 0.0451945518374099 0.127732714784668
0.123237926871747 0.0424874343381571 0.140302608857001
0.133188965677137 0.0421479747997915 0.154599910839813
0.135515920201875 0.0400720522382904 0.160762009819609
0.132636189334222 0.038541401369078 0.163740605130028
0.136417581697265 0.0345855511534042 0.175260707577777
0.134171028249926 0.0323684231833571 0.180230598917336
0.147617906983475 0.0333743279099489 0.180860959721951
0.150058479792959 0.0284639697702352 0.192239490756384
0.147964474512694 0.023735751442133 0.202672364635504
0.147441589011801 0.0230145797240239 0.204239663360858
0.154002192500904 0.0215868926716147 0.20823733202634
0.157134446443049 0.0164226431705958 0.218986761498717
0.166365470363452 0.0123219218951844 0.225635513044035
0.165485918238854 0.00798856511127142 0.231676124961157
0.171390751412886 0.00396937517339646 0.237200261502759
0.176135312106374 0.00226207889102971 0.238414517225761
0.176981314154798 -0.00730101279135327 0.244844116380558
0.186864430270241 -0.00945713579799992 0.245741214428079
0.198343517458523 -0.0121749586030784 0.245764510076717
0.206411621209178 -0.0243274786441384 0.252349549346218
0.213091661252155 -0.0272312099560494 0.253211034190582
0.210375840675978 -0.0330919239219383 0.257222867085468
0.226755211887982 -0.0380539308554699 0.257588834147197
0.235133197898475 -0.0516689338248972 0.260486282089844
0.239396983951386 -0.0546396801659878 0.260687431887445
0.243253452172065 -0.0640827826816751 0.262840464225111
0.2591578810446 -0.0782700226078199 0.264331992937878
0.257696498936396 -0.0756214149965775 0.263952337870995
0.272297144217031 -0.0907983178591754 0.264788152917268
0.287510900282374 -0.101926933844669 0.264090636062848
0.303191792377192 -0.108219474085606 0.261658195873706
0.314049732035622 -0.124622421988732 0.261649602025478
0.309254073737727 -0.122328021005937 0.262596825640034
0.328065288130551 -0.139360424154738 0.260283876177397
0.346957002172506 -0.147411267291637 0.25415406691671
0.34749182879205 -0.163591953998965 0.256906204364974
0.383947384816549 -0.196255540151209 0.238249907597634
0.137610528616662 0.0529619527441915 0.0296881160895336
0.13020276643378 0.0519867023512816 0.0484910039150619
0.138660609307494 0.0531001984898071 0.0471870791105022
0.141906622145666 0.0528805259276538 0.056948884150603
0.129101088103787 0.0495371223161393 0.0743597604011347
0.139636599488925 0.050134424493622 0.0826551444716646
0.137816144865284 0.0490788405762544 0.0912256565753577
0.138723515159705 0.0477211769474934 0.106741563868172
0.139028971885284 0.0476993799012665 0.107392938875991
0.138539816597925 0.047216848301324 0.111785072847641
0.137856580815539 0.046340700117918 0.120043422178265
0.138601654887545 0.0448297941710854 0.136944571132451
0.138976868547998 0.0444132397152098 0.141839005166754
0.14644118515616 0.0449368922760611 0.146660866973036
0.147538738338438 0.0407049299196515 0.163219212539606
0.153463475537308 0.0400228405383228 0.166532738492976
0.152722645199137 0.037480830909409 0.17218707065173
0.15713155539997 0.0355106016415536 0.17715666455608
0.164859281390018 0.0319625728901247 0.186081040630055
0.159821245421738 0.0268251634783523 0.197091288250108
0.165390277478788 0.0262518034754873 0.199042469540672
0.17166835091082 0.0235191121749686 0.205954453060519
0.164159965909523 0.017381690992343 0.218054396258906
0.177308800721213 0.0157555375033487 0.221158058787894
0.179873745769524 0.0108989268334771 0.228035132412203
0.177071466437968 0.00538929074983213 0.235664680840943
0.183142103063088 0.00457845227009635 0.236961355304524
0.191114596696199 -0.000849640087013842 0.239584257350336
0.195155330075347 -0.00726049384546535 0.243090360253148
0.21026721556571 -0.0129136769898578 0.244389790596732
0.207617595210733 -0.0132249041309051 0.24501589599391
0.221936274965633 -0.0261237217152866 0.251138002788268
0.232519889188449 -0.035800777434281 0.255469381706401
0.2319136899863 -0.0358692207769111 0.255697470659278
0.244567145374857 -0.0493688098305185 0.258342618553904
0.248144705531203 -0.0501888898028776 0.258023431566063
0.253485870939282 -0.0533606028014808 0.258115038086867
0.261390984343507 -0.0690664090984261 0.26146322733912
0.278349433385041 -0.0756517041329125 0.259820741097821
0.290023563224512 -0.0885189833718558 0.26028527950841
0.299239942814609 -0.0954248264864411 0.259866844636423
0.293286796824031 -0.0980284368959961 0.26184249775334
0.323729198262367 -0.114758380673786 0.257206716528774
0.321027374565391 -0.124997879467483 0.259754041036169
0.341499785692381 -0.141751489315974 0.256513245150539
0.347760254102371 -0.140873976514948 0.25239965580432
0.360145928966254 -0.158469053983355 0.24795209054001
0.38253659341041 -0.174220840883612 0.236044529739999
0.151541964121891 0.0547960610234325 0.035044178313442
0.150865848445276 0.0547070487059481 0.0378782778925778
0.151220964712033 0.0547004437096375 0.0507129747098766
0.148090625300365 0.052835315034765 0.0659756318985801
0.151719788642535 0.0525680758028109 0.0738015164600712
0.147658834810881 0.050651144153382 0.0883213752072749
0.146634769894787 0.0496914069695372 0.0969864242749948
0.154619850680886 0.0504165529527245 0.100411932048795
0.151439000733054 0.0491042790255069 0.10979746736123
0.150997514795483 0.0481731503675785 0.118967655395504
0.14754426126429 0.0467131137126082 0.129528606663822
0.15720519369682 0.0469980887455684 0.139895269417636
0.155504078971561 0.0465890866120019 0.141839022326577
0.151442404749439 0.0438957626144165 0.156295000852598
0.157317836593884 0.0418928643538298 0.162763048202252
0.161878083566826 0.0401982750794049 0.167127886688887
0.16252095568126 0.0368057429582179 0.174866313386944
0.172182051697345 0.0348593628471368 0.178646515529157
0.167556747990475 0.0291443874652801 0.192764265488028
0.172262197423951 0.0279487416257273 0.196019252188594
0.187859918236993 0.0237230297009173 0.202113369727887
0.178610427914526 0.0208341641014087 0.21273565735062
0.186311244693828 0.0188311379475454 0.214156802694603
0.187409963360085 0.0160489368987183 0.21865487965583
0.196485934614484 0.00922360583625243 0.226196462055303
0.198002544889984 0.00598436868683752 0.230690855824987
0.209030238730111 0.000380170265310139 0.234811725312079
0.212060277944699 -0.00265310748419901 0.23741421424361
0.220070460863825 -0.00441383573710924 0.23728267235856
0.220950735027233 -0.0112239721507802 0.241581810004932
0.224258909337037 -0.015000130221274 0.243515210629181
0.244925002621638 -0.0277216022973201 0.246923577388707
0.250722164279118 -0.0319501202198606 0.247577922997649
0.25886794341473 -0.0436027440840077 0.251813743814717
0.263882349348013 -0.0460227623303366 0.251661092087296
0.275092525253002 -0.0585105827139005 0.255410946843278
0.276519546292601 -0.0580404346497705 0.254673375667324
0.288834322748824 -0.0733666257840223 0.256726945476583
0.303397226640189 -0.0832226879660216 0.254903559530908
0.303380625388235 -0.0873087358305453 0.256874380723817
0.307957423382447 -0.090109312373546 0.256158639203668
0.315645281137389 -0.106862092297549 0.258099965215112
0.342102279512386 -0.124688056242003 0.250482751263942
0.342859474434834 -0.124757018672396 0.250072179038959
0.360762146241766 -0.145152409442549 0.245021243476459
0.374472317583476 -0.158002316972046 0.238665338790411
0.156667217240992 0.0554708133973301 0.0297849716310361
0.170971451551798 0.0545470443397882 0.0340376177143706
0.157435729984373 0.0555719900194239 0.0428288586423183
0.169901268264732 0.0541050602965866 0.0562751276639328
0.166443339276786 0.0540843422934072 0.0612747158295311
0.166591250839892 0.0528552505711826 0.0739807369494591
0.173769875519792 0.051291390062249 0.080480461567565
0.169825597735284 0.0503516284088858 0.0958063957943791
0.163914725672529 0.0505245584866379 0.102164044930296
0.176165609044246 0.0485710909911017 0.1057418446087
0.167826268623822 0.0485724487235156 0.117260039980235
0.169221365321469 0.0471461497053897 0.130312826914921
0.172889012180851 0.0462404464931924 0.134754490681393
0.180708790338824 0.0449282678651739 0.137723860405786
0.174058560722726 0.0450214051902534 0.145942120921455
0.179311013453947 0.0389849410680954 0.16554740963816
0.179738029550153 0.0384737197204624 0.166724343828904
0.192987800570578 0.0365707595742622 0.167134572492282
0.182701870469033 0.0314113660385649 0.183982864523889
0.19094478185326 0.0278081504078784 0.190496084994511
0.194805820485918 0.0244301583239625 0.197771379689148
0.200798003414866 0.0195185421248928 0.205815919428868
0.195294870816486 0.0185040224867874 0.210651071393499
0.199341081738064 0.0170710076981705 0.211916311290281
0.209857485310228 0.0151720154142147 0.21116630793936
0.218956690727755 0.00818992339387414 0.220420106427175
0.22401216473477 0.00561988928203165 0.222691968053556
0.226276450847541 -0.00118447613225583 0.231192667073313
0.226072548431214 -0.00470547159225463 0.23604986110118
0.236126320764709 -0.00848711605619226 0.237373670330368
0.246997000143852 -0.0198160816387164 0.241689075540508
0.246099521586342 -0.0258489914112768 0.2454712325712
0.263321974590757 -0.0293559815000066 0.242059083143297
0.269232884221825 -0.0436144408780667 0.248539135812525
0.274731534926365 -0.0430302841792443 0.246419294226573
0.271664749947168 -0.0482118199475008 0.250458604759991
0.284656587013305 -0.0552146624637115 0.249886613552705
0.300894948731342 -0.0706047212083987 0.249967673904965
0.312241801553594 -0.0787544059771505 0.248707970551896
0.326628668666675 -0.0861068323111939 0.245592209457092
0.33483365524302 -0.0960430167959594 0.244627739018615
0.354713325281138 -0.11232708054998 0.238942787098985
0.359630085459235 -0.116362816169512 0.23752553886357
0.17910798455945 0.0534758494476284 0.0436795533514436
0.171754740208177 0.0533469366639577 0.0616754117856109
0.184458219900654 0.052045761256143 0.0577755409077636
0.190139221647894 0.0505930849182876 0.0651784297219468
0.179765314840298 0.050236201267369 0.0832732452507566
0.185387008272177 0.0494242304437742 0.0840280825493955
0.187241813022577 0.0473798924889472 0.102937115800208
0.182203399788465 0.0474118188394518 0.109569368115883
0.192742355659426 0.045087122330951 0.119414035331478
0.199737821343026 0.0439845047281114 0.121322084019807
0.182377771565501 0.0448092490839294 0.136666021112683
0.191644392891078 0.0427992659007214 0.144964400250985
0.186720879241225 0.0399336429322773 0.160570105989378
0.200711584676751 0.0377414726292807 0.161476102709661
0.199813985171665 0.0350738501361319 0.168681970484266
0.203781219960328 0.0335801395766738 0.1711946770749
0.204184192521831 0.0313033811085279 0.176946622110292
0.199004185976032 0.0271175534656741 0.189537877430092
0.211434408057727 0.0241049905348509 0.190662183516211
0.218609798351428 0.0208275880648143 0.194534439116734
0.22174774626126 0.0167736292589974 0.202025389542687
0.218303997459434 0.0126272080678149 0.212819471232048
0.221795037007164 0.0123697730907539 0.211745435105234
0.234737273649415 0.00527708997598761 0.219584109849367
0.235498039722339 0.00512207105790206 0.219541441376609
0.242207659140469 -0.00667084487417919 0.233346143441011
0.248760087861989 -0.0101393407382321 0.233381216889138
0.251431935453126 -0.0177297194094014 0.23905909380351
0.260239580664621 -0.0224078636564838 0.238966621933268
0.268735951594467 -0.0272985311687217 0.239099739657698
0.278439721110753 -0.0365943963747269 0.241434770261756
0.289586805706429 -0.0372717439306264 0.238232650266714
0.302704167399235 -0.0488483571591666 0.238639932956942
0.292160703423265 -0.0535416330651041 0.245702825019242
0.312045724557287 -0.0646539143057059 0.241964119352122
0.318994893553787 -0.0743998703285809 0.243461816143645
0.333487930265559 -0.0797647936805996 0.239333365368567
0.335696566557968 -0.0901906715753201 0.242111006736367
0.347560639610164 -0.0999512202424937 0.238740568865134
0.363568102524784 -0.121875701503028 0.23718412889896
0.196662335542382 0.0511647752972 0.0264782080096928
0.199102969053427 0.0508434597997758 0.0334763908153102
0.204531657463022 0.0499981469259539 0.0515244788024977
0.202391671420219 0.0494715190700759 0.0600156408922457
0.200028802422323 0.0485676339723392 0.0727777952326448
0.20383028923696 0.0478815981899564 0.074726951660621
0.204208875972529 0.0464913269714286 0.0888070266645264
0.19450588385193 0.0467940337841442 0.0990455963461705
0.20369412773085 0.045139968633928 0.103713745960036
0.216068339971464 0.0433718882063742 0.105173660232075
0.208727956476251 0.0430536422557184 0.118667566112688
0.206277262228864 0.0415143801530519 0.138225271203174
0.203596866478521 0.0415759908913952 0.141284816496194
0.207428761590926 0.0399057367468043 0.1535303017911
0.214042383806003 0.0358099774154662 0.161932548344534
0.224546372715488 0.034701325351175 0.161047778004261
0.212929002763279 0.0312003250801533 0.174235245717069
0.23019073428891 0.0272272306385039 0.174924840361406
0.224230358549505 0.0255228534897072 0.181501375186534
0.228351129785304 0.0221903178633694 0.186933675621392
0.232982695194421 0.0175934358123861 0.194922515828004
0.239287213270655 0.0144264440223667 0.198371885750967
0.242527551993373 0.00857309943970539 0.209245442065148
0.260764624894344 0.00224217377754722 0.204130535156323
0.261399076180874 -0.00290547435198884 0.213851235539662
0.257053846918693 -0.00373638117101636 0.218458675807838
0.266620673543967 -0.00919773237312649 0.219179327603507
0.267439086369501 -0.0117894232246394 0.221863203071885
0.276760224743152 -0.0228708402445334 0.229675227471712
0.290521383629283 -0.0245264510841445 0.223059098670106
0.293765612169695 -0.0296423565579775 0.227332057808226
0.289495432935475 -0.0373055642140249 0.238282063971205
0.299223641058851 -0.0439575628087776 0.237885207240687
0.327836585494428 -0.0617499972497619 0.229187337613217
0.337585089189124 -0.0707165314737309 0.228812173053039
0.337391526352282 -0.0775056415583628 0.235865774036603
0.336062459026551 -0.079634658545763 0.23807495714167
0.366118285914165 -0.103322460084477 0.220612126897277
0.220138627856205 0.0480740627799935 0.0298023433774111
0.225592855066853 0.0473560001453025 0.0358127127888624
0.214979387900399 0.047706673912048 0.0611463168114101
0.224604832233061 0.0460801216213988 0.0649208635001956
0.215368114113729 0.0466101965117278 0.0721263146814189
0.221267071188287 0.044973172958963 0.0811642048931248
0.219306580016014 0.0437553139740105 0.0966679415490981
0.223728861341672 0.0430967319750778 0.0974702237416847
0.226220629701013 0.0418051856034137 0.107590963187062
0.228017831860857 0.0403062210790154 0.120850968890636
0.225930494454778 0.0392191312331074 0.13515650188183
0.22114846403142 0.03977363455845 0.135944974327839
0.241472846928478 0.0336336586781374 0.138516042407326
0.225930236151802 0.0369219139012079 0.15500808659072
0.243862470526906 0.0312904841196474 0.151763153553315
0.232381467509326 0.0301908145590998 0.167268642606565
0.236923430193756 0.0278084938481214 0.168476186468372
0.247058239773002 0.0218470535928989 0.172726792748938
0.242668018642848 0.0163858166555898 0.190273642306126
0.257879875345825 0.0108141464562067 0.188515788798624
0.257138078306668 0.0112438107577617 0.188220754640227
0.272134994989372 0.00273179845723352 0.191463031325402
0.277689641618824 -0.00034878322050846 0.191964031681553
