ply
format ascii 1.0
element vertex 831
property float x
property float y
property float z
end_header
-0.268464857872849 -0.181115235863913 0.0325027510952067
-0.282319574596682 -0.18928186131015 0.0325027510952067
-0.296063107248426 -0.201072142866465 0.0325027510952067
-0.293485343909043 -0.198795019965698 0.0325027510952067
-0.0189001693920337 0.0550700668519717 0.0325027510952067
-0.0207445784026097 0.0511242276820804 0.0325027510952064
-0.0246070350997273 0.0430306517854674 0.0325027510952067
-0.035581806585483 0.0349828437655704 0.0325027510952067
-0.0482418199433702 0.0292673052121592 0.0325027510952067
-0.0521809470190456 0.0175386637785515 0.0325027510952064
-0.0511579548041847 0.0170050843836633 0.0325027510952067
-0.0613099023441724 0.00459177979578601 0.0325027510952064
-0.0674719579276648 0.0048523331254054 0.0325027510952067
-0.0786539238703143 0.00128371824304551 0.0325027510952064
-0.0806278346111531 -0.0174750844742846 0.0325027510952067
-0.0869541723526858 -0.0192362525936223 0.0325027510952067
-0.104360251477973 -0.025509927278592 0.0325027510952064
-0.101665389780058 -0.0365918674094046 0.0325027510952071
-0.108756726117262 -0.0431086083285991 0.0325027510952067
-0.128958634340052 -0.0513738406711255 0.0325027510952064
-0.13835303250419 -0.0593055772826231 0.0325027510952067
-0.142230897849273 -0.0687339241804365 0.0325027510952067
-0.141720011799473 -0.0698816548776204 0.0325027510952067
-0.149129506951372 -0.080018500880685 0.0325027510952071
-0.162481935880942 -0.0825550015581781 0.0325027510952067
-0.17602851624852 -0.10532038611829 0.0325027510952067
-0.179462264900517 -0.109211326128722 0.0325027510952067
-0.192323659031594 -0.111709679089718 0.0325027510952067
-0.203886066015419 -0.128303840645444 0.0325027510952067
-0.205666005719341 -0.129483030222461 0.0325027510952067
-0.216652944700358 -0.132021010253867 0.0325027510952067
-0.22224413007973 -0.148804983224794 0.0325027510952067
-0.233121364219766 -0.160118140186666 0.0325027510952067
-0.239486391858452 -0.160260260171076 0.0325027510952067
-0.246871392909136 -0.172553164375727 0.0325027510952067
-0.255230134124335 -0.175816147811187 0.0325027510952067
-0.262759381644562 -0.184837713682831 0.0325027510952067
-0.273370110726964 -0.201928220253307 0.0325027510952067
-0.280606437186184 -0.204533664894891 0.0325027510952064
-0.291165469049007 -0.213178494902207 0.0325027510952067
-0.306437109777768 -0.218383220429641 0.0325027510952067
-0.306980322001225 -0.22512779250105 0.0325027510952067
-0.00393819890847792 0.0548612474543784 0.031324314002097
-0.00936920919473488 0.0468572490945732 0.0325027510952067
-0.01608388002094 0.0399337031798695 0.0325027510952067
-0.0297208858591907 0.0279985529800908 0.0325027510952067
-0.0292419137330456 0.0282815838918887 0.0325027510952067
-0.0374028351472991 0.0159814322987015 0.0325027510952067
-0.0471327935016227 0.00707207455196444 0.0325027510952067
-0.0576181671451647 0.00392823898325684 0.0325027510952067
-0.0601957640775529 -0.00650373684872028 0.0325027510952067
-0.0699709530712889 -0.0205782612898055 0.0325027510952071
-0.0788312283785013 -0.0129272253042647 0.0325027510952067
-0.0843798106516092 -0.0284303386138001 0.0325027510952071
-0.0904363058685338 -0.0371123849764807 0.0325027510952071
-0.0971606980558107 -0.0406144688964267 0.0325027510952071
-0.109774201746629 -0.0502341452449234 0.0325027510952067
-0.109644614179603 -0.053667163442822 0.0325027510952067
-0.127020671830107 -0.0661679633692325 0.0325027510952067
-0.131396384981709 -0.0736759930614456 0.0325027510952067
-0.139613022297256 -0.0744116070329001 0.0325027510952067
-0.148411849535708 -0.0884730890427182 0.0325027510952067
-0.16505681787409 -0.105284005185702 0.0325027510952071
-0.168613072015673 -0.105062929123111 0.0325027510952067
-0.173989035914377 -0.110963663750121 0.0325027510952067
-0.175817255704703 -0.113178896251573 0.0325027510952067
-0.192649628720301 -0.126135111399507 0.0325027510952067
-0.200806659599313 -0.138807939521632 0.0325027510952064
-0.213758783325553 -0.150373300051708 0.0325027510952067
-0.214847828570515 -0.157958451272905 0.0325027510952067
-0.220128103160766 -0.156862262491997 0.0325027510952071
-0.23468732859141 -0.172636248477468 0.0325027510952067
-0.242672124001793 -0.185819394718825 0.0325027510952067
-0.243029498288848 -0.185172815150529 0.0325027510952067
-0.260729085816467 -0.196947687295301 0.0325027510952067
-0.26732057207687 -0.20655292109833 0.0325027510952067
-0.267706777453904 -0.207269758087294 0.0325027510952067
-0.277946784455319 -0.221501173530642 0.0325027510952064
-0.297209177893862 -0.235012662942393 0.0325027510952067
-0.303418714595856 -0.238059442576079 0.0325027510952067
0.0129557776999667 0.046415254593883 0.0325027510952067
0.000201126930385672 0.0456458702186199 0.0325027510952064
-0.00910931691627902 0.0369720881647384 0.0325027510952067
-0.0168675598364119 0.0217760820537558 0.0325027510952067
-0.0226060996484617 0.0240695739882437 0.0325027510952067
-0.0279456847794173 0.0165817900352139 0.0325027510952067
-0.0373521391031624 0.0129681641518858 0.0325027510952067
-0.0428211388947748 0.00576997268520148 0.0325027510952071
-0.0468994172942298 -0.00513743090081793 0.0325027510952064
-0.0530249001329647 -0.0172284981653618 0.0325027510952067
-0.0618136266631861 -0.0179705175363595 0.0325027510952071
-0.0644290175472727 -0.0222286477746652 0.0325027510952067
-0.0747672904924198 -0.0307841830289327 0.0325027510952067
-0.0845086961144397 -0.0445341949093868 0.0325027510952067
-0.0882745355370227 -0.0465292547879824 0.0325027510952067
-0.102859369327233 -0.0604657132541954 0.0325027510952071
-0.116844065894111 -0.064133656414326 0.0325027510952071
-0.123235623495462 -0.0766770644864234 0.0325027510952064
-0.124038630960331 -0.0763028778233445 0.0325027510952067
-0.136742484145625 -0.0883478664936082 0.0325027510952071
-0.137296361366277 -0.0971086134627573 0.0325027510952067
-0.146577472062205 -0.0990583376457963 0.0325027510952067
-0.161595542749994 -0.114798416873946 0.0325027510952067
-0.1681990250371 -0.115300805086472 0.0325027510952067
-0.173538157218253 -0.131143685435737 0.0325027510952067
-0.180421273268897 -0.13660543052302 0.0325027510952071
-0.192558154754232 -0.139951776771228 0.0325027510952067
-0.195199395074829 -0.14675468287121 0.0325027510952067
-0.202668768658389 -0.162853871238194 0.0325027510952067
-0.216768297867994 -0.17763614217038 0.0325027510952067
-0.220219638544198 -0.170954074372088 0.0325027510952067
-0.232036065044874 -0.191969073715939 0.0325027510952067
-0.244258038221878 -0.194379878664693 0.0325027510952067
-0.246084866210282 -0.20958397729037 0.0325027510952067
-0.25432947586955 -0.211099180412249 0.0325027510952067
-0.271157645867753 -0.220004581920102 0.0325027510952064
-0.277996974616763 -0.228606947008736 0.0325027510952067
-0.290073002868655 -0.246465461003726 0.0325027510952067
-0.300506546555716 -0.251996460101505 0.0325027510952067
0.0172048779361836 0.0431858097753041 0.0325027510952067
0.0105285444778666 0.0338272553919714 0.0325027510952067
-0.00322296699953876 0.0322971600575725 0.0325027510952071
-0.00327646278752061 0.0210414756480925 0.0325027510952067
-0.0151245150268656 0.0117711942063776 0.0325027510952067
-0.0209969293649407 0.0104129236657149 0.0325027510952067
-0.0319409245080455 0.00091956716717759 0.0325027510952067
-0.036736813566576 -0.00873179268384881 0.0325027510952067
-0.041280425750681 -0.00534822630015491 0.0325027510952067
-0.0461158632105981 -0.0149228635406747 0.0325027510952064
-0.0516108205413794 -0.0312465492767661 0.0325027510952067
-0.058316842215727 -0.0362506886922346 0.0325027510952067
-0.069584059595264 -0.0457376240508155 0.0325027510952064
-0.0806145744004046 -0.0463707090182001 0.0325027510952064
-0.0851250964995499 -0.055927173880695 0.0325027510952067
-0.0919765013830456 -0.0678141409553046 0.0325027510952071
-0.104619896324145 -0.0695419136050278 0.0325027510952071
-0.108592042046948 -0.0801924394516461 0.0325027510952067
-0.11782383951295 -0.0897742819222508 0.0325027510952067
-0.126306790452422 -0.0987063063716134 0.0325027510952067
-0.136250017621233 -0.102865603313408 0.0325027510952067
-0.143567784169745 -0.109293376163741 0.0325027510952067
-0.142847675697813 -0.112801455933547 0.0325027510952067
-0.156609960338708 -0.123046667608041 0.0325027510952067
-0.166252697742763 -0.140784029412693 0.0325027510952071
-0.176853480255978 -0.146980607414843 0.0325027510952067
-0.183949847121873 -0.154719766962895 0.0325027510952067
-0.19589574764207 -0.160394717706066 0.0325027510952067
-0.201801875596719 -0.170510177917189 0.0325027510952067
-0.209327617412199 -0.173591670013359 0.0325027510952064
-0.214057717189924 -0.184372655924451 0.0325027510952067
-0.228286319153865 -0.194484990768442 0.0325027510952064
-0.234208752153623 -0.195815703986339 0.0325027510952067
-0.247532935120874 -0.208864257701568 0.0325027510952067
-0.260890149535116 -0.224440610551098 0.0325027510952064
-0.262067017767243 -0.224441510793496 0.0325027510952067
-0.261584524010389 -0.233450798885579 0.0325027510952067
-0.282527856327785 -0.24923536955945 0.0325027510952064
-0.287294792433945 -0.256392684799617 0.0325027510952067
-0.297959344920442 -0.268765720979181 0.0325027510952064
-0.306271372126397 -0.274726791263989 0.0325027510952067
0.0247461633678077 0.0440665054100225 0.0325027510952067
0.0212285257725502 0.0340825173137803 0.0325027510952071
0.00350331695082473 0.022879984872217 0.0325027510952067
0.000153891074942825 0.0139657801435864 0.0325027510952067
0.00076986781188757 0.0102900251179212 0.0325027510952067
-0.0150372564526328 -0.00420775425842594 0.0325027510952067
-0.0139163297250621 -0.0067598533166832 0.0325027510952067
-0.0235243708902296 -0.0142039112823379 0.0325027510952067
-0.0342609944081771 -0.0200787489963394 0.0325027510952064
-0.0408397034130088 -0.0284249465821534 0.0325027510952067
-0.0456311774680024 -0.0321775953718263 0.0325027510952067
-0.0321230806002437 -0.0240357320172888 0.0647253826992952
-0.0258051655046844 -0.0207551280206818 0.0778992120776702
-0.0739379259699327 -0.0609387940291038 0.0325027510952064
-0.0846021558629035 -0.0597074616829181 0.0325027510952067
-0.0852539448159768 -0.0654854944875277 0.0325027510952067
-0.0943588690684673 -0.0804140260597211 0.0325027510952071
-0.10943630636422 -0.093785780391671 0.0325027510952064
-0.112682800127205 -0.0947178302012963 0.0325027510952067
-0.1238520407246 -0.106137158227201 0.0325027510952067
-0.124332397866753 -0.118380397523548 0.0325027510952067
-0.132265661960249 -0.114896891054939 0.0325027510952067
-0.14605124316796 -0.134164620404239 0.0325027510952064
-0.151082223623003 -0.13515041383969 0.0325027510952067
-0.158812675291794 -0.142578358951557 0.0325027510952067
-0.173687080324435 -0.150159291786031 0.0325027510952067
-0.172857667101645 -0.165161543139149 0.0325027510952067
-0.189606513226759 -0.167456048030992 0.0325027510952067
-0.190315961318002 -0.17048201925916 0.0325027510952067
-0.202855567550111 -0.180626473316654 0.0325027510952067
-0.215935414655086 -0.201595540431523 0.0325027510952067
-0.217605518788764 -0.198285897487079 0.0325027510952067
-0.222183640370212 -0.214341435093419 0.0325027510952064
-0.229397105111438 -0.223574113559667 0.0325027510952067
-0.246583843777224 -0.231825090489652 0.0325027510952067
-0.247630526998408 -0.237192142408579 0.0325027510952067
-0.265079158572014 -0.248424715399055 0.0325027510952067
-0.263618317932947 -0.251984849494991 0.0325027510952067
-0.283766978281465 -0.267802690646639 0.0325027510952067
-0.290168833103295 -0.273701069383743 0.0325027510952067
-0.296074589866951 -0.273029111680663 0.0325027510952067
0.0339348317575523 0.030647675764316 0.0325027510952067
0.0281363033391407 0.0295097426467511 0.0325027510952071
0.0243898374450745 0.0199790833986442 0.0357737753072467
0.0129299202145146 0.0127268278733004 0.0325027510952071
0.0226089500637699 0.0185709574244192 0.0567151602860522
0.00791380071136724 0.00841428206570198 0.0501954928875217
-0.0149364982074664 -0.00911425469775222 0.039660008096657
-0.00273026120129053 -0.0013858517283475 0.0639186586581844
-0.00132984606083563 -6.03422551004172e-005 0.0618094615912106
0.00188183549382705 0.000436499528954548 0.0783476874460733
0.000700882587477196 -0.00202733713220609 0.0914404622408011
-0.0117959437969083 -0.011040989247629 0.0866031459152155
-0.0165124921176555 -0.0149573377756372 0.0891013503545794
-0.014724403869577 -0.0147274735513349 0.0987018815315851
-0.0210576113333442 -0.0197910711547669 0.100416221261108
-0.0860174723472315 -0.0810000659991936 0.0325027510952067
-0.0925217199713072 -0.082445618189696 0.0325027510952067
-0.0266743731867699 -0.0261117416665476 0.117317640091815
-0.0261618940225002 -0.0278247256643856 0.135021318204378
-0.0218807874448831 -0.0259033916652712 0.146483568597702
-0.120670049715352 -0.114050463469008 0.0325027510952071
-0.127779306733929 -0.129445524219133 0.0325027510952067
-0.137999293158927 -0.131401464663256 0.0325027510952067
-0.134627344167614 -0.134378259089536 0.0325027510952071
-0.146676152981787 -0.149536333189779 0.0325027510952067
-0.15908179517929 -0.165417695735493 0.0325027510952067
-0.162888719215661 -0.168404936850498 0.0325027510952064
-0.175553330118391 -0.179500234576673 0.0325027510952067
-0.180865031465345 -0.184142409283244 0.0325027510952067
-0.1993559751785 -0.20159152236209 0.0325027510952067
-0.208337464700961 -0.203479259237201 0.0325027510952067
-0.209976315804529 -0.206644877703278 0.0325027510952067
-0.217354374525905 -0.222777613354975 0.0325027510952067
-0.222344829083224 -0.224391043734366 0.0325027510952067
-0.240112646677914 -0.245064345991167 0.0325027510952067
-0.248279983477276 -0.246728695651299 0.0325027510952067
-0.254604556026094 -0.249786460144312 0.0325027510952067
-0.258531380199337 -0.268245016417012 0.0325027510952067
-0.277468653319905 -0.277144236412958 0.0325027510952067
-0.281413362732651 -0.281282310155941 0.0325027510952064
-0.295329563015019 -0.292002211275472 0.0325027510952067
-0.300892449167169 -0.299203800623164 0.0325027510952067
0.0428466599537768 0.027624149600061 0.0374361891765175
0.0468673791563013 0.0290644707750767 0.0523560036489707
0.0429711240126954 0.0269842896836754 0.0569202875866729
0.0314517679432624 0.0217780523067983 0.0611758921432107
0.0345068281819788 0.0214727552741161 0.0765508293610414
0.0275904440655273 0.0191137372140161 0.0715994893626809
0.0397007896978554 0.0221245727210252 0.0912293030665834
0.0282452373606828 0.0176620172495426 0.0884642058878961
0.028237859977225 0.0166434189395153 0.0984046532144269
0.0332197738997761 0.0165154173219888 0.119856502872823
0.0340426834754087 0.0162125264386192 0.126157740695783
0.0301170239832661 0.0141059595523389 0.130861078525777
0.00872142759057024 0.00120814685749231 0.115974998462605
0.0219815448376226 0.00811710265735375 0.143426157856074
0.0147192321310398 0.00300821467850373 0.139528730586802
0.0163458775052936 0.00246696532395608 0.153846365356645
0.0205862809904801 0.00201077465475533 0.161525378935476
0.0175777868357339 -0.00198177431013665 0.165011082565583
0.0066453129015669 -0.0100577395507872 0.164363603329075
0.00303811987924863 -0.0163376857088264 0.17163296144834
-0.00272842819185493 -0.01843668527982 0.166818883795297
-0.0213345030045079 -0.0341342669421452 0.169545224328673
-0.0137234517019105 -0.0316764804522007 0.176760329350302
-0.0258445342624815 -0.043627589353569 0.176337591084144
-0.0521400754711574 -0.0623198209875594 0.153769916297407
-0.0461116696221361 -0.0644293817259784 0.169598199972703
-0.0603422030256135 -0.0755426956278149 0.157793964611702
-0.165411855110328 -0.179200291000296 0.0325027510952067
-0.18053222969774 -0.199954277242394 0.0325027510952067
-0.186504423879584 -0.201517974677061 0.0325027510952067
-0.19106147248263 -0.203627632001381 0.0325027510952071
-0.200716578428582 -0.221724366124441 0.0325027510952067
-0.215710734970169 -0.230097695408777 0.0325027510952067
-0.214746588013335 -0.230778242877222 0.0325027510952067
-0.222366712541283 -0.239529485027083 0.0325027510952067
-0.242298177344071 -0.252029893287084 0.0325027510952067
-0.248344833340966 -0.257496706931213 0.0325027510952067
-0.250956831656866 -0.268022605834796 0.0325027510952064
-0.263254419995697 -0.284381120529503 0.0325027510952067
-0.273151806288555 -0.297246206353824 0.0325027510952067
-0.283343126034838 -0.293977912100486 0.0325027510952067
-0.287249250321084 -0.309040407833796 0.0325027510952071
-0.295678038559082 -0.316056749130746 0.0325027510952067
0.0605607025258288 0.0342601724351553 0.0570177715940929
0.0639701371995949 0.0350805596246558 0.0628109539299609
0.0642062955236096 0.0341183742474903 0.0731866176258218
0.0608184865192828 0.0317987723771287 0.0821558973273209
0.0528554194665195 0.0284372350441012 0.0827738037555842
0.0542917085392817 0.027829414957542 0.0945467015108413
0.047021796349127 0.0243800412391992 0.098834740901644
0.049819407067752 0.0234341845748358 0.119435859302451
0.0466085329383098 0.0223746831940305 0.116788255549161
0.0531978009657448 0.0229091856215526 0.138272248310222
0.0495712977867717 0.0210697174361959 0.141574055436507
0.0462563493448991 0.0193523444521601 0.144943940239118
0.0470353366049403 0.0185366230764412 0.154220002882839
0.0379263071973061 0.0130487889914554 0.158353190022745
0.0411008457514523 0.0128923626069272 0.161899723279026
0.0394510458297282 0.00648484000209375 0.175697062951037
0.0366664450371266 0.0042731140361485 0.177644180862951
0.0325324270228962 0.000859408611286341 0.179030029557291
0.0145769373272827 -0.0107504123005724 0.178394637059764
0.0155120733882934 -0.0113164086149167 0.181051374926326
0.0114469028215291 -0.0159943187777202 0.184277407317205
0.00368202475853718 -0.0252529862405971 0.191108824599681
0.00586850377649752 -0.0270432634980983 0.198287052119101
0.00336624577761669 -0.0309878921145348 0.202477592685341
-0.00440219199291377 -0.0345420346303612 0.197495939137292
-0.0173418128842353 -0.0483951469804099 0.197843213102265
-0.0216615035214996 -0.0537112844626308 0.198631907664213
-0.0431870408202897 -0.0709753484763672 0.186048255471064
-0.0573339691749761 -0.083804050243876 0.17714151480978
-0.176759819840571 -0.199531874204458 0.0325027510952067
-0.183515744868304 -0.222363740128115 0.0325027510952067
-0.194358719551509 -0.220781174248878 0.0325027510952067
-0.197884044976865 -0.229563667067491 0.0325027510952067
-0.213697454162824 -0.245022501914192 0.0325027510952067
-0.224257538059937 -0.257928968414965 0.0325027510952067
-0.227096434961495 -0.263802572533186 0.0325027510952067
-0.242130808502239 -0.267289735882953 0.0325027510952067
-0.249485822612251 -0.279455728275697 0.0325027510952067
-0.255672218793382 -0.286028919480618 0.0325027510952067
-0.263356616918643 -0.305325665965113 0.0325027510952071
-0.275202328994486 -0.300094127356676 0.0325027510952067
-0.282329470141468 -0.318009558908337 0.0325027510952071
-0.296324486843303 -0.326807918045113 0.0325027510952067
0.0860473988490218 0.042367800492994 0.0809923560690275
0.0763404054391017 0.0386083515614016 0.078434480230085
0.0778978569129934 0.0383993731934774 0.0867946377189312
0.0690171059936571 0.0339960753696732 0.0938889163863955
0.0712526279484773 0.0342014938628303 0.10094203197507
0.0721275667943479 0.0337533502952451 0.108875998630712
0.0834289507612729 0.0357425266001509 0.135226235801836
0.0809636299939572 0.0344406179913021 0.137974199913551
0.0828152398926851 0.0343435636415261 0.146431461288724
0.0769038545716784 0.0307477707117666 0.154607584939075
0.0681964199239437 0.0254615932020143 0.158655660439717
0.0600475727377401 0.0234939211511141 0.155262601215337
0.0623453057664994 0.0213463299601318 0.16273317241281
0.0639151640479775 0.0192307732658868 0.169399811946762
0.0456631960993996 0.0101172884737402 0.173143775947878
0.0542318020811024 0.0115056008630403 0.178352398514904
0.0576032180885459 0.00668001174837027 0.193349916144038
0.0487468454695281 0.00178459224332541 0.196307418410596
0.0438707175856985 -0.00128640865782057 0.197062765575074
0.0358296716376869 -0.00554258755815555 0.19523589734142
0.0340554798170079 -0.0120007314734501 0.205303421309819
0.0307137040390708 -0.0160835924333546 0.20893432640749
0.0139620707318106 -0.027852621648929 0.21063460520271
0.0203086667336561 -0.0253044491650726 0.213615348375921
0.0161779518520617 -0.0329255752765678 0.220879182832955
-0.00142691349002726 -0.0410155876151558 0.213415989521651
-0.00926998477518406 -0.0497139289098091 0.213403896946171
-0.0165086513252771 -0.0570918920006901 0.212408652066405
-0.0291238023666962 -0.0671490414935138 0.206434331806864
-0.0327663001118344 -0.0748768115090235 0.212011804090696
-0.0304658600812962 -0.0802442267595264 0.221586526359417
-0.194453432234389 -0.236081636176198 0.0325027510952067
-0.0690887515392973 -0.115425430345739 0.187474445582927
-0.209278853318737 -0.256779607377833 0.0325027510952067
-0.212275832296185 -0.262969200007875 0.0325027510952067
-0.224134455547899 -0.267184203986761 0.0325027510952071
-0.228339480505115 -0.26970871743836 0.0325027510952067
-0.238961428793098 -0.281617920692042 0.0325027510952067
-0.250185798279487 -0.295031282296088 0.0325027510952067
-0.265116815114458 -0.306838326284713 0.0325027510952067
-0.265693122637737 -0.31259329585721 0.0325027510952067
-0.269821131316949 -0.323053970340413 0.0325027510952067
-0.285279299273849 -0.334116553986135 0.0325027510952064
-0.286342455173092 -0.341021371827035 0.0325027510952064
0.0992633698670554 0.0443166879328048 0.0879334819227887
0.100243409421514 0.0429384854496443 0.103765626662879
0.0907923325271015 0.041144035597278 0.109544927440694
0.0894513064134606 0.0403273203567162 0.114766192416791
0.0909627623682488 0.0393612805806969 0.128506946307498
0.100279469944228 0.0399672390821286 0.135025921673432
0.0936681900224911 0.0388047259108619 0.138094412309696
0.0866779419289137 0.0359781994988798 0.146092273879157
0.0965323938153238 0.0372086596762712 0.154893200214171
0.0873354536575838 0.0308417598437648 0.164283100626258
0.0769532113658905 0.0258683106835158 0.166418178144943
0.0831555623889899 0.0256538957329799 0.172524191785604
0.0681556068993388 0.0189985017237042 0.174193368567154
0.0657994516903535 0.0157908703173952 0.179572547975758
0.0689515891671896 0.0126098873862092 0.190387022903059
0.0701234460960707 0.0105370416750933 0.19594250604018
0.0682783960479674 0.00625789550337223 0.20385937725366
0.0658143199747357 0.00434257242088798 0.2062587840454
0.0536805564295171 -0.0028396444779451 0.212089165915782
0.0420018237054414 -0.00585394948610872 0.203426870608365
0.0492671809782041 -0.0120212704979576 0.221458040464649
0.0447367562246333 -0.0157702705349757 0.222657448968404
0.0392945710847248 -0.0184472516069698 0.221573993355608
0.0309006910026581 -0.0242231182287702 0.22200711915418
0.0299091730900174 -0.0316377997099365 0.230890751150844
0.0210383076458106 -0.0391766514542616 0.233309522271537
0.0205912720531916 -0.0414988829174689 0.235932572827418
0.0105595826811869 -0.0503382454931384 0.235799374691726
-0.00259322721132636 -0.0572001817525566 0.229144574199191
-0.0168944917028889 -0.0702066931384199 0.22688826176947
-0.0194753922825959 -0.0756405741811287 0.229597252422407
-0.0229059596775914 -0.0830970763112229 0.233444538270476
-0.0283169709320967 -0.089940499077787 0.232985843399408
-0.0526822919471645 -0.113042783918459 0.217464569499752
-0.211541487800284 -0.269427662434741 0.0325027510952067
-0.204750490256277 -0.269890714029519 0.0325027510952067
-0.222417912503414 -0.278850632084499 0.0325027510952064
-0.221107476786567 -0.295274583555085 0.0325027510952067
-0.232485613911745 -0.298299729002159 0.0325027510952067
-0.252360721326476 -0.317743075806266 0.0325027510952067
-0.25800274048739 -0.315063534449273 0.0325027510952071
-0.275066870390829 -0.338266199239574 0.0325027510952067
-0.282754397925072 -0.341964666277745 0.0325027510952067
-0.288115592321581 -0.354078273892499 0.0325027510952067
0.108728237560027 0.043808490658246 0.106360610557982
0.114395317728067 0.043426604506971 0.118208995027475
0.115124999382228 0.0430305812092911 0.12337795971116
0.111339596804098 0.0421879483129687 0.126994279070332
0.110278148477472 0.0407160315411695 0.140987643542896
0.103408124101055 0.0400427584539283 0.138559264204537
0.100830719516661 0.0389885308702564 0.146068744583401
0.110719542479768 0.0368201812584246 0.160729329905849
0.100206977938875 0.0348564486011738 0.16222888032335
0.102362866541784 0.0299656665440068 0.17561377547324
0.0934018991229368 0.0272656197593694 0.176213004177837
0.0981484413211123 0.0247566352876049 0.184925389109058
0.0941861488672594 0.0204822675522072 0.191353305361232
0.0886416993462904 0.0172448876287797 0.194445443789776
0.0824213228693794 0.0122293775913462 0.200890692423014
0.0839439116929439 0.00960897305682917 0.207591169200798
0.0815549774770311 0.00824290021769548 0.208861488566723
0.0657052524314562 0.00275860784135088 0.209590091413698
0.0650104163349265 0.00140815222913551 0.212009967243638
0.068552232520515 -0.00712796507060478 0.227747142999912
0.0603546233013118 -0.00598253005534854 0.222042497273104
0.0537784930643985 -0.0122013940032528 0.224949668094609
0.053351100806813 -0.0155731679987455 0.22867683123678
0.0414812974800723 -0.0245746346469742 0.230836215929953
0.043117043196101 -0.0316108225882357 0.238592215498198
0.0307633202325664 -0.0358566514082847 0.236562848544823
0.0219366379781963 -0.0437137176785305 0.238174439566068
0.022799551652464 -0.0496174532824241 0.241795917387437
0.0167211394123515 -0.0580718330536343 0.242907081343073
-0.00127563425439933 -0.068003353123784 0.238824040541551
0.00414277507585521 -0.0674635919296741 0.241156624204867
-0.0125654854878893 -0.0831709638116909 0.240365136632621
-0.0116380485069006 -0.0915742162932847 0.244637012353029
-0.0368114946287928 -0.10154415390045 0.230378139559293
-0.044346359224762 -0.115197079059684 0.230329592679458
-0.046196936194779 -0.123410606903388 0.233593242112526
-0.216139155490948 -0.292400303127302 0.0325027510952064
-0.220789750704365 -0.29984698323666 0.0325027510952067
-0.238989518259211 -0.311475750096835 0.0325027510952067
-0.245568443570232 -0.329199332802671 0.0325027510952067
-0.246060801187263 -0.32601422325612 0.0325027510952067
-0.262497729539152 -0.346112422208048 0.0325027510952067
-0.275656162590705 -0.350243415551576 0.0325027510952064
-0.277369358813416 -0.365234471080976 0.0325027510952067
0.134829912707947 0.0460687523403283 0.118714430014529
0.126819380272489 0.0449104847173969 0.119803301255997
0.123502795545553 0.0433559517016351 0.131545855789483
0.124258208286303 0.043492659841482 0.131154511316758
0.125274295254766 0.0416473772334865 0.151942787133154
0.127454092155682 0.041852115610712 0.152806620634391
0.116460715938828 0.0394146318416791 0.155973491034347
0.115843302417721 0.036177884933501 0.164135562824696
0.113031315199148 0.032387184305748 0.172983180693085
0.115866172019652 0.0298272248804144 0.180570273039946
0.106951026422595 0.0276844132612156 0.18307702062463
0.107932262255538 0.0251013079301985 0.190092753653427
0.101500292149939 0.0224908458280186 0.192140556399693
0.105558368119859 0.0194707081097027 0.201471729362276
0.106854403710827 0.0158480539935848 0.210170056299839
0.0894193322199591 0.011197272556282 0.207998380410714
0.0972067804807146 0.00955821017913698 0.216682621058134
0.0819021349781879 0.0043753764976632 0.217003597240933
0.0885388439251942 0.000205338426888807 0.226481373053095
0.0757569128734729 -0.00519285024043492 0.228352375643192
0.0786790775038812 -0.0079030220497782 0.233697427962946
0.0697092892515079 -0.0151947444507737 0.238376071996663
0.0568610207921075 -0.0253410297725153 0.239755734753392
0.0622211372555969 -0.024739016660132 0.241255341305303
0.0543071043896517 -0.0354896023166608 0.244601526418782
0.0431288183194101 -0.0437109233198194 0.245414359100073
0.0369974298463063 -0.0513597359386033 0.247629151807567
0.0358815701449411 -0.0527345553647151 0.248022534071062
0.0251896553164492 -0.0581750995606824 0.24711102720727
0.0248347763353935 -0.0642046837504373 0.249710886551469
0.00902616571471481 -0.0743577731573391 0.246623252760932
0.00427234724504957 -0.0852251630950355 0.24931465664565
-0.000620596046057852 -0.0929632454165783 0.250513398877661
-0.0183785246683714 -0.10040667249737 0.24422357712847
-0.0304958226387155 -0.117597642351442 0.242592401059238
-0.0365621363728198 -0.120360134445038 0.239964183031878
-0.0460281848129375 -0.135520995608445 0.239303977319578
-0.0565385987942254 -0.148148292985369 0.233984465563017
-0.223290757825474 -0.322778000965826 0.0325027510952067
-0.24236402359398 -0.337605906656531 0.0325027510952071
-0.248753608781594 -0.340270047865414 0.0325027510952071
-0.259006985829925 -0.351110134818258 0.0325027510952067
-0.252988289037948 -0.357460510229677 0.0325027510952067
-0.268561614308331 -0.371252351873478 0.0325027510952071
-0.275151799960255 -0.369892953685368 0.0325027510952067
0.146683136702414 0.0470954746815744 0.124321381039388
0.146512146913127 0.0465890285281092 0.129404707575929
0.141437251005268 0.0444687927817534 0.144657925229012
0.136816773416539 0.0431667339014268 0.15194530193672
0.13871879562889 0.0436682241989099 0.149307873748856
0.131957764692583 0.0390109877722832 0.162294920565114
0.126712835969463 0.0360767088563645 0.168098766242595
0.125503888584989 0.0337161842600347 0.173792919171621
0.12145967165455 0.0308605570546089 0.179802209357218
0.123984416170835 0.0304027724329275 0.18184611018516
0.115227995295505 0.0268477622170315 0.188059770375168
0.119255907692755 0.0239915701397377 0.19681939388519
0.120767617784601 0.023582246534982 0.198392965722443
0.115242450434497 0.0190608513256093 0.208206690522925
0.100546316341684 0.0135004214010026 0.210814817000864
0.103819911027159 0.00903508285845814 0.220683856325949
0.103446864538432 0.00821028012980685 0.221728147976344
0.0989169834496622 0.00304590941828503 0.226898673311813
0.0913870281582419 -0.00304406737840715 0.232139241676381
0.0928493370849029 -0.00410385984193309 0.234136714556505
0.0876782075452592 -0.00725532866426178 0.236349668528671
0.0785374173493533 -0.0186990896457026 0.242219683246333
0.0751969384508517 -0.0245237432958691 0.24528963958558
0.0634312119816492 -0.0279876921586193 0.243541308106047
0.0641871479046854 -0.0336527874497466 0.247046854822025
0.0617293870696745 -0.0405152189339263 0.250095691530406
0.0576353671949315 -0.0475816469843121 0.252680206670979
0.0381683367075386 -0.0613914474001406 0.253681889289813
0.0325807733171965 -0.0656420443351462 0.254167696268014
0.0232171437127498 -0.0686037190241187 0.250940804746459
0.0260738050786113 -0.0731241394211581 0.254422598885617
0.0154872257821892 -0.0846317517928947 0.254520915657312
0.00459262834528179 -0.0941896018402986 0.253571024545361
-0.00421220010136542 -0.0990092745145152 0.251560150467153
-0.0103042920285474 -0.110205384078339 0.252122655674554
-0.0187014616323556 -0.12316796418331 0.251255626635314
-0.031012061935032 -0.131632841827038 0.246745196386745
-0.0305996598321373 -0.133630749320858 0.247617026338888
-0.0639775557862019 -0.166205994976096 0.229883738598294
-0.223037294626499 -0.335886547722305 0.0325027510952067
-0.232431374553251 -0.342435317711118 0.0325027510952067
-0.249742106444357 -0.354783468316532 0.0325027510952067
-0.248829629960893 -0.365745606266954 0.0325027510952067
-0.259570863720762 -0.381171386816484 0.0325027510952067
-0.269088915766403 -0.386419533104147 0.0325027510952071
0.151182779255633 0.0473642449251702 0.127720723923975
0.152788028677217 0.0457146212038721 0.147268520402033
0.152710507430164 0.0457464812475785 0.146826653644936
0.152633293368743 0.0451681505692952 0.152794748508232
0.149005257664741 0.04036405116743 0.16460035243152
0.143556965576942 0.0398276457503732 0.16413249028865
0.146093355042696 0.0382353021083445 0.169115061512087
0.142722171823772 0.033340001793411 0.180361681195686
0.135835825243338 0.030277181454388 0.186206832945053
0.138762854090142 0.027682824058771 0.192673018720877
0.139269676480499 0.0241170729269317 0.200786664517663
0.123260890920688 0.0223868898505027 0.202333988641822
0.127235033892661 0.0207336621904877 0.207010836663159
0.124819167759181 0.0157252353845378 0.217431866003027
0.122005031755529 0.0156218932558373 0.217363501311595
0.121806170002285 0.0113760272898517 0.224027634157947
0.117207268698582 0.00338395575995426 0.233604710265451
0.102087491618406 -0.000317126238588068 0.232661813989638
0.102389300573272 -0.00415440177233089 0.237411116093815
0.0946742345726745 -0.00930929552113245 0.239251399591439
0.0946458339867911 -0.0176945165579007 0.244551633684514
0.0895583245176253 -0.0208807844738424 0.245630395005106
0.0775200588350565 -0.0248397867368385 0.245917580429479
0.0766624220568298 -0.0277994123589773 0.247632186399454
0.0771026534876388 -0.0412794729869893 0.255990089174056
0.0696537254305723 -0.0454501106762604 0.255728845035645
0.0540495902800961 -0.0530830853230065 0.254550878495372
0.0543196907497917 -0.0561353422154421 0.256390905180748
0.0511170926254481 -0.0666517773573095 0.259131329185804
0.039521781506456 -0.0782107192209472 0.260141287820714
0.0296926792867969 -0.0814340685001033 0.258520757212144
0.0254564934518626 -0.093669561327793 0.260266853918209
0.0216164342505971 -0.091975363359877 0.258956460970103
0.00939409818419205 -0.108987316162816 0.259804911677951
0.00496439220414158 -0.113552281132359 0.259612523746947
0.00035397847711244 -0.121872224642134 0.259566154668443
-0.0107810917487476 -0.129977933698581 0.257582784117972
-0.0374954793510343 -0.147929068562342 0.247892747996313
-0.0462023373203547 -0.167276591067877 0.245165445071917
-0.0477771576799286 -0.165292217242975 0.243846284544067
-0.0664557375836882 -0.186186084039745 0.23317127160596
-0.232456996465514 -0.362143303432035 0.0325027510952071
-0.248558126795317 -0.376203501790948 0.0325027510952067
-0.252589232234123 -0.391213125439705 0.0325027510952064
0.161097965442294 0.0471244113565534 0.141775003318884
0.169550215835961 0.0448603556042929 0.153673709336898
0.168094998271093 0.0436691112273235 0.15725059709875
0.162491368008089 0.0398333710975235 0.168024348846333
0.158896194585036 0.0401896867738185 0.1667959618333
0.151231371326055 0.0386178978765804 0.169443086527527
0.154063509753001 0.0314267883384959 0.186019265687427
0.156500980635431 0.0303898119595989 0.188648656019912
0.152934206452169 0.0273842397278762 0.19501708329285
0.143691346307607 0.02533334569472 0.198560436046963
0.145544544368376 0.0220792975510212 0.206128669532035
0.145832160938956 0.0176644903335078 0.216105228976243
0.136432394902292 0.0134127463295131 0.222023468387431
0.133600098184961 0.0149024878171964 0.219447052273377
0.13022268424238 0.010990083387014 0.22532564409853
0.132528832890923 0.00851735265135357 0.229405515118234
0.131784977538329 -0.000531405216127393 0.239639872959944
0.125985039951181 0.000174932506732304 0.239051507663846
0.117668241544994 -0.00569467003967904 0.241214709188728
0.112616547827071 -0.0147635403310352 0.24606842218594
0.101864617947574 -0.0195345432937624 0.247045723347544
0.0973515936316584 -0.0237156493051288 0.248859769033187
0.0990604908364487 -0.0297691687902054 0.253085938551422
0.0838733152900711 -0.0364096113974482 0.254408420881642
0.0804538580786771 -0.0407383255809073 0.256519662146278
0.0804581991760433 -0.0504974035404597 0.259702534581565
0.0681199349836984 -0.0569349192170098 0.259369257918887
0.0675184616420459 -0.0690581110310276 0.262671550309916
0.0601548544158684 -0.0673671879351758 0.260910517123858
0.0529028000346496 -0.0826665552573609 0.263721736684454
0.0441606998151248 -0.0878249283536924 0.263421489545364
0.0418445779665397 -0.091635431996283 0.263762752365804
0.0271941481858935 -0.0992135280131021 0.261940867116954
0.0181330988530451 -0.109533549542235 0.262032231191351
0.020276838223969 -0.115948002885557 0.263813260138662
0.0035905973294957 -0.124973640391732 0.260994553954426
-0.00304612991097016 -0.142989693477048 0.261870538326755
-0.0122748330627637 -0.154302411260936 0.260807665577574
-0.0222303009395654 -0.161908007327904 0.258525697009134
-0.0352419702868593 -0.163724985180527 0.25178621769601
-0.0485968712235524 -0.176930121720306 0.245146619973261
-0.0586823439633588 -0.202000495124227 0.242027447202304
-0.241653028241256 -0.384299240176952 0.0325027510952071
-0.243750271540289 -0.397434313832013 0.0325027510952067
-0.245281224167223 -0.398557370268546 0.0325027510952067
0.182466129223498 0.0433279465843538 0.152103659848404
0.178502116615048 0.0412790593316088 0.159888793836778
0.173616659893857 0.0418815319738532 0.159994096114466
0.174989492575984 0.0373808441689878 0.171168288680789
0.167852438059908 0.0385198565535596 0.170652507620539
0.171045071662854 0.0327289454006774 0.184544341262688
0.168595806286604 0.0343087875760738 0.181221898633399
0.163557144973885 0.0296189162395966 0.191221222039668
0.159129757580618 0.0247381249099401 0.201723794534405
0.155912224003495 0.0252629219112271 0.200159353301476
0.151899515761036 0.0209476272841529 0.209433500172
0.157005384292353 0.0196009166646319 0.213076872616644
0.146976398428812 0.0169049771585179 0.217394159037017
0.14583938417893 0.0104750859629686 0.227417644921472
0.149539339094112 0.0066009333202452 0.233138146431725
0.134856432784613 0.00624888287330349 0.233165762100586
0.133889998352119 -0.000620721852190746 0.239738551693394
0.134227917055179 -0.00285949205974234 0.241224319209552
0.128988376257318 -0.0103839424398384 0.246065791376956
0.119264944006124 -0.0174323340417812 0.249083256134072
0.111392465030413 -0.0254961760984115 0.252739787289981
0.108775860583654 -0.0303601484859358 0.25536111312439
0.102393206148816 -0.0363148476710951 0.257501784938289
0.103610777607879 -0.0353924588056236 0.25732647834194
0.0940143718139123 -0.0491628055204196 0.260766699921949
0.0862024187863874 -0.0579977129639421 0.262531326440567
0.0865752328261351 -0.0559022814129823 0.261962100478129
0.0740762964592416 -0.0627785116127207 0.262051707012377
0.0612419394035843 -0.0726854026079026 0.262595062761111
0.0607075407372453 -0.0797630501873751 0.264419781127372
0.0444292584793054 -0.0959206133067978 0.265356395823328
0.0448948443178219 -0.101234033362153 0.266671152939256
0.0374387259530023 -0.10079507867341 0.264771864406044
0.0317362314873786 -0.111988344622365 0.26581470588824
0.0191332762810608 -0.12464767666505 0.265246086790035
0.015474704293222 -0.134767303369989 0.265990482641896
0.00659059134976015 -0.147081841331214 0.265270293611597
-0.00213065146644236 -0.15382012650228 0.263639465742873
-0.0142275054497307 -0.159820403255081 0.260947136004717
-0.0212656986351266 -0.167173449439517 0.259232816179454
-0.047467205025063 -0.187493795494019 0.247526220555474
-0.0557748113714616 -0.203474727289679 0.243957261324354
-0.0543156757613063 -0.208238753430556 0.244867578591995
-0.236473165281849 -0.407098288917 0.0325027510952067
-0.24132657928329 -0.4038131424994 0.0325027510952067
0.192058407495967 0.0417347770079444 0.154093571322166
0.19271525629637 0.0386128631080922 0.16194518130164
0.188355794987231 0.0354981536368352 0.171486403542136
0.183706547677991 0.0340082376276333 0.176923540335953
0.179369092407325 0.0313822975592192 0.185192994262827
0.176123686662027 0.0313385152798866 0.186411429770739
0.173173625371753 0.0313862480677493 0.187292571803156
0.177940965550658 0.0259825415754938 0.199646594791988
0.167757963134901 0.0258117369220246 0.20031540257864
0.170472832083006 0.0198477522752859 0.214106068357786
0.171334786064872 0.0178821390635795 0.217855846270076
0.160380519427411 0.0139196435221194 0.223191399701101
0.160478911236689 0.0110284961372253 0.227268953780275
0.158442899839749 0.00813350642898191 0.231260840432305
0.15374133894921 0.00549930500084533 0.234807229217558
0.147575205145297 -0.00135348170984908 0.24042803988289
0.144884758066326 -0.00187311389764132 0.240737862701769
0.144218325278741 -0.00790598148167204 0.24475875784516
0.133734153389347 -0.0147844701588682 0.249063423756687
0.126321276624519 -0.0172016120351169 0.250310825461449
0.1236186057253 -0.0263342444882383 0.255663694445065
0.120489904396226 -0.0340379779020178 0.25851660630636
0.115237483951534 -0.0362460489488229 0.258712029994251
0.108191098538164 -0.0433385457657865 0.260282147609174
0.101637549438606 -0.0522497214823169 0.262475467342213
0.0955750025474329 -0.0578167822167356 0.263526342565848
0.0858542307920731 -0.0600076566858328 0.263078382200804
0.087969618466798 -0.0698552670649701 0.266185838638047
0.0783149371022663 -0.0783855886992141 0.267178322362083
0.0704611273666315 -0.0904384392834567 0.268906335935782
0.0664858086197482 -0.0973244931617562 0.269917033129639
0.0566602549234678 -0.105348216234818 0.270142036460936
0.0458756680911268 -0.1149723575432 0.269831316022817
0.0373878041033422 -0.117015249365449 0.268173904452111
0.0242186377563907 -0.133375252062248 0.268195432695968
0.0267456042240208 -0.131397399687753 0.268419614610687
0.0167553438765752 -0.143465905586708 0.26770966579584
0.00907970090117517 -0.152945174363792 0.266725426629098
-0.00280132787365193 -0.161841977764785 0.264467787287677
-0.0083894216269813 -0.174872008232989 0.26396111087944
-0.0233320885055501 -0.186205020433547 0.25999946536617
-0.0329712469707622 -0.202564747888641 0.258080043134208
-0.050639372681132 -0.214637523892827 0.247242116507956
-0.233419453007574 -0.416539205458469 0.0325027510952067
-0.235636452701722 -0.417059832222849 0.0325027510952067
0.199796305702504 0.0399961337942399 0.155955775765075
0.193817538905596 0.0351401344870665 0.170552538046256
0.191554529618756 0.0351223906747899 0.171369077219868
0.196446370300346 0.0305080245746808 0.181638957212993
0.186011553100358 0.0326197796128612 0.179730049021219
0.188940064241941 0.0278362076326587 0.19110619470234
0.186348669758967 0.0258025808243146 0.197248941488261
0.187219265136765 0.0214017301183917 0.208042595848786
0.181513840986536 0.0183783282245135 0.216998849650405
0.173683588098179 0.0210625552993116 0.211740490925766
0.179033271672034 0.0148302254116726 0.222505581953861
0.172995483651715 0.0119840530739289 0.226308462880426
0.168951915419826 0.00890079278319126 0.230503417764944
0.169409426337477 0.00487879054149358 0.236148415760594
0.159866979817183 -0.000555752898401693 0.240070347407029
0.155303784098288 -0.00598539404359673 0.243647999900803
0.155055887899025 -0.00947670063923904 0.245987281075423
0.149697176258429 -0.0125627432933683 0.247940655524758
0.146348266734283 -0.0197577169191771 0.252605481138927
0.141852447758275 -0.0243711889932759 0.255546629040854
0.131427177990056 -0.0268626696368963 0.25696480227112
0.129786236565474 -0.0369933482811047 0.260184011183347
0.125406186564613 -0.0449906312514802 0.262456603604434
0.124176222780275 -0.0503616588648519 0.264039491221211
0.115057724933759 -0.05583172739606 0.264897069012556
0.102045219893747 -0.0682187814714834 0.267282253854207
0.0978380230604116 -0.070060840919293 0.267348964477886
0.09633980631855 -0.0717268708976948 0.267667193325126
0.0847269888419207 -0.0881251431019352 0.270778367076903
0.0836902718915666 -0.0947214949074301 0.27179396846351
0.0738812894720117 -0.10463785373982 0.272279750266618
0.0625989149834959 -0.112341001747453 0.27219498805478
0.0609261332678716 -0.111014799548055 0.271753443364516
0.0573833717035053 -0.122849818967905 0.273000854154817
0.0391467921338159 -0.140208118393713 0.272306214106685
0.0339408561997885 -0.149980212891726 0.272492101267124
0.0263795608620634 -0.150879544509262 0.27109341904273
0.00713977457348589 -0.168953106019983 0.268206811217
0.0120363190931253 -0.166681367082202 0.269314552031508
0.000343958546769019 -0.181924019532579 0.267305865642919
-0.0142967204903988 -0.192932800354174 0.263367279872049
-0.0233755036392438 -0.208803152800951 0.261261245559925
-0.0422082309627763 -0.215046006967309 0.252885101994337
-0.0583338937150273 -0.233270578669108 0.241809392760855
-0.234021152535031 -0.426336393057825 0.0325027510952067
0.206743042292132 0.0344690456232348 0.167886774969548
0.203541233171839 0.0362973541593691 0.164247924145678
0.205852640730416 0.0326409760758402 0.172918563603984
0.202240223985352 0.0271715806714516 0.188206715598413
0.204741924071989 0.0276773580788171 0.185910053057541
0.198882665308839 0.0248046899815456 0.195023502686103
0.198728943556648 0.0205543697981127 0.204498526770292
0.194950534806456 0.0194744718638862 0.208666330760621
0.196988100655627 0.0148831430916293 0.217310250986892
0.192806677494435 0.0143815145186283 0.219454575743376
0.189662184006725 0.0112679336036734 0.225283940017327
0.180208529598428 0.00658864486587819 0.234080050421589
0.176671145406664 0.00127682590541654 0.23908342084688
0.179068927844254 -0.000280081356278191 0.240162843750594
0.165916534100723 -0.00290104219573296 0.24173159087724
0.169606913363147 -0.0104132865468418 0.24682605998551
0.160952550670807 -0.0152508994952512 0.249947306704658
0.157440813358065 -0.0243715467838968 0.255878574584638
0.154342275216589 -0.0278706994076539 0.257594356210055
0.147928873041847 -0.0353904968539275 0.260012663401976
0.144417241355308 -0.0388742160520173 0.261127221676979
0.137550666947497 -0.0408595007263297 0.2616371439333
0.128525586059892 -0.0522028517179866 0.264866166172538
0.123859365618256 -0.053185119539247 0.264903215588164
0.12161269221653 -0.0611566063973102 0.267212078420696
0.11048713504494 -0.0725414919272547 0.269486223610095
0.113036578273317 -0.0771259979089371 0.27089465991365
0.105301221262231 -0.0829713991875124 0.271472039809657
0.091814290081856 -0.0874151756715149 0.271326105457617
0.0892289492998536 -0.0934594472709822 0.272239727231542
0.0771379951214171 -0.102712122923983 0.272355975840106
0.0722329842746189 -0.115881199519375 0.274025805815699
0.0670627386004671 -0.121026011156149 0.274256875857894
0.0632859305157107 -0.122196898680902 0.273830394771367
0.0522640821418897 -0.132648704098494 0.273472733868079
0.0410649661039106 -0.141192692702515 0.272759400146225
0.0292230868895551 -0.151492729727861 0.271704827520787
0.0232007814136625 -0.167571409283382 0.271929119850871
0.0233073260928283 -0.166565620964856 0.271862090326236
0.00451251384768289 -0.183638693345125 0.268712596984058
-0.00320411306129447 -0.197389405423113 0.267006161979392
-0.0156188934828998 -0.210591359705413 0.263807316646094
-0.0220931443487843 -0.225759006112341 0.261504061067807
-0.037307641107915 -0.228201875239876 0.255830964971272
-0.0581721985098138 -0.255627159389653 0.241513287614157
0.222434025897743 0.0298017074799919 0.172881290206936
0.217746490678549 0.0311445950986722 0.17211735944876
0.215874000476012 0.0256939923583751 0.185056851129475
0.210466632436298 0.0257490072288008 0.18748087003805
0.212690917711523 0.02128454372844 0.196310089578566
0.207857411978947 0.0205583216706685 0.200192210864168
0.210431208100415 0.0182177496163391 0.204158364552121
0.200732937636124 0.0180599271614971 0.209073332384232
0.19876393921945 0.0134254682968146 0.218974186927222
0.198022060526562 0.0111795051271463 0.222678586450392
0.193088869168426 0.00992649277467847 0.226227359987028
