ply
format ascii 1.0
element vertex 838
property float x
property float y
property float z
end_header
-0.0844285267224631 -0.0482172967583174 0.255185863035049
-0.0904362064950487 -0.0333657256211343 0.245613951934359
-0.0872489295556324 -0.0122881923192664 0.248629254982779
-0.0875887051771507 -0.017154003615633 0.248631902692011
-0.0908609157677366 -0.000487881224085285 0.245067520993124
-0.0734358808492678 -0.251503835429146 0.238756438205073
-0.0702588324983033 -0.248598567188298 0.243496851550396
-0.0693549992445516 -0.243948379963147 0.248351177055805
-0.0700225864957874 -0.234289072933781 0.25543863376938
-0.0785715545046881 -0.224950891949102 0.257481513213825
-0.0738682177069997 -0.223865035195963 0.260466896105792
-0.0755468856528291 -0.21657407492732 0.264651719676106
-0.0714545942433537 -0.21189195295009 0.269853646805805
-0.0723704304887012 -0.207576564778945 0.271535335961158
-0.0775835997989794 -0.199332829906227 0.273526332101984
-0.0707966843579307 -0.194278701843866 0.278318014550368
-0.0723672648261306 -0.192089221372064 0.278840297885573
-0.0792435972453209 -0.179826963623367 0.280092255450705
-0.0741293522736186 -0.164128028902384 0.285392573268172
-0.0780689180980036 -0.15651886646627 0.282596109840785
-0.0730137830453676 -0.151246229360733 0.286623705446585
-0.075487924604434 -0.13670075733765 0.284615145937051
-0.0776730796578821 -0.13715315247662 0.283350988084519
-0.0722630787644295 -0.123283662599166 0.286104429370838
-0.0729215983646308 -0.108463298857342 0.285758431530947
-0.0821898476827849 -0.0848462442250971 0.27089293437102
-0.0781337830702161 -0.0812319642676328 0.273197212117381
-0.073811276257293 -0.0571460330675444 0.266661910414974
-0.0832993527440372 -0.0297870981593522 0.251492239676676
-0.0782784213705605 -0.0310010946921493 0.255492774236759
-0.0780047673328568 -0.0155127958350828 0.25622039256968
-0.0812884486309994 0.00584554197306021 0.249432820500141
-0.0759991960741201 0.00121188218777194 0.254783730656164
-0.0687279725848556 -0.247544295925704 0.245464126327436
-0.0601524337310917 -0.248003347080075 0.247005274048644
-0.0662783663520465 -0.244658553543588 0.249358205557127
-0.0610859885873928 -0.241525765408711 0.253056693947374
-0.0619952957413967 -0.231599393719132 0.260505645534187
-0.0612045713968525 -0.226906659870984 0.264190130010806
-0.0641405637069826 -0.223946469113878 0.265104716525515
-0.0631660918600059 -0.215565585595476 0.271107879979118
-0.0647690107606918 -0.207129332479402 0.274428071254186
-0.0649073826126487 -0.205032316681601 0.275345297775191
-0.0695654756431559 -0.19786047138336 0.277003115913815
-0.0684311704269727 -0.187207388668854 0.282566483572387
-0.0691736323519939 -0.178539174559004 0.285745578374598
-0.0694394426659071 -0.173609608914737 0.287182664907141
-0.0671134690036842 -0.167648686920934 0.289597858629101
-0.0630689932079656 -0.160579943500886 0.292769228145723
-0.0642079236755316 -0.155107350528176 0.293512872997843
-0.0687067461547095 -0.136600584748575 0.289016807504228
-0.0713742092134392 -0.127776726082301 0.2865664471342
-0.0692760824570862 -0.110818422202625 0.287529331249613
-0.0640676372134359 -0.108950075591978 0.290065011497581
-0.0640948970901304 -0.0897113730064129 0.28476056182854
-0.0695618806171047 -0.0799456024468559 0.277794542378225
-0.0687535918464436 -0.0616014909828981 0.271470041600082
-0.0668496454464299 -0.0417329226410334 0.265056919153662
-0.0711517735641183 -0.0191295369496077 0.261511098538522
-0.0686109284742086 -0.0189769486953587 0.263040233793357
-0.0690658337154853 -0.000586257092761841 0.259988372179914
-0.0720367020310311 0.0200514876269309 0.248624423705605
-0.0506718550990245 -0.251901347316661 0.244687794689094
-0.0529522992689331 -0.249348408390621 0.246918048489171
-0.0532849963215449 -0.246136094020207 0.250184359710286
-0.0533187160318602 -0.236731764090811 0.257371080266625
-0.0519599292097571 -0.229742663494735 0.262803242132691
-0.052291843145983 -0.222995587104558 0.267973818335051
-0.0526102859274487 -0.225315262504509 0.266158788368081
-0.0546431727989899 -0.214613179560543 0.273180502592932
-0.0559774107832945 -0.212173617877387 0.274542171119287
-0.0567761618833367 -0.204304308681575 0.278554647307394
-0.0602416641969699 -0.195200111456587 0.281524250982601
-0.057925796695632 -0.195183440288548 0.282350464524848
-0.057255334490715 -0.18414970284741 0.289379368640127
-0.061003104556963 -0.172422271595637 0.289569759131896
-0.0582519916194569 -0.177113769057845 0.291197989352777
-0.0554763277957987 -0.160177428836068 0.294708906824456
-0.0527709704882271 -0.153072219322789 0.29674311162665
-0.0533344964584555 -0.152483067229483 0.296740729079556
-0.0583979089775092 -0.137038982309516 0.295839433603762
-0.0558485554322107 -0.12662029954846 0.296254350001713
-0.0622641269001214 -0.103735712448891 0.290269025969287
-0.0570519059701093 -0.101519492135918 0.291822592214201
-0.0587124642057445 -0.0760375851777079 0.2822327561017
-0.0627876915540887 -0.0437325986121625 0.268027779154541
-0.0544128911303676 -0.0459412467193231 0.273623267633418
-0.0611435392687113 -0.028589871057066 0.267199649884176
-0.0598394281460865 -0.0247564637008158 0.26837050437243
-0.0630901704506819 -0.012824002768195 0.266371910995626
-0.0588034560226661 0.00754404979875998 0.261332038032993
-0.0625942736798078 0.0344248699392487 0.243007261831452
-0.0473561192666288 -0.253608016967007 0.243521674717238
-0.0482610302817282 -0.249600857774238 0.247507352049538
-0.0472606173393238 -0.244073442704889 0.252808389462806
-0.0459686409581157 -0.240256398883256 0.255686411965599
-0.0420600796114202 -0.231637014778088 0.262298230044513
-0.0435555384470702 -0.229069193004729 0.264048150704156
-0.0461063592121527 -0.220977672048022 0.27006308541646
-0.0448995723380378 -0.215495700944756 0.273065793376455
-0.0483356913824181 -0.208064382936401 0.2769368271312
-0.0458625450092466 -0.203642332090264 0.279455023706581
-0.0447723787089528 -0.195834874717583 0.283867610052485
-0.0428119585398367 -0.19252625698568 0.285623806269011
-0.0495469262430653 -0.182444933670295 0.28947032324519
-0.0460926665761606 -0.178925717131385 0.290865388911239
-0.0446350404119924 -0.171659798421877 0.293622117532846
-0.0488116817094901 -0.1669303148401 0.294208474249922
-0.0456533880703697 -0.158563450994159 0.297056203299196
-0.0475466978562846 -0.145171110626216 0.298704514434717
-0.0510511277493934 -0.139733216269899 0.299037107753009
-0.0494604780721258 -0.129130388446392 0.300830398973025
-0.0501444290468998 -0.109006200316719 0.295860179972948
-0.046883505869021 -0.107599421443697 0.297314775076787
-0.0462314427163854 -0.0941488396418322 0.294747432897111
-0.0497332233268124 -0.0674831903970533 0.284827899571141
-0.0467950674526124 -0.0618340795572976 0.284559451393797
-0.0494605685690485 -0.0406225904879371 0.274322919083905
-0.0489478145441128 -0.0267655721400526 0.274744064791411
-0.052206752951983 -0.00592794385732932 0.268937438477518
-0.0533231293898431 0.000135052336526863 0.266387180773383
-0.0532451768100229 0.0128274259375063 0.260902378180526
-0.0337838689396343 -0.257523267957955 0.242581454432958
-0.0406806091588874 -0.250791970727347 0.247648517099414
-0.0395029642963603 -0.244886828104005 0.253109891503062
-0.0345840820693929 -0.235844027077816 0.260139696670202
-0.0388341245130042 -0.232292983188455 0.262196288911362
-0.0345651751384692 -0.231013010680779 0.263598186665557
-0.0414265593652489 -0.222841536794845 0.269031027684217
-0.0338118549449377 -0.219212467726625 0.271519201030921
-0.0403334953020476 -0.212568859370125 0.274761300080451
-0.0392459998363483 -0.200724246428431 0.281167695713851
-0.0364691528845054 -0.194407939115278 0.284747060918293
-0.0375997648924361 -0.18795802886404 0.287099539103647
-0.0407006845519352 -0.186175092617369 0.287838142106351
-0.0395574827904765 -0.175884671167014 0.291683155913557
-0.0358194749195012 -0.170469946580755 0.293587146673535
-0.0378589048085632 -0.16620262705045 0.295370398960925
-0.0384067806449711 -0.149064218945603 0.299564926339441
-0.0398024934291876 -0.146162806532458 0.299768330784529
-0.0407102561859315 -0.135905678161351 0.301160194473213
-0.0400614655806677 -0.130127879703696 0.302179883617722
-0.0398889196785342 -0.122262558072883 0.302239414738124
-0.0391041583048914 -0.107736559945992 0.301640890372184
-0.0417347130193524 -0.0925785428566991 0.29612478847261
-0.0429684838945108 -0.0686384413702697 0.287088471969186
-0.0431749565496062 -0.0672632415900725 0.286744855293671
-0.0374324155648395 -0.044311273973952 0.280119627581325
-0.0436141837617316 -0.0332677124311939 0.276585855864846
-0.0381727295712113 -0.0283691280154529 0.279382547131513
-0.0355186819988144 -0.00586795025954163 0.274676751105412
-0.0452316397349743 0.0226244941252651 0.257454111863787
-0.0417058345812575 0.0333950164803178 0.250619704890296
-0.0244165029076908 -0.255479253806803 0.246025743684811
-0.0231994682852271 -0.248644410912413 0.252437621410474
-0.0294469325474133 -0.249555465728955 0.250924661499731
-0.0232598861006684 -0.24170507473334 0.257382234759481
-0.0265771485972518 -0.232347232297189 0.26363013136243
-0.0260662507983854 -0.231765352622495 0.264111723254422
-0.0280861129743569 -0.22287994245362 0.269935473080599
-0.0262326586563706 -0.221786999454243 0.270696455834736
-0.0289747317671864 -0.212429335328584 0.275242290666486
-0.0278448227016422 -0.206266247767194 0.278507779483362
-0.0322752314652433 -0.199724689982972 0.281802417663706
-0.0324389231161872 -0.191152542165741 0.285788687204036
-0.0273077862430843 -0.1853085212013 0.287725224789645
-0.0259877029040521 -0.177198275155826 0.290596443321809
-0.0272934183794211 -0.174645373010475 0.29155474509455
-0.0251174931911336 -0.164417164936305 0.294920238607156
-0.0266385345449252 -0.147542979584188 0.298640938138303
-0.0262756012648372 -0.15277738520483 0.297497084166516
-0.025458088190476 -0.137938426518547 0.300772619035436
-0.0299947381699236 -0.135008959574241 0.302014585200184
-0.0317303279316249 -0.117847278896107 0.30283483203522
-0.0334152862920431 -0.109672156071778 0.302815097522965
-0.0302654174913049 -0.0974026187939264 0.302829994275205
-0.0259188764240777 -0.0912019258499147 0.301952152348416
-0.0335750151403249 -0.0589687924512619 0.287934677291637
-0.0300941789475701 -0.0518132588659137 0.285767684709926
-0.0276023340064725 -0.0341009368856371 0.283781097311746
-0.0320989718658984 -0.0238959082115602 0.281038117908853
-0.030048327916574 -0.00432563587988038 0.274721010544682
-0.029523492577694 0.0117022074567933 0.266721467589952
-0.0150106445255377 -0.256911430301352 0.246135030125756
-0.0200643960695307 -0.249849384379573 0.251984603951842
-0.0212617447577163 -0.247966518546982 0.253172943842567
-0.0175527157826331 -0.238028266623535 0.260747110219305
-0.0176740493333552 -0.234519564754008 0.263235446083349
-0.0204777013668244 -0.229407879120133 0.266519620296108
-0.0185516047744146 -0.222001881866302 0.271415253009369
-0.022143340212391 -0.218230087072299 0.272963340988877
-0.0185407760888993 -0.211554274697349 0.276778379533352
-0.0187487682783333 -0.201904083502021 0.281708634274164
-0.0206756745610996 -0.200315937835222 0.28231572099426
-0.0184722535413108 -0.187067499137083 0.287562858186755
-0.0161550956079702 -0.184526959519732 0.288637487343887
-0.0158186134237057 -0.178318895590952 0.290784172624892
-0.0152749233324835 -0.164279490804726 0.294998595172879
-0.0157155713747599 -0.159046686270393 0.295934229628523
-0.0215175565846829 -0.157184133180881 0.296112367819978
-0.0199217864459264 -0.14375774101018 0.298807062495954
-0.0150548530867232 -0.130787359668148 0.300206015760998
-0.0215757157590221 -0.131562515656947 0.301050076033095
-0.0237551427529989 -0.121104014419472 0.302189258805423
-0.0169371080284716 -0.10631398504111 0.30234009327534
-0.0207502570974583 -0.095825879724422 0.302472593493482
-0.0189901501497211 -0.0860402088606437 0.301165768470742
-0.0242412625361674 -0.0612772060430921 0.292206080308178
-0.0211929421919209 -0.0461357410359535 0.286145737917279
-0.0211288289300991 -0.0392317902471623 0.285471816838257
-0.0169571222793449 -0.0240094073958869 0.283923694892816
-0.0241669706625185 -0.00842116454771395 0.27706553902698
-0.0231982654424041 -0.0040897287060342 0.275276375826746
-0.0121390833600544 -0.25656487778182 0.246921720381325
-0.0067530061506235 -0.253380238397764 0.250833397267039
-0.0129952581482352 -0.241506857687762 0.258856092460995
-0.00564871409647939 -0.243992624853149 0.258035667731845
-0.0114214435172097 -0.235888657421761 0.26306997000967
-0.0102745462145541 -0.229238141624133 0.267965173308745
-0.00489283333731728 -0.221415979109929 0.273190256622447
-0.00786071381002243 -0.216731129860348 0.275274283463807
-0.00593062847628934 -0.214027004825721 0.276870434149794
-0.00555416283939588 -0.205488349695136 0.281293307825284
-0.00853681511540331 -0.194336753767277 0.285978803048702
-0.00983288735701607 -0.192542201047917 0.286473950127912
-0.00519068380684723 -0.185356842310247 0.289341292646326
-0.00524330254835204 -0.179408297577757 0.291364488256823
-0.00764313487904603 -0.16735019973814 0.294999157412457
-0.00699191962244191 -0.168677923840798 0.294801966454678
-0.00952331065354081 -0.160823425909545 0.296066973499834
-0.0082512119748613 -0.154167157372832 0.297393731707513
-0.00702816669494154 -0.138658163464309 0.300355284944748
-0.0111323970772768 -0.134669036979033 0.300298035505617
-0.011271390880508 -0.121153250290627 0.300797110857459
-0.0131919956150054 -0.107196740775659 0.301563970105867
-0.00640741941809593 -0.0894372694210694 0.299687102582375
-0.0072072267376238 -0.0923374850532593 0.299963215753817
-0.00928211294627291 -0.0702101745138449 0.297976552136796
-0.00571754461383651 -0.070448356471362 0.296964957535088
-0.00947676858476692 -0.0517282915200579 0.299032204050259
-0.0122514598132329 -0.0486188128340408 0.297039709560724
-0.00978202045176279 -0.0144470186478856 0.280853587712712
-0.0111484283361622 0.00689011996251726 0.271229926887982
0.0035235995738182 -0.257401998949441 0.24744210621987
-0.000413624650749463 -0.251953197223221 0.252946825878619
0.00404825553066947 -0.248796301716291 0.254860774762999
-0.0025062216280817 -0.241350920750965 0.260328904984697
0.00267209004749405 -0.237887345847494 0.262755696067523
0.0023431674658625 -0.230598187335037 0.267985882414627
0.00276382402052896 -0.227354212888644 0.270291378955746
-0.0021957610274239 -0.220274956265225 0.274066973773993
-0.000813727830348217 -0.210513208397283 0.279228022527277
0.00196406568321678 -0.207697557599028 0.280530862925803
0.00258939193434655 -0.201521400977222 0.283676387834995
0.00374884913934377 -0.197247286011898 0.285535339010952
0.001942234224814 -0.186106774501509 0.289394672914119
0.00404674266835227 -0.182180937595667 0.290670316772047
0.00414569572592349 -0.169661394424001 0.294967879136699
-0.00178245953566777 -0.166906055597073 0.295518222842408
-0.00306776170965591 -0.159761796071118 0.296744665220221
0.00129352710440165 -0.147356773632645 0.299188200164667
-0.0020313036421122 -0.143839932684927 0.299768723335072
0.002541373206735 -0.129613882250258 0.301134062497857
-0.000317584173015508 -0.116902566945409 0.301597672677276
0.0025487432442213 -0.110981042539612 0.301849630418094
0.00455051007477298 -0.0940922179403823 0.300592330044037
-0.000221471345744305 -0.0799369820930739 0.298942909876104
0.0038801511574083 -0.0742154739692776 0.298143261718771
-0.00292192798359669 -0.0636965036705715 0.295137770897061
-4.98207960888044e-005 -0.0550838695504228 0.299253590507878
-0.0015130526686229 -0.0321005986011386 0.295858220731077
0.00172530649753799 -0.0362110833146613 0.296959621790566
-0.00124593567034762 -0.000657631237747557 0.274804722929104
0.00817949228281859 -0.259089448581221 0.245320641329291
0.0102681508836333 -0.253702210845837 0.250344757958892
0.0109896535075862 -0.245617850943946 0.256600979370222
0.00746258790529822 -0.244478430703825 0.257683668155468
0.0132378825369135 -0.233332812268817 0.265234103325768
0.00958385127066576 -0.226455299825932 0.270464521612938
0.00456893605814513 -0.223592521764628 0.272230463882851
0.0102729286999964 -0.219236808809987 0.274173163993033
0.00855702845710236 -0.215456846032932 0.276203769306447
0.00961642213928501 -0.204139109203761 0.281990213261387
0.0101256231670286 -0.200668935931261 0.283771884397311
0.00962795127932639 -0.195552825458915 0.28593295589472
0.00465008892359308 -0.186435457837527 0.289199116275643
0.0119692596193249 -0.173309569392302 0.29350420853726
0.012111123130746 -0.17000247221327 0.29464546678371
0.0126247403992426 -0.165878566624764 0.295618000697814
0.00791127918225189 -0.158048868848204 0.297126326711673
0.0135151450467826 -0.147800572638046 0.299002042626548
0.0125742004970987 -0.135659111008191 0.300970355375266
0.010605440965756 -0.131835309836904 0.301102560047634
0.00795313466693859 -0.11974551612068 0.301556005035319
0.00812051409668364 -0.111030090680562 0.301912677533698
0.00978394138713324 -0.100945780172626 0.301532543788419
0.0115978352991695 -0.0796349723900338 0.299815473515428
0.00763542411337033 -0.0750225792929724 0.29890610672751
0.0124822345251711 -0.0584613512745426 0.29274086238261
0.0143812224659225 -0.0387173337249636 0.287034666787398
0.00903948981917486 -0.0357674814374227 0.296840759025799
0.0121348082620541 -0.0108538321867908 0.279355756449605
0.0114889931980881 0.00573760830785388 0.271846652189771
0.0178538984877891 -0.258952911118277 0.244467184543122
0.0181052663903455 -0.254284542153741 0.248996012186612
0.0192469835609792 -0.249193473806761 0.253417806312737
0.0223205653699625 -0.23995308633143 0.259810006882729
0.0218218721462905 -0.239951598297945 0.259845968289707
0.0228619842185117 -0.232435396309594 0.265210009870188
0.0161353408846261 -0.223517759543494 0.271670769512235
0.0162679250148124 -0.223426565797298 0.271710762403248
0.0145404093397675 -0.211293905613148 0.278040948471545
0.0191662720121952 -0.20297709205137 0.282153767866846
0.0187765224516096 -0.204246298591249 0.281511522725405
0.0145239504464604 -0.189930846097964 0.287701811156455
0.0156186798402812 -0.188163180659356 0.288271660144468
0.018470877522783 -0.175101315563158 0.292717133801736
0.0234839967282538 -0.175467130908647 0.292365124541588
0.0209041756741101 -0.169286622789407 0.294642591000979
0.0229856762354898 -0.155893417404701 0.297383343244355
0.0172645667749008 -0.145462843644402 0.299415091390289
0.0168517553758308 -0.135306037104385 0.301093245350329
0.0231176097589123 -0.129062641817876 0.301661043567558
0.0202063629183286 -0.113927711720206 0.302305734090555
0.0222375619485778 -0.113283692327895 0.302467005800775
0.0233011087425894 -0.0925110152229 0.301179622181526
0.0169540054750903 -0.086428685998894 0.300585570887566
0.016495328757198 -0.0734355106705324 0.298374641027524
0.0239923780075989 -0.0569853289508704 0.291417828871907
0.0201646184712906 -0.0413015824753875 0.285246832377501
0.017911205850947 -0.032009043622184 0.285591213064552
0.0163687474572207 -0.0194176190770558 0.282338817540586
0.024147492580664 0.0105151484420356 0.268683452569989
0.0288569023096715 -0.258309224009987 0.243999015400775
0.0311791399050005 -0.250046223494083 0.251828018479648
0.0234818163820856 -0.243047480277082 0.257490462342535
0.0301063473166139 -0.241093850869922 0.258440203395711
0.0292861274880655 -0.238986636638397 0.260021821174998
0.0251297434487967 -0.226849927637354 0.269091589371492
0.0287287953792596 -0.220751393211698 0.272411534424031
0.0304563372682806 -0.217723282443148 0.273717042047906
0.0291036318554147 -0.212761271384039 0.276415424286863
0.0316406209404105 -0.20677987320336 0.279111175715739
0.0302735644442109 -0.20094108548644 0.28225633016697
0.0252480621136412 -0.195915911127531 0.285302356399272
0.0279281882271224 -0.184719392161169 0.288915124189564
0.0256040950679567 -0.175647514160629 0.292155991502731
0.0285847775184752 -0.166873993431174 0.295072773277169
0.0258124933477451 -0.160250234062961 0.296529584249132
0.0253722182184994 -0.156890611255812 0.297167620931842
0.0269134542710717 -0.152143336063655 0.298043929184463
0.028511089912384 -0.132819276091305 0.301727478766751
0.0252052861724573 -0.126783844943796 0.301859409967232
0.0316106267133397 -0.123176579832702 0.301678040035325
0.0329019639128978 -0.112518868675794 0.301470717793566
0.0336969995985017 -0.0840088611050677 0.294077581995935
0.0257021414401054 -0.0812789828143104 0.296655785042671
0.0327623671994187 -0.0658293933717427 0.291732905540607
0.0313763882145177 -0.0445782861931044 0.281918273537086
0.0249975382844252 -0.0415628283140409 0.283862598292839
0.0328661552118587 -0.0219069143977787 0.279634382132302
0.0330661548806221 -0.013631558538851 0.27768565780723
0.0324173624052047 0.0297569609175185 0.255989051933775
0.0388172443851701 -0.254564733407086 0.245410924773323
0.0402766758050189 -0.249613849789802 0.249818592443244
0.0328132250891276 -0.244707526636483 0.255444537344933
0.0360370132040154 -0.237965030826479 0.259519907575949
0.0413926139161662 -0.238118401194285 0.258293361590912
0.0413808101672272 -0.232267481365198 0.262416565132363
0.0329283212642914 -0.220888204284243 0.271780870246509
0.0327700323513311 -0.214859297154031 0.274860939552668
0.0375877148461525 -0.20952408412177 0.276924027537956
0.0403853827542502 -0.202313433637111 0.280320470256984
0.0399183028205948 -0.199044212223445 0.28211694983962
0.0340690798106811 -0.188463855352274 0.287215925792212
0.0400899393067658 -0.180729355736908 0.289472030444641
0.0387542102765454 -0.180210290901424 0.289731494085009
0.0332922197834244 -0.17070773632517 0.29343943899084
0.0397975142663009 -0.159913119316317 0.296457781349456
0.0421575150785524 -0.153923330178276 0.296785517713961
0.039247267627995 -0.147938313104097 0.298186512771131
0.0347123423747994 -0.135171647639976 0.300835461094147
0.0423749040566799 -0.134670343920411 0.29936461561006
0.0414831320878092 -0.118877395322086 0.300449575511725
0.034812211119584 -0.108845311284175 0.301249034795799
0.0410889153812525 -0.091571862857849 0.29327084882779
0.0372039441345934 -0.0696315548259442 0.29140184262475
0.0377767152075824 -0.0650525758377307 0.29033391671747
0.0347901076446879 -0.048842949325768 0.281722718192845
0.0374561478996498 -0.0290124490524493 0.279020648346926
0.0400002351067027 -0.0138518895134335 0.275982138856571
0.0415489382536059 0.00483722537597389 0.26762643527722
0.0424634820085179 -0.251904126575256 0.246894980838129
0.0472715977659228 -0.244272146363571 0.252731508101148
0.0414639703693123 -0.244691033224872 0.253649426393528
0.0481347831620176 -0.238994725323623 0.256268059373452
0.0456709185401489 -0.23588870504817 0.258970178712596
0.0448062613495019 -0.223933244386348 0.2678595730731
0.044895288736222 -0.223927660687601 0.267846567767681
0.0446609851965208 -0.217526500629859 0.27191849020918
0.0488216473472047 -0.209376589682804 0.275560425628478
0.0441669191600905 -0.206809094808067 0.277478624878617
0.0469829691528026 -0.19797322727167 0.281851503434603
0.0442836452599714 -0.193591906802599 0.284504406950498
0.0423347654572425 -0.185404792337298 0.287677392364525
0.0469491715068811 -0.175210599707091 0.290554176425059
0.044425056125152 -0.176684656687023 0.290684852140404
0.0497620620495306 -0.162395917070831 0.293384692240292
0.0467121319163685 -0.157394840102589 0.295378962430156
0.0431789921089241 -0.141109317279767 0.298287207923064
0.0453931036729504 -0.135011281084183 0.298708709208742
0.04671691427661 -0.127309903974111 0.299325245554996
0.051591417373594 -0.115178092743307 0.29282441939527
0.0478954682746167 -0.099040529962582 0.291482972689239
0.0515654268513823 -0.0904847965088536 0.289833956768602
0.0523558341699849 -0.0759142157240424 0.28881514890365
0.0471807048144355 -0.0538292238107873 0.278220012080807
0.0534488754119924 -0.0371784918122444 0.271151873214424
0.0501754179484829 -0.028495420249463 0.273522202115735
0.0459586811381395 -0.0146631052056301 0.273976312657822
0.0505723281078141 -0.00726630959172436 0.269609173065647
0.046942576622829 0.0182606048756846 0.259165836397611
0.0590498195431804 -0.253393104828173 0.240647257125297
0.0517107221166181 -0.248635144194967 0.24752245620793
0.0576141070276865 -0.240693037035517 0.253092179636599
0.0523984904538675 -0.233741351120438 0.259145812566151
0.0582883751912053 -0.229081034563161 0.261458301897506
0.0573807114116309 -0.228153179628699 0.262319088865338
0.0544881539405736 -0.221912124321419 0.267490711894274
0.0554956476829333 -0.216197643808046 0.271144709500155
0.0556937802848579 -0.207345573886311 0.275555976393029
0.0581363403352895 -0.199739046962749 0.277985172384919
0.0542296615534696 -0.197141828174936 0.280713057401081
0.058681362675153 -0.189541427448625 0.282411791844402
0.0585706733758285 -0.181511255526587 0.287670782129787
0.0612858698761929 -0.166961020412953 0.288690538531458
0.0552083540428428 -0.175590514061377 0.290336744999594
0.0527941539100823 -0.160602097021004 0.293028823506516
0.0568061085967483 -0.150438154390558 0.2942181833496
0.0556300169869963 -0.138830356049872 0.294323887845938
0.0526247346682365 -0.134683428105738 0.295970334481245
0.0588817246039723 -0.119695432598845 0.288453500728506
0.0603951237327866 -0.111279402424432 0.287769558290402
0.0600363664121089 -0.0936900057083305 0.287239992444616
0.0567506851864061 -0.085857257171702 0.287877003895933
0.0563850923549237 -0.0717882424967575 0.285496464322022
0.0561241051425389 -0.0661754577866184 0.283360834745841
0.0619907518815765 -0.0254513708642887 0.266405830321682
0.0644114702198374 -0.0139364240561388 0.264340809012727
0.059227426957457 -0.00900080795593779 0.26608343816506
0.0582055620231571 0.0131330353938705 0.258867953661963
0.0610954730087831 -0.250817972335107 0.242643280483057
0.0671398542176512 -0.244874567855289 0.246116540658855
0.0690635977443261 -0.243188460782501 0.246292271518561
0.0656147459848295 -0.233647242530531 0.25554990254353
0.0664406916054926 -0.234212300718786 0.254749007448768
0.06612906543494 -0.223924040459679 0.261559690789618
0.0650706000310415 -0.217183866143711 0.266516630319906
0.0629880117345158 -0.213813364173804 0.269737697102955
0.0660195724938657 -0.20803056253145 0.271114086067861
0.0667604009175776 -0.203023431956564 0.273060356558696
0.0670983454310606 -0.193677220391197 0.277168357965224
0.0693365875008542 -0.190031073394382 0.277981655535244
0.0617782641259846 -0.181198105250052 0.284463402223878
0.0670705302327462 -0.172273971403336 0.285447201622383
0.0625316170942713 -0.172259479665516 0.286772494136207
0.0658112453239124 -0.154583194209531 0.288002112269291
0.0677240653052843 -0.135923684813078 0.284720576495441
0.0684501862132647 -0.132640085920792 0.283563936246328
0.0645284338545247 -0.115027760087717 0.285639175817019
0.066344568483898 -0.11035580187304 0.285008143115501
0.0641279749540746 -0.0999150420561598 0.28623778856361
0.0658439290646496 -0.0918891286612844 0.285180480026513
0.0679835545780802 -0.0843544107968757 0.283958962576182
0.0658088993789931 -0.0741985010541487 0.281340173989916
0.0707228457391585 -0.0370972691528359 0.261291240293219
0.0713199521049077 -0.0271044249672663 0.260732460924075
0.0712480066651732 -0.0123544755605769 0.260166711725517
0.0747434406887305 0.000289604549348121 0.254347156061802
0.0694399967477896 0.0336867454784429 0.240192702880941
0.0757924310448258 -0.248677450143046 0.236665423187453
0.0770439387847318 -0.238592820664356 0.245027224643117
0.0775615710030616 -0.236533899814305 0.246610737168684
0.0727603849571117 -0.233720472503747 0.25173171153118
0.074853360187975 -0.226250223700569 0.255453002859304
0.0767468005783761 -0.220651243703111 0.258089878981053
0.0754158929694851 -0.212854914713268 0.264027248978975
0.0752714959446886 -0.211175937199619 0.265231649751899
0.0753133056929968 -0.20302142050835 0.269636175186423
0.0705391255130852 -0.198914992701112 0.27338750777474
0.0722478647841429 -0.189744398625997 0.276966811486916
0.0726295514567611 -0.180485793713158 0.281123029449467
0.0713753933598745 -0.175117029246394 0.283120960275054
0.0751444833296542 -0.168292692621082 0.27980118604593
0.0717520882658071 -0.15955999080724 0.282779602388393
0.0720469539059562 -0.141119794137655 0.281874277502763
0.0714445180982094 -0.144028681557717 0.282541292114094
0.081351298016183 -0.12052028628915 0.277512678391239
0.0737421211291016 -0.113550302570687 0.281356603286782
0.0790414419709412 -0.101938457673368 0.279152760788732
0.0796545759012141 -0.0921091537214516 0.278992941159516
0.0815638922857226 -0.0787318616202957 0.273220722949944
0.0758404949213339 -0.0579765491866999 0.262913033061635
0.0764075076368282 -0.0370384707144636 0.257247657875318
0.082101437707551 -0.0239884431141918 0.252220035918768
0.0749715362395147 -0.0188621314144226 0.258010139781623
0.0819894596278375 0.000739385458678763 0.249311815979492
0.075333676129016 0.0125795459897352 0.250308448223451
0.0783116932440066 0.044294027747759 0.226269369031162
0.0815887391236147 -0.249424857807217 0.231953266772012
0.0835757666833072 -0.23990416597093 0.239260985488613
0.0814860485841409 -0.233417618162916 0.246829524268383
0.0828541766702429 -0.232521313335764 0.246726475706396
0.080377904646901 -0.220590971873686 0.256234926768537
0.0862066496242307 -0.214973135207994 0.256969947331007
0.0809838091038987 -0.214018852178983 0.260338040488444
0.0817429982498198 -0.208816150873984 0.263440276127321
0.0804185850772734 -0.199341778919857 0.269279978166
0.0806335378441977 -0.196476908652612 0.270527831264996
0.0836793341663331 -0.18621129194649 0.269376323310587
0.0831557799254453 -0.179323940958306 0.271064022389788
0.0875827918837821 -0.159986152829873 0.268798774389859
0.0876580405037351 -0.152047701350692 0.26953100423756
0.088975015552134 -0.14571276028937 0.269516487927401
0.0903734354031211 -0.133987811649567 0.270172135873732
0.0866616452003931 -0.129464044874027 0.273268774225467
0.0902246996264607 -0.116820422255425 0.272926647010046
0.0841398359676473 -0.111051591045665 0.276535017251955
0.0902619157991898 -0.102533783514045 0.273353995248333
0.0911480798792404 -0.0949473326026021 0.271649678777976
0.0880213451666902 -0.0589240698128979 0.253635673755101
0.084897825009451 -0.0530748916499507 0.254528543938391
0.090983492135649 -0.0268190560444506 0.245135494007282
0.0944428957616089 -0.00820691693992359 0.240903840352379
0.0862828005718457 -0.0041472579471041 0.247284008942895
0.0861340156185693 0.0153384357984178 0.240666643673445
0.0941149566372025 -0.238615581463347 0.233168924480184
0.0908126139110996 -0.237479988140982 0.236530071238458
0.0936846964533415 -0.228830985699603 0.242698268659072
0.0896554045700998 -0.225066937980037 0.248406097865587
0.0938360800605026 -0.219642827731278 0.248033480672914
0.0971166381155662 -0.20702802807559 0.24859665782884
0.0906667381943507 -0.211684421784438 0.254857420873143
0.093622114954006 -0.196694158373359 0.256430876631475
0.090190353778745 -0.189822294742455 0.262051651977794
0.096555616756276 -0.181987519717492 0.256783766038275
0.0955489047254658 -0.171493338015919 0.259201569737849
0.0989373012987128 -0.160280755084461 0.258876215145042
0.0948490836593435 -0.15386192112168 0.264003220246652
0.0974460594097775 -0.149535890965703 0.26300725669263
0.0943108640779869 -0.147668692105796 0.265845839898842
0.0965934972313104 -0.134678509993155 0.266083528458183
0.0944641762024647 -0.127645522425754 0.268534859261699
0.0945268923120898 -0.117423088138217 0.26977707902679
0.0988793167470526 -0.0923857077816497 0.264459279821371
0.0976355720620112 -0.0850857226676929 0.263340232690863
0.0975392332996444 -0.0832301939204837 0.262767978144351
0.101405209618161 -0.0379308068864373 0.235987615049659
0.100120162999012 -0.0260759884050394 0.236085916552612
0.0943620611223887 -0.0149793408243829 0.242169279234124
0.104848082831852 -0.00430859032755967 0.22935847342996
0.0981087859176804 0.020054120423718 0.227425377294951
0.103423978925224 0.0285258561941284 0.21950610652241
0.101506361464623 -0.235739196349148 0.227614180423179
0.105208778128805 -0.227128788703942 0.227373757752523
0.106425472393601 -0.219681891544072 0.230130210827192
0.100294423116527 -0.220931259306719 0.238612289727277
0.102098309814507 -0.216191069587042 0.238550913924297
0.103798787941111 -0.204004755465627 0.241451835048749
0.103510340983045 -0.198750613536146 0.24367288213575
0.104532123079288 -0.191097447316425 0.244796984325726
0.0984021796475085 -0.185065486698642 0.254183132066708
0.105867235413085 -0.17323304824581 0.249879011217848
0.10834093392272 -0.162552632858776 0.250392413252155
0.0994085773242921 -0.164805325262058 0.257375762999662
0.102584753972587 -0.156474470403743 0.256728294206885
0.102656511699782 -0.149236515282616 0.258639516493798
0.103438979424669 -0.136132869022403 0.261512312011322
0.107289420516923 -0.127405239240316 0.259837893502226
0.102109538556082 -0.120591155123134 0.264072791956232
0.105456029226685 -0.115169759019345 0.262067657436001
0.103594734022091 -0.0880781864170494 0.25837252001617
0.110615807613853 -0.059688010679681 0.235121458152681
0.10657609740304 -0.044835480954503 0.232297762997614
0.110663336657364 -0.0332308236650844 0.225313811118667
0.110146537481444 -0.0172439576337194 0.225376503203871
0.106023284430632 -0.0102056382809252 0.229210978384417
0.11550371861678 0.0208783967330317 0.207487812995627
0.109288621554412 0.0242222593759037 0.213367050774445
0.114069988086219 -0.225182161844429 0.215111173909117
0.108648634186263 -0.223554950276724 0.224378486377287
0.107718569715964 -0.220232195997246 0.227874499470074
0.106945797189553 -0.215415325634623 0.231726539214858
0.113234839250609 -0.202348026749025 0.22958702563521
0.107303075149645 -0.198242368824505 0.239182165106195
0.112676792208992 -0.18921162431467 0.235981371027223
0.108062208119362 -0.189859587598298 0.240854739399654
0.117478934384632 -0.173421874610994 0.236676344421437
0.118175919614027 -0.162728831267104 0.240538505767495
0.111633499740128 -0.164176264559887 0.24722001964209
0.110251508190765 -0.149432084723306 0.25209421201814
0.109496812967847 -0.152474524468376 0.251878860617134
0.118475810245962 -0.135778358110984 0.247829689215889
0.111086697502856 -0.137480092690282 0.25475994708526
0.112781518499433 -0.118136666108523 0.25654722916151
0.119223656409427 -0.106923083329732 0.24718821504799
0.121515893549717 -0.0590448903851045 0.217492608560884
0.119459804655443 -0.0388658488499061 0.21498466556459
0.115894112530477 -0.0426530836429595 0.220979591660496
0.11747158477659 -0.022660304235064 0.216044863160039
0.116222833290529 -0.0208450626535744 0.217753026536687
0.119668033261212 -0.00999046788535661 0.212375787779723
0.123240293390697 -0.217593187414607 0.20470570363445
0.121504981534791 -0.21389432916943 0.210779550655261
0.119475188688681 -0.210643937150193 0.2156274594075
0.120581158183394 -0.203616143984828 0.217931196195455
0.120253287693917 -0.19122151790358 0.225629768704701
0.118940957542493 -0.188802706459103 0.229193848789511
0.123569516275 -0.176572538591078 0.228724597232724
0.120555924886994 -0.179912698137532 0.230791939738325
0.118833082677139 -0.168822058953555 0.237089472907073
0.127704902370391 -0.153830941081501 0.233444647287286
0.127028964303506 -0.152228726675289 0.23478470671279
0.118896664222832 -0.152792431096585 0.243870329956345
0.128171177110424 -0.135439031181435 0.238379270687444
0.128171944709538 -0.128867461247385 0.23947909292369
0.127201833325135 -0.111261057814638 0.237408889531452
0.123788745698604 -0.108496928738347 0.241365832742101
0.122113465320909 -0.100647244316933 0.241687695219941
0.125588211534249 -0.0501371602528181 0.209447498597878
0.124308955516992 -0.0385447960662813 0.208126495076966
0.127468999678541 -0.0265664095186608 0.202407314281488
0.132016028043764 0.00714161655280371 0.188215669396969
0.128109763131172 0.0103301365561584 0.194769069143524
0.130009814418988 0.0130982049613836 0.190292925455594
0.13205714184028 -0.208056712478224 0.194140056889445
0.131692769285239 -0.201554166064933 0.201309926407926
0.130090284813342 -0.197098205462527 0.207459002268196
0.131966188811221 -0.18784747345615 0.209870884076532
0.132804820563975 -0.183189912108885 0.211451220215086
0.131219780198819 -0.178895080336915 0.216802846217257
0.134742388576201 -0.174996545940189 0.213926645398739
0.131394384260936 -0.166515659686765 0.22388418568694
0.13382648154589 -0.156736082195829 0.224468527748513
0.13043276144541 -0.153518884401305 0.229882240967171
0.129026087808101 -0.144339722315771 0.234429394727685
0.134956303922064 -0.136040651886722 0.229189056359328
0.138749613909023 -0.11940123272661 0.220628987779615
0.132792186050445 -0.115261231712488 0.230796170128393
0.135888022901753 -0.067302810403686 0.196153409818271
0.13651179205222 -0.0536654437584516 0.191267124216225
0.134843590719677 -0.0473111886291299 0.192615598746083
0.141302807595676 -0.0160402072972818 0.176054841995363
0.135115598687925 -0.0287300533936429 0.188503171584366
0.14197970934757 0.00950084924133382 0.166101564845094
0.141170001912975 -0.195134977864256 0.186266773492183
0.142375158897609 -0.191801617256259 0.186995425185754
0.141274802421554 -0.186384591139861 0.195209180757135
0.140208876932391 -0.183324655659097 0.200159776295484
0.139852090665652 -0.175318756587363 0.205745312162739
0.13746128066743 -0.170605204002712 0.212633865197949
0.137656939286632 -0.167571572078372 0.214363704104208
0.143363365812709 -0.152427132545627 0.210945031299131
0.144202475966398 -0.149157457682653 0.211078126104719
0.148131790337652 -0.125633358481318 0.202684421315235
0.140591090064471 -0.133794499091537 0.219962040032249
0.14108802144453 -0.122034557723093 0.216725098628631
0.150694452352402 -0.0520206797406268 0.155251570879575
0.153441142076619 -0.0230046772264314 0.137955638774688
0.150610662971337 -0.0198587387015402 0.150663655644181
0.147457160820865 0.0127192759981587 0.149448653919757
0.148721062587675 -0.1848997303508 0.179655041522639
0.15080405713016 -0.177291434400014 0.178979907170158
0.14634197438412 -0.177501757804759 0.192009157733268
0.153970327916983 -0.164861282169887 0.17919555869689
0.14833218993595 -0.167646193334312 0.19420375360115
0.151276573179444 -0.15848189425483 0.192565369094512
0.154507485041691 -0.139078950918044 0.186357377032434
0.151312466351237 -0.0740691819799544 0.159791756237738
0.156023494449198 -0.165999879584298 0.171616919063247
0.159930850025313 -0.145053410420065 0.160769151520778
0.160049691202597 -0.136424716717646 0.160150440994479
0.147130195201881 0.0515242821516494 0.0780155995940738
0.148846444050503 0.0442567892480423 0.0604299941189765
0.152316459259685 0.0390697916900732 0.0820074932264632
0.149566094385051 0.0442306852528387 0.0837235807575713
0.145920208539359 0.0539179823908262 0.0827827393538808
0.147145405263388 0.0473939143488513 0.0969371711604284
0.14691431091212 0.046282793909492 0.10552793199593
0.143165431785736 0.0529280724995087 0.113410414065122
0.138398886812507 0.0609175173712758 0.116795454280847
0.135717553321048 0.0633654484085018 0.119591884704345
0.136195407753293 0.0566233148664059 0.135578227845054
0.125232401902398 0.0734919653200571 0.12492266825669
0.127993745893709 0.0627825289371941 0.145965349952482
0.122154186224141 0.0736643532116501 0.135727930455394
0.153925286461528 0.0293898051213391 0.0788542909677674
0.155538611358154 0.0145008190558426 0.0961362190226494
0.153274559032265 0.0255883192570314 0.102028104168556
0.151911564391339 0.0281361485241904 0.110746850119072
0.150532812492469 0.0369063547316454 0.106693483945001
0.150060472390787 0.0306170689060662 0.119325416133779
0.148830819012285 0.0248967528532937 0.131844028999749
0.145004642501752 0.0294159494530375 0.143048907185445
0.142549029728248 0.044901123451771 0.135454697233281
0.139010567176643 0.041296479244106 0.150429229717762
0.13436143388166 0.0464114675012158 0.153738513034439
0.134565432461787 0.0399772219083944 0.162917545966683
0.127605692239158 0.0527964731857636 0.162856389387065
0.111734555102599 0.0771489503307302 0.149049601906344
0.12053182794114 0.0543603028542323 0.174465024616261
0.107432965804102 0.0750259774164092 0.161906652425998
0.156134229975393 0.00729804382695808 0.103347782247222
0.155608299136076 0.0123813611201624 0.10026027297166
0.155185696857031 0.0063126993476672 0.117686423685922
0.15369218936041 0.00292098040693953 0.127296948234714
0.15400805190167 0.00689139742509216 0.123653955525638
0.150784929033456 0.0206350207008352 0.127072285879374
0.14776994002934 0.0216995542216845 0.140287566369042
0.145527811774222 0.0279370365571932 0.142549320388149
0.143800598042993 0.0178103043764851 0.156271131805565
0.141854628111562 0.0259160365266711 0.155007783963581
0.138098628771235 0.0178259581292296 0.172175269044018
0.133217399966277 0.0316574972893181 0.17199206800348
0.130771479021564 0.0350146066550154 0.17412236425083
0.126709894277393 0.0373490012070451 0.180600054291977
0.118357080296213 0.0436196229225262 0.186866550483974
0.114953444867747 0.0503580235595085 0.18733746206334
0.111071656216805 0.0489434696026821 0.194744905658626
0.0978390831311304 0.0662783605547699 0.187499281716119
0.089212625162991 0.0815324947033129 0.17103734185326
0.156944816253712 -0.0117992066190368 0.112871000607109
0.155701497417206 -0.0132640199717946 0.125193860458262
0.155875759509132 -0.00994909049009228 0.122654290109492
0.154052019156446 -0.0055675840088712 0.129712864755915
0.151976210876236 -0.000950396652208255 0.137671728222227
0.150401045894968 0.00433336103036166 0.142395519294954
0.146250022411647 0.0052349756406684 0.155746626060285
0.14424082159587 0.00187767548848792 0.162710201989849
0.143807424119619 0.00392578174588798 0.16313186883971
0.13996417931115 0.0103524839047798 0.17143716264373
0.139034521694657 0.0179209661871152 0.169660678004201
0.135696646929286 0.0167702489830799 0.177421031767291
0.130979606528086 0.0191774503099498 0.18458826338734
0.126091121771257 0.0305495938532016 0.185501977342016
0.124734584252098 0.0253948310697502 0.191530274577286
0.118034012468949 0.0334503509510505 0.197679445453401
0.111269039569248 0.0326374207263394 0.207409132541068
0.104733368608152 0.0490081617370655 0.201170759708435
0.102272714629502 0.0490733479707343 0.203352192295182
0.156790219620016 -0.0259455466788775 0.12081663478116
0.156466701104797 -0.0263266122535594 0.124106382569043
0.154407509984239 -0.021608539200643 0.133356447634801
0.152063850015344 -0.0137575843312765 0.143885257105549
0.151691238599039 -0.0148406088553854 0.145894720145027
0.147878507792068 -0.0145576025909847 0.157824686964062
0.144624112050822 -0.00950701891408214 0.165913646931423
0.143277655031542 -0.00324198887431555 0.167410286822934
0.142425296438815 -0.000540365202567327 0.168755648525469
0.140062866971026 -0.00992403045776724 0.17784747379708
0.135906851820415 0.0022511359512156 0.182199684208184
0.133565290122492 0.00306317427625083 0.186455988288676
0.131153335672473 0.00842234373740846 0.189490974646719
0.128087843665303 0.0112464050708909 0.194537828134183
0.120482611526578 0.019591578997285 0.201701396103736
0.117747269239617 0.0160349052077385 0.207271890628957
0.114196352309596 0.02699141121059 0.205598109742469
0.106343595098161 0.0392004286325802 0.206673949800568
0.101291750815125 0.0376459173198828 0.214037594863774
0.0913706480227285 0.0494161858540223 0.212049863712817
0.089577683834588 0.0470388688899527 0.216145004600466
0.0795744381049343 0.0519520000658596 0.218883638093648
0.0624777235563179 0.0763479900255391 0.200206472241739
0.156018458941835 -0.0306136911985104 0.126467926797855
0.153068748063431 -0.0343255901799898 0.140202207739099
0.153278544574955 -0.0390099813242838 0.139590165017705
0.153020491710072 -0.0316707285328599 0.140250913306807
0.149208343453738 -0.0349076742643592 0.155671874714118
0.149221425103265 -0.024745094332659 0.154820450224001
0.143774245116383 -0.0204238485290521 0.169538313602509
0.140505603985856 -0.0210988516630416 0.177897449679942
0.137893730266923 -0.0234860086002675 0.182945361424064
0.13740198814156 -0.0190881772157929 0.183557811926927
0.133903968583351 -0.00556077099646551 0.188378125150504
0.133202904946996 -0.00244026816952101 0.188794048533089
0.129511518504649 -0.00969317214185952 0.198049639296613
0.121537302384832 0.000711781304805771 0.207261076670657
0.119123605418026 -0.00206039527749836 0.211275644467224
0.115304847774697 0.017864844544903 0.209438095169396
0.113367190056299 0.00730366399995763 0.21710480327464
0.111091441071868 0.012680213269223 0.217843253660292
0.1027942297248 0.0217602726845844 0.222303553498091
0.0951033920770612 0.0234855840980007 0.229599615027184
0.0848773132563896 0.0346085839095386 0.230647277859297
0.0821002341370388 0.05160594727556 0.217670640345283
0.0719148630901685 0.0588907343782032 0.216260877872272
0.0602555503466651 0.0619308267520996 0.220706804761047
0.153792130877349 -0.0471086934568569 0.138280888405213
0.154650423970529 -0.046640032975678 0.133927148126617
0.150571151321494 -0.0476769691998575 0.15415463090174
0.150572845550508 -0.0338935903686267 0.151852085340475
0.145486760727259 -0.037671296694926 0.165978252326504
0.14567282659075 -0.0406251004683417 0.165760039837203
0.142798122682806 -0.0280688706912453 0.17265357591986
0.142804119248982 -0.0267591522338124 0.172567885416086
0.138071576409216 -0.0329888612518151 0.183275468657912
0.135874737439389 -0.0237870722660549 0.186739769141181
0.133688731379605 -0.0254388445287854 0.190940483213806
0.129886009687313 -0.015382807416883 0.197762609028144
0.125178223900425 -0.0105345110894311 0.204833765295935
0.122656589958586 -0.0118931360990897 0.208427226220417
0.11601234131746 -0.0110101983456591 0.217710856855116
0.112137372526253 -0.00584959400608209 0.221902720874152
0.108379229569277 0.00231614664127852 0.224491775368909
0.105287831123881 0.00317267334440732 0.227549690585291
0.0983953228658075 0.00842801546090844 0.232711125570868
0.0974947267802602 0.0142996602739559 0.230785735399632
0.09167760213641 0.0242557162115481 0.231891692556211
0.0863495559774501 0.0214746661887651 0.237733980101612
0.0712113238992457 0.0474660285059419 0.22773886995397
0.0720237486959058 0.0371921990648163 0.236261227250123
0.153735715782092 -0.0661644749433628 0.145758049441998
0.152467957238161 -0.0552508159163633 0.147894782642945
0.151762816444558 -0.054441224700946 0.151005180408126
0.146725376168964 -0.0535541467985903 0.167013811084734
0.145347370196484 -0.0528429079221135 0.170702662932858
0.146420521282675 -0.0521877126330829 0.167443832597945
0.142712219385382 -0.0493447294892579 0.176984452439357
0.139766818811707 -0.0403186566996939 0.181105510187255
0.134508459708112 -0.0425850996239051 0.191877511247474
0.131359252259665 -0.0388321234423508 0.196834052841851
0.129389023816709 -0.0285847195303315 0.199312568498654
0.123877182005687 -0.0290992907230427 0.207479684970747
0.124075766982664 -0.0293065783146456 0.207217296191886
0.120608812138085 -0.0261701586861607 0.211823234182734
0.110476781683817 -0.0170731357796617 0.225027401375171
0.110258671496284 -0.0210454951327024 0.225372800566253
0.104151882117896 -0.00817377773336302 0.230782999868609
