ply
format ascii 1.0
element vertex 829
property float x
property float y
property float z
end_header
0.10493301212659 0.0261393186731074 0.0400194616036898
0.106076608139152 0.0218089555303409 0.0468957832755941
0.109877385135051 0.0112154979504761 0.0531065539157336
0.10612499502529 0.0166139922864141 0.0691445621325496
0.114203839200251 -0.00121209067190837 0.0617928976318513
0.112721897180413 0.000500873942405564 0.0699629311296207
0.110510025739816 0.00293741249635297 0.0826834993420051
0.11153008913134 -0.00179180369645554 0.0926139544592729
0.107266180916933 0.00568408183047971 0.104960834781348
0.110018891719983 -0.0026742051658395 0.112464455293036
0.109139372534645 -0.000918153226751115 0.114073678081968
0.105003008133384 0.00152584097496513 0.134470826017671
0.105329670940983 -0.00340552485965198 0.138940378561274
0.112422845928448 -0.0187839613755248 0.130607873512604
0.111747375863143 -0.0276963769294135 0.135775591675518
0.110071573023323 -0.0276154205993765 0.140429931586587
0.110096941184652 -0.0405253643420528 0.145109744985616
0.110433863217232 -0.051925444765414 0.148363103026911
0.116247544891492 -0.0646506825127617 0.136795705229692
0.109174206439582 -0.0611080444909661 0.155263139286403
0.113037546511715 -0.105600367326155 0.137617968829577
0.112005720674851 -0.102834710099543 0.141519815699023
0.117772988091618 -0.00388576879878489 0.0357549145457845
0.125589181243817 -0.0475953261064385 0.0088264920954147
0.117202157108487 -0.0105717014324826 0.0649088882193295
0.121151688614718 -0.0300808966815927 0.0492322089861701
0.119925421957868 -0.0308917916112869 0.0643632030868653
0.117144264133307 -0.0206703159436653 0.0806571185888993
0.121445041538492 -0.0455867947633768 0.0690739835617973
0.120157081690274 -0.0415002810145934 0.0775866963615065
0.121535858381117 -0.0532891381876644 0.0795533034521646
0.123657838073137 -0.0664534667913147 0.0751393638286759
0.118412601022692 -0.0505467873625735 0.110906952177802
0.119825746344421 -0.0580508943666986 0.106080431174516
-0.335856828814179 -0.398791661824387 0.00408682979407313
-0.324885087820208 -0.404426945031668 0.00627629185010647
-0.318428831403107 -0.420613144817758 0.00627629185010647
-0.304331341698701 -0.435493678030593 0.00627629185010647
-0.356878674723841 -0.339565497513545 0.00627629185010647
-0.35749794863985 -0.34924705071666 0.00525222076548977
-0.349555000582118 -0.360080115418231 0.00627629185010647
-0.345543965397109 -0.373176306902936 0.00627629185010647
-0.339561854891154 -0.3783080994169 0.00627629185010647
-0.339505788076691 -0.382827311101293 0.00627629185010647
-0.335070234407304 -0.3848388431696 0.00627629185010647
-0.323258242554843 -0.405198242621139 0.00627629185010647
-0.311530991001103 -0.4094208873746 0.00627629185010647
-0.30968510834492 -0.412758875794349 0.00627629185010647
-0.307369134289713 -0.420383499965547 0.00627629185010647
-0.300716948882098 -0.43319509508154 0.00627629185010647
-0.288342628377436 -0.438894036424446 0.00627629185010696
-0.280591692535271 -0.457057296264982 0.00627629185010647
-0.265282870913699 -0.466339806616103 0.00627629185010647
-0.351313235803817 -0.336544752611899 0.00627629185010647
-0.34630468531117 -0.342714404816635 0.00627629185010647
-0.347491897426612 -0.342110878717663 0.00627629185010647
-0.335749857521146 -0.354993100109448 0.00627629185010647
-0.333845177395982 -0.363845851211243 0.00627629185010647
-0.322454985427692 -0.371325196642868 0.00627629185010647
-0.317521891224357 -0.385362733726431 0.00627629185010647
-0.319136281412007 -0.386260796689126 0.00627629185010647
-0.313443645547459 -0.397442988527059 0.00627629185010647
-0.300440310045422 -0.416649359138777 0.00627629185010647
-0.294904043406843 -0.413436868255843 0.00627629185010647
-0.29330032419508 -0.427623539619811 0.00627629185010647
-0.279148345573067 -0.437559932113492 0.00627629185010599
-0.272397423442434 -0.445058633751891 0.00627629185010696
-0.270632799379983 -0.45788746435078 0.00627629185010647
-0.268093338638801 -0.465291429444785 0.00627629185010599
-0.255340155409383 -0.470971284620025 0.00627629185010647
-0.348593230949518 -0.324098082097342 0.00627629185010647
-0.345017285605214 -0.336414222793856 0.00627629185010647
-0.336545266251367 -0.344867688325275 0.00627629185010647
-0.333372569100866 -0.353458822823853 0.00627629185010647
-0.320875383039324 -0.363262525704624 0.00627629185010647
-0.324181561737042 -0.365498646246104 0.00627629185010647
-0.308123678307954 -0.375116734627795 0.00627629185010647
-0.308785946994461 -0.378784125145908 0.00627629185010647
-0.307576289481763 -0.389005066266805 0.00627629185010647
-0.296837081647847 -0.399910026509746 0.00627629185010647
-0.28946378664349 -0.401756871689447 0.00627629185010647
-0.277311988509517 -0.421094797364084 0.00627629185010647
-0.27347518175326 -0.428634139589886 0.00627629185010696
-0.271854366307924 -0.432682046370003 0.00627629185010696
-0.262013773674405 -0.440987729499788 0.00627629185010647
-0.257230568368932 -0.456785744344664 0.00627629185010647
-0.246142806054162 -0.463486262036415 0.00627629185010647
-0.238806339130867 -0.477279045309389 0.00627629185010696
-0.345118085185184 -0.323583815189558 0.00627629185010647
-0.341825336610783 -0.32119048475759 0.00627629185010647
-0.330296010430662 -0.332410159466926 0.00627629185010647
-0.323289923750374 -0.348822724737137 0.00627629185010647
-0.310570028580239 -0.351424785464286 0.00627629185010647
-0.313199610309433 -0.360169563653663 0.00627629185010647
-0.309774039558933 -0.369121911984598 0.00627629185010647
-0.300445607664673 -0.374953235094201 0.00627629185010647
-0.291349941903382 -0.380609793445161 0.00627629185010647
-0.290184893304582 -0.397587159418662 0.00627629185010647
-0.277638920005236 -0.408727266095437 0.00627629185010647
-0.276468304529298 -0.411770235260471 0.00627629185010647
-0.268500933056289 -0.426919787716957 0.00627629185010647
-0.261295733874625 -0.431055249513695 0.00627629185010647
-0.255976585585913 -0.43320718906433 0.00627629185010647
-0.253682456435003 -0.44689888548282 0.00627629185010647
-0.245989052338223 -0.455012296870218 0.00627629185010647
-0.237246818468798 -0.471804932707227 0.00627629185010647
-0.233574945826025 -0.474001805377027 0.00627629185010647
-0.334609872184702 -0.307209541849855 0.00627629185010647
-0.323067010801497 -0.321492543792483 0.00627629185010647
-0.319312504795638 -0.327180863845102 0.00627629185010647
-0.319126941355263 -0.342003119822551 0.00627629185010647
-0.316803452787896 -0.340091408340341 0.00627629185010647
-0.304521570499174 -0.353738267735892 0.00627629185010647
-0.297865439488796 -0.356893857662635 0.00627629185010647
-0.296144754052159 -0.363878218632202 0.00627629185010647
-0.280997586152049 -0.381877847273761 0.00627629185010647
-0.285633309922332 -0.384473093064854 0.00627629185010647
-0.269655901787347 -0.393653263773301 0.00627629185010647
-0.273622828244085 -0.404667024176454 0.00627629185010647
-0.264611875197536 -0.410867072286547 0.00627629185010647
-0.253938692659571 -0.423916613580443 0.00627629185010696
-0.245872330468166 -0.432703149967279 0.00627629185010647
-0.237320627185508 -0.443251371295874 0.00627629185010647
-0.236066962225436 -0.447673169425292 0.00627629185010647
-0.232071842896915 -0.452828054844048 0.00627629185010647
-0.223934843370699 -0.469033115015471 0.00627629185010696
-0.221762306733856 -0.470945866053158 0.00627629185010647
-0.200929646222809 -0.491604057695112 0.00627629185010696
-0.327656044675738 -0.305069575967023 0.00627629185010647
-0.324720930273963 -0.316354820641143 0.00627629185010647
-0.319379646878531 -0.318531626104125 0.00627629185010647
-0.311535622345617 -0.325914627016734 0.00627629185010647
-0.307382504596709 -0.340521191596215 0.00627629185010647
-0.299170047359885 -0.348523997279128 0.00627629185010647
-0.284352350402139 -0.35588834092854 0.00627629185010647
-0.290706620680631 -0.361757945848349 0.00627629185010647
-0.281184356727126 -0.374707485233013 0.00627629185010647
-0.268332669562145 -0.378100468587026 0.00627629185010647
-0.264424639207978 -0.389894627594641 0.00627629185010647
-0.25827911729647 -0.400592064173922 0.00627629185010647
-0.254798045897817 -0.408370309690006 0.00627629185010647
-0.250009746392688 -0.405671335957062 0.00627629185010599
-0.242210491548317 -0.426941604878975 0.00627629185010696
-0.230045038756924 -0.437331704091711 0.00627629185010647
-0.223228652007069 -0.442626504442596 0.00627629185010696
-0.218664073838851 -0.442984857559172 0.00627629185010647
-0.21071785695907 -0.455361366529916 0.00627629185010696
-0.204531327532919 -0.468020982847568 0.00627629185010647
-0.201339230623849 -0.482817695159419 0.00627629185010599
-0.193405903632224 -0.490609100929932 0.00627629185010647
-0.326090674736039 -0.293192861438946 0.00627629185010647
-0.320170422902028 -0.30000631560193 0.00627629185010647
-0.309447117830719 -0.315124314681545 0.00627629185010647
-0.300170422888839 -0.325724797785256 0.00627629185010647
-0.292720908875921 -0.334502671086227 0.00627629185010647
-0.289019385530778 -0.33539247421012 0.00627629185010647
-0.285543006022089 -0.347307269533998 0.00627629185010647
-0.27221384785555 -0.35618504050066 0.00627629185010647
-0.276683055545655 -0.36212371345948 0.00627629185010647
-0.260986317460899 -0.371796270807743 0.00627629185010647
-0.266148303428202 -0.37422734954658 0.00627629185010647
-0.247679997299609 -0.396338628342265 0.00627629185010647
-0.241404417024786 -0.404262700643653 0.00627629185010647
-0.24180789331603 -0.406248272078596 0.00627629185010599
-0.228254727272526 -0.419698660744371 0.00627629185010647
-0.222499496258589 -0.429141845644175 0.00627629185010647
-0.216573273737848 -0.440925764166736 0.00627629185010599
-0.211364079448034 -0.444967569753354 0.00627629185010647
-0.21221510299616 -0.448751911122791 0.00627629185010647
-0.204130507812054 -0.456697540420464 0.00627629185010599
-0.193345930522908 -0.462361277348607 0.00627629185010696
-0.192216466956398 -0.474201659604016 0.00627629185010599
-0.177629862677947 -0.48209315328072 0.00627629185010647
-0.316606850343412 -0.28516142775849 0.00627629185010647
-0.311221911026915 -0.303218823667446 0.00627629185010647
-0.303718674792111 -0.307492736659237 0.00627629185010647
-0.291425841549332 -0.319107910159854 0.00627629185010647
-0.285409772684361 -0.321825371569016 0.00627629185010647
-0.284138270847967 -0.331290955412525 0.00627629185010647
-0.278745517227835 -0.338333214635034 0.00627629185010647
-0.26662261154325 -0.352420598844412 0.00627629185010647
-0.259177502504647 -0.366028674800974 0.00627629185010647
-0.257046076213787 -0.357467514793793 0.00627629185010647
-0.248292365053091 -0.370720459896951 0.00627629185010647
-0.241636815987812 -0.386291431138019 0.00627629185010647
-0.234971795828567 -0.3963869637209 0.00627629185010647
-0.233508287249558 -0.398613796790128 0.00627629185010647
-0.226436166753419 -0.406690991120407 0.00627629185010647
-0.216764978445685 -0.413159128761642 0.00627629185010647
-0.214357352379631 -0.427869341257077 0.00627629185010647
-0.206661004403321 -0.433556548701579 0.00627629185010647
-0.201707526699968 -0.448777426313337 0.00627629185010647
-0.191364574488646 -0.453898202978378 0.00627629185010599
-0.190041431634675 -0.459595505912669 0.00627629185010647
-0.170589311924873 -0.47568093230471 0.00627629185010599
-0.172043396299476 -0.483523811382313 0.00627629185010647
-0.168084132758149 -0.488195452423584 0.00627629185010696
-0.310069312231141 -0.286289369423334 0.00627629185010647
-0.300854571918882 -0.291314506505727 0.00627629185010647
-0.296062438655384 -0.299935016672241 0.00627629185010647
-0.281610471302285 -0.312319569771513 0.00627629185010647
-0.278217224881728 -0.318263718594267 0.00627629185010647
-0.269474759880414 -0.327226305991779 0.00627629185010647
-0.271723054635141 -0.334094552296749 0.00627629185010647
-0.267852112351124 -0.333838838004895 0.00627629185010647
-0.252796074727381 -0.352715967165899 0.00627629185010647
-0.246714985420571 -0.359090412389187 0.00627629185010647
-0.247604956603907 -0.362938386982329 0.00627629185010647
-0.239035221145625 -0.372693659774657 0.00627629185010647
-0.228414299366078 -0.38044771903097 0.00627629185010647
-0.222268377021996 -0.39450460427387 0.00627629185010647
-0.219892730922235 -0.39826806333085 0.00627629185010696
-0.214009474272847 -0.412840495856943 0.00627629185010599
-0.208856328231127 -0.42363671556464 0.00627629185010647
-0.196840678032551 -0.431185746992178 0.00627629185010599
-0.186459705912224 -0.439214418085207 0.00627629185010599
-0.182523613243847 -0.445445853568669 0.00627629185010647
-0.184717080699086 -0.451099012612318 0.00627629185010647
-0.16957246699234 -0.463035646709849 0.00627629185010647
-0.160791443087816 -0.47846032713632 0.00627629185010647
-0.157999440331104 -0.47651266493813 0.00627629185010696
-0.145728729578447 -0.497019208680665 0.00627629185010647
-0.295146164126538 -0.27856064564507 0.00627629185010647
-0.298396845429966 -0.282536881611054 0.00627629185010647
-0.287407708806153 -0.29233313681077 0.00627629185010647
-0.279498809230086 -0.299804562982517 0.00627629185010647
-0.271561378085504 -0.305797450336078 0.00627629185010647
-0.275013304993904 -0.316041179381497 0.00627629185010647
-0.269489566346047 -0.319754673583856 0.00627629185010647
-0.260647290399618 -0.333678402089037 0.00627629185010647
-0.243398412892434 -0.349185224384444 0.00627629185010647
-0.243462905197232 -0.344682464775362 0.00627629185010647
-0.232639626302187 -0.365777695551636 0.00627629185010647
-0.230917434006238 -0.370430104172069 0.00627629185010647
-0.223008302023254 -0.371641961237678 0.00627629185010647
-0.22143818864866 -0.389595995692101 0.00627629185010647
-0.211639089850143 -0.39326491572037 0.00627629185010647
-0.209349413017853 -0.404870016461842 0.00627629185010647
-0.203537552350525 -0.409235340729989 0.00627629185010599
-0.195921832353602 -0.416111035277413 0.00627629185010647
-0.183619190548838 -0.427815124607194 0.00627629185010599
-0.177935939461168 -0.442897752124368 0.00627629185010696
-0.17068644094854 -0.444688331187701 0.00627629185010599
-0.161918195023262 -0.457781437657942 0.00627629185010647
-0.150869242418698 -0.467448165337108 0.00627629185010647
-0.147529689779814 -0.469211116850556 0.00627629185010647
-0.144386722791839 -0.476771683673156 0.00627629185010696
-0.138414549797773 -0.493698461043689 0.00627629185010647
-0.336704404276658 -0.211750826747573 0.0813967388935609
-0.34839447799856 -0.1869914285766 0.110294869924365
-0.344582654075579 -0.195517000964415 0.113260928468108
-0.272951566424461 -0.300056252537586 0.00627629185010647
-0.331278601879741 -0.214061919445005 0.114571731243629
-0.325651023613797 -0.222310852855981 0.10819502300415
-0.250515455650314 -0.323594772256837 0.00627629185010647
-0.313388951119379 -0.236879438178991 0.118033731250683
-0.241481039855841 -0.334513745015821 0.00627629185010647
-0.239612647637683 -0.345688230019903 0.00627629185010647
-0.303128371555995 -0.249486852251479 0.123361533819881
-0.224525761646666 -0.357252206139113 0.00627629185010647
-0.215512544241852 -0.373825606042925 0.00627629185010647
-0.212119625863676 -0.373279940743851 0.00627629185010696
-0.207813750065817 -0.388038996277116 0.00627629185010647
-0.201669144606239 -0.394007923836456 0.00627629185010696
-0.190990093637825 -0.401720115461579 0.00627629185010696
-0.181831962110236 -0.419302260931301 0.00627629185010647
-0.174257120061307 -0.417414096425892 0.00627629185010647
-0.176671105541367 -0.426811942651809 0.00627629185010647
-0.162634732844577 -0.442240319680279 0.00627629185010599
-0.153955224808433 -0.446190370807918 0.00627629185010696
-0.148235763931677 -0.461799613047736 0.00627629185010647
-0.141660151867429 -0.476520048816988 0.00627629185010599
-0.131060803783822 -0.47958613905457 0.00627629185010647
-0.130188463879375 -0.478038988243613 0.00627629185010647
-0.119878261574686 -0.493810893542631 0.00627629185010647
-0.35327482482432 -0.173279190599117 0.118750907065698
-0.349088964795598 -0.184492954307155 0.113895557616116
-0.348622010488391 -0.182209129382024 0.128840767886216
-0.346737851155427 -0.184736989688071 0.132150486584342
-0.342699665425003 -0.192613341780082 0.134170913978402
-0.335872491116363 -0.203625828946206 0.134092445951773
-0.338434324847549 -0.186365503914704 0.152021453555435
-0.328235103431166 -0.213070295141067 0.13496563283844
-0.323989106090508 -0.210795108500105 0.148367403763397
-0.31589329467965 -0.226504991383796 0.139512815246336
-0.307129439315665 -0.238815309294586 0.137986987183501
-0.304132198409835 -0.243520238716405 0.136615949539768
-0.292741225809376 -0.253835676037552 0.136721066279626
-0.195700276943898 -0.378014704444998 0.00627629185010599
-0.194441951899876 -0.377811064244401 0.00627629185010647
-0.191243753229163 -0.386251456358777 0.00627629185010647
-0.179807291492927 -0.399768160279465 0.00627629185010647
-0.183710315624135 -0.400705770251149 0.00627629185010647
-0.173601803500308 -0.411796644402864 0.00627629185010647
-0.164340149302498 -0.424186476505493 0.00627629185010647
-0.152469272048865 -0.436235857017266 0.00627629185010647
-0.141856030324469 -0.440838659778713 0.00627629185010696
-0.135257802784854 -0.457511443001568 0.00627629185010696
-0.128205060679137 -0.457950915501276 0.00627629185010647
-0.125880480352349 -0.468756248320731 0.00627629185010599
-0.12090141297003 -0.480717068543596 0.00627629185010599
-0.118550614417323 -0.483485200008324 0.00627629185010696
-0.103249394485571 -0.499100099627555 0.00627629185010647
-0.360186440933366 -0.141108600320543 0.144191570511284
-0.354710853138354 -0.158647082417642 0.139531581216133
-0.350294643550685 -0.169185713540881 0.139664329964383
-0.345844954587195 -0.168638356617189 0.151844844075618
-0.344627756663381 -0.171085834368545 0.152374684822417
-0.339871357883395 -0.17459564273283 0.160976841714426
-0.337611540558656 -0.178755461828972 0.162374934959631
-0.334219631652586 -0.175758140291208 0.174443522481631
-0.331073291430659 -0.189216583856571 0.168118522521398
-0.328930117088791 -0.193919446971468 0.166279063403798
-0.316298639535413 -0.205109171114643 0.175327112650779
-0.310397318006193 -0.219488729895757 0.163847339036599
-0.307615872464976 -0.219499499036745 0.170050064837169
-0.302792395769298 -0.221886416067464 0.176742061980104
-0.299494193283094 -0.230218597065733 0.169818850046258
-0.177770440816792 -0.387780013164281 0.00627629185010599
-0.272670306502285 -0.25640559642989 0.165420014213993
-0.251318054937383 -0.287186191861928 0.133219767139607
-0.154325179691067 -0.410124181037929 0.00627629185010647
-0.156387450169381 -0.420039363831783 0.00627629185010647
-0.148357553128991 -0.428030362847026 0.00627629185010599
-0.148290099910433 -0.43019132647632 0.00627629185010647
-0.134011167289671 -0.439644538982966 0.00627629185010647
-0.12373110759582 -0.458723707566174 0.00627629185010647
-0.122181383091561 -0.463573744003782 0.00627629185010647
-0.11096129265238 -0.470543376427816 0.00627629185010696
-0.103838729269651 -0.485762644241542 0.00627629185010647
-0.102269615366345 -0.485569201779306 0.00627629185010647
-0.087008182701066 -0.494741499073823 0.00627629185010696
-0.357256649128206 -0.137588330790429 0.155620698390166
-0.357550726638095 -0.141496149280668 0.15063861657694
-0.355130521148073 -0.137266089669114 0.161506225200907
-0.349133391989543 -0.146368255151271 0.16730653797271
-0.346653149753893 -0.151908512387273 0.167789424584508
-0.344030927176669 -0.161841076616931 0.163903306814163
-0.340720324996554 -0.154013605881973 0.180780217545776
-0.336348203088548 -0.163333411831725 0.18193368320173
-0.332287840261253 -0.176517122700682 0.178656345051505
-0.327476632357631 -0.184291147397457 0.182363286712168
-0.327200248930868 -0.178908893288199 0.188011436189905
-0.318406511961431 -0.194672968591103 0.18731600064872
-0.314103527025919 -0.192607857343758 0.19690885158093
-0.311188779827076 -0.196277387225493 0.197028969095489
-0.300415021114085 -0.21369950005266 0.193881368589096
-0.301040244809524 -0.21102182409067 0.195615393657815
-0.289087151181838 -0.230657520465904 0.190620911181821
-0.288877414546928 -0.228626503457075 0.193982921131922
-0.273410033360964 -0.246438352289432 0.185516193791364
-0.145748666722165 -0.408545201613841 0.00627629185010647
-0.14051138852022 -0.415478049660171 0.00627629185010647
-0.132992177891578 -0.430982574905061 0.00627629185010696
-0.131303944328654 -0.43620171216668 0.00627629185010647
-0.119430798649673 -0.440349645281608 0.00627629185010647
-0.107260396957135 -0.458028573445848 0.00627629185010696
-0.104436821139971 -0.466608534342901 0.00627629185010647
-0.100434471119984 -0.474035661544913 0.00627629185010647
-0.0875788083493614 -0.474915602627275 0.00627629185010647
-0.0861856040579037 -0.487514261553555 0.00627629185010647
-0.359242281167396 -0.127247359964625 0.15531575732839
-0.356692471954578 -0.133625948836678 0.1600956202207
-0.355944914082399 -0.131528025751895 0.162957174648451
-0.35299935013691 -0.124035733320779 0.173947570034051
-0.349101089840562 -0.132760169945261 0.181353102770213
-0.34328639169304 -0.142491119754891 0.185754221664964
-0.344585290502422 -0.139803817303841 0.185335461757923
-0.337588318739916 -0.157726641760051 0.184373199087101
-0.336356387527177 -0.143727963484927 0.197853944129526
-0.329317344637749 -0.160330927600185 0.198082613332623
-0.326232169428837 -0.162809038037149 0.200990893078967
-0.322642482712315 -0.163273709725705 0.205790041717639
-0.314024110192837 -0.177909759449481 0.209400721770752
-0.310565764928486 -0.187336309176942 0.206107418647803
-0.305087136365087 -0.190497378427694 0.20981104600263
-0.30355487070602 -0.192410280836402 0.209889222331912
-0.292149983694274 -0.210247582098826 0.20712076432408
-0.285541130520884 -0.223224036128266 0.203058941621715
-0.278874591521723 -0.223512647776649 0.210877396954823
-0.27059976505821 -0.240896130434924 0.197977785727697
-0.25547346028824 -0.254270936744605 0.195833063180498
-0.252412795852553 -0.251488407998082 0.202057494853307
-0.247985772443084 -0.26060919045639 0.195114006164036
-0.237376527769466 -0.267756899456046 0.195574132976389
-0.107911812708199 -0.44646948847743 0.00627629185010647
-0.096224454646938 -0.456517282117214 0.00627629185010647
-0.092308025556456 -0.469107439072022 0.00627629185010647
-0.0747057461962878 -0.473994636359684 0.00627629185010647
-0.0821909625735426 -0.477102509376354 0.00627629185010599
-0.0711825665334429 -0.490335425582542 0.00627629185010647
-0.356587178002479 -0.107596661162549 0.169968433066904
-0.352866356873364 -0.107243751546141 0.180371115288483
-0.353029495937093 -0.110921572167511 0.178689179010813
-0.3504538236522 -0.117677799997253 0.1828840105809
-0.348200204487831 -0.129411592003391 0.184598604435677
-0.346728850770064 -0.128975415788086 0.188296542781911
-0.341887256489942 -0.124609021312377 0.198592438649988
-0.339156854640057 -0.12519547968266 0.202614636769043
-0.333244335778818 -0.13150495334624 0.209402522166655
-0.327764199245077 -0.143766816916161 0.209969153912514
-0.326146597246878 -0.148599432679816 0.209426499945265
-0.323125429326321 -0.15457000336564 0.210200752428611
-0.317950242193298 -0.155234947855942 0.216090217293285
-0.312101198796161 -0.164852348174186 0.217341302500783
-0.305453060352252 -0.172421880296813 0.219697239613557
-0.301713584904554 -0.175549442461499 0.221167824927661
-0.29286914735242 -0.194059613430295 0.218081465455767
-0.286855810225359 -0.198704195224803 0.21949216180226
-0.28082810791424 -0.210274559543054 0.217850444856992
-0.274541873284755 -0.213822841798424 0.21990279479113
-0.265135621296635 -0.226621706038395 0.217636829466917
-0.264208915724077 -0.225740605263364 0.218553817374401
-0.241402239185355 -0.256199051365666 0.20659208711218
-0.105051709903244 -0.436636243414962 0.00627629185010647
-0.0930077910550648 -0.443586569463622 0.00627629185010647
-0.0909060437128604 -0.448972752143224 0.00627629185010647
-0.0751498259835123 -0.462136268096616 0.00627629185010647
-0.0768378842825623 -0.467930603204265 0.00627629185010599
-0.0593409200612128 -0.479364639687137 0.00627629185010647
-0.0543230273773893 -0.483451317601533 0.00627629185010647
-0.354086883689142 -0.0938174323690099 0.181694443431138
-0.35462488706792 -0.101071259779753 0.177854621060427
-0.350967838385094 -0.110451992901783 0.183941743053826
-0.349863701929373 -0.103872453011195 0.18870779353336
-0.346902339358492 -0.102662828468594 0.195369742207705
-0.33984317533572 -0.111786246991289 0.204250441441207
-0.337512550450514 -0.114824604334449 0.207177226592579
-0.337904431673724 -0.121243644794786 0.205302009170973
-0.331245275458823 -0.122242250987607 0.215197877977948
-0.324613183561995 -0.132049461755039 0.218062567065608
-0.325277960918439 -0.131850116215713 0.21767209073819
-0.316843931496374 -0.134894571266918 0.222482893396955
-0.310534837493922 -0.158645728453736 0.220116076542727
-0.30798174231782 -0.165431376582983 0.219943299974466
-0.301637162582262 -0.156878938430022 0.226574434623525
-0.296441570555965 -0.16700778172772 0.227245177928987
-0.287315495471994 -0.173492660617152 0.230369059890839
-0.281534762731856 -0.17876822683159 0.231366943723736
-0.274409742594651 -0.197753775647128 0.227080238487214
-0.271377667234271 -0.210832844021912 0.223046514482328
-0.258594621148132 -0.218703724588488 0.22508767197147
-0.252131055362507 -0.217620194720684 0.22856812991785
-0.245947353864035 -0.234247293020873 0.221724830068463
-0.248209465897387 -0.231956488412431 0.222044485497439
-0.23942065470107 -0.245052704619733 0.218385992764986
-0.221912048808801 -0.26497953079981 0.208551586161549
-0.071455932285528 -0.453556066868453 0.00627629185010647
-0.0676227331365633 -0.462860866464149 0.00627629185010599
-0.062974896574778 -0.4659584174141 0.00627629185010696
-0.0550894006438758 -0.474530500293922 0.00627629185010599
-0.045321361744925 -0.48663267511916 0.00627629185010647
-0.355736066865822 -0.0862718980055543 0.180108150699621
-0.351830226569864 -0.0795000553274392 0.191712442807056
-0.352186361629658 -0.0907653510019663 0.187263532342277
-0.345961343738317 -0.0934635521679089 0.198632296221419
-0.340921694927469 -0.0948108153736267 0.206003431820607
-0.339484639152955 -0.0977720301835275 0.207590976918625
-0.338234203337796 -0.108199271125618 0.207405516755984
-0.332439525605191 -0.113375182122835 0.215157130780138
-0.32991590349583 -0.113931457776282 0.216920755346083
-0.322148748064881 -0.118990021291039 0.222031711481928
-0.315523640477253 -0.129045004370006 0.224993440298994
-0.314636346060699 -0.133450609644066 0.224364628669837
-0.310599796624751 -0.14377399940536 0.224203973848138
-0.30552012389092 -0.143036008840748 0.227815849982934
-0.297300760321944 -0.159358832951738 0.228793861119437
-0.295809336644593 -0.158312359079711 0.230084853122693
-0.291912548660747 -0.162358610385874 0.231574292919168
-0.285045031155349 -0.166891030165878 0.234562735264628
-0.279851704706973 -0.176685601163557 0.233251467512722
-0.274430046301067 -0.183227901950609 0.23347821205689
-0.260045440843212 -0.197916541946917 0.235236280445402
-0.251224639571423 -0.203657358404188 0.236290100530836
-0.249194455320967 -0.214402001438651 0.231719344591398
-0.237652949993108 -0.23253629580556 0.226375760966329
-0.230510564190524 -0.23864706045258 0.226012798919122
-0.225573363627545 -0.235420041312422 0.23005321499548
-0.212763906441233 -0.252008481078979 0.223246955752467
-0.0553652838041965 -0.454767503841611 0.00627629185010696
-0.0474551069873687 -0.460024126855257 0.00627629185010696
-0.0351208154860581 -0.477779345978237 0.00627629185010647
-0.0310499567419604 -0.480090178312424 0.00627629185010647
-0.0257419092004136 -0.484362523031986 0.00627629185010647
-0.352121432460198 -0.067024771474586 0.190505422327435
-0.351273137312068 -0.0769207361869585 0.193881368589096
-0.346654213374373 -0.0706842730157988 0.200784158858522
-0.341662204598379 -0.0755920745805561 0.208716566331061
-0.339297065727409 -0.0860990445621365 0.210205065502314
-0.335691173516127 -0.0860718541188973 0.215403929704494
-0.33067940004163 -0.0915220734681395 0.218494635127886
-0.327836681600972 -0.100099127116594 0.219727917818328
-0.327631841095119 -0.108165555777545 0.21911101663434
-0.316599958468559 -0.1051582430722 0.227335984201332
-0.315912492408831 -0.122513713531138 0.22618626463056
-0.309474925793417 -0.128992295708729 0.229064861965519
-0.307990304390302 -0.129326914367016 0.229967615178315
-0.297514259649611 -0.136339121782819 0.235005457092664
-0.296973954273028 -0.134251170568084 0.235786610253941
-0.291755651335251 -0.150278710792596 0.234995358322764
-0.288715737649481 -0.157294047921576 0.235083511465783
-0.274752299247651 -0.162580661062673 0.238958078216178
-0.269215069616019 -0.175109896202655 0.237801577370756
-0.265652611737921 -0.177227882057869 0.238351140690087
-0.263148128207483 -0.187618099830152 0.236799922785606
-0.255245177128245 -0.193330120980833 0.237798463221942
-0.240941833978451 -0.198873144061248 0.239885589751635
-0.239764378191762 -0.204138304223079 0.238648275520574
-0.231904473288923 -0.226618446886195 0.232324430474002
-0.217486271647466 -0.237760207816694 0.231501680710978
-0.216882131942472 -0.230813025927335 0.235955614419976
-0.207975258953425 -0.250223429798849 0.225775983060935
-0.186270842472365 -0.273916868693889 0.215919622891846
-0.180963251103976 -0.276961908203021 0.215156479294842
-0.0224224837327321 -0.478894211645765 0.00627629185010696
-0.0163573453569016 -0.47609495785473 0.00627629185010599
-0.348252557911612 -0.0610197622449471 0.196432221538299
-0.344637109993244 -0.0642465935478878 0.202557203313128
-0.342898861962686 -0.0635534635768992 0.205054022357603
-0.341346368621311 -0.0732694484399736 0.20934672335978
-0.33669730391454 -0.0742880145470647 0.215796358048978
-0.332735466802892 -0.0822258842379364 0.217895673105491
-0.327963938988384 -0.0799971855096356 0.221541079020956
-0.326185185210141 -0.0905283724346975 0.221823427939189
-0.319612764782246 -0.0920379117622363 0.226410780354536
-0.314471098243892 -0.0964743443424726 0.229691035126863
-0.313974313018688 -0.107911275744269 0.228964885384234
-0.304991748910436 -0.115239738717088 0.234701367688256
-0.300146463458253 -0.118352628111581 0.236742056020502
-0.293649147764662 -0.127963264386207 0.237745377247406
-0.292994682617248 -0.130163229200546 0.23766054625645
-0.283800925899571 -0.142767054655558 0.238973059478633
-0.282991940609927 -0.146860894146708 0.23868012409921
-0.272810213060424 -0.157722506160359 0.240557412551937
-0.272550684452075 -0.162972957816562 0.239497237525196
-0.25831244596195 -0.177003728395901 0.240482185887461
-0.255491402881859 -0.174485233135212 0.24183067001157
-0.245387665164062 -0.186702142958605 0.242037578014465
-0.240831554193111 -0.190433055035924 0.242303872868825
-0.22967726851786 -0.20748200582764 0.239895445709882
-0.225796131659357 -0.207997019513403 0.240594172449627
-0.220475727758666 -0.218869690208471 0.238667939045607
-0.211909489268341 -0.233765133851548 0.235660818059095
-0.194947278061367 -0.254337204955636 0.226637555912944
-0.186762041631227 -0.262240580047024 0.223609548872957
-0.170372264885811 -0.27772019621051 0.215607863796488
-0.171277865749319 -0.269318455840269 0.221570934742431
-0.0179407185683333 -0.474721945823322 0.00627629185010647
-0.343042291882631 -0.0527825256957286 0.202686888074129
-0.342374178451574 -0.0544069544867299 0.204023945770142
-0.341612228820002 -0.0615080753197838 0.206596312639193
-0.332776048332318 -0.0635758644747228 0.217648395019772
-0.330774537236763 -0.0653105157477311 0.219253315017568
-0.32549411200976 -0.0733267575125035 0.223813387873796
-0.325448690256582 -0.0750211285018667 0.223822891265685
-0.319295589287791 -0.0809444247251158 0.227690221587667
-0.31866572141983 -0.0820752069195769 0.228036411441075
-0.309558439264907 -0.0926869260615604 0.233574095370839
-0.307694842225059 -0.095574879062314 0.234620809945458
-0.299881051638324 -0.105812308720494 0.237421432056901
-0.299436777597459 -0.108023076728251 0.23747575052312
-0.291599830815272 -0.120490193945351 0.239444957600363
-0.284943540762414 -0.127164674872215 0.240730563119126
-0.281218392081031 -0.129638612096664 0.241622647629253
-0.27210073338976 -0.141756257870883 0.242976548667577
-0.263857488162199 -0.148467799057208 0.244675263133438
-0.257920062069745 -0.155045138597972 0.245232461245665
-0.252909538866934 -0.162079226566389 0.245129150451643
-0.250781974542399 -0.159041237055828 0.2463196513671
-0.238209979393902 -0.173200005363579 0.246775589098925
-0.23700129807368 -0.187986475473831 0.243781408776826
-0.226101099990851 -0.187561341580378 0.246128169348603
-0.214844028241116 -0.208002730065969 0.242976548667577
-0.216542813765316 -0.21102175991013 0.241750329907493
-0.205469463724121 -0.218532157118711 0.24157428195132
-0.193638198900754 -0.229730696204747 0.239493771784857
-0.196038899572288 -0.234358112547672 0.23763659559975
-0.180309429972282 -0.254353616365048 0.230699446155691
-0.153752985425898 -0.276021632379778 0.218395552809669
-0.33975775178993 -0.0405655285781643 0.2052278922441
-0.339282486987508 -0.0458754966981005 0.207008165769579
-0.333664228049622 -0.0400869000749989 0.214370050061812
-0.332481718810677 -0.0579481781382216 0.217326984228165
-0.327720906525445 -0.0555815651768261 0.220529250646797
-0.327692028158005 -0.0612347216440278 0.221085698256273
-0.316262662883028 -0.0652168947509097 0.229689119789325
-0.313315842846321 -0.0650207272672161 0.231791455821887
-0.31530538947878 -0.0746666056242177 0.231156952909547
-0.3023419645897 -0.0781467462485868 0.237840225382717
-0.303284886312579 -0.0829646880210571 0.237281085366888
-0.298492821784939 -0.0980194305449209 0.238277285528637
-0.28778753113936 -0.10455551726418 0.241767372823583
-0.287921444811232 -0.104519936023828 0.241721559637847
-0.279949898945082 -0.116433584888912 0.243797365767448
-0.281213464925322 -0.116594176731219 0.243383794757417
-0.266234483331886 -0.13234910518436 0.246012158073693
-0.263369871916319 -0.132336395695214 0.246904504946481
-0.263873022477084 -0.140945716581485 0.245639230440691
-0.255247164081841 -0.15340524875253 0.246282125303561
-0.244910892473107 -0.157040190989657 0.248297245665682
-0.242885968153077 -0.165936908940996 0.247015142334061
-0.229620039392014 -0.180583880166516 0.247270232227185
-0.217578806977397 -0.190124979036397 0.247189720070272
-0.220058867956387 -0.187834345026073 0.247293216155657
-0.207123820382587 -0.203783502468531 0.245684836467825
-0.197048845601952 -0.206495645211528 0.24648380203406
-0.189440484591168 -0.216147192390932 0.244462701028713
-0.186255828123595 -0.23404259810814 0.239079503183106
-0.170087043255134 -0.249645366010995 0.235717751392837
-0.164184058350175 -0.258546328020236 0.229996613339492
0.00764306731245911 -0.464534215691479 0.00627629185010696
0.0117963631771493 -0.464551658863005 0.00627629185010599
-0.335695935082125 -0.025190942752911 0.208317034015295
-0.337099426768538 -0.0355689916307596 0.208260646036219
-0.329557929781337 -0.0310838486825773 0.216885811582518
-0.329248953918806 -0.0437344384264074 0.218306894000005
-0.322245382214493 -0.0454570730937173 0.223510823778122
-0.323280077354024 -0.0526772818777951 0.223450267870788
-0.314600520544481 -0.0619676770708997 0.230577540085974
-0.308980964370108 -0.0604661475475978 0.234450696062582
-0.309387420094349 -0.06427019122536 0.234517275909403
-0.305262037259369 -0.0692421809725731 0.236771692890727
-0.300221801112929 -0.0844054095908268 0.238299740430966
-0.291312495994315 -0.0912789446786377 0.24113738200979
-0.288305338480451 -0.0895281236261366 0.24228516652006
-0.27708857182818 -0.0967922963262231 0.245749448005976
-0.274018643456834 -0.103985580303505 0.246457811763504
-0.271250507942684 -0.114005756597735 0.246815006237666
-0.264656837560936 -0.120394528229086 0.248042379699153
-0.254842065342117 -0.124847110349021 0.250135556623847
-0.249872592841387 -0.140873374873119 0.249772467681267
-0.241937139319605 -0.138880325197574 0.25167861451217
-0.234648800191978 -0.153915544285629 0.250945003788919
-0.236760561640809 -0.158560162300311 0.249884594570828
-0.225942507316442 -0.164609422644522 0.251038530848866
-0.218261099717208 -0.174045860924321 0.250711074538772
-0.211308362601257 -0.178927836075971 0.250795718855326
-0.200038080155242 -0.188198856782712 0.250679316428888
-0.197557402898078 -0.201432179647074 0.247992715248677
-0.192642715128538 -0.198889551949141 0.249362780770534
-0.18116282034212 -0.218017500835173 0.24494726707195
-0.17273736126455 -0.22220957760237 0.244728947500747
-0.162357492408161 -0.241244403745289 0.239056738544213
-0.143893510140379 -0.260192353561269 0.230735703931431
-0.335453554347713 -0.018382339094045 0.20732559729948
-0.327465708697039 -0.0276805880092057 0.21806917748196
-0.326791823963458 -0.0315628086117439 0.218922053082034
-0.324185569463536 -0.0281870298441748 0.220477989865361
-0.319977318846569 -0.0377762220925803 0.224415427585273
-0.313850753197605 -0.0482113561015105 0.229813696981517
-0.310413778563401 -0.0492131625717598 0.23238232709382
-0.308479452735818 -0.0512293743044843 0.23394650545175
-0.301144673486028 -0.0539680125695857 0.237518463259776
-0.300130985334799 -0.0625868585856724 0.238280087418589
-0.293222012891332 -0.0694591795330346 0.241050139247628
-0.284874615588825 -0.0818275028302668 0.243808829816253
-0.275802165322018 -0.0815005704129346 0.24685044254505
-0.279113976812271 -0.0895426714168445 0.245392090716928
-0.265283066147784 -0.101515848693975 0.24940816507478
-0.262972891302602 -0.105537859801162 0.249823921074414
-0.257102017445839 -0.110339528637684 0.250951295273347
-0.254808764750524 -0.121843434807203 0.250413496696385
-0.245902458145002 -0.123814478926479 0.252173624935304
-0.239403282205761 -0.132416994632655 0.252812393359048
-0.229606950132398 -0.142050949368653 0.253587921721412
-0.225404194238095 -0.145336900348007 0.253902054920626
-0.223974106425832 -0.156870585359997 0.25251574935084
-0.214802610929795 -0.160968532373272 0.253641798271496
-0.206190944026774 -0.17345089740892 0.252552636355866
-0.197727955898046 -0.17444102688071 0.253580919153194
-0.193168643763287 -0.188403528272719 0.251596846402625
-0.18585092033902 -0.196094608850815 0.250582966148073
-0.170262541741889 -0.209180693616585 0.24909883410192
-0.161796175554785 -0.229286476054244 0.243301838754709
-0.160062040057742 -0.235289611331265 0.241274910589188
-0.147726184305168 -0.239251118772022 0.240446255365186
-0.128625808938589 -0.270506563651456 0.224759343939555
-0.119794442409935 -0.282082174960087 0.215771065083295
-0.327547562386376 -0.0125677804152499 0.215126111577313
-0.31977855358026 -0.0169790269441429 0.22156213831006
-0.318796446584367 -0.0249476130564169 0.224049769967194
-0.315106039538447 -0.0271731312077014 0.226916756144548
-0.311152425667299 -0.0277647191462502 0.229818358482328
-0.307668762460393 -0.0324269432016496 0.232767433511428
-0.308805553878637 -0.0366929982739498 0.232353475719285
-0.301858432470223 -0.0408921429970728 0.236655147994254
-0.301441895384643 -0.0518180009517835 0.237312749050992
-0.288359129846475 -0.0604054919030747 0.24235152795764
-0.285422269160783 -0.0649557173279772 0.243568107234866
-0.279016793329267 -0.0675596540396923 0.245819843859777
-0.280812388990067 -0.0713249931210336 0.245386106466179
-0.271875447190267 -0.0814214725884977 0.248164165359807
-0.268678750675945 -0.0924232348345875 0.248747525233148
-0.26282674678298 -0.0961902644397854 0.250145375918168
-0.250575365726796 -0.0943277551904666 0.253063119718688
-0.25092721649433 -0.103231063717301 0.252707292684473
-0.23962685965593 -0.116116611612777 0.254232759068472
-0.236584606898433 -0.124064550891488 0.25417838973077
-0.23147777073763 -0.127504828297573 0.254979451335959
-0.222258132432797 -0.144357377848014 0.254630269907908
-0.216179971009057 -0.154485002920124 0.254313954200358
-0.205863552753748 -0.157653359106587 0.255551075415807
-0.201692140095271 -0.154607770017562 0.256718114860939
-0.193234381594002 -0.168815381839338 0.255276184303965
-0.184290503956567 -0.180927526977919 0.254023521880611
-0.175554029795686 -0.187255488743863 0.253434077325937
-0.162991057704086 -0.206526096151482 0.250361740224235
-0.160379259799057 -0.209354365148651 0.249781669835238
-0.152574654967646 -0.222266900773458 0.246049189995896
-0.147895312199584 -0.223515917840415 0.245837983691932
-0.127434595173677 -0.252672654877539 0.236611099416621
-0.11835620048808 -0.268834108900838 0.225169856146057
-0.323899455109603 -0.00299641602333617 0.214644709772796
-0.315934002996174 -0.0120383802750858 0.222768074366183
-0.318002402553782 -0.0137300849054482 0.2218507976564
-0.314424752329572 -0.0140573839592164 0.224341197847863
-0.309098145672752 -0.0245575719668306 0.230830691539019
-0.303809086025556 -0.0255770042263009 0.234628483911173
-0.302396288153771 -0.0305903125076847 0.235983662939477
-0.292414272149521 -0.0425299381820825 0.240079644285232
-0.291807290694178 -0.045997758516086 0.240456676671885
-0.285330026826888 -0.0483900390571542 0.242864589672168
-0.280416164549906 -0.0574414363669226 0.244908423688096
-0.278365089007643 -0.0581060360642657 0.245622011857731
-0.273917249081174 -0.0668784305865563 0.247491509284111
-0.266174750731815 -0.070760949934534 0.249943036588997
-0.261015711208533 -0.0837186482366728 0.250951583213505
-0.257714488798641 -0.0812437513468614 0.251798438495197
-0.2487821495083 -0.0853135429886984 0.253758890531716
-0.240707735557504 -0.104333763543351 0.255059475209925
-0.235152524491421 -0.105159310140313 0.256193733188465
-0.228813199078632 -0.118012638739975 0.25641463434612
-0.223004403300359 -0.124304132392127 0.257111467571407
-0.21532694037964 -0.130052054387132 0.257976087502683
-0.211423174254615 -0.134553600340833 0.258060089253272
-0.199501083970296 -0.142139915330351 0.259104460593182
-0.193167713942576 -0.154592576454943 0.257943033193811
-0.18509252285759 -0.166802261247685 0.256819535931204
-0.186322442390219 -0.173173253715924 0.255452899602321
-0.175855572179791 -0.180790741405549 0.254813448620893
-0.16473831717258 -0.188825044367594 0.254067311151577
-0.156378680993527 -0.204488304302124 0.251040786159765
-0.150444104113863 -0.212990509164212 0.249238084321369
-0.135622264428568 -0.228494703102663 0.24471583166315
-0.132959802939884 -0.232166563956551 0.243607582782182
-0.113955585925043 -0.251262756156045 0.236481828293914
-0.0943070518373697 -0.272037315350296 0.220585633756992
-0.320398328955341 -0.000868612575908254 0.216670885273397
-0.316100929917243 0.000161081418073431 0.219267028183119
-0.308412261875979 -0.00656098368825461 0.226291132251381
-0.303889168996312 -0.00485946108438769 0.228852006092636
-0.300172507526395 -0.011878873703403 0.233288838070798
-0.299366372113054 -0.0176640449499998 0.235394551932064
-0.296407656841964 -0.0238858776436631 0.237346684011619
-0.289043079467529 -0.0264876009311166 0.240135592496972
-0.279919411383261 -0.0303933554559547 0.243642475212934
-0.27991009212266 -0.0415870114275189 0.244380815861808
-0.272140027809866 -0.0479452534275139 0.247252805186366
-0.269641090088047 -0.0504881964132594 0.248198347865519
-0.258035048982224 -0.0649108030153606 0.251663695271499
-0.25903182412519 -0.067926262780228 0.25152365611854
-0.256663950837471 -0.0722594916383275 0.252209712607297
-0.246350259498867 -0.0785012436643601 0.254536097155455
-0.243779184743553 -0.0815691579142607 0.255042096582007
-0.237996976648611 -0.0878439140022041 0.256199267971964
-0.230341054017753 -0.0990300760202464 0.257642950368656
-0.22024479013051 -0.100523966447178 0.259263876191848
-0.219871452170208 -0.109651560123687 0.259083452021839
-0.209802456980467 -0.120058394948276 0.259388357097828
-0.210959552834397 -0.12234369216643 0.259274138780182
-0.192032170972943 -0.145434230286531 0.259254611442965
-0.190946978084438 -0.147007742553639 0.259220927114903
-0.183555220923177 -0.14848387584239 0.259411705522023
-0.182711495142021 -0.159899346532855 0.258450578250859
-0.173938593334903 -0.170874639000662 0.257143673181778
-0.157506886538887 -0.178751043054411 0.256910834760577
-0.147147840432528 -0.189933363724495 0.25472286523669
-0.142399055192231 -0.202206873500772 0.25200317707248
-0.1277031462165 -0.210687805848719 0.250475371007882
-0.128259752648962 -0.215036992531693 0.249442181851136
-0.108854198735893 -0.237994092900297 0.240947619465652
-0.104394212540707 -0.237517039754997 0.240908582447442
-0.0781601475255014 -0.272673215037122 0.218597961371215
-0.312187925950359 0.0154301099606569 0.217649582275291
-0.311294333623282 0.00551364873133972 0.221003759061689
-0.303169351562912 0.00773135044803406 0.225836965989478
-0.300193070970058 -0.00415057335355577 0.231133987861822
-0.298510583129428 -0.00320303397804432 0.231999173600079
-0.29334403325172 -0.00665769152487114 0.236001319490477
-0.289501914849594 -0.0165309084578489 0.238621581013739
-0.289257088784492 -0.0242632433840175 0.239760521888589
-0.280861771230737 -0.0263966965630456 0.242825860667305
-0.276977728022537 -0.0321024973184072 0.244777276453307
-0.264119511623746 -0.0426665165664141 0.249559315389797
-0.264029790252592 -0.0396781747190154 0.249488406211644
-0.263885162401716 -0.0537911660865635 0.249955988818419
-0.248505140057858 -0.0579711303069135 0.253675453538942
-0.251494143418986 -0.0588515671213849 0.253004634644637
-0.241514774403176 -0.0735743437829798 0.255787208963918
-0.239374773712691 -0.0780935766518 0.256177287668286
-0.226144500588766 -0.0798822039917007 0.259107238580172
-0.227303447748701 -0.0907401679719638 0.258607001327712
-0.215005212675181 -0.10325273567664 0.259481463370496
-0.213337912625766 -0.0994017343948646 0.259654209869462
-0.203543035084921 -0.119243128753581 0.259719540916928
-0.199934139328556 -0.116458456252907 0.259980791701906
-0.192338496445904 -0.130381885166383 0.259840374272516
-0.175893487395799 -0.143792898890789 0.259892317648423
-0.172511092384555 -0.146792923310124 0.259873919787873
-0.172481802975978 -0.157490297041266 0.259344683760597
-0.162291791258662 -0.160824742841211 0.259391618514103
-0.157063306660755 -0.17614304911904 0.257518236615084
-0.144692616082475 -0.184981374083113 0.255954542376341
-0.134847333312977 -0.188902071094847 0.255341755919687
-0.133842129419362 -0.20365118063543 0.251928983907881
-0.117971305879908 -0.220087993248421 0.247442192495817
-0.0993836695261495 -0.231688104785087 0.242741149567696
-0.106577681434264 -0.229818322009527 0.243694911580538
-0.0873062619135296 -0.249281320631893 0.235940485162695
-0.302986456518133 0.0211383842097926 0.222235068474964
-0.302401128001619 0.0102529751636178 0.225651677610676
-0.298660120683782 0.0122436000328622 0.227607704315196
-0.294074156868955 0.00137900366593996 0.233687803263245
-0.29018641187318 0.00338436040655141 0.235670329546281
-0.289377270600491 -0.00436446283425141 0.236997948972924
-0.277849541084805 -0.0141690119549679 0.242147767158046
-0.277146020981369 -0.0189065696686922 0.243025394682187
-0.267818377455975 -0.0209486865937174 0.246188704066317
-0.269210094761293 -0.0273946716752937 0.246586172288005
