ply
format ascii 1.0
element vertex 834
property float x
property float y
property float z
end_header
0.0530343476656124 -0.332102454127061 0.00627629185010647
0.0696399269279709 -0.341885188994347 0.00627629185010647
0.0728714625335203 -0.337089705775467 0.00627629185010647
0.0952756338765481 -0.342217259092874 0.00627629185010647
0.0896631171065927 -0.335731820225203 0.00627629185010647
-0.166734981014169 -0.304916331932374 0.162437329353287
-0.16054385504139 -0.303978138102516 0.167337996025624
-0.169212922288702 -0.297988262315072 0.180710289417746
-0.15178990616713 -0.303429053361178 0.172094133400542
-0.138624708819289 -0.305594221710533 0.170886801282107
-0.117903387202763 -0.308852313918742 0.162182610331265
-0.100451442804707 -0.309343540344688 0.154403813079572
-0.124475063193127 -0.303332236393893 0.179981117998341
-0.0829379512837702 -0.307008676782499 0.154486474317176
-0.0661495227225522 -0.309171206540541 0.14226390314272
0.0906403865633202 -0.328366496565292 0.00627629185010647
0.091455065128864 -0.332634215683993 0.00627629185010647
-0.198428225535977 -0.287381174569044 0.188713407638303
-0.191462199058636 -0.288831775040898 0.191947558460782
-0.174543134524066 -0.296407730073612 0.182835997986555
-0.164971620789318 -0.29727968414816 0.183774911864223
-0.168928791952669 -0.29167345150893 0.19525283057593
-0.143784648379615 -0.299253493957985 0.185747603176824
-0.15167330459809 -0.291368132710837 0.199162190314623
-0.14689887492641 -0.292493262919101 0.19840296657036
-0.129805820664187 -0.296229751455266 0.196157547314256
-0.0817997554024049 -0.304010785478077 0.162447205356207
-0.0976188943532485 -0.295902628700865 0.189399190740724
-0.0935228338989146 -0.297374219376863 0.184526362755831
0.105869560947667 -0.32030272139865 0.00627629185010647
-0.206532182464298 -0.276779701669533 0.200883850886499
-0.204952710431449 -0.275220406742324 0.204002720479411
-0.195045606101671 -0.275840389385853 0.208919683704889
-0.187343285461538 -0.283873102906015 0.202087942680468
-0.177280434761578 -0.281299779010144 0.2093124938592
-0.166336029488649 -0.285943264047714 0.204450141184489
-0.159256029614432 -0.287531925908075 0.203465547852517
-0.149301651678461 -0.287460650374299 0.205559028518293
-0.141331150237807 -0.289027010986276 0.204776525352847
-0.117224932252904 -0.292553829869263 0.200081650343227
-0.127150326979782 -0.286261340094142 0.211587348346524
-0.086568647054397 -0.295727442434951 0.186297940605835
-0.0997764903727368 -0.291296296872177 0.198500378705626
-0.0699284275538777 -0.293065382104181 0.187444512375451
-0.212666879391572 -0.270882021176664 0.205621016446163
-0.217327777049539 -0.265602747537906 0.210345658915984
-0.206192559261986 -0.267519896561911 0.214134886113748
-0.192171072416603 -0.271444608024184 0.215930048180982
-0.185787497078859 -0.273592565557546 0.216271921526623
-0.183979820327876 -0.27690990338259 0.213889285313364
-0.178397992759104 -0.272393379682838 0.218686875848838
-0.156024191774416 -0.27407666646099 0.219581856252884
-0.14219598721259 -0.280738434757931 0.216088196904259
-0.137305056400291 -0.276394743425209 0.219681159676939
-0.127208725198862 -0.281402225797704 0.216962984788999
-0.121074593219474 -0.282317120814322 0.215723267032644
-0.114374201478257 -0.277909817364409 0.218260455738648
-0.100672829057028 -0.275477013860987 0.218713156035188
-0.0795257819729095 -0.285187187867195 0.203710010189574
-0.220487687584734 -0.262218154849556 0.213274535140128
-0.211324684153088 -0.257919286244445 0.219678958368243
-0.211352180487839 -0.259648164236533 0.218511080356303
-0.207787115727059 -0.257274984914818 0.221091532877604
-0.19553455451969 -0.260533773451851 0.222311641709125
-0.193600066075688 -0.25762934597921 0.224800935793757
-0.181185548671274 -0.261467607688963 0.225684158393321
-0.165785749601331 -0.265901485409402 0.22454793320674
-0.151815503005499 -0.269351847857528 0.223381067606129
-0.154148326766329 -0.269468027159352 0.223076213484313
-0.139032030293147 -0.262764944391846 0.229342575858111
-0.126207866363836 -0.26896658838884 0.225818488173429
-0.118676665377161 -0.272410009815008 0.222626527563708
-0.117014100374411 -0.268742114802367 0.225108897106516
-0.0897711839039519 -0.270858345577188 0.221004382681021
-0.0875097473140763 -0.268670535290737 0.222364740437523
-0.0634935603628806 -0.277776863184774 0.208034485661044
-0.0371556018719014 -0.272988937207717 0.199386652783009
-0.229715482139517 -0.250759527553 0.21938823609225
-0.225920006982702 -0.254067585006886 0.218219821320193
-0.216264867738548 -0.24945731118998 0.223989022319665
-0.213927255057131 -0.24846163227228 0.225304927572158
-0.198520031023443 -0.254834071227554 0.225309686790154
-0.190280020760266 -0.254675255498851 0.227709115585527
-0.183819419608493 -0.257783701470473 0.227418668727598
-0.176833212708381 -0.257428665249027 0.229607194540575
-0.169051206125211 -0.249994185165676 0.235642436068478
-0.159812918102394 -0.258110169390615 0.230725867193136
-0.148147732878344 -0.251612668554569 0.236044277974162
-0.132132278782233 -0.256482226012378 0.234493984046232
-0.12293527075914 -0.262653425721231 0.230052186416343
-0.114909424957404 -0.261549741212261 0.230086058395873
-0.0987846469922267 -0.25732402713901 0.23159954675334
-0.0873585449206872 -0.2618768675172 0.227240040631173
-0.0886847566755933 -0.257860314494828 0.230256551383775
-0.0604020163118993 -0.268287889307492 0.217286522571084
-0.0519184271539353 -0.261599590029017 0.219413984655818
-0.0353258496956515 -0.264830236601099 0.209841683206695
-0.22816076482913 -0.242843987913326 0.224634101907807
-0.226514946143585 -0.240315549069416 0.226817636003348
-0.220815479505088 -0.241298098911044 0.22820384209131
-0.212372901863962 -0.241071985265641 0.230699786182457
-0.199800581929062 -0.246111544056901 0.230812683923365
-0.199750121442596 -0.243277891971494 0.232730212880767
-0.181000118665716 -0.242135769140176 0.237125082833031
-0.176191947205433 -0.243538384942094 0.237319657873064
-0.175712348218145 -0.242158874716157 0.237841007532394
-0.160597097188788 -0.246561391592587 0.237253970554395
-0.160083064306605 -0.241906177166952 0.238928285359287
-0.141288129556192 -0.249880953191162 0.236978342745929
-0.130105128607097 -0.250904368260964 0.237137466663754
-0.12252886518888 -0.251560638530072 0.236776359847733
-0.113541320756 -0.251349930398189 0.236431589404833
-0.103271648315418 -0.251731847800218 0.235816887041304
-0.0851310615977358 -0.252141381903476 0.234015482451179
-0.0739344568594243 -0.251237117036174 0.232475907257275
-0.0552947371577774 -0.254703678830313 0.224972701151877
-0.0523029183797021 -0.258868234335868 0.221352521639443
-0.0306152489706094 -0.255193109915037 0.21778929817833
-0.241286065694775 -0.231027133417864 0.225639362542589
-0.229175409222493 -0.22808979528042 0.232683082754351
-0.221347892430704 -0.230258094714345 0.234856224657706
-0.213524297395361 -0.23205684183819 0.236004190851706
-0.202909708759063 -0.237659304111758 0.235569649885256
-0.198719655553008 -0.232777493341164 0.237791931391867
-0.186578509272921 -0.235240866501541 0.238639499047038
-0.181949740717636 -0.236405608990131 0.238888107098532
-0.181673991886183 -0.232164943602717 0.240326749506837
-0.159382556765621 -0.237619555208695 0.240480633345729
-0.157581090027003 -0.233100055866968 0.242166923099259
-0.138061174853592 -0.236618269706492 0.241830716320261
-0.138719064727333 -0.235462436879907 0.24220976634058
-0.125720540886747 -0.242119115854962 0.240272444135008
-0.124856858876981 -0.236140747312842 0.242351530323408
-0.102616413862427 -0.244475011951796 0.238358932396917
-0.0958453557564747 -0.24714397003568 0.237096737570698
-0.078251058756933 -0.238676882602868 0.238796598400793
-0.0707523059885688 -0.24755265930696 0.234042017971874
-0.0524620131564155 -0.242320677663706 0.23249083801655
-0.0330636883876071 -0.244554736473756 0.225604002295924
-0.0127127072345019 -0.246736946910508 0.215978469170704
-0.236310265070723 -0.222524763673959 0.232735068572345
-0.236358487952565 -0.219896240402646 0.234203400068527
-0.228451986537712 -0.217800575303613 0.237234994746492
-0.217996855414285 -0.221126705367051 0.238567258587757
-0.212869113803737 -0.227861508683465 0.237479778047115
-0.206780240570946 -0.218856524355372 0.241287765223538
-0.190215357703584 -0.221430837383212 0.242704010404296
-0.184667654137223 -0.225172140724927 0.242227191245916
-0.174030362564356 -0.221873152005602 0.244667023698139
-0.172442539869919 -0.223645261044225 0.244320513421439
-0.155426007621634 -0.230958819227242 0.243023655597222
-0.148854730739427 -0.227530548437649 0.244456254924134
-0.132256851428559 -0.226809051066939 0.245426131568085
-0.127693103438745 -0.232729418952734 0.243651133773278
-0.110707999488961 -0.235106713489317 0.242057747638411
-0.100773760359658 -0.235030150740262 0.241621236856392
-0.0887359796965149 -0.237098409487113 0.240326186735291
-0.0843170639990439 -0.237895517449213 0.239837362708101
-0.0706444333803474 -0.231183359035851 0.240231234266531
-0.052616643192553 -0.234145510452251 0.236785831472976
-0.0433467615188598 -0.238736673345487 0.232362296960008
-0.0295604248324593 -0.234889644708851 0.230247135819475
-0.0175866632299873 -0.237483799754641 0.223461562440275
-0.244993510222003 -0.209581504554083 0.235965902700578
-0.23360711628752 -0.20836866694733 0.23878848979965
-0.229254532369352 -0.213130913804002 0.238384986797087
-0.223229047774357 -0.216979629591776 0.238604781796424
-0.214550342552046 -0.210224590066476 0.242410181077154
-0.206628166538329 -0.213794079381989 0.242980960550513
-0.197074473995572 -0.216976351795434 0.243221675367436
-0.190683931846086 -0.216210878488362 0.244282750467511
-0.186000440135648 -0.218705574817387 0.244110264935039
-0.168321233773246 -0.212508248452858 0.248314206896553
-0.161934976615767 -0.22066322573516 0.246173105359121
-0.154006170175642 -0.218100781491725 0.247376435051763
-0.143226510525573 -0.219399060217931 0.247416773166179
-0.133622311958293 -0.220356368158984 0.24751924772539
-0.117165381900379 -0.216118614828378 0.248731271720934
-0.113620982959067 -0.218290170352465 0.247850975212552
-0.0997580499940864 -0.224911837680461 0.245032502596326
-0.0834088279356234 -0.220837152407266 0.245253564496718
-0.0780241333486106 -0.222039516963539 0.244186191223816
-0.0594766668155201 -0.223788337997055 0.241146037157828
-0.0571674920129308 -0.222476385813034 0.241263464108741
-0.0432769963673327 -0.223817122899333 0.238919828988578
-0.0083531229750647 -0.224273828447628 0.226989032580006
-0.249752245209593 -0.201843036148549 0.237125289128593
-0.238827823417792 -0.203128224727921 0.239138678408618
-0.236313943655496 -0.198900587420971 0.240885179428974
-0.22596385512389 -0.201130337770666 0.242505598310144
-0.216842033635588 -0.203171428731698 0.243857183739345
-0.208454885015833 -0.206674580079517 0.244640189542119
-0.198573217939726 -0.203915527919793 0.247089722938106
-0.188177376369382 -0.202063080708782 0.249004634711474
-0.178950850964177 -0.206831219288576 0.248710369319692
-0.179856885354083 -0.204936183693243 0.249182911948913
-0.157116979215874 -0.211401934199447 0.249403874803611
-0.158483772884894 -0.208732473851166 0.24998513578655
-0.137330718087667 -0.208907652301918 0.250594451070289
-0.135470713586889 -0.211983060829029 0.249933568609953
-0.126216581682699 -0.213993624649024 0.249657822556478
-0.114310350961734 -0.2071848653518 0.250881572524386
-0.110085703022134 -0.215258950155983 0.248707116067272
-0.0829085683111859 -0.214958195378698 0.247017111813063
-0.0846764612667952 -0.217201452991054 0.246547296553187
-0.0667774937485175 -0.217358420525802 0.244193213950563
-0.0548835068607036 -0.214444393098731 0.243567417520975
-0.0487016514160188 -0.218442647009365 0.241437583384454
-0.0391216016676575 -0.219459151424902 0.239417376113745
-0.00728108125393225 -0.222950113432978 0.227277635875706
0.013935176357021 -0.222730473278756 0.218028107331065
-0.248169524152207 -0.194528004847691 0.239544929991843
-0.239497120470308 -0.190029747111611 0.242708755455893
-0.235023287618591 -0.192923666007402 0.242861651128388
-0.22909934046932 -0.189909580279555 0.24488689076568
-0.209669243308542 -0.198524732115302 0.246567452934633
-0.211300089913691 -0.191989514239553 0.247978268851285
-0.20812691681596 -0.198058230604296 0.247008005787803
-0.193151328040692 -0.199940003859575 0.249024161041028
-0.17773264578993 -0.199188735749278 0.250641399952697
-0.179920888282801 -0.192878921996632 0.251817030417972
-0.162810731687667 -0.194904496327772 0.252918310195126
-0.155566556959881 -0.197498046949377 0.252697858052763
-0.156074081042164 -0.195287674034161 0.25319834258537
-0.137354614952677 -0.200868968341801 0.252470614896872
-0.123531286000309 -0.198853298181441 0.253110293416265
-0.113425608596713 -0.204219054115876 0.251546844098132
-0.0997275223006324 -0.206510588439319 0.250590748328499
-0.0983093563923651 -0.204151864358524 0.251097878471443
-0.0782665554679218 -0.203158694740875 0.249832892648188
-0.0716543985013717 -0.199877560426867 0.249950879485071
-0.058092729971312 -0.207590536549508 0.246111854232337
-0.0461236778054198 -0.205621562824832 0.244755880853464
-0.026258215796046 -0.204809542695535 0.240773131824716
-0.0271070103564989 -0.20608181778838 0.240596974929207
-0.00905337096817133 -0.206571156316012 0.236528338623671
-0.250601224328805 -0.184805267500541 0.240971501399364
-0.240361571002972 -0.184114076957707 0.243965010597623
-0.236994278507803 -0.184212908319313 0.244790414075165
-0.23118155253963 -0.180188452188884 0.247055889199678
-0.223983154033357 -0.180927467519601 0.248333384704575
-0.207345753598214 -0.182346718731652 0.250725046266563
-0.204572913205004 -0.188277133849605 0.250014568470242
-0.198156062019709 -0.190213942335186 0.250572641764391
-0.184834392163679 -0.189939063439845 0.252013849908624
-0.180766041243969 -0.189360979966955 0.252506269176101
-0.167716900960096 -0.184580021817395 0.254722474803218
-0.160360121270122 -0.188993305981316 0.254425270379792
-0.150809617963588 -0.185350575638688 0.255680311551133
-0.142546363734288 -0.194240611609417 0.253858638046748
-0.129913751640625 -0.189968595368043 0.255244392004303
-0.119347218561489 -0.18766564118369 0.25559381176807
-0.116034600056894 -0.194080515806202 0.253994220283059
-0.104869111092573 -0.192299841495438 0.254066765830052
-0.0884167841512408 -0.19423541206931 0.252689097885097
-0.0722219714150243 -0.199092736349853 0.250172785408903
-0.065619951288726 -0.200493069543765 0.249273130522848
-0.0452409837127387 -0.194169309789123 0.247632859808612
-0.0282178688897185 -0.195585782672134 0.243766933937563
-0.031309616922902 -0.201836777036783 0.242716006100962
-0.00763736829524055 -0.19919688194014 0.238312039130913
0.00954950706389058 -0.198939283824196 0.23201270637362
0.031211570689558 -0.204546890208139 0.217058728922188
-0.256141867515721 -0.171388249655903 0.242320281752891
-0.249031474814094 -0.170042839385727 0.244533023370674
-0.24147437069865 -0.173034420728675 0.245937900461555
-0.231493652097079 -0.170681522173517 0.249084882607864
-0.223182293734452 -0.176828848374378 0.249485607546876
-0.209979234139818 -0.175609641153983 0.251606214258251
-0.206587657361446 -0.17764666285784 0.251711854697629
-0.20052715780549 -0.176775544900045 0.252743454363986
-0.187051398202095 -0.175213280132249 0.254967250438504
-0.181488888513046 -0.178166082561468 0.254876819193595
-0.167300121117294 -0.181385225003172 0.255455133159662
-0.162698045894872 -0.184464985016296 0.255199808738527
-0.151445069661622 -0.177311246304466 0.2575378276867
-0.146530521071766 -0.183868226932942 0.256157948902449
-0.130561427865901 -0.182640051335641 0.25693557588303
-0.116751675991142 -0.182087060454794 0.256816533657906
-0.111638886353749 -0.178658240552074 0.257459945518137
-0.0996534363293518 -0.183667795791787 0.255921881421965
-0.0923745675683637 -0.187207118668046 0.254574936400106
-0.0812445774112405 -0.186543249095023 0.253716327774744
-0.0680334524171509 -0.18272083631766 0.253357374708704
-0.052544291787991 -0.184804498281915 0.250911531382002
-0.0415508992146232 -0.187572374693229 0.248638255236087
-0.0247916349278669 -0.184409883705051 0.246049000726227
-0.019730738039679 -0.193650731428654 0.242517787888347
0.00570184685188155 -0.186447023151668 0.237639236939573
0.0178493669439751 -0.187837156789883 0.232138893637223
-0.247310350709678 -0.16339379630065 0.246354839533898
-0.242732651208323 -0.16556667608199 0.247131932760658
-0.239954170369492 -0.167768171982964 0.247422759923849
-0.227503895820987 -0.17062979251555 0.249883718850448
-0.228837476269168 -0.163971439852785 0.250589117288126
-0.21413792233406 -0.171477665852158 0.251782005853984
-0.208207570604554 -0.165903860222556 0.253673565120353
-0.194290506744652 -0.167609206018908 0.255350129586077
-0.193313448059452 -0.166861984681145 0.255629808478094
-0.182695090906856 -0.165651299946465 0.257378274525453
-0.176546371880521 -0.171088056997674 0.256862223349841
-0.167151278161925 -0.173495637256517 0.25718509879428
-0.156459631388419 -0.167944789848279 0.259142525839708
-0.145563987176153 -0.167265423327025 0.259314778622712
-0.130401665063741 -0.174448733154342 0.258853022701618
-0.130872424471925 -0.171431412036118 0.259187961724174
-0.107047086475553 -0.173535413622621 0.258514894239712
-0.0979906919455417 -0.172402984510999 0.258302030164244
-0.0922370188351711 -0.178566807891222 0.256442428229699
-0.08302014792358 -0.176139101205459 0.256139993378798
-0.0674117611775068 -0.177725935139154 0.25436547320231
-0.0519611119781034 -0.172842855950596 0.25306275659721
-0.0395866091111394 -0.178523168824159 0.250227451180793
-0.0410938930269383 -0.178864180553364 0.25037982628548
-0.0121739817144102 -0.17681866489215 0.244698560985506
0.000286078939095095 -0.177309513813743 0.241164582737573
0.0158108998917999 -0.178657712704716 0.236467044579777
0.0499866292032904 -0.181239767783623 0.216545647778616
-0.257630876669477 -0.152534619146491 0.245824034194681
-0.248145849364291 -0.157614293122846 0.247315868203194
-0.24644926269725 -0.152054652867566 0.248907934413402
-0.239553301490519 -0.160069660049071 0.249107075873269
-0.226107166107457 -0.161770591320759 0.251414747963825
-0.21707927098135 -0.160926745048291 0.253222433462531
-0.210372035092163 -0.155184286536405 0.255298818287063
-0.208281401573605 -0.15493645623435 0.255712054993707
-0.190966583103726 -0.158386714662552 0.257549721218542
-0.178660233997413 -0.161199037696366 0.258788550203348
-0.171186907262837 -0.161513559943628 0.259160051939219
-0.171389195929922 -0.156685217770354 0.259411276607242
-0.150427858637793 -0.160663661976255 0.259653521442196
-0.152157541711437 -0.16064171197381 0.259623581139311
-0.132419010022756 -0.162365516658571 0.259691538832429
-0.126165113937576 -0.161805503595178 0.259747283230008
-0.117771255638594 -0.164287812435818 0.259543439257897
-0.108679794554524 -0.168353451527831 0.25924440785841
-0.0974323859820024 -0.16934327499824 0.258917421445011
-0.0799096024545007 -0.160862799230741 0.259100425313619
-0.0771167597141271 -0.165897106855757 0.257836342077022
-0.05476911649278 -0.170433646502772 0.25391543818023
-0.0516852990930458 -0.163634065774978 0.254743722591545
-0.0327926841105352 -0.167630094437125 0.251231182256225
-0.0185289915581891 -0.169681662243672 0.247857628762796
-0.000932222300913257 -0.173879551071748 0.242256805723555
0.0064499587589517 -0.175220310115521 0.239870784884685
0.0254446358500451 -0.172554925577243 0.234488275558096
-0.259931919640717 -0.142595554402714 0.246652171169696
-0.25549168353742 -0.144088229333058 0.247840551856589
-0.248458458282232 -0.144079846348934 0.249774968471162
-0.23715459746733 -0.150895298153773 0.250909826677184
-0.230504050056169 -0.143598601261615 0.253198439100743
-0.22306714622634 -0.147484239832984 0.254030845812764
-0.208051682156876 -0.150314382191119 0.256430496828312
-0.203824353085039 -0.147483679900469 0.257626117395869
-0.193311258966906 -0.14785631303933 0.259099853827596
-0.183129170306129 -0.154158031863856 0.259168570360036
-0.175279705228264 -0.154288197846383 0.259436518334045
-0.168882146947664 -0.155390057215762 0.259534841810054
-0.155952019018811 -0.154870175886643 0.25984596178261
-0.148657972146882 -0.156001831303857 0.259931658526396
-0.135207867754923 -0.149605820948218 0.2603957136915
-0.129224553123975 -0.154709982178645 0.260150442612703
-0.110040501390816 -0.15709814009626 0.259894142003923
-0.104152147422422 -0.155595944144714 0.259911009684582
-0.101540440445555 -0.158390709454764 0.259705744769944
-0.0896602944011763 -0.153154632826444 0.259722432484096
-0.0625850848881716 -0.160275769837071 0.256933779768639
-0.0570089425209941 -0.153953680579823 0.257315548000874
-0.0502266992432748 -0.159192696274342 0.255364409621556
-0.0312581753364524 -0.159928811789528 0.252048557262838
-0.0199264059120954 -0.158708905318939 0.250106295649565
0.00056000307511254 -0.157710821126382 0.245213344103653
-0.00223405349931311 -0.161054410942475 0.245274336374021
0.0317476382659154 -0.161768480995738 0.234905004701342
0.0354031819065176 -0.157383226609716 0.233695722679068
-0.256779172527195 -0.135485448068348 0.248548210329016
-0.250155008498526 -0.134108676766779 0.250320664619698
-0.244941838885516 -0.134826411636487 0.251390220147691
-0.230896630518632 -0.141806469133477 0.253382015896638
-0.227631442839001 -0.138020790817709 0.254534783947117
-0.219163394684064 -0.140972360503859 0.25569375266392
-0.215125792040879 -0.136140896313526 0.257140759484923
-0.207556063433588 -0.142547319263724 0.25763659731285
-0.194995754655002 -0.141175197792005 0.259342973673332
-0.183738796151191 -0.144793664258604 0.259573092012063
-0.172893242981888 -0.136968494609244 0.260307296677161
-0.165464005118207 -0.144094863698075 0.260207892861743
-0.158477964224473 -0.143055261058653 0.26041616247258
-0.151812902741124 -0.144944531290287 0.260462307918177
-0.137944249088057 -0.14784743686854 0.260475159083997
-0.120597767031585 -0.14633473716085 0.260584722517348
-0.106737024536881 -0.143765347795072 0.260594134674549
-0.104955853385411 -0.143772789905665 0.260554674780995
-0.0932020887869701 -0.147493149573603 0.260099889814333
-0.0839291722214898 -0.144838035354169 0.259999583106488
-0.0772299048332977 -0.150494951254096 0.259508630679792
-0.062875025178581 -0.148316089656727 0.259106862661901
-0.0558952167029941 -0.15144247398685 0.257625058516622
-0.0388443688971752 -0.145555238125529 0.255526535333446
-0.0241545698990865 -0.145383118937097 0.252806669548017
-0.0151002893415486 -0.148145879260905 0.250718954819972
-0.000669287674668295 -0.14947556718793 0.247228822526666
0.00978531134109475 -0.153864783947576 0.243538107634618
0.0402477596311129 -0.151572945404096 0.232074724699432
-0.255482305761951 -0.126751751001453 0.249824609894324
-0.250762120853543 -0.126544809825085 0.25087023875979
-0.246115510149029 -0.131559397262475 0.251429289600818
-0.239852634153309 -0.125962954296266 0.253296272823133
-0.234864666066954 -0.1318432635593 0.253851573522899
-0.2201724832791 -0.126839152028628 0.257499154503432
-0.214045339028026 -0.132494606674363 0.257865363661128
-0.205581032848942 -0.128860008893169 0.259291343201011
-0.197787723395524 -0.129741748968999 0.25961493589206
-0.184981542653414 -0.131553805987965 0.260131740102048
-0.176729540447182 -0.129524064530532 0.26051194204504
-0.172591996632404 -0.136365184039688 0.260345239231603
-0.153617292914528 -0.133853558829165 0.261010001383739
-0.145558336200723 -0.129370449307261 0.261424137073641
-0.142604668450454 -0.135970567518145 0.261115168718664
-0.127961145772804 -0.136950188273917 0.261169049835079
-0.123741822850638 -0.130763401860231 0.261493044850413
-0.103541951928605 -0.136542947469154 0.260906485326896
-0.0978034356449987 -0.139392702282745 0.260629729444735
-0.0852488843015285 -0.133589516089314 0.260557090126689
-0.0723504866362856 -0.13700818864755 0.259951622470064
-0.0675929952734489 -0.135725774757496 0.259843944870248
-0.0518017859648239 -0.140166955893538 0.258719885625976
-0.0444452945303588 -0.133368490890772 0.258320091540562
-0.0276960089354221 -0.142753531911408 0.25384531082446
-0.0103151451722304 -0.144371850568379 0.250365984043395
-0.00395901011237341 -0.141252900222023 0.249400026447658
0.0232488166764063 -0.139195645667146 0.24116832041429
0.0451501919368737 -0.147276972921761 0.229980189087918
0.0616456890842166 -0.139756607030698 0.221006122961528
-0.254245354720801 -0.123312322928881 0.250403700885109
-0.253906603854202 -0.116372587381245 0.251102820718059
-0.247404050785253 -0.118416800858295 0.252333365887218
-0.235918965840735 -0.115702071946909 0.255076850970621
-0.224736013473495 -0.123753549679512 0.256784337213145
-0.219185130829832 -0.116838647045333 0.258615231916577
-0.208537513496602 -0.12507407205445 0.259289004753314
-0.20294431481182 -0.12407318833616 0.259578244342378
-0.197561902717813 -0.12069091579027 0.259940985869689
-0.184919554889647 -0.11733757336948 0.26063282234696
-0.17593470519306 -0.120661155661726 0.260925398089511
-0.165464772777504 -0.119566787420199 0.261357718503809
-0.157175984810319 -0.122410641191916 0.26151760485088
-0.146418386933976 -0.12691040497308 0.261535533561639
-0.134399865170546 -0.124490103142876 0.261828896098879
-0.127568894077433 -0.121484521449814 0.262048923681788
-0.111929183453413 -0.120514000719498 0.261939174665543
-0.108464080528966 -0.121206036876195 0.261826532306963
-0.0885435198002892 -0.124940057859923 0.261065324367436
-0.0764417221115396 -0.126832028930872 0.26055706802508
-0.0713359953645235 -0.123559572905097 0.260455266266341
-0.066994205200346 -0.13038453248057 0.260019726328713
-0.050459741291701 -0.125814392401895 0.259427366980528
-0.0319802951382986 -0.132569852412758 0.256105711157279
-0.0257619919824661 -0.128734352390009 0.255271926629243
-0.0211049847103873 -0.126623074906765 0.254448964051019
0.00248011963963196 -0.128982743336951 0.249047683298279
0.0125971306553795 -0.13550159811749 0.245062355359974
0.0331803629562101 -0.129050236557945 0.239275677328934
-0.264331177111281 -0.11156419231169 0.249268065919282
-0.253817263159788 -0.105981255503436 0.25194797787289
-0.240759980902323 -0.110799493172018 0.254465408872035
-0.239073664648614 -0.10970224263531 0.254931189238474
-0.227865817929363 -0.107150976824827 0.257599623616285
-0.223153922238991 -0.107614335389184 0.258583040773905
-0.21116149181217 -0.114615623995901 0.25943577049199
-0.207174199116509 -0.113267189247107 0.259676472971189
-0.190659234028668 -0.114238554603471 0.260479967308164
-0.185529915859795 -0.112279255559027 0.260781553518611
-0.174822754489416 -0.110783578946515 0.261320584738554
-0.16451065748573 -0.11816850075239 0.261454586567158
-0.156689643772639 -0.111172177034605 0.262045578495018
-0.144154116533504 -0.115063864028335 0.262212471060043
-0.146613575558421 -0.118806898019251 0.261960334388787
-0.129067618613137 -0.119469911805155 0.262154045521062
-0.118885961134141 -0.119245272136797 0.262111207932654
-0.11300611782633 -0.114705011821551 0.262270381487955
-0.0987746892241609 -0.116742952614839 0.26179500494314
-0.0887985059016114 -0.114505831108336 0.261548657950972
-0.0817991766868694 -0.119945510886105 0.261057113995047
-0.0662046038017749 -0.115691851185353 0.260496448901688
-0.0486445022392017 -0.118477315950304 0.259585101643576
-0.041846808053453 -0.113292119924274 0.259338887954257
-0.0370755101625805 -0.117336711465693 0.258760597956039
-0.0207893535783021 -0.121235866546718 0.254865793228995
-0.0117738886654778 -0.12468292792243 0.25259362912681
0.0156716905685826 -0.116115037803083 0.246603233406083
0.0306938754972681 -0.118920385972911 0.241483220920583
0.0473207450338637 -0.125268041107754 0.234606398232108
-0.261673926560181 -0.102507711717686 0.250220350323765
-0.252972839127064 -0.0987421858216859 0.252367656064684
-0.247455625206339 -0.103884627484994 0.253497761569087
-0.23239468708487 -0.0967113874332565 0.257234734738534
-0.235678942805055 -0.102656222538218 0.256285179650028
-0.224088214880362 -0.102927972673804 0.258802105618767
-0.208384989850578 -0.104552689968249 0.259803493637283
-0.199992926460519 -0.103652190841462 0.260267604922335
-0.195534326907778 -0.101122588851436 0.260559169313094
-0.179877757382443 -0.10301467464391 0.261346688387259
-0.178611791631842 -0.099416178773225 0.261492646061639
-0.168253927923777 -0.0995512512488642 0.262011158841104
-0.154616532811905 -0.0998181754414072 0.262621928937869
-0.152908862024848 -0.10258628110807 0.262567884163136
-0.134234492247455 -0.100408748537921 0.263198496003562
-0.122893488211271 -0.106807990053324 0.262847905002472
-0.1238257938109 -0.106032653415305 0.262898935982989
-0.108894192104897 -0.108156936189105 0.262526917519329
-0.0994254124857405 -0.110277840220134 0.262111672812677
-0.0817380470405122 -0.106047176235543 0.261539245058397
-0.0757743021827065 -0.108557769434734 0.261180483475101
-0.0748347273596595 -0.108480492821933 0.261140457818075
-0.0604817780496976 -0.104954109373072 0.26050848704353
-0.0388329422172958 -0.111553968364417 0.259217425632291
-0.0251076020361423 -0.112027493204634 0.256635191806841
-0.0190528355287864 -0.106489113336 0.255816970782043
-0.00344446400675329 -0.111621134893682 0.251958525574968
0.0152673301783655 -0.105844226279727 0.247499015259747
0.0248016501839644 -0.114835243891841 0.243922682092591
-0.254901349908997 -0.0930477639742179 0.252092419908891
-0.25254507849586 -0.0954313252882427 0.25256930243535
-0.242249538891038 -0.094418246022814 0.255004279599574
-0.235739968739656 -0.0891716151651131 0.256685429853288
-0.229751734897911 -0.0907466197485615 0.258035168868503
-0.223078462509579 -0.0937419264216877 0.259177776384483
-0.212553884298377 -0.0886061367860317 0.259814229171689
-0.203393239939935 -0.090183303074267 0.26032296138482
-0.194053495335942 -0.0972494987929216 0.26072252674569
-0.186451457991278 -0.0929294631115013 0.261219805595063
-0.180923276957624 -0.0895693089574487 0.261586220699409
-0.171244470649836 -0.0965267594456037 0.261946119415261
-0.155072529861119 -0.0937606005688359 0.262812542844391
-0.144039382184195 -0.0995815931109825 0.263013959951182
-0.144563761096717 -0.0906621110371193 0.263398475164525
-0.122306784113217 -0.096958867337522 0.263403167750666
-0.117032908781429 -0.0925155828992761 0.263533633136432
-0.107847128818705 -0.0941653962072076 0.26313812691603
-0.100247778069747 -0.0994233525205046 0.262611973989648
-0.0894817775099753 -0.0964914685028816 0.262224744246668
-0.0779690802835398 -0.0941047627156999 0.26167239726035
-0.0666062909003424 -0.092798451568058 0.261099386849358
-0.0532630844937447 -0.100989198748062 0.260213217265613
-0.0491632577452523 -0.100251759791283 0.260012304864708
-0.0293378623376546 -0.0996451369354025 0.258626320156364
-0.00713089121087926 -0.104280837527512 0.253298868243716
0.00219018650147244 -0.0971338059569262 0.251342242508084
0.0233001010935061 -0.0959525978836246 0.245253210467928
0.0384451746064217 -0.10293872153732 0.239700222126989
0.0651654244799929 -0.104386386004604 0.224564971614496
-0.263790752335032 -0.0796271550248938 0.250429424491435
-0.255155801400541 -0.0823130731922407 0.252362979729965
-0.241175210031363 -0.0795097485091153 0.255713384648936
-0.237606894838759 -0.0813598577455227 0.256489656746705
-0.228527165377132 -0.0859069257704912 0.258469851089748
-0.223467669937967 -0.0820249226990146 0.259243313488888
-0.205019652580278 -0.0877278658083691 0.260248913246329
-0.20269634776426 -0.0805126114562157 0.260434905283417
-0.198543452378041 -0.0802556896866187 0.260672805169251
-0.186082093227492 -0.0829634592047132 0.261360634405733
-0.170747221700519 -0.0838749440161907 0.262225181489938
-0.17031482906129 -0.0810780781596294 0.262270673982258
-0.153727385560913 -0.0816070741305044 0.263200880018557
-0.152205517343857 -0.0874257372401096 0.263153844357772
-0.142925602773288 -0.0818088322797596 0.263768410843814
-0.133052447667299 -0.084869141127203 0.271597318356302
-0.126370246302323 -0.084255488777245 0.272601328562723
-0.108634213075813 -0.0874415008543987 0.263411344272756
-0.0941491460527594 -0.0825343747677027 0.262775601171744
-0.0833300511980535 -0.0873484316652837 0.262104445780409
-0.0752196336899665 -0.0856781962642515 0.261676460574527
-0.0678299045172869 -0.0830877684682635 0.261275936221135
-0.0539273925529629 -0.0870052261434087 0.260456654919345
-0.0487204910167507 -0.0867025278253276 0.260163050188179
-0.0270190439724068 -0.0863283846329184 0.258494253913458
-0.0236850980802717 -0.0890551023433389 0.257632017611273
-0.00711954178663675 -0.0872912482821187 0.253818455522451
0.0014350142333807 -0.0868661065258087 0.251834177919362
0.0224800654731226 -0.0922401036159568 0.245689922707463
0.0363946454822418 -0.0868519968544493 0.241177960155826
0.060522445786958 -0.0944781886600003 0.22884552472272
-0.261102208351901 -0.0759006602204565 0.251171702038601
-0.257046052706809 -0.076138226761444 0.25211144412959
-0.239215283705488 -0.072898612826718 0.256303330556004
-0.241057882672974 -0.0736795549908129 0.255897119599967
-0.231662553576964 -0.0723360455887427 0.258049474278276
-0.229256600454091 -0.0779502393743244 0.258544118052491
-0.217542313153767 -0.0698079755566853 0.259607908530362
-0.196927396412891 -0.0756063570681202 0.260799414349211
-0.199309122600304 -0.0702580846832727 0.260647331193002
-0.189861142193294 -0.0775330361190488 0.261186523434585
-0.176900847806607 -0.0736172027355594 0.261945754365104
-0.166620741535159 -0.0754800359793611 0.262522459240523
-0.160161948962792 -0.073291778702083 0.262894466009504
-0.147809509485266 -0.0771249657133129 0.263579055049099
-0.141375257148593 -0.0775909128297607 0.270011392779469
-0.136389772760266 -0.0731813213068065 0.273014845598285
-0.132157601605891 -0.072067249381906 0.274040196866278
-0.0997544239990073 -0.0778064307065438 0.26312947599724
-0.0939896329801999 -0.0762157198279928 0.262813805986171
-0.0875369505089346 -0.0791392314963108 0.262425278158108
-0.0740369655774826 -0.0799183918782906 0.261652346498724
-0.0644883487003734 -0.0829840747251265 0.261086836379422
-0.0550994184459576 -0.081046418276746 0.260567829154372
-0.0447899406348292 -0.0817157665942516 0.259977011571484
-0.0334405719501637 -0.0789385899350352 0.259352887636182
-0.0195257904111166 -0.0826783350569762 0.256856902040635
-0.00321795833000436 -0.0841248026836216 0.253004833267434
0.0160713062087283 -0.0822869355231023 0.248265600507526
0.0196246273760878 -0.0783978689714228 0.247250789102195
0.0408384401839838 -0.0849848051753074 0.239689732986867
-0.258549621838642 -0.0674496255271319 0.251621591105512
-0.253724819139834 -0.0669322501314406 0.252732198491219
-0.247481681399289 -0.0596442922220725 0.253965844786979
-0.240983532087813 -0.0616458214810129 0.25554457839599
-0.232040680729334 -0.0667019495159564 0.257788003352023
-0.216395043969906 -0.0605087768035599 0.259603533563916
-0.20538177712433 -0.0654091085160328 0.260265993441887
-0.19625859646899 -0.0614495378684857 0.260754774525834
-0.19470145527231 -0.0670170198471923 0.260884904535189
-0.186959979370655 -0.0650553015360585 0.261310119282245
-0.176854806243023 -0.0668595896938096 0.261897818047486
-0.173806875670575 -0.0649932191929677 0.262057047093923
-0.154174310990966 -0.0678538069408716 0.263194018059766
-0.151653729134697 -0.0662883961322762 0.263306125047207
-0.14877212149524 -0.0619678340398928 0.263363945130198
-0.1355589213957 -0.0689558518699011 0.272853370122722
-0.124537588565748 -0.0688972234327334 0.27374041623025
-0.122161046103351 -0.064230475745755 0.272281053546174
-0.0992015796563517 -0.0650618438204812 0.263039311792865
-0.0797030297688819 -0.0688583320428902 0.26197934518421
-0.0723016970585041 -0.0686867844824607 0.261557499637033
-0.0700911441843049 -0.0707507677048627 0.261447330791101
-0.0479056267051209 -0.0726985785047588 0.260201265447725
-0.0393014176951835 -0.0691966481769333 0.259686155454064
-0.0334080930649465 -0.0728349135674337 0.259378499236924
-0.011216963902445 -0.0650157541483487 0.254904355343711
-0.000450034123100463 -0.0659748764113557 0.252419939279341
0.00987066936324487 -0.0717429864897119 0.250187531431829
0.026989526573953 -0.0712936776929975 0.244863081666942
0.0433213057250128 -0.0682609046854722 0.239049544251245
0.0615727349352541 -0.075641124318441 0.229874496438117
-0.262674694246925 -0.0520385041574409 0.250184738430247
-0.253778838205881 -0.0543317650129021 0.252332263934566
-0.244423655111172 -0.0533986905461785 0.254487861411642
-0.235360199716338 -0.056553614968192 0.25670100494661
-0.230670839562371 -0.0507982036335906 0.257618978563989
-0.217879035482829 -0.0585880622757591 0.259504840928254
-0.213762163830136 -0.0568776624671432 0.259725976668841
-0.202108027672992 -0.0553549150488053 0.26037680241841
-0.198496840384801 -0.0582570533751768 0.260603709495408
-0.18641308998349 -0.0518331869288816 0.26114857071442
-0.179394468161467 -0.054938457943615 0.261588314601481
-0.164441238326024 -0.0548908574418335 0.262379046220687
-0.156891069164802 -0.0573534044985834 0.26283283896401
-0.149686649340234 -0.0570489104051604 0.263151858998887
-0.148302834284977 -0.0523070487439516 0.263037331713219
-0.126689941419365 -0.056239288309468 0.263725467301173
-0.127496635341204 -0.0604480140172222 0.270422865929969
-0.111897105223239 -0.061343492434647 0.263583494510886
-0.0932282737207067 -0.0562274402331777 0.262529262375419
-0.0887213627257457 -0.0629767165445062 0.262438650429779
-0.0720798049183645 -0.0610537917492134 0.261487790094982
-0.0669899481879705 -0.0626982148518573 0.261210873349408
-0.0506588328326261 -0.0545169873775594 0.260221696218943
-0.0373223371769231 -0.0553449007146771 0.259470076664757
-0.0307273637385351 -0.0609475424374311 0.259137246161786
-0.021130496615605 -0.0567740149787499 0.256965659579642
0.00761503431677644 -0.057500263634967 0.250276382333081
-7.22356819194953e-005 -0.0642897592690717 0.252279931415911
0.0247958345781976 -0.0625352057811779 0.245210309759227
0.0487447046106285 -0.0646183538041586 0.236956884852106
0.0593836234733634 -0.0661278812385508 0.230849880932973
-0.258716260052473 -0.0467095945023436 0.250945163138738
-0.254014073739366 -0.0455370036458313 0.252007001203007
-0.240544160923045 -0.0501355217480707 0.255293353050169
-0.234818717613227 -0.0422223733974741 0.256201339088721
-0.229541638495545 -0.0482552587061338 0.25780446142959
-0.222712283156167 -0.0441875753727408 0.259012464041303
-0.215845564517424 -0.044753154424238 0.25943483305253
-0.201891018397445 -0.0494610691801084 0.260276985358322
-0.200503397435085 -0.048809597429295 0.260336171571039
-0.180005686452777 -0.0472846211591305 0.261388081457665
-0.175253115099594 -0.0479341313114674 0.261653976269482
-0.169921818685568 -0.0443989646263823 0.261790425168871
-0.166726881996413 -0.0463285358165031 0.262003019175275
-0.150603829878875 -0.0453440146047032 0.262640445954717
-0.138148292601265 -0.0508053475421461 0.26328490928731
-0.13082496870263 -0.0449052055143632 0.263065511923807
-0.11637634967967 -0.0473140328835439 0.263081147275656
-0.112501452818749 -0.045225413930918 0.262885567787679
-0.101739859832587 -0.0511041240597222 0.26276440164206
-0.0871899875457736 -0.053053286990893 0.262139916627978
-0.0722936211087643 -0.0438992678144496 0.26115037987855
-0.0566931725943452 -0.0444620181268008 0.260336676548132
-0.0581563499910845 -0.0487627105529854 0.260508477649773
-0.0342799365101212 -0.0508796876999659 0.259263796378945
-0.0327821045119266 -0.0539228646343124 0.259201451291095
-0.0178660739689873 -0.044814712314981 0.255835858518853
-0.0114381475754697 -0.04991781304912 0.254491907582011
0.0101386872080006 -0.0544844548830058 0.249594449636441
0.0202044945471059 -0.0531974100106625 0.24633212411739
0.0524863165557906 -0.0491359624409366 0.234180296958882
-0.264461980154745 -0.04078351473226 0.249421473760118
-0.252259143897259 -0.0345096329575149 0.251711712999839
-0.238069252931724 -0.0330885154500894 0.254670960185915
-0.237186072446945 -0.0374300813846655 0.255254382417756
-0.232811942148872 -0.040353155677368 0.256469500700802
-0.224652687284159 -0.0331582790639522 0.257596313573405
-0.211129983062724 -0.0326374199799991 0.259418793392162
-0.203740129256911 -0.0362267009330687 0.259888809693567
-0.191367954111173 -0.0402085028692001 0.260631249643203
-0.185412768693196 -0.0405279668735066 0.260951003788389
-0.172888424425748 -0.0411945811244444 0.261543735224966
-0.170280781484607 -0.0408019411743722 0.261648603825116
-0.158928915994443 -0.0382478345155853 0.262027326623518
-0.144529139111093 -0.0378942386538391 0.262461315275698
-0.144138192854871 -0.0379726125158151 0.26247403967656
-0.120665401763399 -0.0336314583453418 0.26239576535522
-0.121989047376533 -0.0416374577417939 0.262860588218197
-0.10933224475324 -0.036407692202018 0.262349158997236
-0.0963857043805946 -0.0374320773169923 0.261987737059917
-0.0881889783268779 -0.0380183390591142 0.261691691454799
-0.0776427737146302 -0.0373359201350314 0.261188353254287
-0.062068883340266 -0.0384414484450956 0.260489274042354
-0.0524499564333134 -0.040372583976094 0.260022305459795
-0.049512156556427 -0.0368772142915616 0.259790085765285
-0.036505928807301 -0.0426957786866498 0.259229020806829
-0.0168834411971597 -0.0405552167601178 0.255249548021175
0.00608056662426412 -0.0446379802948916 0.250239285566005
0.00805239891531966 -0.0449057930309182 0.24978712787812
0.0217524735041987 -0.0426766461019436 0.245353433723779
0.0369512607807983 -0.0380943606331896 0.239899854006461
-0.259908056837935 -0.0308886820618696 0.249721200926968
-0.251283684608356 -0.0257840872708154 0.251137588894967
-0.247235525755026 -0.0288174247633851 0.25229172203757
-0.235092256439086 -0.0263950543418258 0.254715447986795
-0.226127436070854 -0.0256681819221481 0.256600433399402
-0.225217440414222 -0.0287351386448278 0.257074820561895
-0.215011014575738 -0.0268047941992942 0.259085367191357
-0.204107296746161 -0.0306693193549965 0.259747479926844
-0.197358726217068 -0.0248131311517483 0.259859541255143
-0.188538762921569 -0.0269054179830574 0.260333578499517
-0.171670550126149 -0.0272106075720462 0.261080917958285
-0.171901249077229 -0.0283505629520935 0.261124701902429
-0.152477749505063 -0.0256154279883382 0.261636816301669
-0.146508813301597 -0.0298275138835459 0.261990761529658
-0.140944318582396 -0.0285513898640128 0.262045234789773
-0.129551807685219 -0.0256665084201364 0.261981845346259
-0.116131491001188 -0.0241669994632169 0.261824053748865
-0.102209954999695 -0.0251751102882442 0.2615981813979
-0.092593912325608 -0.0330522791444655 0.261656295634917
-0.0884266823677353 -0.0257876568875607 0.261180584263912
-0.0754444594493803 -0.0259970702217535 0.260692786817322
-0.0576843138835852 -0.0322015205475159 0.26010171737464
-0.0571242880987761 -0.0316394305393751 0.260056642157876
-0.0340116449311417 -0.0297196066108891 0.257999643931134
-0.0266826854193153 -0.0321824934944025 0.256627027376747
-0.0131200626380345 -0.0267928012216879 0.253190457795212
-0.00683837848825254 -0.0327910836051866 0.252364312852936
0.00992657443496915 -0.0301473056717627 0.248152508345946
0.0308789637120828 -0.0311863097044691 0.241696231549015
0.067256671233918 -0.0261023590748241 0.221390783578868
-0.258927106990904 -0.0145245356611718 0.248125926794984
-0.253859426809381 -0.0191778333270956 0.24998181661023
-0.239036408052276 -0.0197400571035632 0.253257555612837
-0.234828683555695 -0.0160754025140022 0.253842774745584
-0.229754068333985 -0.0189058558196175 0.255201951674321
-0.223275879931169 -0.0138902993674508 0.255894459105919
-0.217849999341289 -0.0221258428282973 0.258082130326335
-0.209228862901656 -0.0195394515194752 0.259135816444705
-0.195134860088606 -0.0194608520977105 0.25977391880161
-0.188164412776848 -0.0226461159396165 0.260201993604242
-0.17454823198831 -0.0185761917015227 0.260587915126417
-0.17391453674158 -0.0209082418694148 0.260716061375957
-0.15582664526559 -0.0181011894461282 0.261165486099206
-0.145169036139412 -0.0210546036973097 0.261555619585722
-0.134635539290808 -0.0195867467945104 0.261598347587724
-0.125014175650756 -0.0226638542365176 0.261805091080028
-0.119732610794309 -0.0205786528440414 0.261647094265739
-0.107205273710152 -0.015057899035174 0.261172034296666
-0.0886866506524691 -0.0230220247232979 0.26106390310938
-0.0768213010295858 -0.0191297848414383 0.260472945544678
-0.0742584671343631 -0.0243321790219626 0.260580772779809
-0.0619268885922254 -0.0213374959556281 0.259915580334911
-0.0636766496189687 -0.0216046342721247 0.260004461184684
-0.0499285724944138 -0.0198732322558414 0.259318937183047
-0.0170386510691818 -0.0167748087077727 0.253140198725602
-0.0160616967696057 -0.0206096204601594 0.253273238814097
0.00621706413657499 -0.0205191153875421 0.24806587646644
0.0119381513343824 -0.0208971524551423 0.246335675011368
0.0335690848652415 -0.0202430396674228 0.239310112157269
0.0464811325461061 -0.0249861242576555 0.235693623278441
-0.259844887830904 -0.00982474641103878 0.247235252311849
-0.249427500308436 -0.0109985271768268 0.250208950019901
-0.239652155432787 -0.012447086774282 0.252466335214867
-0.231296647733469 -0.0107649258970237 0.253947853819063
-0.226432338035863 -0.012728338055135 0.255138146933404
-0.221054832763089 -0.00981114825422183 0.25572462861681
-0.215091972199365 -0.0105420475698083 0.256943471795276
-0.20228778466813 -0.00686636204626053 0.258808764242038
-0.188609691844714 -0.00839293211116538 0.259634287272997
-0.181773303700571 -0.00842715532419761 0.25987436382552
-0.1747357028735 -0.00802101178622349 0.260101437479845
-0.165182427929736 -0.00781283998758248 0.260415519286299
-0.158261441616802 -0.0113962146011743 0.260757055160899
-0.144871678327047 -0.00830342127516955 0.260880626064762
-0.136283300280611 -0.00978350854529486 0.261028976469407
-0.123941618695539 -0.0108718205540071 0.261127014632827
-0.122215923132479 -0.00802820699979542 0.260952523775902
-0.11271155496771 -0.0120437698600193 0.261109597591428
-0.102754095111253 -0.0100705693490691 0.260810328272087
-0.0779216866807828 -0.00902188592711367 0.260051738560162
-0.0764878075940228 -0.00835250741412696 0.259971274573471
-0.0637416370406391 -0.0135964752452487 0.259728012780535
-0.0488930165241893 -0.0119029825124055 0.258745115635817
-0.0358441698461871 -0.00593078674033542 0.255450972188943
-0.0136435618887855 -0.00503403268432697 0.251174602524539
-0.0137606542855238 -0.00522225323861558 0.2512234629585
0.000606472981046403 -0.0133358890385006 0.248885254664948
0.0211644369686765 -0.00578556205161381 0.241429701532535
0.0348997018791759 -0.00528684702034579 0.236823994441824
-0.25967884286374 0.00340115323859621 0.245488302568047
-0.247022649163689 0.00246259045192518 0.249059883082905
-0.240645123913379 -6.45228004196687e-005 0.250667216429668
-0.230514962442432 -0.00416633657309211 0.253147910878689
-0.224508978371921 0.00378841202477919 0.25312961819411
-0.220746381445983 -0.000685392113652036 0.25447396993796
-0.204405713627348 0.00320750956674886 0.256945097307707
-0.201194908925789 0.00337336310031981 0.257374418091392
-0.19431551228745 -0.00212126013697805 0.259150043506515
-0.177703862805803 -0.000116464167881057 0.259638464493861
