ply
format ascii 1.0
element vertex 867
property float x
property float y
property float z
end_header
0.0588921183020838 0.170501011346875 0.393850975594079
0.0589337642413278 0.158133252454045 0.396563729215023
0.0600112595221963 0.149784003936025 0.398356512801086
0.0581672853694289 0.140036557926655 0.400563465401676
0.0549845911305171 0.131954038704193 0.402454200981637
0.054904970481903 0.124256526044348 0.404146456069238
0.0574995447849907 0.121913998237183 0.404565251117216
0.053050717455028 0.107409468760106 0.407911898526668
0.0534924533265322 0.099681306625591 0.409591729089147
0.0532364347004465 0.0945617276823975 0.410724699000777
0.0571671980395396 0.0875217301170807 0.411771390510031
0.0590027529345217 0.0663015561214784 0.405716969064995
0.0551342453451011 0.0439630422356047 0.400483506463213
0.0637422180086591 0.0129431048065042 0.390464489346721
0.0645125115289075 0.0202956586764636 0.392238380815179
0.0593456261606285 -0.00406719343034748 0.386315919253207
0.0656981836550588 -0.0568366860694412 0.355008728497724
0.0621138102490156 -0.0646618599260253 0.35039336473536
0.0619173127302888 -0.231081838650198 0.224661974741181
0.0609615770598568 -0.229248826470172 0.225660883197532
0.0615222715114704 -0.303056624516332 0.189995112420191
0.06571087246797 -0.291260899688224 0.195181107780687
0.0626467726714586 -0.342705788173777 0.170736733682056
0.072061619104781 -0.386750830593324 0.14836214849043
0.0666940437738466 -0.410545106720368 0.137530748983495
0.0735594165064583 -0.455116396611821 0.113055984178834
0.0641529206075044 -0.455995750913881 0.116160366786438
0.06174419201161 0.346828480045964 0.34112948652879
0.0635587201396207 0.338385032938095 0.344394857354423
0.0629290597213174 0.33826584787967 0.344484325211861
0.0618117635058416 0.331994937220021 0.347080351559805
0.0662342552752893 0.319973219932223 0.351282295365146
0.0609811450391672 0.317343203498344 0.35272988715402
0.0623597764761319 0.311130302140526 0.354970121031917
0.0661141295987972 0.302394152850946 0.357758676504591
0.0650871142512343 0.295880738026836 0.360163106836986
0.0677767640122218 0.287438452034872 0.362750563814792
0.0609542279869623 0.286173977136964 0.363868874661498
0.0628177483754627 0.276934537345476 0.366684335149396
0.0678949031294122 0.267132057135057 0.369109780117167
0.060582903606209 0.260393856260521 0.371852981541886
0.0600967964182204 0.25416018634736 0.373572426461825
0.0669480994731687 0.250320825245785 0.373979912470627
0.0657031499447006 0.236145203180352 0.377865631736373
0.0671152071648469 0.228522094113721 0.379649749912014
0.06423864908999 0.217183607302159 0.382700849280024
0.0686729213558484 0.210505219270349 0.384019136527206
0.0618192101708532 0.200660037124283 0.386751822692441
0.0675895413325192 0.196580727072542 0.387355222514741
0.0638901222279934 0.191597834652712 0.388727655094156
0.0691456082384371 0.182693723957754 0.390478622380972
0.0644086171490383 0.173462333722142 0.39289608733117
0.0627575134824859 0.167288735681791 0.394410774200971
0.0672341016004864 0.1556019230731 0.396814369634708
0.0659075948451743 0.156567180896896 0.396651256445742
0.0692172052981242 0.136890910820888 0.400847926273847
0.0679646530670959 0.136235039848825 0.401037876651842
0.0648535951242538 0.123891773001589 0.403861063448461
0.0662827009924418 0.112790682442551 0.406244862818363
0.065418159095927 0.113754965526826 0.406064994189449
0.0639971964584378 0.103146394988941 0.408445394523978
0.0636266204816789 0.0840630430157101 0.409365746498958
0.0689355320640038 0.0664242582003385 0.403461810238977
0.0657904253304875 0.0576521727319682 0.401858155269776
0.0672808783943563 0.0294513693881005 0.394030617618252
0.0710914225183356 0.0375252509870776 0.395295711269886
0.072491766758037 0.0024123424429231 0.385695871274912
0.0681408438317641 -0.0079979757809577 0.38391620667267
0.0732026934299043 -0.0560410186185925 0.353209066088186
0.0801792660114946 -0.216421772876532 0.229538673752352
0.073962947370047 -0.2189792594589 0.229052008604978
0.0775761049123659 -0.258979713850871 0.209325205436206
0.08208759456308 -0.288989812141486 0.194160545966941
0.07421926420115 -0.322292950549113 0.179191751722638
0.0820366719201575 -0.351817782933141 0.161645787677101
0.0733988715215905 -0.391947338074154 0.14584423721946
0.0794115769315549 -0.425553851884832 0.124710316696075
0.0710937782265324 0.351489976369598 0.338641532530514
0.0723265818903731 0.341218957381841 0.342682971518707
0.0682612917255955 0.335479561703826 0.345220793434033
0.0679406295761974 0.334334396740719 0.345685424155368
0.0703386380177784 0.322762255068069 0.349872607730706
0.0744231171451695 0.313426068278401 0.35303293892595
0.0700941353459614 0.308982268818356 0.355037828538335
0.0752313940790174 0.303208894238485 0.356575169446755
0.0686449107406793 0.299686959433979 0.358467582992618
0.0682345532176831 0.289622841016806 0.361991341138108
0.069074407147496 0.28725154584306 0.362677030373752
0.0693785691451979 0.26926300307966 0.368324948920852
0.0712815376318875 0.272002104429482 0.367316551839711
0.0749934900655172 0.261676699129908 0.370012377297186
0.0770807235227846 0.25061423247181 0.372960583854804
0.0721574423293035 0.242635210664256 0.375584367290636
0.0724693152034024 0.235489913886026 0.377496223086512
0.070541775272625 0.226612163478317 0.379858128301922
0.0729825719010423 0.218398439582188 0.381714877691891
0.0753009123354619 0.216023822136661 0.382125673205512
0.0758361575625247 0.211682451584197 0.383166034073688
0.0757638990105483 0.201062091363557 0.385819029662812
0.0702122715006618 0.191639907266886 0.38834417075011
0.0704044440033259 0.182270713837097 0.390502148036881
0.0798392406199463 0.179882512179648 0.390497359458019
0.0730662349473779 0.164887781980911 0.394369626846426
0.080128705483346 0.153853265328067 0.396507044676118
0.0722150772624926 0.152037756495895 0.397392860112621
0.0718504408775862 0.141090854735915 0.399829461219304
0.0785240168772861 0.135190856380624 0.400879160566544
0.0731750383157309 0.124458663249433 0.403430979520902
0.0772478272332637 0.123331232676221 0.403528804647959
0.0725786589430217 0.107788635410608 0.407111364820665
0.0754953271214007 0.09467127543473 0.409447475277485
0.0801425902561664 0.0878155098573659 0.406557652733971
0.079990636275326 0.0767837687575776 0.40366491967012
0.0827338346325044 0.0506206502669102 0.39609300288163
0.0763139428345012 0.0395016832508204 0.394617386116412
0.0788730413646131 0.0203692782415653 0.389010188769954
0.0757509264782279 0.0117746106800901 0.387438637539132
0.0835235797846401 -0.0381896589793504 0.360837268282317
0.0845330330298594 -0.0857529070149257 0.330207261133037
0.083832411865252 -0.211225229163983 0.231906858283029
0.0891857229192871 -0.235050894250301 0.218125179388733
0.0852443633512418 -0.268371855669389 0.203098014108591
0.0891438807275663 -0.312083148837098 0.177808719337751
0.0903116184282119 -0.338975831158869 0.162941304414663
0.0927838146964457 -0.381284713991141 0.13913385349264
0.0950028552461493 -0.4263397272735 0.114052935749718
0.0917912022130699 -0.450655232098264 0.103414542664889
0.0755826908975028 0.34773682438763 0.339851743433384
0.0773776835813213 0.34381601734064 0.341277498744485
0.0835071798756852 0.336505374932108 0.343529862215504
0.0818712534203637 0.329489160886994 0.346332862898007
0.0781359546787517 0.324722211956842 0.34846171380825
0.0765372024795261 0.319208830708075 0.350691121383825
0.0819101095356984 0.310264918303202 0.353423811612946
0.078829893259305 0.306256193397868 0.355144053266485
0.0768089505839823 0.299720570446438 0.357653946477708
0.0799602291534626 0.288282516681365 0.361213931537186
0.084286969724969 0.282264173963886 0.362725462575268
0.0856881660840263 0.27494265556671 0.364964308949304
0.0844718773670047 0.267354171714698 0.367360221131094
0.0812442431533694 0.257664405291428 0.370571626718199
0.0811062320137203 0.251868422952662 0.372252903878137
0.0807378550053168 0.24068314426231 0.375318887345848
0.085009135266128 0.232050786307625 0.377267482712278
0.0867785685173132 0.236031681425429 0.376022122046092
0.0802520476622571 0.218071029168878 0.381228539037316
0.0866576584961167 0.215716573420106 0.381314976846227
0.0820893405782582 0.204750332139542 0.38440546063852
0.0873852823174882 0.193216634494127 0.386866715960088
0.0796539159365124 0.190127907468898 0.388136102061181
0.0862363557899346 0.180492334244525 0.389977987005789
0.0887587355581116 0.174530131289435 0.391209358084865
0.0847388328213736 0.164044575198403 0.393874820198974
0.0862869821697033 0.160383327318191 0.394631022440349
0.0865441977573954 0.15211623175436 0.396529975485115
0.0875591283514735 0.143934343365622 0.398364406304258
0.0828284031983083 0.133564443282395 0.401045110771921
0.0900199195089914 0.129162480185704 0.401639202113136
0.087891972347278 0.116301288509691 0.404680635968825
0.0912729830639084 0.108483040566987 0.406272268745992
0.0856010689397289 0.092638051058128 0.406580314868519
0.0909068781311738 0.079419230347936 0.401856880690239
0.0852898455267303 0.0708398615016153 0.400866940072743
0.0853933094674418 0.0523185324585453 0.395958927045008
0.0868030659818303 0.0352916730778345 0.391192699987502
0.0916829089933986 0.0176877144458312 0.385520159181631
0.0878207722527048 -0.00093792811763214 0.381482483009441
0.0894925003726463 -0.00380406756756755 0.380368019282655
0.0939116660246794 -0.10042002633261 0.316690541073692
0.0923233580325725 -0.0885743389547483 0.325159881208211
0.0916933923516813 -0.221123373391262 0.223824399320484
0.101341631078009 -0.276018667172503 0.189551727077096
0.0943034332785388 -0.330033313702215 0.16500684437098
0.10117471362613 -0.355586066327071 0.147094054963514
0.0977705144255739 -0.386474837733812 0.133135765987625
0.100939756866099 -0.432503016819185 0.106920212217388
0.0923250251862544 0.350291833106786 0.337542821819314
0.0894806399417406 0.342395048913845 0.340783421003456
0.0848579024536857 0.333597239954717 0.344518130575561
0.0860968064988878 0.328728183978173 0.346260248405425
0.0911309334173327 0.322915160846623 0.34803146505476
0.0904546229512336 0.315283172826936 0.35080991257882
0.0922807524553497 0.307809639592451 0.353273710931206
0.0921474794189886 0.301708375118579 0.355444607810913
0.0864042862742696 0.296368176348122 0.35789726389817
0.0877779424804141 0.286924597732485 0.360846432787217
0.0867160963450524 0.280007504884888 0.363208682081879
0.0886315108613578 0.27060346766898 0.365970819213777
0.0955022994491067 0.26566338374865 0.366743207233689
0.0895121429562 0.258635924680879 0.369442868710768
0.0880824985330184 0.250685147746563 0.371932665279659
0.0961694584421414 0.248391320907094 0.371806776710704
0.0924491615379876 0.236389311354824 0.375399129636039
0.08867296695801 0.233652879970305 0.376492568214434
0.0943494108220561 0.227164829496447 0.377728429519846
0.0897732322043995 0.216400186220377 0.38090115700207
0.0960647697678518 0.209463556191071 0.382138711345667
0.0963245856821279 0.193246711404971 0.386160805013789
0.0935100558315632 0.191502105263288 0.386815579881313
0.0901412140400643 0.180193998444796 0.389816222244323
0.096626913597834 0.176817125801695 0.390214690076124
0.0975295800271748 0.171128132968484 0.391478553900399
0.0901254065312924 0.154610125841787 0.395740832368315
0.0945568148842149 0.149842649958841 0.396582722056765
0.0999151126102146 0.140714452097418 0.398379496500285
0.0909300281741584 0.133880479011228 0.400492996915551
0.0936759744071065 0.120945821921886 0.403325549698383
0.0925010152588387 0.111033300096549 0.405667468120133
0.0945887438835566 0.110324401745899 0.405730867751648
0.0999200427781527 0.10098744095403 0.405329428965183
0.097508357008393 0.0722197254456333 0.398534659980687
0.0969107363281081 0.0609566812785908 0.395714859354115
0.0971078945007375 0.0478912786111677 0.392250049061213
0.101137238616808 0.0367195818830962 0.388447242237625
0.0950724841211582 0.0127683207044105 0.383494094540019
0.101051460688206 -0.0220255073255256 0.364805076595131
0.103359397565956 -0.0880560706581901 0.320990336913787
0.109571496364433 -0.206406443735029 0.223280122725433
0.107048485907331 -0.22757801855629 0.21294953120901
0.109266925097595 -0.281877036681702 0.182937983544568
0.113030570091035 -0.310139309365887 0.165981456299035
0.117506215193132 -0.358801190979207 0.136679582914236
0.11076452425605 -0.372653450141493 0.133375631826741
0.119177090401497 -0.435012230287414 0.0936755844437945
0.101730636134813 0.351835716603703 0.336152280167395
0.0960665911820713 0.339811145290985 0.341200807924359
0.0968463347921417 0.335744284379659 0.342677721800057
0.101660114455767 0.328165331098034 0.345141617730489
0.0977451767344727 0.323343473553916 0.34724329082288
0.094472449037287 0.317170492814665 0.349747861407939
0.0950551339365651 0.309176357379419 0.352517891437542
0.100380026388175 0.298415285916019 0.355795140409656
0.102329772312088 0.293639001990284 0.357153073780384
0.101174186507672 0.289358990497882 0.358666370042186
0.098150498998484 0.278346064763596 0.362565445994949
0.104214879674574 0.271534209626949 0.364113202634764
0.0984651978316468 0.265588165045212 0.366464697629085
0.104984189079414 0.262962371890282 0.366584090674985
0.100512583850755 0.251601873977017 0.370419027929556
0.104377023339774 0.243548090004874 0.372348577512075
0.102314937829352 0.231985895696924 0.375680278983364
0.103084422072665 0.23214168845507 0.375566606148575
0.102413248877541 0.22088435002676 0.378686519606299
0.0979078928530872 0.212908188183702 0.381136063435957
0.104696784688753 0.204944923428806 0.382590670766557
0.10446696468503 0.201875232064034 0.383373811949772
0.099924035412449 0.192085299548664 0.386169092247056
0.103186350035228 0.184608220130235 0.387778033467794
0.104877738154123 0.173946077145335 0.390303653371601
0.0994817797857829 0.163441537565579 0.393142896853028
0.106161444388719 0.160504647326566 0.393428024883187
0.103821943304323 0.151595818755104 0.395629073042726
0.104068200470256 0.142287786425488 0.397769691830329
0.100726368448485 0.133602350943823 0.399978269901473
0.109937593537447 0.124243550600266 0.40160066661731
0.10214877169194 0.113807617096068 0.404477444175648
0.109492704739057 0.0909109788089131 0.399783393066628
0.101898588579601 0.0964626071366865 0.403681879308041
0.107899313591039 0.0701990801255938 0.39574413768289
0.108252327813725 0.0595625221478545 0.392881538068204
0.109864262371194 0.0342723392696614 0.385907100501359
0.111174837935667 0.0306960583584915 0.384685241473545
0.106959633260074 0.0190920346352275 0.382563403204309
0.107957253825484 -0.0243043320816585 0.360877201152901
0.114040543726901 -0.0541326559054818 0.339018532655311
0.116876510995043 -0.21981342954234 0.212733890336525
0.122684760398942 -0.246776665251819 0.194403832946239
0.118526281267383 -0.295456917939354 0.170520287080112
0.118905749194252 -0.327479278945097 0.152850312158255
0.121945416312243 -0.375884392381472 0.124590603157024
0.122794842356639 -0.397848816306111 0.112100380752799
0.107717335214526 0.347241681125158 0.337383889587516
0.104797233959392 0.344374390666663 0.338721977368955
0.107859206506677 0.331130380164067 0.343485456068954
0.102797033324242 0.328868598594624 0.344778430887233
0.108782702045414 0.320561463171385 0.347143252792766
0.110242801310484 0.315279845950362 0.34886779133101
0.103275487916354 0.305755375253946 0.352920496164598
0.106650910122762 0.301028955003033 0.354260586232528
0.110597963645968 0.291925794782945 0.356854606282282
0.10814674882464 0.286484838154187 0.358880101895301
0.108094584057878 0.276412598208711 0.362165131191304
0.10534146272011 0.273786121624401 0.3633054699639
0.109023023164777 0.265937593572255 0.365288519566099
0.107822544300488 0.256331691268757 0.368269101782293
0.109918217233617 0.249740341294807 0.37001783067527
0.107273912102243 0.240203923730054 0.372988267686979
0.111843513198792 0.241988492725656 0.372083417259015
0.108692129050638 0.228931513340718 0.375918518298708
0.110367105520588 0.215705427102462 0.379355608287384
0.109612908061773 0.218540468935005 0.378655505014617
0.112478004260727 0.207559789751616 0.381335602307048
0.108531456128287 0.195509492508069 0.38464305532115
0.111376574351429 0.188624685366737 0.386136955004236
0.115966449924426 0.182047972397128 0.387417740544316
0.114437295364746 0.17632027984581 0.388964959878972
0.110209958000983 0.161688017554136 0.39291469434014
0.109252789278709 0.156116730688274 0.394261251398665
0.114140115202465 0.148627777523956 0.395706318206311
0.11359838211282 0.140936612775635 0.397519151541167
0.11261614314256 0.134145889650271 0.399149538256817
0.116009434294419 0.119715309915649 0.402290187418885
0.117560334460143 0.111129231340283 0.4007381410742
0.113102155886511 0.101983637342216 0.400651143310619
0.120076075024196 0.0788194616303761 0.393456565930759
0.117061913404203 0.0741443739751859 0.3935920709523
0.116723926808658 0.0523594530173213 0.389151404067104
0.114111398592835 0.0479910715324465 0.388575844112875
0.122698020088719 0.017275901727695 0.378662723936306
0.118213447751051 0.00856906781053268 0.37735829678412
0.122642844720385 -0.0459691039705117 0.340891024360216
0.120582290540207 -0.111886796280451 0.294545058487639
0.126783790398871 -0.216712897319632 0.208648685727686
0.127247306299167 -0.249937598457341 0.189298895950044
0.134536779155885 -0.289034090141344 0.163766411044152
0.135931361957698 -0.373283048955853 0.115282645765988
0.135826630032417 -0.389769343323816 0.106566775146189
0.117792277866871 0.343068078103679 0.338106215645383
0.114435200309088 0.339718036650532 0.339664914312592
0.111979015407959 0.335666165643606 0.341412936966433
0.112593163838558 0.327296898564696 0.344386953040793
0.113499321941967 0.318782247020133 0.347309305152843
0.115986095407986 0.319126649861837 0.346943288071391
0.118420495050839 0.303902007060283 0.352088653908296
0.113670574852617 0.300604731159565 0.353707273008502
0.113326245307606 0.28996596538602 0.357210189309806
0.120271502693986 0.287632552406707 0.357250678633862
0.118978527421545 0.279874803659146 0.359910591473176
0.118733324305815 0.269037956830009 0.363379746524736
0.122949428854507 0.262842998499078 0.364795172828704
0.123445453946488 0.254629987806167 0.367188950592345
0.123383770565361 0.248069767265749 0.369147503781607
0.115715546643821 0.242309416215842 0.371640494752706
0.123333338504152 0.241717695842676 0.371042970212143
0.118670586833711 0.227050224342986 0.375504168348728
0.118052273521196 0.215954132868055 0.378575382668738
0.120790318487399 0.210824589742491 0.379714739905211
0.120856459941101 0.20963170512508 0.380032612912008
0.117185894883835 0.190429569486761 0.385233176310603
0.121043635403717 0.185443718772774 0.386174606230451
0.126770923459188 0.176224418610201 0.388025248463595
0.124616301396633 0.169665033287049 0.389828651656737
0.118344984730994 0.169169489197593 0.390442144591769
0.124814239936129 0.153440467023452 0.393857504448427
0.127571697269088 0.144026478974242 0.395977673177365
0.121335283456496 0.139941491498713 0.397292183406928
0.122638327684269 0.132404691860205 0.398960218486923
0.124424392418723 0.128640681243919 0.399726149647588
0.120846547220603 0.102482550606799 0.397870924931729
0.125484448770753 0.0936111709806975 0.394459063679862
0.127239119475169 0.075855783134524 0.390245871078889
0.130741286560238 0.0602146818738694 0.385763151584846
0.132134943845011 0.0561485487579129 0.38442224583053
0.133228712783153 0.0345270490567657 0.379587035845965
0.132639366504054 0.0200149193975857 0.376822521602402
0.125264886101395 0.0190785280196216 0.378576234926251
0.133588339045724 -0.0214008108194071 0.352635298178399
0.138612767643104 -0.223161768396429 0.200083479548812
0.143432069428003 -0.266208947611142 0.173284749595443
0.146117839072613 -0.3087999828902 0.147623168691944
0.143371928819948 -0.338004759680003 0.131906465277062
0.140704451333249 -0.360733539974254 0.119892180128903
0.143524429210921 -0.376006690900163 0.109929183559369
0.123648386975475 0.346366042756094 0.336353518337261
0.120876919535932 0.339387745481894 0.339239260503355
0.127499377947533 0.326248091624082 0.343294015622681
0.123178531207114 0.325357863590093 0.344033187574106
0.123479530943109 0.320446560559675 0.345740587991662
0.125504466397093 0.313402168310585 0.34803309010232
0.125994819617786 0.307676920080565 0.350009759672586
0.125586498020597 0.300439199089166 0.352530246164725
0.124420391668022 0.291636541959196 0.355517252773587
0.126992081893009 0.288941360486049 0.35612849172688
0.130709900671941 0.27881113612062 0.359041958238596
0.130151286832202 0.267268808584824 0.362746695956694
0.127676095370952 0.265913399880997 0.363401424548832
0.130333309694953 0.25583056400151 0.366132175475538
0.124213019845655 0.250543097081123 0.368327239515671
0.125178921860066 0.24248138253133 0.370628274397639
0.125847550582038 0.233017153003032 0.373217909537106
0.133650191706569 0.225585348891558 0.374512939537131
0.1300371507063 0.219262900465412 0.376565267881812
0.134384773509125 0.212699583841966 0.377944799013738
0.134795157576753 0.203133831261899 0.380504954021566
0.126602693603543 0.189592048396755 0.384706226618798
0.13292328333005 0.186444396395448 0.384997027989497
0.130752323677304 0.180264674268032 0.386707068504965
0.132464872391316 0.173891409819357 0.388161941182333
0.127833289002466 0.16665937124185 0.390326538544555
0.134174935701137 0.154440539826779 0.39287687872121
0.13184482809332 0.149932793569483 0.394182577750824
0.137079270003156 0.138813183189938 0.396545417919123
0.13236613612231 0.131603989667269 0.398570539352654
0.134873582935898 0.123122142710019 0.396594837800873
0.138738706757632 0.101176577892932 0.39097932598999
0.135744853673933 0.0813425707210521 0.388281831751264
0.136160548760874 0.0783144349930882 0.387509278234164
0.137772804169756 0.0642564857360804 0.384038123749279
0.139643617518802 0.0411039254937634 0.378606355024659
0.13846380896891 0.0232544652196857 0.375371370507705
0.135373095411754 0.0136211895317907 0.37435527936989
0.143477943169594 -0.0386385372344301 0.335896042489752
0.153828359491511 -0.195984533209166 0.209522156836929
0.155192678706723 -0.234894092541168 0.18652498917398
0.148920882606194 -0.264441429780906 0.172055284311911
0.131167812574699 0.348457864609271 0.334916344464905
0.131901221222556 0.339901790160567 0.33803288593824
0.135931505796686 0.32883856761855 0.341549775735806
0.137322924673605 0.327089900243913 0.342031575368876
0.136793457203409 0.319337120910136 0.344825464902912
0.134485770210545 0.308350070250559 0.34893783573993
0.138887255717486 0.310720978803069 0.347667078545422
0.131948946793106 0.297873684253854 0.352706669595182
0.133158099271328 0.291370360133856 0.354698992613446
0.136795392282652 0.279214950812868 0.358280220304105
0.139416852753222 0.282569339618057 0.356916501315301
0.132640419205245 0.268351709504639 0.362171648569226
0.134334959240591 0.256355683877288 0.3655695187141
0.13585374066863 0.250869921397346 0.367047815935751
0.139320666435279 0.25143796020016 0.366526690078032
0.13895551717771 0.243856623247033 0.368819940618498
0.139249062934803 0.237601169275262 0.370651721837314
0.143237535451878 0.225949727619128 0.373524899722066
0.14250258191725 0.21927360260037 0.375406396926632
0.13797069882577 0.211019417413429 0.378068623389294
0.136516695147449 0.205131236555424 0.379802782452953
0.14461295151917 0.196484504306787 0.381400578372673
0.138524453490619 0.186102948113306 0.384644530650445
0.141178649246381 0.176804110619202 0.386755095093756
0.142683274647681 0.166701566379745 0.389155814611747
0.13856342193235 0.167704165140548 0.389227773174869
0.139909589543342 0.153985223006255 0.392542336662577
0.138896033680583 0.143001667273663 0.395359408510465
0.147320788949224 0.130775418485708 0.392459014199467
0.146119845062038 0.130222257470878 0.39299875786224
0.14668880830147 0.114477440205045 0.390561433739719
0.145640353189429 0.0952587890405609 0.387289647261034
0.142646237195807 0.0864221749385199 0.386717946236015
0.148354820675138 0.0670075055424104 0.38075823380224
0.149235159047374 0.0413634760839438 0.375174936817213
0.144943925333345 0.0403308631150563 0.376522034859657
0.149513714480873 0.0136572575521023 0.364557879823304
0.147130675560177 -0.0161009261129783 0.347224374791056
0.151345197007821 -0.0578706893045942 0.318251305515581
0.155153725723087 -0.209134322792929 0.201395989801899
0.168385015307819 -0.286566767017632 0.137912914542567
0.141073405759173 0.347341969882502 0.33449257674826
0.139942083067002 0.335394171765023 0.338837423813777
0.14021506295359 0.333173412134697 0.339596022638697
0.141552265737364 0.321137594713309 0.343721360086915
0.147418988140305 0.317532973582981 0.344420050020773
0.146166411363257 0.30644216417031 0.348443650332753
0.14402526705551 0.306396331515558 0.348679407416999
0.141760844791355 0.297402747802249 0.351843829797071
0.145774434461238 0.287253874221291 0.354732736801873
0.14946611165424 0.279675554744629 0.356817983748968
0.146652675611144 0.276690915105399 0.358081190731142
0.145092515393335 0.263774845022467 0.362269139926785
0.14601838591289 0.264924221458653 0.361833065321447
0.149379723302998 0.251643697680963 0.365443925710791
0.148075873598273 0.243026964392626 0.368140633876704
0.14939825887654 0.239600832664267 0.369025940057884
0.146335521989713 0.228542099896941 0.372533482562001
0.149667464746234 0.229686123724349 0.371913764407354
0.151503875267316 0.220390477728684 0.374268313606173
0.146834582904653 0.212606002727005 0.376815701724006
0.151862908465373 0.198746894068614 0.380113762654326
0.149211363733254 0.192543615233993 0.382044559639212
0.151620467079765 0.183421958203076 0.384292013955843
0.153269785524666 0.174054519480964 0.38649582766937
0.149637479295221 0.170310013088626 0.387713011686565
0.149481131328999 0.158205892369887 0.390742435837336
0.14691611677017 0.160738352026339 0.390311567062651
0.147448354886758 0.1509545670079 0.392708800162047
0.156118066333395 0.125836672709617 0.387555433394309
0.157024010071523 0.110004136602676 0.385431632314135
0.15611626568629 0.114861620872421 0.386396919487363
0.152284279496354 0.0955370155347928 0.384875958704271
0.152498370061558 0.0796367046001986 0.381767552515153
0.158354561848891 0.0597640938262445 0.375638522670721
0.161629472273196 0.0516237142217038 0.372777898030713
0.160159119462611 0.0255914218495458 0.365236087489955
0.16488209047066 -0.0168359792923395 0.333875535700819
0.159890962807023 -0.04187185346902 0.321969470408638
0.179172926425182 -0.258689904213619 0.141652134506021
0.168146635199229 -0.251476026408825 0.16338911394883
0.154557466390373 0.343716164287667 0.334458915801105
0.149610823118188 0.331890682895066 0.33912696961851
0.148452231629018 0.33360891428158 0.338633069343436
0.14788768459044 0.320810805804539 0.34321476441691
0.149115373101545 0.314806703729935 0.34521764506078
0.150104540880238 0.307705938801734 0.34762338077334
0.150757665385511 0.302095991707976 0.34938389332716
0.156269441592672 0.296506048947876 0.350633203137823
0.157634139757016 0.28897096552326 0.35294536850263
0.152839300636143 0.280621062759692 0.356160767852268
0.151772943193487 0.276329921021904 0.357668447190259
0.159021858489339 0.269513006066889 0.359137362985526
0.154869808584933 0.260847150992035 0.362147483427989
0.156818002475383 0.258204872381525 0.362735965425231
0.156753765559327 0.248082821437399 0.365754760942514
0.155844839912199 0.241147970947933 0.367910843020081
0.157845762380837 0.228250284973603 0.371545928422492
0.153011427546572 0.229313483027387 0.371708055286048
0.154562753356357 0.214119775099315 0.375687876010594
0.161957992385975 0.215131377438285 0.374727321633029
0.160453991253073 0.201064598144728 0.378687555280691
0.161543193456817 0.192401779047969 0.380939509876111
0.160786765365089 0.181663949359685 0.383926222443111
0.163724222568396 0.170180043573662 0.386644834366488
0.159947462332092 0.167640276030773 0.387572997624779
0.159989202840294 0.161057442083568 0.388786598222856
0.16118677691228 0.153623744128128 0.387524987385819
0.164761405820221 0.133208459957656 0.383916571622163
0.163987028261245 0.125329890231312 0.383582433757066
0.164514890586988 0.112481931894255 0.381962244318526
0.166846513908948 0.0907179707962527 0.378501725242664
0.163851421556589 0.093968930776361 0.380282716816421
0.163177618260153 0.0687148316310859 0.375722114151165
0.166193092673848 0.0668025122507765 0.374235357944007
0.171653350905612 0.0131484960712044 0.348835996108135
0.16711786900048 0.0237597729056789 0.359163745211122
0.181282450823249 -0.117286586782436 0.24762337163184
0.173877490719274 -0.167061856825377 0.216812185611952
0.159158959149085 0.341412808559701 0.334821644482289
0.159473222088443 0.337480048680047 0.33618166510534
0.162521641150208 0.334134243716756 0.337065592053409
0.164580455628641 0.32226374708262 0.341061595318164
0.162146309071304 0.313008928423603 0.34457375383628
0.158962360460522 0.307953840661141 0.346626786742194
0.159489574402742 0.305484659655329 0.347376176351464
0.160131440362864 0.296014330923803 0.350393338883157
0.16223620528314 0.290440962638689 0.351990103308274
0.165700847149624 0.281431642977469 0.354564812099509
0.168092048864185 0.271919879483644 0.357414294051652
0.1656095083025 0.266716669731244 0.359310083903657
0.163214710988214 0.266819573356895 0.359522661651549
0.16215313612058 0.255160018782374 0.363100294302866
0.167481807795333 0.248434825824339 0.364560530101377
0.16697677515661 0.239432480129513 0.367290871496352
0.162813990873141 0.229080654793257 0.370794270794415
0.167904397926318 0.226142494394448 0.371151701281889
0.168039844227892 0.219280764885932 0.373036289733353
0.16677826464414 0.206825266408291 0.376536393122562
0.172306028794241 0.200729084738954 0.37767960419565
0.167837291770306 0.187814965162019 0.381601687607107
0.167254293703654 0.185167981020572 0.382374714333804
0.166215265282079 0.170893796173599 0.386272295156886
0.165765000974394 0.169298024928217 0.386614134688939
0.173396712015852 0.153854547628462 0.381407265122153
0.166712958084212 0.145113888101042 0.383991807896828
0.173004207779364 0.127816225284148 0.379294302523743
0.168976002679925 0.117499993674011 0.38027031335612
0.171567562410457 0.117259842440348 0.378954109835738
0.173715952353121 0.0918352458612721 0.375198146104351
0.17978203604248 0.0740038678502596 0.370292964501084
0.176737113697354 0.0697749687800202 0.370889833294472
0.178966083001209 0.0479608851766103 0.365727555917859
0.182063816430463 0.0125147994557788 0.341176457519198
0.176870111883794 0.00303036798366019 0.338368610921567
0.165096572532783 0.346103631544883 0.332579557387642
0.165159940253698 0.332036233784953 0.337548492354401
0.171787487389831 0.327701431507839 0.33843070562915
0.168517711151728 0.323698764316722 0.340167420610199
0.167552626286406 0.316765181032411 0.342714368290085
0.167777128913455 0.306315524098054 0.346247327114916
0.174654204725179 0.305230398405776 0.345888422339431
0.175390584987333 0.290856748021053 0.350492369247446
0.175499367952402 0.285720104785435 0.352153647821808
0.167941016734124 0.285279427314792 0.353079927232741
0.169502229699134 0.271993054715025 0.357244420266748
0.171058594384418 0.268685197750855 0.358160306249708
0.176200027870147 0.254646557473099 0.361826579153015
0.176394752221453 0.257461565225621 0.360969071806376
0.171083324578159 0.243687961999852 0.365607424559039
0.176528187439355 0.235984352762984 0.367347032489001
0.174032800457865 0.234015861111602 0.368186262452708
0.171962541102199 0.228730067574455 0.369969531522186
0.172659710390701 0.21372194795778 0.374117736580515
0.176375001971855 0.206709983256565 0.375677766044929
0.180091208518677 0.198848148778707 0.377186433736924
0.175626538075645 0.19349755353335 0.379335881010996
0.17763810885838 0.184362085120636 0.37936039183297
0.175507112214671 0.177637028247702 0.380984623212647
0.183617566961646 0.157273199544786 0.376572342699605
0.176938280926072 0.149567759505939 0.379246490522104
0.185306782331022 0.134634047142128 0.373714449912759
0.184705363756854 0.12549903840123 0.373206280955085
0.185590491576428 0.103066620668568 0.370470028261067
0.184142630093478 0.102063464442328 0.371085221719866
0.18132149834972 0.0905648910788742 0.37127568747879
0.189407061193994 0.066215340796 0.364676037055779
0.189071879598677 0.0612634028833471 0.36431986257891
0.192750544907264 0.0129572187694717 0.334052919451577
0.186946350054304 0.0344451916996744 0.35261891436595
0.191574847219265 -0.088343892189902 0.261435269724779
0.181729589878629 0.335114642928205 0.332940308498505
0.178307896432623 0.333655297851219 0.33568468980731
0.180784277517374 0.329917862619203 0.336763299985479
0.181844423753743 0.321627733857894 0.339591123656625
0.183311418909583 0.318714439578746 0.340477390070153
0.180020417936222 0.310956937255315 0.343468042666698
0.179635543355197 0.306011350978955 0.345118237363405
0.184032743644864 0.295137327395308 0.348203531682169
0.177410060134232 0.283721359666892 0.352606576905259
0.178133092729079 0.280125120137673 0.353702668363765
0.18221270976266 0.278177261091594 0.353914400961195
0.185248066641979 0.267825590770431 0.356970652625309
0.181082746100083 0.256205925352605 0.360866659242521
0.180583971105453 0.250152253756785 0.362718854407719
0.185863967677122 0.248163114393549 0.362774607374324
0.1811689754307 0.231977705867526 0.368068099876175
0.182481536791396 0.232902630018943 0.367659551134829
0.18896324886822 0.225508126110429 0.369124614581012
0.188278098705382 0.21371437295466 0.371441268996198
0.187984055121893 0.199890461890513 0.372247080445693
0.185729620579817 0.196143196056361 0.373813505997209
0.191092605665125 0.179680067791224 0.37123188519568
0.187459564581865 0.178794340916687 0.373523758118043
0.189354577306172 0.170245005434407 0.372709429216521
0.193171749079245 0.153212447491568 0.3708816373253
0.186462832499237 0.135470564405228 0.373207499337951
0.190707508951399 0.138531232263522 0.371345169558008
0.188970060314381 0.119106557269922 0.370481162023344
0.197284950401056 0.106857333899371 0.365045571156789
0.197113893617719 0.0856926011843168 0.362894918534533
0.20002247206684 0.0714039674089074 0.359936720910586
0.190790485088433 0.0727813674309088 0.364680604242678
0.192155988631346 0.0504890548999133 0.359779742858927
0.203949218512367 -0.0108077885499821 0.310199834237547
0.189187525701535 0.332674563381856 0.328176542167835
0.182653545564704 0.333817105102066 0.333028691685177
0.184768453888783 0.32830111187809 0.334966856217515
0.185601789912326 0.319718558709258 0.339897341577577
0.187351188327795 0.318176425352505 0.339644077095677
0.192094705496049 0.306214408610185 0.341621607973994
0.189139531473844 0.302195566873929 0.345376404059379
0.189438710804989 0.29463641030957 0.347806759697401
0.187079452183536 0.285430885360733 0.351048514611447
0.190621316502066 0.274261144782954 0.354318681432421
0.193920980764251 0.274756733836482 0.353410598484148
0.188318147327591 0.265706343908216 0.357304597685936
0.187808069105083 0.260292761434231 0.358967453401762
0.194828176650897 0.251860935175901 0.359281015902686
0.195448339969219 0.246805054323812 0.359909530073924
0.196009401842687 0.235190432703887 0.361976838971452
0.19302850769927 0.232836462643178 0.364629880287563
0.194034359809418 0.215815472119926 0.36750794244649
0.194328854495902 0.214366455457367 0.367595801920357
0.191670694927374 0.200713689119019 0.369924803795609
0.197240412272207 0.195594262043126 0.366703364919586
0.195711821449173 0.183230537860686 0.368208539644033
0.2033417530214 0.166904751584512 0.364151648807917
0.195018889995182 0.159615388405215 0.369535972349602
0.1975665313891 0.153345000589644 0.368155550889207
0.195776802566049 0.134482148844836 0.368437465089381
0.198864285946724 0.123135299995312 0.365878556380916
0.205935992006836 0.107700401125988 0.360825623199954
0.204041568086955 0.0975736172830309 0.360699420327655
0.209231676135523 0.0798530632597904 0.356242262232251
0.200547820290647 0.0741501884063977 0.359965161806541
0.211670428205141 0.0316208270788903 0.325787533084646
0.216417624539332 -0.0432299140452993 0.273042159919786
0.199769645564448 0.333203292715585 0.318696122946494
0.192693140770769 0.329680341506976 0.327196800023498
0.195174104018771 0.317428544798713 0.333482575721909
0.193468681297918 0.315914538023573 0.335981149317443
0.194617863937299 0.313232809907716 0.336629327887011
0.199916928434184 0.301412969036302 0.337340913820332
0.198937401973153 0.290886352938672 0.342567908054877
0.197419731751241 0.288701535673457 0.344712164881527
0.196859868581549 0.287393885220105 0.345714656330713
0.198192007615463 0.273787149763489 0.350376863412888
0.200516368723578 0.265350207136114 0.352083690154787
0.202963616176563 0.260316394252088 0.351608017384369
0.198005640927119 0.25266671058663 0.356815623873947
0.202840438766595 0.243488698286737 0.35527897392928
0.206429393467574 0.233910165271502 0.35472697821908
0.199359607160932 0.231353263383171 0.360375063785821
0.205932028461659 0.221406144079846 0.357744975092508
0.207262279915376 0.206702699984096 0.359835325541775
0.203873913493688 0.198028805240642 0.362481811199414
0.207813418955788 0.195037054532305 0.36017487797045
0.202305046885591 0.191256298091444 0.363759749655269
0.203436838883789 0.17852152126208 0.363632637489773
0.203541867128393 0.174305882376211 0.363757689594752
0.205844321548524 0.147301478747396 0.363219012608202
0.212024066288306 0.140112779902892 0.359617963613512
0.207002171177664 0.135205354842308 0.362858394901662
0.207879734487752 0.121174773050607 0.361172343601833
0.210553895699911 0.110851839964337 0.358858404556283
0.216878905562104 0.0939602421459643 0.353923532954503
0.214161099004272 0.0571726467395571 0.338490121058097
0.215838642308231 0.0578394628519159 0.336986551549271
0.221882152615412 -0.011228631236783 0.28885954927794
0.220448968528681 -0.0470377616950601 0.262809984997983
0.204527639927509 0.327272437059588 0.318708682055751
0.206491877227917 0.32042258138204 0.32180249219629
0.202106646210277 0.317786679650023 0.327353627828933
0.203689909800167 0.310337247735901 0.330537849820662
0.205435097034755 0.30202831447023 0.332633851378383
0.202722813467315 0.305141076581384 0.333507777593253
0.211866596115606 0.289120273423343 0.332891421478392
0.207388463988508 0.285028359181774 0.338225757496381
0.209273882276247 0.276844917555341 0.340155831352013
0.208379684978154 0.27392018097911 0.34210947956158
0.209352596508699 0.266707034075034 0.344407087693444
0.206112493941681 0.252566609390542 0.350984444360604
0.20925901123769 0.248213216215943 0.349639601480518
0.209974494760211 0.24498028937755 0.34981125858178
0.216416177533262 0.225525188459656 0.349302204107388
0.211907756944122 0.22269060954839 0.353157675490981
0.212972147007923 0.21966352750465 0.353016450746606
0.211802771308426 0.214354159401237 0.354964080895439
0.218597287941865 0.196997872051014 0.353402109529595
0.214728364584605 0.179590502743809 0.356585428518535
0.214479331774661 0.18201621106077 0.356630374608152
0.21838541293497 0.166774337407414 0.354838452115846
0.214784642946938 0.160260128406207 0.357273732725302
0.21668848626105 0.138903543839367 0.356767131491617
0.223128639807516 0.134919978268921 0.352903864396708
0.223901300817736 0.124126199725231 0.352765225822173
0.216233502979362 0.115542923559489 0.356473029080762
0.220904211121577 0.103188540875634 0.352893445365702
0.220883265554812 0.0854474692236532 0.349316462166991
0.223614562646793 0.0404962141047111 0.316836729494989
0.233232294815122 -0.0689258463212789 0.230844155409613
0.230594611474412 -0.0698825866922119 0.237707744368153
0.218026130055335 0.321812433830728 0.311053514108453
0.21637240866545 0.319988387004171 0.313723676944923
0.217022042515748 0.313491056341415 0.317687551805134
0.211995160193794 0.306462770765329 0.325477072947727
0.212498434970294 0.304180415291782 0.326033558048394
0.216423236392321 0.295921920709301 0.326351520321764
0.212783654422902 0.28780488026007 0.332706772845522
0.212947481100992 0.27963426488621 0.336019048823506
0.215954287869986 0.271594194961971 0.337018314902959
0.217781571363999 0.259600309794706 0.340670424691917
0.214849963111655 0.260944956087848 0.342451156899535
0.21711504865948 0.246418466573455 0.34435022224021
0.222796413849972 0.23978939525595 0.341659838542451
0.216751089658828 0.240146798014589 0.345947991580722
0.221583052166589 0.230243777059298 0.344567717696863
0.221609430675565 0.215150834396338 0.347708136314174
0.224351382837614 0.20301298496684 0.348245204852011
0.224675719329938 0.200696403373125 0.348491578485202
0.227057401350193 0.187141286602651 0.348602751650432
0.222636042940935 0.177752630688866 0.351766797311491
0.230010828689506 0.167835710307852 0.347604816983085
0.22386394674019 0.157627285306666 0.351733369722164
0.231569700376641 0.146619229725086 0.347307462169888
0.232859591720352 0.135482030578895 0.346859291294453
0.227028993618296 0.132294459314291 0.350570857835985
0.227831760261311 0.119439957850567 0.350478468072346
0.233177132958324 0.105602438384247 0.347035413161673
0.232638800612519 0.0951196253621362 0.342070581811214
0.237065764111477 0.0341022880021847 0.297243785877904
0.219638464831821 0.321151122821767 0.310145487980235
0.221512919888449 0.314152666194818 0.31341871046182
0.224460050963952 0.303267419439698 0.316777325732857
0.223795938958669 0.297387628350601 0.319791226860921
0.225211034700792 0.29284135432605 0.320567135285141
0.229378643426112 0.286425694126254 0.319912547625657
0.22515699021302 0.28010683859561 0.325992758072532
0.229649525873883 0.273618024745148 0.325154146283709
0.226284619244488 0.263367665628145 0.332232458474021
0.22639902345827 0.25825158844519 0.334324461134372
0.226226835788577 0.254310470395382 0.336092320344076
0.232712587101783 0.242200592548338 0.33398790888772
0.234944638301545 0.231673029013843 0.334617502650083
0.231593094844231 0.231025639175918 0.337174850877168
0.229546056892966 0.217516460984452 0.341478607184391
0.233347484474719 0.208484826164221 0.340604842456907
0.237728184870532 0.196654433421439 0.339893214313839
0.230540020162648 0.195894347840286 0.345248297305047
0.23927092889736 0.18746073568266 0.340686200783347
0.236608797636892 0.172402780785438 0.343347175020656
0.238237333317319 0.161170125559865 0.34271963198422
0.236003441638385 0.156603922951047 0.344246990172251
0.233453370278932 0.140086604427637 0.346346530207753
0.236097086549178 0.134788447405875 0.344875987918531
0.234413881958654 0.127761938330987 0.346139755738043
0.236549327573489 0.112679466825975 0.345292131699259
0.249909375080235 0.0334359230806052 0.281692664304154
0.244931615592834 0.0357751452745861 0.288927616579832
0.228275809907053 0.319047425514557 0.304281235512313
0.228876300627546 0.30556130577439 0.312250825417806
0.23113888483744 0.303898776480808 0.31112801321973
0.234541443167377 0.297781573240654 0.310964244472256
0.236570821824932 0.292811569870013 0.311423661658475
0.239465436058198 0.278620824418959 0.315134293187773
0.234471141697795 0.274396505421334 0.320949029550869
0.234479055433208 0.270572904587828 0.322574849319554
0.236966094629796 0.259980049076242 0.325098975632206
0.236117050672416 0.255727027759433 0.327596425298519
0.238648926733916 0.246611668913846 0.328763390102791
0.237797989272973 0.241639383459513 0.330436124658343
0.238803633920056 0.235475365511606 0.331022236638391
0.23865993184352 0.21807860023542 0.334772256176447
0.246304407551429 0.208777498997028 0.331175765121585
0.245355755351099 0.205992258160976 0.332439840815687
0.241073295378174 0.203114511533757 0.336133582569803
0.247701005228761 0.182758812450628 0.335566985512257
0.246776173203662 0.179034435190473 0.336745850931655
0.240746379712998 0.175766488645883 0.34063079171926
0.244295406023962 0.161162472739307 0.338967800483164
0.244059462266431 0.147411207413451 0.339546977115557
0.253996025277735 0.0997594660442616 0.309053528709764
0.254561472163434 0.0844372660909094 0.30100444219319
0.251657979600629 0.0842971714684225 0.306404303389439
0.24971939376153 0.071548459917629 0.304240444080304
0.240954712200037 0.307926038615984 0.301255230422319
0.243778936802106 0.302044657453923 0.301721689312009
0.243098554435878 0.295187196042915 0.305160841089412
0.242619653103531 0.292006463429406 0.306887674323294
0.247566040884861 0.277345232262367 0.309172253967811
0.241496092332964 0.272116290086971 0.316279817276997
0.244261380698547 0.266656190376817 0.316389435167853
0.24753953061343 0.26036576874601 0.316441552135792
0.251538013623155 0.253958478503206 0.315964972328877
0.244899735676049 0.247276529080091 0.324109289510374
0.248262038379296 0.239761898960669 0.323281584780601
0.244799836448464 0.237971344947955 0.326162159393355
0.254350987356861 0.223182904364069 0.322367494213923
0.255824862207681 0.210357974250127 0.323964054066189
0.254846215591042 0.206584590437456 0.325454937502898
0.247773986816141 0.199434043721744 0.33205273932766
0.249257209854042 0.191238513063321 0.332681560104652
0.251349075972654 0.179311705398805 0.333644855878127
0.252873763819302 0.16949821387313 0.333392284278595
0.260845444042045 0.149737546241157 0.322490060294079
0.258017083290867 0.131039069978867 0.317708125996748
0.255356354091574 0.121333524825863 0.317475096474627
0.261706640363754 0.0768552750127635 0.284102368355766
0.24903249660268 0.306907989899204 0.295111190690062
0.248229868032729 0.301672237838484 0.298291216136368
0.257304856814662 0.293459199644762 0.294471312585155
0.251607279926845 0.27931494655164 0.305085449177526
0.253328021771292 0.280171894551654 0.30333751429768
0.250512846142419 0.277279092112293 0.306833560764596
0.259902859158957 0.259246821347855 0.306988750662933
0.253437157388881 0.261204764469544 0.311346332285111
0.252163469816367 0.250992250998346 0.316728785019731
0.261150837193326 0.240871820105733 0.313740658119004
0.256004523673744 0.235819991321706 0.318531236350666
0.262618409308929 0.221256501364799 0.316789735897209
0.255123787646341 0.225755907891802 0.321274622452633
0.261394852458644 0.20743897769997 0.320542680924857
0.260996719896521 0.200064820326338 0.32236128749458
0.26429861143186 0.195992729505658 0.320819193321925
0.260729828384921 0.184609211725608 0.325762565850172
0.258796636064662 0.183713871840654 0.327346190218641
0.271179308962864 0.117635318233781 0.28563611644173
0.259934095965669 0.159327865943154 0.329339738607659
0.26785631426521 0.0922633232822679 0.279554227580614
0.258888122127471 0.294955793982092 0.292560756181437
0.261055369537227 0.294428275070959 0.291045165938599
0.262568898028478 0.282576687469606 0.294888546920955
0.266285372831277 0.279922955463861 0.293036203903104
0.259866285704651 0.274387210519787 0.300555166078538
0.261335059196979 0.263153265508906 0.304170842668277
0.263390929266928 0.256567158843496 0.305330935279876
0.268953217215887 0.251703440018277 0.302939376933459
0.267961581916586 0.240107372299144 0.308685876525649
0.262397652534703 0.238626563298945 0.313318496249408
0.264832383153454 0.227739673295794 0.313843162985421
0.267307163397863 0.226080712976026 0.312398177716924
