ply
format ascii 1.0
element vertex 862
property float x
property float y
property float z
end_header
0.250209280827096 0.0371956561288335 0.271546152717029
0.250025911432218 0.0370160522308658 0.272082571307201
0.24589055329837 0.03296171680275 0.284178121703854
0.244309898828916 0.0365798543050422 0.288904940081578
0.240639093639499 0.0359082462710864 0.297127532874199
0.237382518602192 0.0326263551096036 0.303040653966635
0.235971245655927 0.0379339986046983 0.308023726013609
0.231792156734431 0.0344546193906276 0.315549816156195
0.227784585070729 0.0392503753964756 0.325829865833502
0.225067721471062 0.0378019483102812 0.331029048415205
0.223808495295989 0.0329803925501885 0.33187571049312
0.222811822227774 0.0357815131784616 0.335038107985957
0.217077886613548 0.0359845346868884 0.34723874334942
0.211883142137841 0.0394950536913756 0.35575259954922
0.2090586340187 0.0325207080257953 0.35862930603284
0.20385468022523 0.041845699694471 0.368304123454506
0.204971996487028 0.0408022426606296 0.366416017916234
0.199188584336484 0.0412211411558857 0.375206258078026
0.192751687120119 0.0362061559587767 0.382962837016726
0.188950550375363 0.0358656756087933 0.387060868146969
0.184320444893202 0.0356526628682615 0.392157710390945
0.181181861818463 0.0360888540689968 0.395915155638003
0.17506385738887 0.0404689899147121 0.404902344140108
0.17390606169464 0.0411132723724635 0.405983239890073
0.16543668955175 0.0364419983542905 0.411427129678653
0.160069134108896 0.0341781451844506 0.415060084429207
0.152339634721562 0.03479582057153 0.420594836057737
0.14640560247153 0.0404898626732361 0.42660450335916
0.143686181528226 0.042384056517525 0.429113894571856
0.137674406150989 0.0403729769795129 0.432647524468526
0.130128595090233 0.0412370080192905 0.438233795672476
0.125948237652083 0.0369505959141561 0.439604231073965
0.117436904830699 0.0400498288462322 0.445984250261689
0.113018620283373 0.0418479295764287 0.449364672599846
0.108811750042661 0.0380207540315919 0.450578142234918
0.0962831124682045 0.0422541272866897 0.458893836069813
0.0975297912650697 0.0403101285513147 0.458018286496008
0.085474597039338 0.0341204429917739 0.461909319443561
0.0758797940605084 0.0403290316308761 0.466795914325801
0.0701262992099743 0.0389159904595905 0.468627848785236
0.058185543287729 0.0433543630940661 0.473873408455916
0.0555258461532384 0.0411580548294512 0.474204564183801
0.0399914149280349 0.0364719523669777 0.47799741149719
0.0334148361298358 0.0382284943160967 0.479894603115148
0.0233067160204708 0.0361722419019449 0.481950199378754
0.0172337926989916 0.044217793262031 0.48483593768179
0.00392562408789268 0.0389446327980476 0.485333951985182
-0.0146722900015559 0.0389980811250856 0.484092840592314
-0.0273950350740729 0.0353491924627521 0.480766094736232
-0.0346463451762927 0.0415886747963214 0.480369975667227
-0.0604434217570604 0.0367248605226696 0.471747551375552
-0.0746550567128598 0.0386004266356519 0.466906232842352
-0.111505605571875 0.0430367911832739 0.450730067875506
0.258180486564212 0.0490785581515789 0.250105217949009
0.256237033819599 0.0452417974741867 0.254899826813233
0.254385606664498 0.044442999952291 0.260783333317884
0.25318223524603 0.0485813953563117 0.266753248734008
0.248826719566576 0.0488846010200414 0.281440821645439
0.246857409296437 0.0462392694438892 0.285323821828845
0.246155290390659 0.0499926096414497 0.287793954138033
0.240242969585886 0.0434320290636129 0.299770939935326
0.239640241896776 0.0505625817747412 0.302794970799971
0.236852858756708 0.041532320099743 0.307068995510946
0.234653134424119 0.0458754549065441 0.313093450383688
0.229901518101057 0.0420699358846046 0.322415615508783
0.225349933870504 0.0440265585386986 0.332776667892795
0.222771173542929 0.042910720668892 0.337809098287161
0.223782521844348 0.0459355516744879 0.336809871730887
0.217138341747224 0.0473508028822457 0.349390090489319
0.213236952796747 0.045794839855418 0.354957119905225
0.210362856980889 0.0418881560020623 0.358513683377673
0.205438032986652 0.0480110538932731 0.367136520399467
0.203109151085549 0.0489783312069508 0.370833749771554
0.199129520850514 0.0461337294420868 0.376264354253019
0.198170478281704 0.0461715980849998 0.377715775057643
0.194400224631209 0.0506623175501169 0.384278271581599
0.188031560158749 0.0514385366257093 0.39400092991138
0.182237110315601 0.0424122323816179 0.398022646810839
0.175779897512312 0.0478299806593738 0.406270375803176
0.172727150088362 0.0503210653812282 0.409328308963372
0.166918879502824 0.0475601390521633 0.413177880772342
0.164419658252892 0.0443798615800302 0.414311412422477
0.157070264689099 0.0493075357809886 0.421392584960905
0.150869299641415 0.0498563137529985 0.42642006726593
0.142667305389681 0.0520018099726993 0.433101601454079
0.137184880206607 0.04623546861628 0.434881463594418
0.13432227905436 0.0436821295929217 0.436028454114697
0.124806077362234 0.0479899362810707 0.444062760292288
0.124876889303805 0.0487280160309463 0.444239730585015
0.110624144121153 0.0436200488742585 0.451485428966061
0.110720861394882 0.045990525398329 0.452283790132048
0.105669128308635 0.0510041851637646 0.456267301530417
0.0888309298580136 0.0484912428409841 0.463141821841743
0.0855435486712435 0.0463898028941461 0.464127161051017
0.0793897700981097 0.0519389157379596 0.467708018050164
0.0684455133756247 0.0445839961147267 0.470353917761696
0.0687798440215462 0.0476337828186875 0.470828672993286
0.0544706769295099 0.0538071044440494 0.477282045104167
0.0453102956146418 0.053681910078591 0.479881879692017
0.0367491447663207 0.0457298006449486 0.480825898890473
0.027167156136602 0.0516152750865318 0.484264507234037
0.01967013888901 0.0464142806804217 0.485015922837964
0.00269998830782384 0.0505489458828455 0.487992583491691
-0.00529031025156538 0.0512036799111888 0.488183423355812
-0.0111599865813433 0.0549141378470958 0.488113024180703
-0.0353941563193076 0.0524146581010672 0.482616294624358
-0.0483110159810431 0.048294297320723 0.477842566931447
-0.0830722050730292 0.05151887725645 0.466096475335294
-0.0868826005587656 0.0465366770681318 0.463596131195428
0.25787222133281 0.0512342251265998 0.252139250520136
0.257476620775148 0.0519636692932965 0.253811099034795
0.254211008645777 0.050571856569961 0.264196528119745
0.251045928238615 0.0517543195351047 0.275428505936313
0.2505458908248 0.0514860401254782 0.276993330797009
0.24858537181862 0.058734202782201 0.284268662806418
0.243578574903897 0.0516994264582015 0.294069353712386
0.242200902582078 0.0579421234530322 0.298656782477961
0.238255531577391 0.0533293144988899 0.306594894608574
0.235395236439286 0.0557058461794757 0.313672329703506
0.232018523080288 0.0561552828395202 0.321482879963764
0.232103689029914 0.0563013854644444 0.321322282054447
0.22835011150529 0.0585727635167353 0.330382199054592
0.225378672354564 0.0516960306473542 0.335606084072469
0.221527520346187 0.0562109342053566 0.344443066541213
0.22200142169945 0.0565809032628979 0.343707139172828
0.212014019112478 0.051653630219095 0.357954227245357
0.211672919236765 0.0549618741520198 0.359069426822323
0.209866934316418 0.0518982816053623 0.361235178285727
0.204772093423064 0.0517819440230248 0.368883101568845
0.202287225885943 0.0569230055826429 0.3734723698857
0.194038566894159 0.0516157519132136 0.385010885521628
0.193943177761648 0.0559885340401281 0.385850408498759
0.18935837588826 0.0579929711234307 0.393052713311398
0.182071019573457 0.0530392456665438 0.402374164688322
0.181904619891467 0.052097017923298 0.402513648993447
0.172333305430258 0.0544167393160508 0.41071340764375
0.172505969908676 0.058135945254892 0.411679397444928
0.15921026566982 0.0571242637524992 0.42175881421222
0.153812348555746 0.054044164712596 0.425201451174225
0.151485464848956 0.0608633178122794 0.428823671236664
0.145774393715954 0.0530669523003533 0.431275114728543
0.143004658073189 0.0540019851816186 0.433554968947832
0.134925360190032 0.0566020186439531 0.439974527952944
0.13220099180018 0.0528616330242204 0.440559669284365
0.120834568867938 0.0565019714247982 0.449585075506796
0.115049980292464 0.0579869642884047 0.453147790582262
0.109356987341821 0.054650784708542 0.455189940852159
0.106191189079842 0.0588331264627639 0.457352508874709
0.0983042612636272 0.0600988830752209 0.461190783921072
0.0907234480339245 0.0604121221669699 0.464679337990137
0.0764540028151713 0.0537867928659514 0.469269949879061
0.073134727400423 0.0599868881228249 0.471788633498086
0.0611374212015215 0.0636520031196433 0.476801829500169
0.0547540707199264 0.0606606361359356 0.478520416927978
0.0503498097841395 0.0547615469936166 0.478675883982186
0.0428482997520711 0.0627852092695912 0.482580058565764
0.0281126675082033 0.0580288103806201 0.485483720657146
0.0202064253221821 0.0618080113840166 0.488140977964403
0.0113943110278142 0.0611382242794667 0.489290069768189
0.00477253336094103 0.058765567522161 0.489498551843327
-0.0161364651791683 0.0581486950721851 0.488143120065276
-0.0292237413842127 0.0565265317127852 0.484902337673788
-0.0317566735841903 0.0629200297586318 0.48576468729871
-0.0681352899028525 0.0599574424834772 0.47362686244353
-0.0955092626399539 0.0633195081688651 0.463020511877381
-0.112910910673123 0.0632913874163848 0.455067017390162
0.259581414653829 0.0602036762897732 0.250500341684793
0.257456013419258 0.0595385746416491 0.25737054375528
0.254810779077514 0.0664510752644055 0.26948711723373
0.253948647241403 0.0658832118466559 0.272136566607991
0.253251523886176 0.063476326184413 0.273381586263145
0.248813653471277 0.0657860340416247 0.285377887933195
0.245296622955695 0.0600805381040775 0.292085795852703
0.243557356859062 0.0598950702173027 0.296012435025448
0.241842965492349 0.0651505126726592 0.301140123517765
0.236262109542119 0.067999676880476 0.314247994499479
0.234881479501041 0.0651927078388897 0.316852074094844
0.230707004145665 0.06554770472721 0.326333747001277
0.228249225557797 0.0631585950211105 0.331443733531145
0.225935599793551 0.0648719927077787 0.336974582456506
0.222691236642354 0.0609456434392585 0.342853604243878
0.21885207200221 0.0606176570204576 0.348967352192703
0.214857392639868 0.0612987479502433 0.355297681771829
0.212222758043486 0.0623215987562149 0.359415911876441
0.208147283904802 0.0649481069597331 0.365952625446727
0.205680294656987 0.062551722567443 0.369274696557416
0.199649333312166 0.0621781201582179 0.37826943135142
0.197973303265501 0.0638663997051429 0.381054479277791
0.194384756831398 0.0658023328716335 0.38675020649437
0.18572889909383 0.06927222762242 0.399142139199688
0.183040804701981 0.0611889648752719 0.401659645144547
0.17685998694525 0.0639918205431357 0.408239950706468
0.170669018365331 0.0638939993749906 0.414723522186062
0.170368115309973 0.0704623692581519 0.415281955615808
0.16698374787312 0.0686608205081908 0.418761571768403
0.159801285511591 0.0683684228325193 0.424554990589778
0.153920468061318 0.0630611076767285 0.427530298636644
0.14646929337158 0.0710515186346184 0.435672810922138
0.140290942956976 0.0675932112043525 0.439427896982642
0.137089436621931 0.0684750630328029 0.442168286344233
0.131382162536925 0.0632973514326618 0.444690281945137
0.120242345415299 0.0659613804984604 0.451835651744034
0.111816116773105 0.0699421190363205 0.456636920682466
0.111136957859083 0.0712620538818192 0.457178014681554
0.103431850451489 0.0632031616825036 0.459360077164521
0.096873697852917 0.070939656211323 0.463682990937473
0.0847318561647518 0.064343837493576 0.467832291237369
0.0804004904591127 0.0712626591346302 0.470949588565949
0.0706938609092985 0.0662829426125406 0.473958782217218
0.0652901429430606 0.0643545743481208 0.475538628996798
0.0613675468589013 0.0694356312376321 0.477963921929904
0.0467074400044831 0.0639428284895721 0.481736091309622
0.044234165418223 0.0721083345398388 0.484239551576897
0.03313917436148 0.0713855185871546 0.487300953113627
0.0224684233314674 0.0692114836899359 0.489228528419075
0.0158887030499498 0.070174723467955 0.490816474472389
-0.00174604848994641 0.0692459273395563 0.49262441690349
-0.0130001334382624 0.0715498072708357 0.491552818711457
-0.0290571396376946 0.0665854154262918 0.487180720968907
-0.0417085208201887 0.0685513959057967 0.484175141435742
-0.0551428261014943 0.0756542266212568 0.481417012100337
-0.0909798919908125 0.0754229202106155 0.467150285775561
-0.123039228509602 0.0716591908473091 0.451324749247414
0.26087270791277 0.0693860686953251 0.248412084120107
0.257897254639411 0.0739751130439237 0.260422912404768
0.255846889512945 0.0692447324706648 0.267117845841536
0.255520388043092 0.0718381216618456 0.268854604488587
0.252504877000834 0.0723238713430491 0.278392628058644
0.247253503889509 0.0688702645553262 0.289611046554291
0.246190609350693 0.0753725937795959 0.293191278142272
0.243224262396266 0.0726792977052731 0.299393216648331
0.242755267287824 0.0723413895435854 0.300389763687463
0.238157123726304 0.0736771615713914 0.311005538284831
0.235971599017528 0.0723476954239168 0.315694052238537
0.230673425426096 0.0698048821794439 0.327183677673193
0.230793188706693 0.0712659079498348 0.327179198211113
0.224598264430238 0.0726333425957359 0.340472410626603
0.224570173911968 0.0764009764915883 0.340731635175186
0.220714114318723 0.0769384519114064 0.34692160927364
0.213732253439484 0.0726497214625669 0.357829934983833
0.214998749783157 0.0742596106768044 0.355898516480975
0.208727069432868 0.0729099985311265 0.365839667775519
0.206121831048092 0.0779149113524072 0.370285838297866
0.198986673655845 0.0752644543943744 0.381348127073266
0.197122441527104 0.0744291340292893 0.384013866278585
0.191828057727189 0.0747010518092535 0.392005575781145
0.190026305508614 0.0795478313673445 0.395019470346578
0.181277485580062 0.0783053604006214 0.404140910546525
0.177235538348905 0.0777607219466479 0.408356095617964
0.177202884454583 0.0747107123711183 0.408277413671035
0.168619669698673 0.0710427302309695 0.417135542858863
0.165300614747195 0.0784855710067156 0.420888909071508
0.162320554311038 0.0711611845962266 0.423434684074671
0.153028949616425 0.073997961090733 0.431470443598831
0.147759760756001 0.0799887201370209 0.437329627111525
0.145296491528016 0.0788311046146726 0.438892485143533
0.138365399032207 0.0783967154827944 0.444078835135868
0.129491151209094 0.0757293501384247 0.448685133506565
0.126124111478348 0.0791001401057552 0.450949958337955
0.118809051700882 0.0735605366982758 0.453720067776105
0.116562004016794 0.0751654376728025 0.455084247656941
0.101918156208893 0.0791636402707024 0.462977927431647
0.0956603338486174 0.0732640834002457 0.464633953780951
0.0910656108848952 0.0784162905802167 0.467617267179227
0.08017167708636 0.0755680181626616 0.471924170026785
0.0698748542313637 0.0762429159399769 0.476123849435434
0.0686238352869289 0.0744450643605066 0.476316056923896
0.0605420647896747 0.0819447164611153 0.480927861481069
0.0568298587080966 0.0757020736757435 0.480852871922247
0.0472903037503776 0.0794492775026967 0.484935589058287
0.0351549440359865 0.0743915999260846 0.487328251566081
0.0306413240629369 0.080506027216145 0.489649102608963
0.0070701734084472 0.0827201800342467 0.493194849880426
0.0044199038082776 0.0807454059146209 0.493310685047068
-0.0184768224999034 0.0807948695244278 0.491863418407115
-0.0209294650315045 0.0818993577447658 0.491486680321332
-0.0372169952758828 0.0829487344641656 0.488305281461139
-0.0692864057823828 0.079506807575826 0.476993771622992
-0.109636851991716 0.0775311547148202 0.458890507531283
-0.117412497069452 0.0845337423307635 0.456210018528068
0.260351379193069 0.0814189784617279 0.252661040434502
0.260175676142727 0.0821613231270427 0.253416301287323
0.25659260101814 0.0835648548474348 0.266766240373003
0.253656930053894 0.0830307801303557 0.275814264853034
0.252699027180732 0.0826720461320537 0.278122102246628
0.250482369797407 0.0790919376258624 0.283424644969076
0.247330240613975 0.0868754654946236 0.291142688263719
0.242942801084688 0.0827544749798487 0.301678966150049
0.242373125531415 0.0872424942865781 0.303116362809861
0.239346413595407 0.0820697645018304 0.309848864253084
0.235627216669881 0.0848867128710606 0.318751197259654
0.233030147444913 0.0840653570310824 0.32446050772793
0.228858864597975 0.0791472922708961 0.332976055873299
0.224880443570859 0.0871803137720251 0.340849309236824
0.225590678207823 0.085257209068109 0.339605418378818
0.222307726284205 0.0840207554545197 0.344779025636711
0.216228470310319 0.0794902834366322 0.354231840939364
0.210780340682879 0.0873469138178597 0.363381288428112
0.209502882132426 0.0837437102611766 0.365216810087225
0.203077634867725 0.0793334329172912 0.375229125573401
0.202001215463044 0.0801807176488385 0.376996726500439
0.196967510039579 0.0878652685460771 0.385396185190672
0.191542984417769 0.079644935067899 0.393220811270164
0.186473769452455 0.08484425684399 0.398926532728021
0.183268348293499 0.0822907562054132 0.402202311800356
0.182441090513128 0.08113871688242 0.403026508442879
0.17646807376063 0.0884451054991998 0.409503593555381
0.171901780763471 0.0829812603706266 0.41413830333144
0.165940706269969 0.0805973264924447 0.420296358738741
0.159331710015316 0.082862084606739 0.427305412109
0.158808341672874 0.0858271982315223 0.427963578213395
0.148629909202157 0.0895699264044903 0.438747982026427
0.144979807329863 0.0818111731476113 0.440023195588751
0.142025955807358 0.0899965285556544 0.443417583419558
0.131438350122015 0.0895051731849731 0.449230726374047
0.123970514876595 0.0827008612528545 0.452569024702805
0.11766625520189 0.0832916061360344 0.455860939104767
0.116583630736861 0.0885763800078873 0.457347264517212
0.106542487761449 0.0851723640973772 0.461606807798233
0.0941588204985221 0.0911512435433915 0.468682857240606
0.0912755055576778 0.0841875870165797 0.468618477064645
0.0835756497422041 0.091991902830268 0.473495814913812
0.0726124963857807 0.0867664483553734 0.47718437153887
0.069407823449438 0.0854144385445905 0.478160545959987
0.064236660632002 0.0909551744900786 0.481323197223943
0.0481449264684156 0.0866527246475883 0.485903119444996
0.0405138996073466 0.0870561188160118 0.48778182522653
0.0293638955755836 0.088390571491824 0.490393608328524
0.0328247168685652 0.0888066837736281 0.489628836502747
0.0111368162934734 0.0937033117616495 0.493512953184898
0.00358710231990738 0.0884583766452663 0.493866652455032
-0.00795435009990444 0.0864860114812694 0.493535887439547
-0.0329941996968819 0.0923217318257435 0.489784561570774
-0.027955797877632 0.0871411044152481 0.490531970387353
-0.043813435192771 0.0877131058552957 0.487077357666594
-0.0813737527982297 0.0921071808191424 0.474477139742658
-0.11181432455329 0.0935342719621323 0.460523288715355
-0.133597867329281 0.0908343507118815 0.448190138165744
0.259679237875464 0.0906485543219798 0.256504847829989
0.258720483755939 0.0949257971581846 0.260659899067745
0.258384506120037 0.0961224273873214 0.262070805102319
0.254605633418435 0.0880112385029015 0.273592439614249
0.253123020831159 0.0905763781736275 0.277207514546708
0.2496876418933 0.087843919955173 0.285464276668749
0.244485315170762 0.0891219089726933 0.29804257292946
0.245600162062652 0.0944828878586936 0.295424858650815
0.241342785034596 0.0889990069906788 0.305628295701449
0.237705401048532 0.093587473999988 0.314473846590222
0.236329576329107 0.0892562511461625 0.317735888857804
0.231872747441955 0.090762006673512 0.328289270084748
0.230557014929965 0.0889731451092543 0.330932094686786
0.226316956797002 0.0953495667144143 0.338954653104987
0.224573569776025 0.0882602986617287 0.341400931964271
0.220238445271859 0.0960462373164144 0.348642915793908
0.215401299694225 0.0931452247672342 0.356245210065618
0.209628923300374 0.0930404889092667 0.365421716770055
0.209945610342749 0.0948821127602207 0.364975339087968
0.206812465722625 0.0900145366033041 0.369806643862658
0.200281585714374 0.0974812796807404 0.380424752936315
0.197673159003931 0.0977550815385872 0.384581423521733
0.195123790570448 0.0967780029970148 0.388605290448162
0.188211897576047 0.0945327192665551 0.396753977990339
0.184304335683649 0.0930122246881117 0.401174611536546
0.182644058433872 0.0893110154963614 0.403038641979951
0.174498604305015 0.0980012767737345 0.411768021438126
0.17162666965702 0.0944223797604492 0.414708814780065
0.164554168127553 0.0928436072275034 0.422100118790188
0.161843220961442 0.0935255263398359 0.424959813828002
0.15963019871832 0.0930877570201176 0.427273750999755
0.148539493205944 0.0925089697036637 0.438903513133065
0.141369207984241 0.0958377947204803 0.444235331012679
0.141967864828905 0.0908364893495937 0.443548900896012
0.139097030810269 0.0973684952526141 0.445828437077022
0.127159087028886 0.0963723077603133 0.452413927134627
0.122001550074951 0.100419035229405 0.455751383402281
0.10955979059786 0.0967090468470478 0.46217750047986
0.105802504986894 0.097061144834409 0.464025595463979
0.102958422165035 0.0967999506648642 0.465327405468759
0.0971978445314842 0.0968086780974718 0.468063127987473
0.0852282252773974 0.0922874701473497 0.472834179529492
0.0802008161199309 0.0984674359630534 0.476230647006616
0.069867859168196 0.094357184841377 0.479818848835087
0.0601055224583664 0.0962443878326033 0.483144045580855
0.0561115607015918 0.0947889455868199 0.484199207659788
0.0480544586330778 0.0949277235333898 0.486332548601586
0.0353469806075655 0.0948988106784286 0.489391428925995
0.0255026112444693 0.104316491337887 0.492124531989943
0.0179663870334229 0.102339743430545 0.49324738453374
0.00292975055318522 0.0966486326859871 0.494436558040992
-0.00206678106577775 0.101382926514508 0.495121937296989
-0.0223493207630234 0.104602639181648 0.492591495288889
-0.0377404384993247 0.0983195575731034 0.489035704708504
-0.0570780759732367 0.0990221852568109 0.484144545833521
-0.0754277985936314 0.102456077141351 0.478847336444117
-0.0977829761278424 0.103751090154681 0.469062969835655
0.260816775354591 0.0984348102265163 0.253496371438723
0.258410483391163 0.104093871256609 0.263166434154847
0.256930908659752 0.103316113425347 0.268189501178225
0.255725328007952 0.104588448446307 0.27111785534612
0.251093176366656 0.0989127996887204 0.282223512246784
0.248950771059854 0.104557052252061 0.287474116192815
0.245947893203097 0.0998051730967744 0.294658757591444
0.243918742515172 0.100405835653847 0.29956629194849
0.242035107533315 0.0969597407395924 0.30406662534895
0.240641689552549 0.104585045406257 0.307459086094236
0.234476396592779 0.101752186102875 0.322262284633007
0.232604409351748 0.102920035137458 0.326732533469447
0.232134316323045 0.100189980821993 0.327891615008072
0.228932670221212 0.105648910110244 0.33390812034738
0.22170254340208 0.0979374333563854 0.34637336070748
0.221318717519749 0.100779565427798 0.347065759135762
0.215388558814449 0.100835694442621 0.356504530968397
0.210385127671041 0.101832336471611 0.364492426867434
0.209243857636915 0.101255613945797 0.366289451672378
0.206606852673124 0.0996338178310954 0.370432645123719
0.201452527880251 0.104022845104489 0.378765958654079
0.198728276140708 0.106503350013607 0.383175420458465
0.190686940886302 0.104683545850674 0.39343002573653
0.18648577243482 0.107053111550275 0.397954471909299
0.183457930053651 0.106722496788948 0.401331544394973
0.184075133029074 0.0992040023952929 0.401075737802579
0.174938991339953 0.107002863814671 0.41076402181397
0.17010173052539 0.104422672461898 0.416276225560876
0.166593440440357 0.106601733928222 0.420043054839863
0.163278728589628 0.104244348321897 0.423674084433988
0.15359872224524 0.106639918829988 0.433884414327598
0.150597375077317 0.109037694907723 0.436608660032525
0.144973455629035 0.108448063359194 0.440812568962216
0.140264930500837 0.10402646463658 0.444566166369425
0.133476095567118 0.102825294877842 0.449670004877278
0.128091606423602 0.104116771385068 0.452967872160311
0.123240331748613 0.101774914965336 0.455244568612558
0.115124696894754 0.108591019815635 0.46061996377341
0.110146243233153 0.10538278531282 0.462911132719272
0.0975089506063257 0.103927754905683 0.469225495037716
0.0962272658537028 0.104371850851567 0.469915536066381
0.0901918238754685 0.107448047343151 0.473346180376019
0.0784128434648184 0.111481429548309 0.478258889005057
0.0680392944790384 0.110153517825369 0.481434586778168
0.0602643485216438 0.106831235352737 0.483551333027566
0.0505747946631345 0.108414585410476 0.486429993811433
0.0452322471988082 0.110649636036751 0.487848306744028
0.0341048407425266 0.110996615361622 0.490616252492173
0.0226576462405459 0.112071809391632 0.493094580674188
0.0168630890522996 0.113221718519631 0.494099110634996
0.0125387760701294 0.107148901542748 0.494417843949975
-0.006846571033769 0.108846485152691 0.495053170765891
-0.0281535600287449 0.108361223226198 0.491772947942748
-0.0444911081840867 0.110777089754517 0.488050284211089
-0.0483111181640878 0.110308982387326 0.487076801690412
-0.0742405916069923 0.116730833190291 0.479769116086054
-0.100549726148664 0.11668457642367 0.469668442882433
0.26146825531755 0.112264718933787 0.252730569282338
0.259385369167383 0.113208598893983 0.260952919838702
0.257531317823726 0.113152153035125 0.26687563680409
0.253493467203092 0.105807720083575 0.276523358700159
0.251125803773394 0.10561442834131 0.282237248272036
0.249396467756448 0.107276892420508 0.28643555869786
0.246662425612401 0.11483980164846 0.292912537671073
0.244016175702648 0.109607001491451 0.29931483860862
0.240409820425259 0.109551981297521 0.307954542342131
0.238783507263681 0.109703760633536 0.311848549275982
0.233404606655636 0.114965864579696 0.324670176251757
0.23323132715481 0.106055626929545 0.325192879722529
0.230636106595948 0.111410774286833 0.330549723088032
0.226501436200086 0.114456838545182 0.337189796455399
0.221206771957879 0.107885438054495 0.34662218906058
0.21810107610745 0.108178080866276 0.351786875652952
0.21520568397299 0.110245889602398 0.356442522601849
0.213551242715213 0.113026898329785 0.358960825606658
0.209832367961676 0.107695508157688 0.365553733467315
0.20410326771305 0.110033078389266 0.374737337858398
0.203855588377462 0.108165011697766 0.375073151176276
0.198877096083209 0.107841640436053 0.382980354255784
0.191459856291369 0.116525701927544 0.391897477740348
0.187451741486241 0.108121822048998 0.396822160031727
0.187917212770282 0.1098619018234 0.396206671962312
0.182999910808433 0.1092135879046 0.401697485307921
0.172201638008352 0.114768799813065 0.413357204311662
0.171104665107571 0.108792890583127 0.414914646664875
0.16712414367442 0.114667421075617 0.418994500180924
0.161417150549029 0.114795839447697 0.425316877164614
0.155269811882766 0.113579757396029 0.43227345054049
0.151829940117087 0.118023550929434 0.43510638580252
0.144564696511903 0.112059939302283 0.44090044051588
0.141525780531265 0.118510666308184 0.442768860159487
0.131170701366027 0.116651341739046 0.450555415238093
0.126479205948697 0.114862438406639 0.454139584279521
0.121298466983949 0.113831184554196 0.458052485165343
0.115230544871251 0.119151115262388 0.462104220714663
0.109831329946697 0.118275638658131 0.464890711249348
0.0988385311246054 0.119286586364002 0.470971741806446
0.0966372459447524 0.116119658284489 0.471697650495674
0.0925120460928419 0.114003381868612 0.473451232103297
0.0807329803202332 0.120925491371823 0.477843322219499
0.0643758636090464 0.116457213591613 0.48281117784699
0.0648731918090954 0.113451480062129 0.482543320847485
0.0515542901519976 0.114148163511076 0.486400743052048
0.0475721538348531 0.118072177091003 0.487728255049934
0.0360332064248838 0.113964770575495 0.490439967442279
0.0292467248377085 0.121883479464842 0.492330695590891
0.0218728154071895 0.116848684279623 0.493556790507132
0.00755764145361078 0.118009571423837 0.495465919560902
-0.00139683087407613 0.124279619156929 0.496549360866299
-0.0111890935664022 0.116446376367201 0.495193911877427
-0.0454777524769182 0.119958701586716 0.4884115224696
-0.0454242982708035 0.125781162923207 0.488683910855947
-0.0629838238052853 0.125382578181088 0.483580267690961
-0.0910847011714208 0.123010434376073 0.474413290208647
0.261546959315591 0.120320700753354 0.251349224054594
0.258349295636229 0.123108004432838 0.263439940944408
0.256343509604388 0.122530026051222 0.268601663250652
0.254003311576229 0.121745139975936 0.274644066987648
0.252657301365521 0.118656686227014 0.278505689889931
0.249132990682983 0.122422793768045 0.286799034179559
0.247363504203329 0.117771906948242 0.291197689014195
0.243434011637178 0.123204566607191 0.300545193074359
0.241112308947746 0.121577589122164 0.306126491144047
0.241195412839198 0.11627708836165 0.305991431210557
0.234853092746531 0.115296643934198 0.321196326803134
0.23355962333725 0.123981585729948 0.324189947484354
0.229688338983483 0.116969864045729 0.331640373904375
0.225407895131697 0.121052787478935 0.338432059086249
0.222768254269129 0.120225217606997 0.342917233873718
0.217854885230338 0.119549330144974 0.351189108868959
0.214120330019578 0.121043799949174 0.357298164457191
0.211051517266327 0.123589538831827 0.362201237622282
0.208190969819348 0.122274321258133 0.367098901690329
0.205228901075138 0.122408386458538 0.372037613473067
0.204369254708716 0.12091912018582 0.373606548008514
0.197697552416519 0.122312072335118 0.38437132520132
0.195340837550296 0.117510281668014 0.387536885597386
0.186666377590848 0.117679485792461 0.397148192696142
0.183240080714802 0.119951978481435 0.400818754340517
0.179802143214049 0.123933298409001 0.404404781087851
0.171684462679658 0.125565818547935 0.41331511149447
0.170726067750538 0.122529798227037 0.414551208417379
0.162213334195185 0.123834580091249 0.423918386483701
0.163550157233411 0.123021325530078 0.422482074471767
0.155671731057507 0.121403523808347 0.431312393976613
0.151782135050652 0.120968798240374 0.434794721130492
0.146474141262453 0.124964845584613 0.438481616937604
0.136975734148612 0.119475434413069 0.446084168282012
0.136367820456881 0.124089261012752 0.446259988502707
0.128821585850744 0.128667179934862 0.451581051598555
0.124966438344481 0.128848902970972 0.454427897168593
0.110782841452376 0.121788229626342 0.46488983412869
0.105161529974929 0.126600420976061 0.46862639582982
0.10248307593778 0.127504221496495 0.470204039150315
0.0975797563323642 0.123328182686761 0.472011240352455
0.0835523033099764 0.124111792665807 0.477015388953691
0.0840928946573139 0.124046865635236 0.476835514278764
0.0767740603754958 0.130081116543171 0.479431869992051
0.061315110813665 0.129413427822335 0.484250927814536
0.056807931621929 0.123640790562706 0.485435035853945
0.0452628383960499 0.125076165276029 0.488700663239205
0.033530317914273 0.130778281465483 0.491924898697839
0.0220980820102356 0.129620996280129 0.49432638035052
0.0182827765245013 0.127709535083194 0.494860168391269
0.00550749417425571 0.124908856743264 0.496075765042748
-0.010368818023805 0.133648124250525 0.496477632321614
-0.00725419376370388 0.13277932229799 0.496641106296724
-0.0311710999861762 0.127144211446634 0.492358293202947
-0.0607503009603212 0.136898624462603 0.484900095484467
-0.0635425705016413 0.127731148218152 0.483494945945057
-0.152179516643976 0.133553145840172 0.432991576075673
0.261175032457276 0.130378382551906 0.251494477292646
0.259121035776002 0.125832822208685 0.260265575292828
0.257815717324772 0.131638123092617 0.263234089249516
0.252808058267148 0.127448253203822 0.276620340808926
0.252656267261746 0.126123670214175 0.277243855418242
0.249551507339034 0.126282665878253 0.285042112024341
0.246381826056731 0.125567610387082 0.293162963711784
0.243271442309039 0.129059558179587 0.300369374212739
0.243519256069417 0.125971259560332 0.300307575471312
0.239491874365919 0.130579411301838 0.309621394398442
0.236226891744878 0.132464587862121 0.317509707916816
0.233657309478138 0.126053226396296 0.323930920077471
0.228737220017751 0.133509149815853 0.331762098846034
0.227591492988485 0.128867424507247 0.334088960840449
0.222804850028103 0.125159034576567 0.342418178230029
0.220388185818967 0.127950049094454 0.346209523427571
0.213784932641319 0.133393375956296 0.356762662070647
0.21011221032045 0.131455315394959 0.363073022080105
0.210382532318944 0.134807749857278 0.362323684184163
0.205113159493537 0.131787901884604 0.371398594833595
0.202328925365177 0.132540086667663 0.37598522525173
0.197733056510773 0.12627447438338 0.383756228965525
0.195226830792103 0.127906051749251 0.386419687877919
0.188896352232838 0.129699559528193 0.39348452530912
0.183599724476959 0.129259782560854 0.399676676219636
0.178409399286315 0.127893562281572 0.405723657861021
0.170527577749065 0.136334278502651 0.413776899922407
0.172737194174834 0.136041998509976 0.411262613299594
0.163232246621478 0.133162568631699 0.422256370100632
0.163409766111146 0.133885060471739 0.422018280925363
0.152145966688597 0.135407509128157 0.43279794076952
0.149688298711806 0.132097805425175 0.435116688529195
0.141029584482448 0.130614786300058 0.442079499612169
0.135531224213285 0.134049845377546 0.445982112259746
0.134491444774265 0.129852113282421 0.447294736936589
0.132154847477518 0.133900323635654 0.448646362079934
0.120759335507741 0.133482540882902 0.457270474660061
0.112551225115318 0.131017907407944 0.463501618855216
0.109901091943878 0.130376257989841 0.465504275285436
0.105352534513867 0.138858061610633 0.467980731127877
0.0975699114484982 0.137995326980453 0.471922117727521
0.0857116067152816 0.138564214110927 0.476424898871824
0.0778035349781363 0.131570150442721 0.479180504712603
0.0762122162777129 0.139851616553251 0.479940657571688
0.0663216435175355 0.132242072034633 0.482938075444367
0.056021927600164 0.137513864804579 0.486255006591896
0.0432519988489356 0.134308030232039 0.489681609314154
0.037012180110464 0.14156312773606 0.491809152783754
0.0295217033567488 0.133917289946573 0.49313729051421
0.0128011269634776 0.138941693351783 0.496455450558733
0.0101988551628356 0.134850633559663 0.496570604222237
-0.00028874879351993 0.142337471619562 0.49743000738525
-0.0203077426748178 0.141598656593525 0.495461917540105
-0.0256603814127944 0.140390607186836 0.494369264419603
-0.04293901334872 0.140471802377025 0.490164112857231
-0.0827081444907467 0.141537637497626 0.477540672949748
-0.0869661054377983 0.14875235374674 0.475795471575021
0.260435482902709 0.141659192611988 0.252939475844728
0.25868528643643 0.137359265765277 0.260001623133187
0.258149392573682 0.137847779607837 0.261263797597783
0.254872751316869 0.135302633307858 0.26998705935847
0.251272581330553 0.137251709582798 0.278708768670587
0.249636131622449 0.133401917169278 0.283534293443703
0.245405656757008 0.138373631812329 0.293295414726175
0.242268064744502 0.136793032723334 0.301492748702415
0.240320010372522 0.135392853353993 0.306658427382834
0.238197134193242 0.137448976355636 0.311636383183284
0.2347455341119 0.136879524346814 0.320441483435183
0.230963379340692 0.141033315241351 0.326810323022433
0.229391555819301 0.135056747082387 0.330531130075496
0.224894098375721 0.14160942308333 0.337181248903611
0.219697384137721 0.139904456137933 0.346303093346022
0.221505266977279 0.139853563821304 0.343286031523514
0.211953148103953 0.135010566587633 0.359680657720656
0.210197377604546 0.13920820417808 0.362242585588663
0.206981662315227 0.143888974788008 0.367201691353999
0.203635736313591 0.142551751786871 0.372912538857648
0.201709087853689 0.14168002022578 0.376209983657553
0.197119034801163 0.142992026298728 0.382044879590994
0.194366508961938 0.142472739110301 0.385304905705035
0.188075918097078 0.145322255123135 0.392170611806668
0.180312038553875 0.144040008685171 0.401339531658035
0.177408044568372 0.139542791275246 0.405351079258163
0.17277452089676 0.144197157798615 0.410038021257521
0.171990216975378 0.139746028522767 0.411590313223408
0.164580458644653 0.145742512962072 0.419295059678161
0.157830077236879 0.145576479115677 0.426984996612467
0.154809286793267 0.145242768142032 0.429508069183096
0.147829465344941 0.139547233522331 0.435690637447072
0.142570796639963 0.14007273036744 0.439750277060648
0.135387279998249 0.142692288019507 0.445070447021931
0.130272507929773 0.146297022375196 0.448652275804202
0.127766494815713 0.139126300700098 0.451466611652665
0.116747247511137 0.140855942204312 0.459805313379911
0.117587416353339 0.146193197409546 0.458607613205396
0.109815263039921 0.14558478454067 0.464662067939652
0.101330294488737 0.140235523207653 0.469788975937304
0.0946891216226064 0.142239408263116 0.47280852414482
0.0894583096661748 0.141812731851811 0.475107419675065
0.0787799614888916 0.144595276539798 0.478998251751368
0.0659380016173468 0.148420846987907 0.483754353356082
0.0590032683406811 0.14539056753998 0.485756612246923
0.0584871878348368 0.148032119909453 0.486037337858543
0.0420596684927567 0.143064656603343 0.490570075204154
0.0393098968596574 0.14424997845513 0.491353802227542
0.0215792784413606 0.14668365467654 0.495405554849821
0.0221778112077702 0.147446946744773 0.495222817465036
0.0143353053275856 0.150792477978301 0.495530661593589
-0.00227721116391784 0.15469621485098 0.495695948790421
-0.0182930517049818 0.148324236332714 0.495514049314159
-0.0277281094260137 0.153916733336795 0.493561441609365
-0.0515880535698267 0.154555931511076 0.488528694954416
-0.0679581461621121 0.156220035544854 0.483111008350978
-0.102608799388804 0.154827503619631 0.467268051633054
0.262068170957758 0.146186994785447 0.245846182164031
0.258833720378775 0.144458277442526 0.25833661915929
0.256743863900695 0.145679336879002 0.263383169488808
0.253415817384454 0.150574274693262 0.270883209690646
0.251381238333228 0.148064631529721 0.276468750485427
0.247834829958826 0.142791564012081 0.286368113296901
0.244919373827522 0.142109565669331 0.293842047203372
0.240705180110788 0.150425476830636 0.302954054926985
0.242036971665974 0.150817047528317 0.299525381304575
0.23613769352711 0.144279308329305 0.315586332010831
0.234934557579049 0.145465335384787 0.318403810701504
0.233598781023685 0.148446060492231 0.320724994317608
0.228089909463365 0.145553015725075 0.330843568615523
0.224474189310661 0.150554032433756 0.336060314076291
0.222569549340777 0.14516078094662 0.340465686902499
0.217196563971221 0.152597669991697 0.348216703874948
0.216079835972683 0.151351234489524 0.350404142160385
0.20839547815637 0.14584065707661 0.364665512847619
0.20432111286907 0.152786658184286 0.370431027276876
0.203665873694188 0.146640254431601 0.372499301649495
0.20081121936867 0.154082731234637 0.376095437167817
0.19194409060844 0.152771435066187 0.386615826959523
0.190805059765764 0.14757720589998 0.388686204039343
0.189971843195624 0.146419090359525 0.389818045272691
0.182930093512928 0.14822374790317 0.39770424093738
0.18152687182932 0.146330872887129 0.399602045828728
0.173776033813065 0.15489334772531 0.40732971305473
0.167054726076843 0.147549349876054 0.416170469495503
0.161346228324952 0.152648948910665 0.422036707077706
0.159196968988371 0.150000315666518 0.42490719538385
0.154434578196642 0.156558553037079 0.427796623657619
0.149239615329286 0.154297059168936 0.432436457327589
0.144237152481616 0.150558769691352 0.43718253729294
0.136042482184296 0.155358736507835 0.443010061127976
0.133167300315592 0.154981293541427 0.445353781381732
0.125735826816467 0.151281516371428 0.451617416463576
0.11920800271041 0.158455168329964 0.45588377889058
0.111672860064724 0.152852795147521 0.462454211421598
0.108988033546778 0.158360815744475 0.463378394382358
0.097865644975931 0.159407650159803 0.468978905123086
0.0963636466789342 0.153835503574976 0.470528939087874
0.0891574867238957 0.156541297410866 0.47373869752181
0.0829528186750417 0.151343481045995 0.477446775300501
0.0769211415673093 0.160073728121929 0.479322246574795
0.0647732137421502 0.155000267757845 0.484195441720925
0.0518634639737719 0.161297234019538 0.488889125385943
0.0476193494704695 0.161007183110569 0.490139053027639
0.0409366261135482 0.154068920092907 0.491580514758288
0.0244133919297775 0.156967104140251 0.493483043157178
0.0130503281343686 0.160627841829213 0.494186791238439
0.0118606591978086 0.156806384975877 0.49485100464647
-0.0047653329388496 0.157370408709893 0.495224355295744
-0.0216783436148044 0.159253103548418 0.493454678123204
-0.0296001553541768 0.159236958916806 0.492504444171741
-0.0469767341332892 0.166202969887172 0.489545114421844
-0.0772565321102219 0.16463497633829 0.478584900065897
-0.0996185326605375 0.169370705489424 0.466436446121662
0.260152791908505 0.15884664240979 0.251386074078113
0.258627707003921 0.158509292636137 0.256363669439104
0.256711525616891 0.158906111433704 0.261059697552622
0.25229141478276 0.154630171216241 0.272980377410885
0.249337343651804 0.158066365363043 0.279802858018749
0.246572996545353 0.155167870076136 0.287298863946682
0.245137071418862 0.151333962393046 0.291615973653623
0.241610429991849 0.15707711447583 0.299462446821145
0.241846086831481 0.152978727177455 0.299613552270672
0.237003697976452 0.156495024252107 0.31118195747487
0.234024695013855 0.157529952780286 0.318113421477254
0.231360623884883 0.153942928384106 0.323458450331253
0.22602755006593 0.159312626521825 0.331567274176324
0.225977403870723 0.157266794495157 0.332076323030413
0.218286615048161 0.159062811192827 0.344997929036279
0.217459044423292 0.159866897221137 0.346262254279087
0.214822168780617 0.161433743760916 0.350496221628737
0.210562209580261 0.153889161953145 0.359416580053128
0.205582795441968 0.160287699341062 0.366701742531028
0.203452875893542 0.155340757288622 0.371404334120926
0.196031537044217 0.160542327367902 0.380340648936877
0.195187895611353 0.156859452295603 0.3821575292927
0.191030243500446 0.157710609261498 0.386905614299574
0.183828127695389 0.162218138937533 0.394459133382055
0.183662120287476 0.163773147300532 0.3943120377824
0.17387284373428 0.163695049398763 0.405942634360596
0.170786261074956 0.164191100645032 0.409442091834236
0.168274284306204 0.158793354261084 0.413130513266876
0.163938226705706 0.158867546514801 0.418136783722452
0.157825145444112 0.162453255413151 0.423980735787925
0.150177215807258 0.162032282059967 0.430293000181549
0.146636669337077 0.162768047214343 0.433049322888959
0.138986016294261 0.160187004903993 0.439748840318423
0.138816916546002 0.157975671617555 0.4402809185027
0.13161810057775 0.159913773419856 0.445806405969226
0.125709420847992 0.164396396015731 0.449826169629031
0.117567796516115 0.164418057488275 0.45646257753563
0.115458100765862 0.162103082501503 0.458390654885803
0.106860432783914 0.160364424915888 0.464154174449284
0.10189630430185 0.160392415232513 0.466725769157693
0.0904755222429874 0.168351585711988 0.471348315617055
0.0892565387324451 0.161018793977842 0.473128168583266
0.0792799276903761 0.16579041020563 0.477443271319659
0.0656864139329864 0.169801789586847 0.483635173436529
0.0652994929920223 0.169863976469743 0.483817940360521
0.05063393406455 0.164448718863617 0.48941938951279
0.0454791627758849 0.168851192669563 0.489315200906145
0.0368774095580444 0.16619171438951 0.490608499625281
0.0299126919786291 0.167559817814527 0.491170978480648
0.00911250328842462 0.167916658714951 0.493441997861592
-0.00304217981103312 0.174959405601727 0.492794712407695
-0.0109888146885945 0.16796136555954 0.493277580461617
-0.0187302232092614 0.172741299948236 0.491690837450276
-0.034570837422595 0.174379676748029 0.489641814758981
-0.0522085409934143 0.170064813376331 0.488300472705456
-0.0678806006063405 0.169275113992278 0.482620646396641
-0.108945854889833 0.177830424228557 0.459877671384846
0.259491672331553 0.162450877487454 0.252601738902358
0.256724057826589 0.161747933613028 0.26011848095789
0.253573209439616 0.16594794581142 0.266903899920556
0.253603170558436 0.167493182310782 0.266264661985654
0.249524060347462 0.16668950206301 0.277311847508907
0.245987612125035 0.163063427149521 0.287338997604371
0.245837881548042 0.167398089585381 0.286774667383243
0.241260939572852 0.167168459567809 0.298508630976264
0.239463055038986 0.166221458667202 0.303213327751939
0.239539088370672 0.1639838783244 0.314189323882907
0.237276346861599 0.168205812475963 0.31820159770481
0.233542652010526 0.162505886754165 0.317919241031921
0.228788631217851 0.170184422418529 0.324550578017786
0.22131469001719 0.168441686989356 0.337827998311443
0.220774385645512 0.164132728488029 0.339651454813073
0.217213374074002 0.16581030395858 0.345459795609978
0.211346610887972 0.165762077858331 0.355609597772212
0.207429883552192 0.166731900023469 0.362178862803925
0.207436863917271 0.164423978978415 0.362643287104596
0.199953136317085 0.171758757979612 0.373201679713935
0.197886938130234 0.168193670871084 0.376444061118015
0.192479887479088 0.165828600590264 0.383387500109771
0.190623740465843 0.164729812820843 0.385834567890971
0.18644818581318 0.172316956952999 0.389112900876785
0.183992583777537 0.1660863942384 0.393407633580823
0.176550810796093 0.165399596235429 0.402395466287658
0.172656839106862 0.168873879005349 0.406249848795512
0.170727587934289 0.170534741161564 0.408172867590972
0.164970022611238 0.166745581334109 0.415801690872856
0.157488646796331 0.16967519616216 0.422967855477402
0.153832060439539 0.171541060425595 0.425617373859168
0.147744280677978 0.16661939410179 0.431459514673627
0.138500533377325 0.174491948860799 0.437594918998178
0.135270949217328 0.172662933155736 0.440554809959508
0.131376368594258 0.167605591899897 0.444632483601998
0.125618576743884 0.174422220863486 0.448113155205753
0.119264006816457 0.170633785773744 0.453970876935209
0.112161073266652 0.170877943561921 0.459558471263818
0.103596586960554 0.171862723437662 0.463963595986224
0.0963768688405928 0.178857400979027 0.466433319747198
0.0923989282918924 0.171317347823351 0.469864105954007
0.0820622369858796 0.179539461443314 0.473880961103658
0.0802217116747141 0.170956377118895 0.476242745931619
0.0716626787110716 0.171819283283783 0.480438591113208
0.0613087973112268 0.180818523374178 0.484409115161907
0.0561354812315093 0.172710131457212 0.487384141661265
0.0513164409850425 0.172286514333165 0.488042976468751
0.0347138838672532 0.174316572445122 0.489636158486167
0.0305744616741704 0.173877315646738 0.490147049819167
0.0190345854059319 0.175864682172565 0.491162918683078
-0.00557481980019289 0.177492092154743 0.492325989181061
-0.019422029405619 0.184331010963321 0.489803227754336
-0.0199068519347158 0.179810477264818 0.490449836102666
-0.0321524656714928 0.185061275170159 0.488277623931192
-0.0565921992403514 0.18752376379448 0.484181532599721
-0.0722380650291397 0.180667615352029 0.478794453343927
-0.110904137222875 0.18245176544684 0.45788588088353
0.258181574399088 0.169694840314979 0.25339409136525
0.254462754653048 0.175673680418658 0.261032211677028
0.252769037837582 0.175028100128907 0.2657322670941
0.250049496415034 0.172466470132419 0.27383189613515
0.249859784769952 0.174515652464675 0.273589182643914
0.246281466029841 0.174916087410026 0.282879319800203
0.243284423908511 0.17855653238634 0.289462057154559
0.241695119732865 0.174326430708558 0.295186390654151
0.239521623630679 0.17387234726215 0.303191608407034
0.236714334404139 0.178817867061865 0.306691332947298
0.232554078148177 0.178933869999105 0.315720527890918
