ply
format ascii 1.0
element vertex 833
property float x
property float y
property float z
end_header
-0.117310513330642 -0.0486852294909332 0.263174241028841
-0.107132080520159 -0.0594429835780055 0.263300523655296
-0.0988354793506988 -0.0692391966451518 0.263069347987141
-0.0943384935686349 -0.0766892375417443 0.26283008681434
-0.0825101144023285 -0.0887036218560094 0.262031307077207
-0.0801670986633842 -0.0920477879690149 0.261833897584044
-0.074629842388178 -0.092623880911314 0.261528063830305
-0.0692011854274475 -0.110133948571746 0.260826615719369
-0.0564674220513548 -0.11739959753487 0.259994122914406
-0.0479059628709779 -0.130921491423493 0.259133062584435
-0.0417178282906309 -0.136066262972933 0.257423752197846
-0.0249653577148248 -0.145120352477661 0.252995822327565
-0.0196290609752761 -0.161115670800339 0.24970570279956
-0.000162507164647661 -0.16906261354923 0.243080488777026
0.00554861118776059 -0.181304318891207 0.238802143490291
-0.239526871003651 0.0885083491321659 0.223200584150462
-0.233206735324756 0.0899256628362093 0.225177346223152
-0.230679828348294 0.0855053799265033 0.228839825912937
-0.229913146925617 0.0811341531466288 0.231696162449138
-0.218602610939882 0.0768595787693717 0.23734719555075
-0.218298507393667 0.0723074189213339 0.238704744430189
-0.211415464033252 0.0662154391085161 0.241931177223554
-0.20166542671083 0.0623225321248403 0.244667220596862
-0.202640944767784 0.0550551850582164 0.246770212880787
-0.193787753197401 0.0463227076195794 0.250230758573373
-0.187601846188739 0.0439396591275374 0.251306723978402
-0.183937418428086 0.0403862812123882 0.252410081350118
-0.174339487636885 0.0304625482421155 0.255434182608389
-0.174356488447311 0.0265588017447775 0.256281995589554
-0.167091058091698 0.0171199391610275 0.258990395023366
-0.162611473310149 0.0129674411162716 0.259371588366202
-0.158218881862983 0.00239616954638873 0.260027679927263
-0.14766022152065 -0.00363769100750897 0.260578753268549
-0.145007225949401 -0.00338679836152961 0.260600237249927
-0.136509421206404 -0.0160231102353019 0.261381834667357
-0.126248470477591 -0.0184881007210896 0.261577047867167
-0.121408437118801 -0.0291753362398888 0.262148115872387
-0.111341925049143 -0.042705726121071 0.262726718427581
-0.104988952511386 -0.048211558280181 0.262778038591603
-0.102190522000846 -0.0490867722332613 0.262714507872898
-0.0945191619974827 -0.0563650414070172 0.262600633052074
-0.0813758330708217 -0.0714691715510904 0.262093929281381
-0.0783655735955052 -0.079119286999083 0.261904286792092
-0.0711278755407697 -0.0844277203830491 0.261453311236008
-0.0632783409455186 -0.0890162484095097 0.260972955083261
-0.0510185205745449 -0.0995927765973121 0.260124994551319
-0.0489182982415401 -0.109876119527129 0.259788246352644
-0.0400382950968076 -0.12161756331532 0.259019420931272
-0.0269454707494541 -0.127299649391515 0.255658715359647
-0.0157517695171817 -0.148770923951539 0.2507510651794
0.000266985476637841 -0.155799777360678 0.245683118901051
0.00180255459300167 -0.166296895011665 0.243122448512776
0.0143515560990037 -0.178086248508352 0.237005423426034
-0.229897707548807 0.0975529915128866 0.222246887388492
-0.221231503242492 0.0902304759758407 0.23007898802268
-0.216171425897333 0.0913126858227758 0.230758889561029
-0.217315026205249 0.0876105691092312 0.23292414195004
-0.211158933788682 0.0804986228474635 0.237469238951304
-0.207902714807486 0.0743777024095768 0.239936862155388
-0.200839805985686 0.0726524785760827 0.241473252973723
-0.198965987860136 0.0640449870140828 0.244479318821404
-0.197550325582991 0.0655505298374626 0.244193520306788
-0.185329320555744 0.057016186852879 0.248421141763735
-0.188104303122626 0.0495627913460649 0.250038007019462
-0.180145396682464 0.0478222553033406 0.251133964652738
-0.174094851834668 0.038930266633862 0.253613892826715
-0.169437774999907 0.0311687229253901 0.25572228707621
-0.165963840056665 0.025233394820764 0.257326722176402
-0.151562517689276 0.0248441307129442 0.258553126273466
-0.148111209706773 0.0125074889212975 0.259673863749805
-0.135839774949891 0.00688204193619271 0.260085316157375
-0.133680863026752 -0.00636042620135238 0.260853936747218
-0.130827420933455 -0.00592057697563274 0.260850289512791
-0.120280890266886 -0.0169175829391392 0.261443164702302
-0.111368369196346 -0.0272484397417915 0.261908832928142
-0.110078039838487 -0.0254715687946152 0.2617864469979
-0.108152646370136 -0.0307802823214859 0.26202531511387
-0.0970454084261156 -0.0461213942433315 0.262377101528902
-0.088707103204495 -0.0598594247452698 0.26236952486487
-0.0810404952759937 -0.0585828169466185 0.2619355774826
-0.0703262173916152 -0.0653429461266341 0.261420233276599
-0.0617117975726736 -0.0745948234086879 0.26099182431545
-0.0566415083977044 -0.0848510651286328 0.260626992667305
-0.0493994910353389 -0.101334993957494 0.260001055237027
-0.0486555203157081 -0.0955327427326454 0.260088920723432
-0.0379906933724048 -0.110566093454158 0.259194495168267
-0.0201251789474373 -0.125460850540748 0.254340526995669
-0.00276585932129898 -0.142079496022095 0.248992065101831
0.00197152481321473 -0.147935393877593 0.246764839971873
0.013863960931627 -0.1611065527372 0.240839794786755
0.0305477641843252 -0.18055501964725 0.228043677551409
-0.217961878521968 0.106193039549173 0.220281468231023
-0.221768970050961 0.0991415970174705 0.223953125926205
-0.216185975131939 0.0910475435464606 0.230932674488261
-0.209876086724796 0.092051669380048 0.232012151513246
-0.205926321064988 0.0830002297428394 0.237358839542116
-0.197965753584439 0.0777685522833415 0.240176424526193
-0.200185903217823 0.0734311127775997 0.241305507500819
-0.195182942606008 0.0710390683225068 0.242780308297307
-0.185950707932422 0.0670373441671872 0.245225175318206
-0.179020856143432 0.0640815930899951 0.247036745710785
-0.180964247242451 0.0554590104610552 0.249398626376962
-0.169035270486178 0.0489853912332549 0.251882156839271
-0.163950841228195 0.0481611249826417 0.252519708719701
-0.156707511696094 0.0360795662280122 0.255771689603525
-0.152110483731598 0.0296696663244347 0.257409600598383
-0.147499797306064 0.0266692893896464 0.258251864793435
-0.145445326206247 0.0239325052035236 0.258954009856497
-0.135470805410989 0.0137116694813322 0.259699999840447
-0.128345255836248 0.00904525107170234 0.26001846238472
-0.122536129430259 -0.00528226214610219 0.26079888773065
-0.114574173068787 -0.00788785414743147 0.260887381988005
-0.103999191640319 -0.0229118556317165 0.261517584475615
-0.101000561054903 -0.0305893778808135 0.261837615774636
-0.0973889593455492 -0.0279243896816306 0.261590432398636
-0.0898559502697694 -0.0377607491797858 0.261758500261935
-0.0854693142505794 -0.042708895663693 0.261731682928107
-0.0696455782190539 -0.0565709927545883 0.261288090351128
-0.0629991259095414 -0.070715668256818 0.261044082007856
-0.0509518832474429 -0.071742465946978 0.260367208851126
-0.0467742181809038 -0.0788482781416135 0.260111214359586
-0.0450236866265509 -0.0905197527389348 0.259924432531598
-0.0328282627571688 -0.0928516808506248 0.259214013311312
-0.0222956389586333 -0.104656167546229 0.256687700578989
-0.0127504399729865 -0.117597731967918 0.253444625407986
0.00681787792057354 -0.136734023749566 0.246700602619383
0.008086538950703 -0.138125477719083 0.246126919983058
0.0191464244651973 -0.152722837731497 0.240672544064095
0.0328550366148236 -0.158555794250654 0.235051858815747
-0.21875259193748 0.106653019208869 0.219753301627809
-0.21617907439024 0.102884985993556 0.222995403037641
-0.204675321124953 0.100830793972073 0.227568936179524
-0.206906794389442 0.0955019638104273 0.230522981695186
-0.199325965927471 0.0916860549079951 0.235145220867664
-0.193819238981725 0.0890661520140536 0.237011638608627
-0.190389740107374 0.0804516073737111 0.240326745159775
-0.177827115439263 0.0765974712348504 0.243298858703002
-0.184886974796051 0.0741548341015067 0.24314909578675
-0.17865798816627 0.0720612326995112 0.244602325985096
-0.169750582491617 0.0630928127230188 0.248538146471676
-0.164092891561032 0.0613047175815671 0.249647232002242
-0.156898988309926 0.0514148900250943 0.252185262004741
-0.146676279188502 0.0398372083166442 0.25520268959236
-0.151955392042134 0.0374745291687154 0.255592062848257
-0.143479452916338 0.0289432333985781 0.257844516856015
-0.133339515190202 0.0237121972524653 0.259147688655517
-0.133447373925342 0.0223112942150002 0.259226484596541
-0.118511794384194 0.0144277245065166 0.259648811665911
-0.109579723194553 0.0064814351036426 0.260033520444525
-0.111332738003785 -0.0036772319794153 0.260623875303162
-0.101108332904467 -0.00689829356785814 0.260606259869298
-0.0944909063543118 -0.019664836220228 0.261113763559065
-0.0847109546549908 -0.0246862951706057 0.261000864976698
-0.0824584205702611 -0.0315187509262234 0.261204357359237
-0.0740501529635514 -0.0378179715499039 0.261041817937292
-0.0579327510634096 -0.0534740559017649 0.260599970421122
-0.0545443053896773 -0.0569782445113522 0.260460890716067
-0.046758851851022 -0.0635438369629318 0.26006761782226
-0.0398339310683434 -0.0706040738317667 0.259726942899096
-0.0253094699295573 -0.0808502554059465 0.258263487282999
-0.0277757786146759 -0.0925658147676869 0.258479208573928
-0.00702180577382589 -0.103895017684223 0.253285258201258
-0.00976563009052949 -0.113260747941918 0.253186069123661
0.00514558838607241 -0.117315377200405 0.249576400624961
0.0171680765776903 -0.143132639783988 0.242638379064386
0.0306901612659576 -0.150945693434309 0.237102231113704
0.0454488131742384 -0.162071690763463 0.225669838305893
-0.211651889495302 0.113956935438489 0.216827300578158
-0.202510153726566 0.113516044730614 0.219662633589187
-0.196612971432323 0.10328115839049 0.228165288781065
-0.195000753037555 0.105262163171545 0.227284544588193
-0.193708344982664 0.0981917870643338 0.232385575345113
-0.18577972362244 0.0928080523839843 0.23687559192252
-0.18297065293794 0.0859230266518647 0.239534452420369
-0.179867143803219 0.0825983885472134 0.241057423444431
-0.176471294928109 0.0805146030836649 0.24221047959753
-0.169859882303075 0.0760641838271013 0.244490806918295
-0.156487008825501 0.0692973375769361 0.247501118443957
-0.154327030882958 0.0584094021472767 0.250631218818087
-0.151640128798745 0.0547642931874602 0.251564882618336
-0.144875929976711 0.0532321873348625 0.252130526131284
-0.136849692481781 0.0517160616258192 0.252731231923343
-0.133025363519783 0.0357351105720834 0.256580071705833
-0.131053754257152 0.033556836242983 0.257149266987867
-0.123316682304296 0.0286751136596384 0.258257844224334
-0.119649749927305 0.019089895116642 0.259392408320313
-0.104824812157137 0.0106849503307767 0.25975673692903
-0.10639633715272 0.00570143890315143 0.260054027427887
-0.0911162577700647 -0.00640424670222016 0.260360947167166
-0.0944028752890282 -0.00432189030252839 0.260322770388399
-0.076705822144426 -0.0232832937171794 0.260655456905872
-0.0761707549121688 -0.0253450554799009 0.260703062289742
-0.0625394838671872 -0.0302421386965907 0.260254116129117
-0.0517327728736365 -0.0427391693878923 0.260036236017789
-0.0491688631101963 -0.0479860040163953 0.260015553708638
-0.0380437650697959 -0.0573851842238699 0.259526333003415
-0.0324792812243944 -0.0627582079794215 0.259250339764019
-0.0238639512071562 -0.0708287390853592 0.258035898915532
-0.021149029503213 -0.085168713021455 0.25715935036804
-0.00317647807825501 -0.0906481436336285 0.252794629572865
0.000231796990600992 -0.107706442549425 0.251474505071333
0.00921075636590384 -0.118055735475437 0.248362218735613
0.0214876023831382 -0.126200309797823 0.243495938404091
0.046349641906207 -0.14733820568485 0.229158725785178
-0.19943661166872 0.117779585694061 0.217656993231414
-0.194350977537107 0.114021303844845 0.221590437102069
-0.192105366341216 0.116106797440743 0.220815574582696
-0.185747861017264 0.108410104089358 0.227743783990414
-0.182983963599328 0.104523875290239 0.231118046123135
-0.174643857890867 0.099027430505591 0.23634479920756
-0.17251165672521 0.0951281619420474 0.237878434171597
-0.169598705423982 0.0847216317432267 0.241703615349028
-0.16177643045048 0.0805789427150905 0.243504367723433
-0.163730425386143 0.0838518256260964 0.24228585672377
-0.15090779894507 0.0731826019567111 0.246449792429897
-0.147897703742885 0.0686766877272309 0.248085534826002
-0.144919755421658 0.0596429198501603 0.250632380072237
-0.1424495098964 0.0587165025759926 0.250924615059289
-0.130768762825655 0.0526767670541338 0.252693842877786
-0.127169627675103 0.0415524059450227 0.25536964601731
-0.119945413338933 0.0424277329871204 0.254943209122587
-0.115219915871111 0.0304106315452983 0.25760374605998
-0.110734906282191 0.0254539234260487 0.258623191405316
-0.098614987509458 0.0193660361622181 0.259160874199304
-0.0927990559327975 0.0129396623908622 0.259373592707952
-0.0869095536476394 0.00251487091081803 0.259796414395425
-0.0803982509222357 -0.00441258344371277 0.259928563640592
-0.0641512432205364 -0.0175637267697091 0.259885054040144
-0.0726378985655526 -0.0172916190558909 0.260243407185549
-0.0610997238855421 -0.0274843719121722 0.260092433201644
-0.0451318680623554 -0.0381058983143132 0.259585097189638
-0.0353728169638311 -0.0462517736482513 0.25924701482656
-0.0424375330530252 -0.0493543963253006 0.25968914132645
-0.0237069737655004 -0.0616843560798422 0.257718161240677
-0.0181048242552835 -0.0625569056711712 0.256436973941665
-0.0103472015508633 -0.0827728579377807 0.254710949402737
-0.00270347030900534 -0.088857295387894 0.252739238434777
0.0161802180744294 -0.0966814059683156 0.24759692230559
0.0330594874006937 -0.119471762283126 0.240626289401094
0.0319338891367513 -0.115070085219021 0.241442345275423
0.0640538656181499 -0.151579058127567 0.216106641554347
-0.193789794191779 0.124777516238223 0.213841068674892
-0.189513116027372 0.119835175331981 0.219035153753382
-0.181099551243101 0.114552052484091 0.224915805840996
-0.17781474849222 0.116279786343334 0.224508954874132
-0.176217213948528 0.111069394224328 0.228410420195394
-0.172511244572332 0.102722529495883 0.23473427444609
-0.171680002891769 0.0993844879426842 0.2364083358185
-0.169247416766086 0.0950049439515549 0.2380744656399
-0.153159844772617 0.090297298283725 0.240494219699546
-0.151283670447019 0.0859048122767145 0.242138968625199
-0.153047572213554 0.0795857257962217 0.244219230917236
-0.137774816055449 0.0719503905205423 0.247437871651078
-0.134540449276446 0.0687545559225447 0.248646325141426
-0.13250331469208 0.0660958564219004 0.249507391936343
-0.120535046748969 0.0588239999634928 0.251133079293198
-0.118421883488842 0.0521790753479217 0.252619602355568
-0.107474940084961 0.0403740010179668 0.255039395603963
-0.0992033458047234 0.0377627328346163 0.25539482538164
-0.101549270200211 0.0334450845167652 0.256475034687664
-0.0936577780876962 0.0190041712116764 0.259071310178629
-0.08875532414464 0.0106451207380106 0.259406399191021
-0.0744164499101636 0.012808337269445 0.25851117266394
-0.0763674027344726 0.000729557840600663 0.259554118366447
-0.0585987580444219 -0.0101287612790264 0.259373181622553
-0.0542350899013304 -0.0144355015966213 0.259325030067791
-0.0444191785194022 -0.0230363712766268 0.259178790198342
-0.0449255573135378 -0.0264862169560939 0.25931932241099
-0.0399106426277048 -0.0368203351624634 0.259280436739943
-0.0269099906798291 -0.042641381442252 0.257619049978873
-0.0153966195217062 -0.0575829303830229 0.255651760061374
-0.00486859493742908 -0.0717978431850997 0.25363058958492
0.00695907537463121 -0.071450753434789 0.250858357125523
0.0124582379607567 -0.0844488830041275 0.24933474157707
0.024799905591969 -0.094980763340703 0.244795454910455
0.0429527751328736 -0.109515051714759 0.237795297102828
0.0477771115401677 -0.114742009105004 0.235841064029661
-0.18501779820929 0.126344500390109 0.215918279616109
-0.179594625689522 0.12851757761426 0.215532360212012
-0.175197194083136 0.123034782125227 0.21989518652714
-0.172140610042491 0.11503415343935 0.225943129095196
-0.170870483139738 0.115204892895252 0.22594059270053
-0.165356182646977 0.109611514578476 0.230488837659703
-0.163189290281664 0.103817676074232 0.234827495693193
-0.153277668963578 0.102624161966643 0.236118714399607
-0.145366990237206 0.0948111513381206 0.239257719993834
-0.149278179293209 0.0954484613693461 0.23884924279241
-0.140603418545407 0.0852462397663861 0.242870910869139
-0.132821252131639 0.0777205091974651 0.245730132565198
-0.124617706266108 0.073971461735908 0.247071272051898
-0.127967082712259 0.0657040529553957 0.249738309184136
-0.117979224517394 0.0583979701125621 0.251153987598313
-0.106088017742252 0.0549885223566745 0.251584516937269
-0.104016265206507 0.0432880268141876 0.254252704246287
-0.0935424275492684 0.0462604985013428 0.253123122344076
-0.0884749596640309 0.0369902588340237 0.254683378767608
-0.0856312345419013 0.0314193047066773 0.25563918134924
-0.0755798740948659 0.0286972564837692 0.255325581726618
-0.069784991206956 0.00904903533868579 0.258549559151504
-0.0705492960088951 0.00663353086990315 0.259082675969994
-0.0623931516529128 -0.000386890362560682 0.259117323205126
-0.0524630173702881 -0.0070124314981732 0.258710990389914
-0.0406546210667662 -0.011039103411141 0.25708206288439
-0.0357247879514686 -0.0247615112741719 0.257925546091408
-0.0203491333230869 -0.0318105591596564 0.255215505944618
-0.0175029026086183 -0.04036114383227 0.255366835267005
-0.00304973770625409 -0.0542429721912611 0.252666303631013
0.00325089376916663 -0.0597814886097671 0.251365458024513
0.0119090234112999 -0.0618534687327954 0.249407619313244
0.0231311046928105 -0.0824152928757206 0.24590428282454
0.040017559974372 -0.0910315261182154 0.239698529922284
0.0570756034308564 -0.115993048218895 0.229287698027947
0.0646935906960174 -0.119644494515031 0.223458789174048
-0.176746179741751 0.133626271357627 0.208771285880926
-0.174506659839317 0.131078411976268 0.21308076996927
-0.164718291701918 0.130641175882826 0.215413538225105
-0.160759721335534 0.121523619983043 0.222350837642973
-0.162540200786295 0.121137812390323 0.222459807406906
-0.152600344196959 0.117897498188403 0.225733816363612
-0.156678051355052 0.11161980696329 0.229865696568636
-0.149366695546659 0.109017239559963 0.232431635381753
-0.135813708762175 0.100969479749522 0.237520399082869
-0.131594293495718 0.0965027573951809 0.239300829876955
-0.128611056868174 0.0945053306405032 0.240148173522437
-0.120965924628118 0.0861700399406434 0.242831994504614
-0.123225806844883 0.0781558575427097 0.245613898336067
-0.115799221737517 0.0697562407439336 0.248090397755074
-0.103236463212006 0.0701173996792688 0.247418016553357
-0.101925505618241 0.0635820123301995 0.249450130581249
-0.0943566140072214 0.0556345286996167 0.251073077638878
-0.0909415003628642 0.0479822612074496 0.252514116705987
-0.0871023773143074 0.0475113281852542 0.252270592123108
-0.0790915231075808 0.0354408515736222 0.254174839644779
-0.0744827014953358 0.0346081198838167 0.253940666098064
-0.0660758711226968 0.0251677372007453 0.255006304338971
-0.0583286940519699 0.0112821861704564 0.256489933718818
-0.0535740428334835 0.00629976433429044 0.256739178390821
-0.0468917173268165 0.000996115034079987 0.256521964869791
-0.0364247317424745 -0.00609936592142274 0.255583608252474
-0.0233752125365461 -0.0135814909043263 0.254218178891696
-0.0135077350377728 -0.0334708428197701 0.25387663740452
-0.00761948580298864 -0.040562698715505 0.253234646943345
0.000981990928573573 -0.0488531981811519 0.251559287940033
0.00754766704172866 -0.0565169739650958 0.250261886460906
0.0138590898161624 -0.0564359656244369 0.248591694787575
0.0283738398325904 -0.0762264809802797 0.244426781907802
0.0344655577333241 -0.0870498447133718 0.241852608576658
0.0513962021081839 -0.101518906780315 0.234712461293147
0.0637458214832436 -0.115810306551561 0.224504237173422
-0.159615904545699 0.137336420215149 0.206565672785273
-0.165152313935752 0.134241444103567 0.210152633206994
-0.160381683011625 0.132463704888144 0.213799794417051
-0.154914159827701 0.130495930494208 0.216447063272031
-0.145871766735076 0.122522259843429 0.22304278652554
-0.144407490386426 0.118262457268664 0.226247454286889
-0.147630661502791 0.113208829143823 0.229579307074136
-0.141247243079949 0.111108231246594 0.231696035449152
-0.133436597128159 0.10481531795977 0.236267953043963
-0.123934269892351 0.0985939863730012 0.238566110735953
-0.124082535964626 0.101096561454014 0.237685840775386
-0.11460817754791 0.0898908019524881 0.241216213984636
-0.109035779568917 0.0818479211140057 0.24375859260343
-0.100703866497493 0.0774510181625921 0.244859715731153
-0.0954864772871709 0.0765664083612876 0.244925692470543
-0.0956677628932566 0.0670899400570797 0.24809571782099
-0.0836819556942129 0.0614376070037769 0.248801188641304
-0.0842590412136166 0.0547251983947505 0.25044481264396
-0.0795894011363951 0.0493756868805399 0.251187881937892
-0.0612008328476675 0.0367788909002189 0.252138060381679
-0.0619712992629379 0.0339862214720086 0.252770279244102
-0.0479613073827477 0.0276424955734094 0.251946995503497
-0.0446888180184557 0.0128882649969683 0.2542344236497
-0.0430402590902626 0.0148740988385019 0.2536270632164
-0.0299902402545396 0.00523224005946031 0.252756909175737
-0.0224907769754815 -0.00667401367124942 0.253062666553645
-0.0146511167677661 -0.00691760708755881 0.251632880348413
-0.000888935466102101 -0.0275725392396492 0.250599580474034
-0.00047846826817034 -0.0338196265003357 0.25107326930601
0.0142951871233208 -0.0394176885884447 0.247698581322147
0.0166145223957954 -0.0441493108660691 0.247132533065791
0.0274880621186586 -0.057200880744188 0.244077648004026
0.0402786216550995 -0.0734044304486197 0.240368268406669
0.0441421083446288 -0.075379955289459 0.238966826749274
-0.155233550368044 0.143251749062511 0.198472773107055
-0.150322092251902 0.139991596163666 0.204395356336504
-0.14442846717986 0.13685228831542 0.210330764308064
-0.144680182646812 0.133545989308019 0.215221552077991
-0.143502016718795 0.1307541666403 0.217342555868196
-0.141129529773855 0.126047864048155 0.220954641637435
-0.13381883118908 0.121181294793816 0.225149995165321
-0.129235102002386 0.118621877155283 0.227426422345104
-0.127532100216656 0.110481507592223 0.233407876667974
-0.114780439345094 0.10543379552958 0.235714094895491
-0.112260000758944 0.102762736672077 0.236543379589406
-0.112849750183986 0.0965123423012908 0.238786736756773
-0.10420967904301 0.0856351422228532 0.242239570153779
-0.0928689951050098 0.0866125014752378 0.241363790733571
-0.0879578973509147 0.0793473559011296 0.243667035280824
-0.0844780441111068 0.0712086095063783 0.24586556633244
-0.08226763502246 0.0615821590018966 0.248574086549998
-0.0740310340081121 0.0644046255742235 0.246635657888839
-0.0699716674503983 0.0556806532365664 0.248825431188971
-0.057044038156369 0.0423423876043709 0.250502688033396
-0.0576544977356832 0.0441370078362922 0.250254910284746
-0.0423503450345156 0.0316293321407123 0.25039772297116
-0.0409690359735725 0.0277798353425688 0.250918909140586
-0.0237491080740043 0.00925368406407616 0.251014336228357
-0.0264574100263207 0.0084849877068233 0.251630538691781
-0.0149559000740573 0.00282154025048783 0.25029359931073
-0.00129510196133094 -0.00878167312439556 0.248889967500257
0.00164439495422427 -0.0144500798113899 0.248706028512589
0.0212630594685546 -0.0287673987992926 0.244449866951349
0.0284633690160236 -0.0356322059954159 0.242793988971358
0.0298773586220878 -0.0456039793872501 0.242758119309541
0.03074420313807 -0.0527294835046315 0.242783376748996
0.0505348427382866 -0.0644415571866186 0.236314010077753
0.0783814371411936 -0.0917617383490369 0.21624921446381
-0.151624778178177 0.144533200926996 0.197250362522302
-0.143638638690814 0.144947981314063 0.198215460351945
-0.134449032028548 0.141067053349815 0.2059329746081
-0.137028746444607 0.139196273944034 0.208254178772961
-0.136971226202838 0.136225684845003 0.212769024125196
-0.128847830616417 0.131569703324651 0.218144139507227
-0.122632432059417 0.125701404236314 0.221997641994923
-0.119129995928245 0.121664074649671 0.224571569460774
-0.117132882265906 0.115524668172574 0.228801067480309
-0.112621065301352 0.112728810763411 0.230385822838501
-0.100725500280813 0.10562256675789 0.234346203458264
-0.103611812696414 0.10271299916546 0.236157381841863
-0.0965562049688639 0.0925999196536402 0.239413276695483
-0.094320886201307 0.0930169174791529 0.239161119153242
-0.0755308025613612 0.0824382946572036 0.241111917080741
-0.0813144423078385 0.0757950832312781 0.244032015638571
-0.0734053233485174 0.0758169118192526 0.243006582976752
-0.0561904180540691 0.0585744950539227 0.246150693158722
-0.0527137733396409 0.0559434552181688 0.246526587475231
-0.0520664817988398 0.0522962310442352 0.247367802243727
-0.0476004248482335 0.038319656284189 0.249900411248012
-0.0375183592129568 0.0387817653202566 0.247995614364786
-0.0309131346449015 0.0328360892846356 0.248229861598033
-0.0208874382997857 0.021364398609908 0.248531213616317
-0.0163972169960046 0.013638409105081 0.248915206126148
-0.0126847056828911 0.0138703530023227 0.24787642034161
0.00281665387901724 0.00137563359023497 0.246303277812949
0.0120497220834159 -0.00648935351909171 0.244445348709461
0.0161234840528153 -0.0171039494317452 0.244545764654293
0.0309024974025151 -0.0315560209656846 0.241739046991237
0.0497981647222029 -0.046028575132129 0.235715795432792
0.044165750028783 -0.0470387457586334 0.237759694131948
0.0549858815553291 -0.0619559279981031 0.233607483189906
-0.135988388595596 0.147588058697506 0.195740005898184
-0.130704207697022 0.145719836316676 0.199626834011078
-0.12651164261707 0.144863900644614 0.20128958457159
-0.126193990014991 0.137276266504213 0.212728917784182
-0.118933187113566 0.136224102642443 0.212874847949983
-0.114734369231939 0.135421449999909 0.213253643487088
-0.113036910246324 0.126242777534824 0.22069877736804
-0.108707522427214 0.123641445964244 0.222160812059179
-0.104987067559709 0.116229080605177 0.227143206073316
-0.102964709363336 0.113503542094291 0.228913238403357
-0.101971135277526 0.108113557512662 0.232698442752492
-0.0937523891895594 0.102871958613411 0.235640867711733
-0.0816810903682373 0.101681190340404 0.235358160086695
-0.0803295739626915 0.0963205905342487 0.237182525252092
-0.0802879232339191 0.0942106916241158 0.237873834127581
-0.0700646719827397 0.0837331347901322 0.239936200987879
-0.0607287200343676 0.0752218172412634 0.241470432357124
-0.052165108819323 0.0669597259977538 0.243024990649012
-0.0497167514186147 0.0617643710364955 0.244325078786696
-0.0457617406776588 0.0573941221922201 0.244714908229007
-0.0274510970888928 0.0481084193388425 0.243442742701731
-0.0303860182863761 0.0389997048844783 0.246476139606212
-0.0205817146778786 0.0307022346154465 0.246536435182957
-0.00686864324238502 0.0238110480506771 0.244286830829734
-0.00362848103414709 0.0117634633885403 0.245890011444848
0.00629432998700834 0.0105556642228387 0.24348801147315
0.0156307901348229 -0.000350601649420695 0.242514051320284
0.0151813428217335 -0.00285470442034348 0.243003495789844
0.0257029998367296 -0.0114149699746224 0.240700686623286
0.0425467406731416 -0.0227048790137214 0.236681198794449
0.0528723181805952 -0.039620347993844 0.233024570462811
0.0709959660110314 -0.0515588447446646 0.221111610020797
0.0797135447703446 -0.0674249288366193 0.21634066567966
-0.124647298028151 0.151142279632274 0.189921442283484
-0.12123372607141 0.146548348098104 0.19768260655091
-0.114936234335892 0.146173879204349 0.196993422645714
-0.119596161539141 0.142345503829568 0.203727220696213
-0.110337666139698 0.138215614832184 0.208140227057312
-0.110580373960208 0.137222123911826 0.209694783681709
-0.106574020667131 0.135047799249256 0.21219142460807
-0.0992577589480841 0.12617045568774 0.219445191058191
-0.0924010717065991 0.123254550799125 0.220894161181324
-0.0914388271857875 0.121279057241776 0.222224812064736
-0.0910580509238389 0.11206245321303 0.228822226401072
-0.0798927084218875 0.110910692805243 0.228593218266276
-0.0816907335063212 0.101583902197948 0.235427704649753
-0.0727785474895876 0.0960261701329964 0.236246534771545
-0.0643625796105156 0.0921069411143438 0.236389649958043
-0.0566034486278641 0.0848701949497015 0.237718590766742
-0.0521911865926675 0.083289382921496 0.237637057796007
-0.0424084293132194 0.0766089191521553 0.238505324856176
-0.0376423074864262 0.0658672007286514 0.240652424746222
-0.0341249263695172 0.0616435290314264 0.241084947706237
-0.0273818393764811 0.0552301669766735 0.241436485686742
-0.0225492489435037 0.0428847913075024 0.243833188414276
-0.00479570687976834 0.0374919470978453 0.24080261374641
-0.00760906168253867 0.0345969483799024 0.242230872155281
0.00814427071176361 0.0187363773722753 0.241214424432943
0.010738326666462 0.0121323257292406 0.241916079800853
0.0217249023567716 0.00322379076398775 0.240011746651604
0.0350541383729855 -0.0108398045890173 0.237532820940131
0.0375498357392092 -0.0174858219467479 0.23761777847013
0.0619087157124142 -0.0348239708255004 0.226066297310908
0.0604499450645483 -0.0305850638808651 0.226714566612105
-0.111459543697835 0.15148091657484 0.184902646216171
-0.109387281642332 0.153107837917092 0.180307392066065
-0.110993685569681 0.14721669980775 0.194625657406744
-0.107907044308663 0.145564396697196 0.19651448100751
-0.104101595478408 0.141922579441254 0.201275914226836
-0.101281117127479 0.136130658291541 0.2094934537907
-0.0954671005591093 0.135684945591356 0.209008767807315
-0.0943055863941901 0.133332416954518 0.212343344814272
-0.0843498632874744 0.127987427353513 0.216724863955794
-0.0807674506903858 0.124932560915986 0.218584102066312
-0.072419509402929 0.119724015087861 0.220928345436808
-0.0727090264021386 0.10990714507342 0.227592797188922
-0.0619283600595184 0.103803245645791 0.228691647400495
-0.0576321703679491 0.101009403177692 0.229371924264079
-0.0573241814363011 0.0989115675537166 0.230693348630123
-0.0479135088431841 0.0905983471097268 0.233641581507124
-0.0426133481178404 0.0839123447900042 0.236120667774911
-0.0421231206605207 0.076575502731932 0.238477323508403
-0.0254381591956697 0.0680968200981957 0.237363393314111
-0.0207983247210817 0.0687962214722923 0.236155012939019
-0.019315326003209 0.0553134643777286 0.239656979802111
-0.00423213855587428 0.0484951444037148 0.238247623084202
0.00390619787773983 0.0405130919266586 0.237676437172702
0.00164313621519808 0.0386581915798864 0.238722185709926
0.0134610011532852 0.0334874482529059 0.236495243001162
0.0164029397411354 0.022748947960735 0.237998176294188
0.0272747777421471 0.0156865788191046 0.236451360926225
0.0483288574110288 -0.00467964794356925 0.22891882213593
0.0595396418780992 -0.0106858863225767 0.223068495996408
0.0616737523287239 -0.0224234280371235 0.22489794779042
-0.105732040569293 0.154576453128178 0.17497484237837
-0.10318320344823 0.151264420133568 0.182790706102875
-0.0947393607788136 0.147584126179645 0.189003955939542
-0.0951474294035549 0.147762959812686 0.188701328187633
-0.0935728725111307 0.142554452191395 0.19821665046616
-0.0875551799466895 0.14181435041644 0.19813760330399
-0.0817587712365095 0.134355337281521 0.208288482186168
-0.0813283730057285 0.135761576899067 0.206070745348775
-0.0682806296813318 0.129732613119744 0.210752397351479
-0.0721205983076857 0.126948999235875 0.215999621477649
-0.0625068643083076 0.123650628291513 0.215541028873405
-0.0584904033231289 0.115457398520441 0.219920301294573
-0.0527295429778881 0.104387027527636 0.225744621936626
-0.0508241080777584 0.103152719005717 0.226043111084617
-0.0436224381727636 0.0944770318754922 0.229861088113023
-0.0430818291755215 0.0921756032786324 0.231254435731199
-0.0309999831992723 0.0877583916791853 0.230323559828993
-0.0253022191901487 0.0796472782388483 0.232476998947396
-0.0157340609437815 0.0773748378978902 0.229557342628237
-0.0179609461092176 0.0651366898426703 0.23657552043993
-0.00804134502975498 0.0582953321256654 0.236357025047892
0.0040232674261862 0.0546074608044511 0.233518273002585
0.003629137142442 0.047349577006822 0.236266903488174
0.0254179537054924 0.0342700010805202 0.230194599741162
0.0192638004988048 0.0312307207462441 0.235041143831213
0.0315612839129033 0.0226857177541446 0.231775874314557
0.0443616121530795 0.00658657383459208 0.228449761129348
0.0532345424150475 -0.00374025450390633 0.225367685818595
0.0679768600432806 -0.0144437118909874 0.218453733730411
0.069814943076186 -0.0196188738555176 0.218658654146315
-0.0874626331119777 0.154422560038741 0.168682050860016
-0.0808477945685387 0.155085390247205 0.164395146867585
-0.0781886218791296 0.150862780054326 0.175219455487742
-0.0780623409136187 0.149770429033439 0.178226277351312
-0.0784134227731823 0.147329714807739 0.184420314076504
-0.0705852574884354 0.143142606445516 0.192055554152011
-0.0683345991313989 0.139812424947672 0.196544508375855
-0.0713376248722451 0.137694379038056 0.201146664230892
-0.0599956420224629 0.129570277568999 0.206133780721056
-0.0582831140100632 0.129813547740014 0.204788037480099
-0.0571466124405757 0.125789755402568 0.209807315147284
-0.0566699803296945 0.119735321666821 0.216545439271583
-0.0368620290610344 0.11080138534668 0.217034511934336
-0.0396523893632768 0.110105438885665 0.218276452890309
-0.0277628268371359 0.0987719641843305 0.222549930243553
-0.0210682210684189 0.0928982670131138 0.222974243919362
-0.017508633137498 0.0856299389944679 0.22558721441544
-0.0137983600123421 0.0848718821890605 0.224384134003664
-0.00494542280539648 0.0719825332690331 0.227895146721256
-0.00405151980468398 0.0713915417243681 0.227840476958917
0.0113376859008167 0.0579285731081222 0.227848496175446
0.0233086685320607 0.0546699698585004 0.222394113698558
0.0186231997292926 0.0477984558918132 0.228129318678806
0.0340758708931291 0.0411607488764295 0.222163043459134
0.044774338125265 0.0265785156907989 0.222445752324462
0.0532247857322024 0.0207902022417643 0.218559506852365
0.0795111890932128 -0.00660864851422824 0.201221915834878
0.0879887438473861 -0.0145305047941113 0.193881368589096
-0.0818283172074759 0.155939213897233 0.162369398112814
-0.0714346059252213 0.154160440503453 0.163516573174994
-0.0745732099495907 0.151912332525162 0.170955359252
-0.0694497694767015 0.149072270009498 0.177008406713252
-0.0691791176517723 0.148331610364252 0.178979069255472
-0.0667769290641406 0.144912346724213 0.185180873510316
-0.0641157798880487 0.142338065997868 0.188498817197147
-0.0626441331142201 0.138745057641624 0.194722583886172
-0.0557809383672886 0.134232959763953 0.197080714406001
-0.0418449761004223 0.127531560338798 0.198392994764068
-0.0407015076967545 0.123482741186626 0.2034435504858
-0.0307044757360519 0.119666952915622 0.202984265423072
-0.034474493523893 0.115134011857986 0.211593843028112
-0.0342041219376456 0.110759268961421 0.216324374615454
-0.0186753744160456 0.104943742148227 0.214782844868751
-0.00725092926394359 0.0961782200246354 0.214781919325114
-0.00525087194757344 0.0913713893879913 0.216863512952576
-8.14400640692946e-005 0.0856089330799738 0.217897774414077
0.0124529404876453 0.0783671099015524 0.216529281552792
0.00558845433533781 0.0716206193446843 0.22344838458156
0.0125739891079098 0.0708534035202751 0.220803154300433
0.030107153478764 0.0549028668800125 0.218375740333057
0.0317608788000582 0.0498877456469973 0.219639625484115
0.0491553224804922 0.0397668814883418 0.212918527902158
0.0509956756946348 0.0347807803534623 0.215237900809449
0.0730318923235246 0.0128444817403166 0.198992078432686
0.0767529632436005 0.0076962042342616 0.196747929331445
-0.0613022284929605 0.15810142628621 0.14579670377922
-0.0588748117647273 0.1550631197365 0.151091577134095
-0.0560558490374208 0.151382899577459 0.157635989205499
-0.04864242183962 0.147822867235387 0.158910429376796
-0.0469339083274362 0.143746259871476 0.167685352386279
-0.0524444965434318 0.142147295120397 0.177795448625438
-0.0420865958653857 0.139647991326255 0.173130276578246
-0.0405468413850376 0.13644682077944 0.179772675834196
-0.0453065833099559 0.131796576023743 0.194393478397009
-0.0431038369869826 0.129515359455117 0.196327156937549
-0.033799976626771 0.124630773899633 0.197783339934989
-0.0223276893929594 0.117507117071177 0.201133745944454
-0.0205838469017151 0.113992513877904 0.205078322011949
-0.0154263121971752 0.10964110598266 0.206060180293688
-0.00991480446606836 0.107165616044966 0.203932860409509
-0.00869023617968051 0.0994703975300982 0.212127973495757
0.00540816311967748 0.0898700382261725 0.210650767104838
0.0131611610049644 0.0842108040507431 0.210299152832758
0.012328105119268 0.0789562054676716 0.216245171920987
0.0222782114865678 0.072902120055368 0.21467938510924
0.0299486498615064 0.0686422119653372 0.209339735991078
0.0566722451828446 0.0509342660409546 0.193121006281032
0.0597628379721808 0.0416728988679422 0.198276477528599
0.0619825766114921 0.0384635040296981 0.19857115703781
-0.0491315586162165 0.158724470108403 0.131043064480707
-0.0448022419033492 0.155215326801069 0.135512371682353
-0.0357464712861529 0.149023687493568 0.141869374373565
-0.0435802569410536 0.146597490162513 0.156640614074608
-0.0441274627085147 0.143971432580874 0.164071005186301
-0.02735346793589 0.141680060997648 0.151941977811369
-0.0243990044727739 0.136307449649922 0.162748321865292
-0.0161479682951812 0.130833307368151 0.168104700813528
-0.0185547546098961 0.129483397846466 0.17421742899844
-0.0246931405736149 0.127920183182989 0.184190193659307
-0.0118368388457208 0.121756626878973 0.184531852161649
-0.0193001266544864 0.120908389611691 0.19455729094577
-0.00200161420504576 0.112871093156976 0.187123028083452
0.00710808417850303 0.107826064255716 0.18335813307288
0.014943714601546 0.100104839941726 0.186665541769826
0.0205283166956679 0.0944967922588339 0.189226002494965
0.0218239943589705 0.0878369210909721 0.197836673136659
0.0316697368717997 0.0824562298470361 0.194393319541838
0.0479930801175862 0.0647417010413119 0.189413087460801
0.0439197397920997 0.069586419323542 0.19010188137785
0.0754091783807209 0.044219028550359 0.164848358684928
-0.0280550903220234 0.150463225932392 0.128237888267591
-0.0252696563164279 0.148448845197654 0.132063317669378
-0.0229189647234352 0.145962668155541 0.136002853251881
-0.0259675025790305 0.143455784492596 0.145821497896726
-0.0122824321530733 0.137096211275126 0.147621407516035
-0.0184017087464807 0.134845630552558 0.160085456886633
-0.0127968319201709 0.133586567823548 0.157317855120173
-0.0111189370498592 0.130142664895928 0.164477825332232
-0.00549413860350615 0.121945111745205 0.173999194835245
0.0158346468809167 0.113724261368054 0.155780745632081
0.0061117817124695 0.116698394469136 0.165815581996001
0.0324220372313135 0.101463430527564 0.154735943636622
0.0193548584061072 0.100720189498567 0.178825095677153
0.0449131744842526 0.0880699875197743 0.157798292210886
0.0277510177639822 0.0934869805980684 0.180453205716836
0.0396505106123557 0.0863611225993328 0.172502063752035
-0.00512016827441577 0.142864380479886 0.10812919190208
0.00217113837689557 0.138620593374064 0.102751991629846
-0.00727167885316184 0.141706362801612 0.129804310599188
-0.00616502763955869 0.141799114633036 0.123974694874957
-0.00226240607867439 0.135715260201791 0.137653241365225
0.0130509683040238 0.125540627992248 0.134128827584899
0.0180274388256714 0.12031653275253 0.137272517583317
0.0188450881364332 0.119271243226268 0.138207193662208
0.0398894162839408 0.107350555129061 0.123895200367851
0.0314786297893182 0.107491902381568 0.142871308968438
0.0238754162501475 0.108567162681854 0.153515432878641
0.0432386367317518 0.0971822252898295 0.145747472329652
0.0386065714255784 0.0975621257439079 0.152847613402159
0.0276380101093761 0.123931554303501 0.0586779767348901
0.0306453160337459 0.121392258039157 0.0607825851953473
0.0432722204074854 0.111428109222692 0.0632820762415639
0.0400430885250691 0.112570914938361 0.0754077904296026
0.0455932567827513 0.10802242845666 0.0780390597008123
0.0386767841556216 0.112463250807077 0.0859083070595554
0.0289526179674163 0.117191844339355 0.110732262035445
0.041597896208527 0.108441042228521 0.102082901984602
-0.0211300039108377 -0.479946151870683 0.00627629185010647
-0.0124581762239072 -0.4773870049736 0.00627629185010647
-0.019743221404142 -0.468321600565904 0.00627629185010647
-0.00655879838770465 -0.470002203062022 0.00627629185010647
-0.00176991332834105 -0.468564072747911 0.00627629185010647
-0.0163157144326574 -0.453858983343512 0.00627629185010647
-0.00564040717143889 -0.461400054837039 0.00627629185010647
0.00537691437650979 -0.460862851637122 0.00627629185010647
0.0110817018568966 -0.466411840387014 0.00627629185010647
-0.0188835516390923 -0.451971177668981 0.00627629185010647
-0.00880482784011646 -0.44954592748239 0.00627629185010647
0.00683354335409676 -0.446903181785291 0.00627629185010647
0.0122040165287457 -0.4517290569367 0.00627629185010647
0.0275163442663219 -0.454633963770925 0.00627629185010647
-0.0191182266504642 -0.434066986967704 0.00627629185010647
-0.00564110308316637 -0.435615567589959 0.00627629185010647
0.00874898410361948 -0.438814715254894 0.00627629185010647
0.0139163954961546 -0.442251973454219 0.00627629185010647
0.0245454219697307 -0.446156556837929 0.00627629185010647
0.035449623631174 -0.44801964823121 0.00627629185010647
-0.00941293110733602 -0.430361322357914 0.00627629185010647
-0.00533078266036464 -0.431350581399231 0.00627629185010647
0.00583368016599059 -0.4295988274826 0.00627629185010647
0.0159497623702336 -0.433934339114707 0.00627629185010647
0.0269764585772105 -0.437927562283027 0.00627629185010647
0.0356825033415599 -0.432197901630671 0.00627629185010647
0.0379084694001953 -0.432671689950597 0.00627629185010647
-0.00883911131100728 -0.421342284478086 0.00627629185010647
-0.00603366032417833 -0.417508783927901 0.00627629185010647
0.00504391195707948 -0.416619626965478 0.00627629185010647
0.0144962968478629 -0.426255662983621 0.00627629185010647
0.0163283841208212 -0.426493241932162 0.00627629185010647
0.0367431651044915 -0.421672253084334 0.00627629185010647
0.0464561169688642 -0.42438395788612 0.00627629185010647
0.0466534624696892 -0.430343484323133 0.00627629185010647
-0.01154867947118 -0.409792324226206 0.00627629185010647
-0.00956820481004099 -0.409373852719721 0.00627629185010647
0.00257479698172665 -0.409899216537463 0.00627629185010647
0.019136197197513 -0.417527195293938 0.00627629185010647
0.0148800019459607 -0.417323444358777 0.00627629185010647
0.0426343214530756 -0.413331105946506 0.00627629185010647
0.0450161923063093 -0.413310490872654 0.00627629185010647
0.0453864176108661 -0.414132485252455 0.00627629185010647
-0.0120964622040287 -0.399605645517411 0.00627629185010647
-0.00120809579117716 -0.4041851195458 0.00627629185010647
0.00112811198171344 -0.401407058306197 0.00627629185010647
0.0237665342947634 -0.400861290300433 0.00627629185010647
0.0225029293034908 -0.405820223329498 0.00627629185010647
0.0287770198828682 -0.403863209999467 0.00627629185010647
0.051173958532334 -0.408452545399393 0.00627629185010647
0.0527911400027417 -0.412235631884663 0.00627629185010647
-0.0112661217761298 -0.383340796123947 0.00627629185010647
-0.00748863521340242 -0.387951161296286 0.00627629185010647
0.00760015444308388 -0.394716329348023 0.00627629185010647
0.0114033363779746 -0.392419156946702 0.00627629185010647
0.0326459418180448 -0.395867892476487 0.00627629185010647
0.0406918001919059 -0.390613778313129 0.00627629185010647
0.0367269856263269 -0.397233885621126 0.00627629185010647
0.0590028172815713 -0.39649606512324 0.00627629185010647
0.0610954075077535 -0.397454452187852 0.00627629185010647
0.0753338870813478 -0.400410097938946 0.00627629185010647
-0.0162829872212134 -0.375475146570878 0.00627629185010647
0.00189809230889953 -0.378308375375616 0.00627629185010647
0.0105618867567745 -0.381878085085164 0.00627629185010647
0.00911510726183954 -0.380307955232975 0.00627629185010647
0.0261852410322163 -0.388453428954612 0.00627629185010647
0.0355927942836844 -0.38821472827585 0.00627629185010647
0.0525392112166554 -0.390100049466539 0.00627629185010647
0.0616595267629099 -0.386203897467184 0.00627629185010647
0.0691325634312198 -0.388163111364265 0.00627629185010647
0.0760037506018432 -0.386650432196993 0.00627629185010647
-0.0215940620104513 -0.36361577932081 0.00627629185010647
-0.00890859835043221 -0.36853226024434 0.00627629185010647
-0.000569899250090365 -0.374263280104345 0.00627629185010647
0.0128947238464814 -0.371048637212791 0.00627629185010647
0.0228957807336011 -0.368860223196198 0.00627629185010647
0.0243827537272294 -0.375517669349016 0.00627629185010647
0.0471983013021637 -0.379278951443626 0.00627629185010647
0.0521096212730782 -0.378156612963483 0.00627629185010647
0.0647336388942699 -0.377589357537399 0.00627629185010647
0.0701041627831159 -0.377178596491629 0.00627629185010647
-0.0219810740223662 -0.357217563419043 0.00627629185010647
-0.00380929893961182 -0.357753253795077 0.00627629185010647
-0.00198155755138797 -0.365193220056583 0.00627629185010647
0.0150902105089755 -0.35746054463814 0.00627629185010647
0.0251356539374586 -0.366200452927784 0.00627629185010647
0.0401887463861109 -0.361088740383275 0.00627629185010647
0.0401729001264082 -0.365449485031557 0.00627629185010647
0.0539497872051356 -0.368072720171803 0.00627629185010647
0.0621644173045163 -0.370471378651748 0.00627629185010647
0.0801215605592292 -0.373495602923779 0.00627629185010647
0.087867401768687 -0.368862289074989 0.00627629185010647
-0.0209461310386679 -0.344706842695963 0.00627629185010647
-0.000578214786576046 -0.347324027643063 0.00627629185010647
0.00302722362201638 -0.351731226784182 0.00627629185010647
0.0188535164850393 -0.352852920955719 0.00627629185010647
0.0201384209005371 -0.352882472014274 0.00627629185010647
0.03273162902129 -0.356175965621331 0.00627629185010647
0.0422761935287175 -0.358454150769966 0.00627629185010647
0.0561374650341899 -0.352586839441756 0.00627629185010647
0.0661905358060951 -0.352928604187011 0.00627629185010647
0.075608150765254 -0.358711265751569 0.00627629185010647
0.0903128864994104 -0.359320565819574 0.00627629185010647
-0.0167310526981769 -0.33812188008901 0.00627629185010647
-0.00701446143279394 -0.343468551905824 0.00627629185010647
0.000389468307289375 -0.339794466085071 0.00627629185010647
0.0180725151870341 -0.342214019660394 0.00627629185010647
0.0247537137548592 -0.345493976802764 0.00627629185010647
0.0396633465254996 -0.346255210578652 0.00627629185010647
0.0502656003937446 -0.34930429412271 0.00627629185010647
0.0509488916746509 -0.347489966972157 0.00627629185010647
0.0572386761844356 -0.342366085249778 0.00627629185010647
0.0690875609172765 -0.352177391600378 0.00627629185010647
0.0925768700235746 -0.350217593429777 0.00627629185010647
0.0965480098791835 -0.350280033486635 0.00627629185010647
-0.157827763575464 -0.309488967294391 0.152933859371485
-0.137010746477943 -0.319154720644815 0.133577007260959
-0.136996938545987 -0.315962381771711 0.142505174755531
-0.121400240026931 -0.315138716678979 0.145907807945888
-0.127853725242107 -0.312277400542863 0.156169878311651
0.028370747372336 -0.333308246197019 0.00627629185010647
0.0482332340364929 -0.338001581456957 0.00627629185010647
