ply
format ascii 1.0
element vertex 854
property float x
property float y
property float z
end_header
0.0115013406452709 0.0785116724294171 0.492532935470083
0.0219581635641074 0.0815313639333143 0.491278812063331
0.0389649766680173 0.080124910189524 0.487506432805647
0.062425999244399 0.0830140171025236 0.480468223672865
0.0820880980957413 0.0815137461274342 0.472266691052998
0.121949470564568 0.0846431530028294 0.453918914116943
0.148195568551616 0.0801163403765376 0.437030185065351
-0.26179288274613 0.0788497433671069 0.246879114430716
-0.256996014644029 0.0837793909587089 0.265320091456314
-0.256538088372612 0.0855226837014492 0.267260090098295
-0.255045520973757 0.0867055051568246 0.272513433355344
-0.253535472178128 0.0807836878117062 0.276077285212008
-0.247759672551808 0.082436656336227 0.29004515394886
-0.246587382051725 0.0778610511736106 0.292749069992123
-0.243612205564297 0.0872759241668987 0.300125717665042
-0.24137324208957 0.0811206789649743 0.30510426959568
-0.24036087876276 0.0784714401906114 0.306906269128893
-0.235281141112743 0.0844984410995433 0.319461520363061
-0.232758214830201 0.0873377539800214 0.325669249787498
-0.229578380221541 0.0832299469308898 0.332095548743107
-0.224668438565332 0.080013114927723 0.340780312545971
-0.22330009211745 0.0792303812707704 0.342921479740743
-0.218571764982503 0.0789022987666033 0.35045550564953
-0.215619736313796 0.0798565065210053 0.355225151901193
-0.212249927237111 0.0871437737213769 0.361022432494325
-0.208940276967745 0.0875229834278186 0.366330604970838
-0.204140539297197 0.0812378471154483 0.373639786925371
-0.199694654597332 0.0810922067290281 0.380733039046752
-0.198581908353419 0.0807965410984858 0.382493639157398
-0.193405102948325 0.0858101383048452 0.390997678870122
-0.187850794027247 0.0875290837946273 0.397553925579405
-0.182404859292117 0.0840479722396717 0.403172279139132
-0.182868392270732 0.0873414229165024 0.402762630923263
-0.173514663859048 0.0893518423225069 0.412622555919591
-0.168152862830149 0.0889914808691435 0.418243322907725
-0.169522528420669 0.0830733905981337 0.416635024792589
-0.160876800421864 0.0860821654599351 0.425805782562507
-0.157590985413732 0.0843324990040702 0.429184112318463
-0.15197607462929 0.0887126048007218 0.435218093836963
-0.146412352118219 0.0835977548877392 0.439445327274722
-0.135669398215283 0.0842592522527565 0.446265645154325
-0.134818427134534 0.0821200356358557 0.446485131134182
-0.12723195035224 0.0890406132349498 0.451508566536901
-0.11628023480964 0.083820703481356 0.456616208006858
-0.114632706159158 0.0825346136368035 0.457179734918723
-0.106521472583274 0.0846303534647618 0.461533692670954
-0.102827348877184 0.0878905735629081 0.463872297534384
-0.0939984132249947 0.0857658550309439 0.46774169311097
-0.0857930489673676 0.0871637405960901 0.47158706010624
-0.0750134162099254 0.0876916665871408 0.476435311194324
-0.0642832146325169 0.0835335864129723 0.479789376215854
-0.066743626696168 0.0889496340998589 0.479930025450167
-0.0562551195149159 0.0903579720697732 0.483943062834382
-0.0405693097693583 0.0883215612021388 0.487839173193147
-0.0327664757852517 0.0871885409460368 0.489552676929102
-0.0242417794105236 0.0903533745277801 0.491395345457313
-0.0179443578992715 0.085753424095472 0.49225689081535
-0.0123420322989099 0.0942892657399454 0.493533414963747
0.00415415890846401 0.0864550971354434 0.493690626753976
0.0302459568669341 0.0894635051399728 0.490252131862028
0.0344156602766391 0.0888661726889762 0.489269985283803
0.0537283586748419 0.0899429882835386 0.484589949407566
0.071289550261448 0.0967087732961769 0.479745898849264
0.121069949834282 0.0959183652264337 0.45573696068835
0.133817404659039 0.0919240432300801 0.448196870848954
-0.261723636751501 0.0905463983268249 0.248993339174062
-0.258321365637784 0.0891369276686558 0.261260276377482
-0.257629226358747 0.0943490153417563 0.264577741840739
-0.254777069807654 0.0911642278931351 0.273223303993415
-0.252606433218063 0.0923946207772425 0.278481082925256
-0.249692598188089 0.0927959275652887 0.28552174860154
-0.247221325377795 0.091516091717078 0.29147062623108
-0.24204394778642 0.0904242718121612 0.303955676605396
-0.241294882705136 0.094117653816512 0.305815337216523
-0.239039181869064 0.0883659560195034 0.311181832859847
-0.235801780977831 0.0924486942946775 0.319054676177607
-0.233043815530982 0.0952996143409238 0.325752925907654
-0.230503665688037 0.0885449766700161 0.330974759268438
-0.227210548078704 0.0919026931712114 0.337396153337954
-0.222249453075987 0.0885511985685555 0.34512997734009
-0.218559702705072 0.0889709626634563 0.351047601735721
-0.216164715426349 0.0883219290708087 0.354836257987509
-0.213262351217896 0.0889737954345175 0.35950937291227
-0.207001318359173 0.0962264687371465 0.369699522867958
-0.203860317756432 0.0918331066067247 0.374558061947625
-0.203299756822539 0.0927713016174203 0.375478681270203
-0.199288137482483 0.0887629918452476 0.381733727525742
-0.194231235967708 0.0953148067738938 0.390033322078413
-0.189684998818842 0.0917033811108586 0.395281552159053
-0.18334621524946 0.0966155891056686 0.402031877397729
-0.178152329990039 0.0968797274519015 0.407777426758377
-0.174075829722115 0.0989716398326107 0.412179443484261
-0.173706824501134 0.0976135130882242 0.412591233410041
-0.167376919359238 0.0915142313762704 0.419109846907621
-0.162288097572085 0.099061956905017 0.424607165186221
-0.152334243657176 0.0914318275212471 0.434898209596194
-0.152979077286904 0.0984576421181033 0.434366235486822
-0.145190669667543 0.0914717957434593 0.441662959282801
-0.14324729299733 0.0995756121345282 0.442620792586498
-0.131700220429688 0.091495038069803 0.449320384986809
-0.122040250952107 0.0966416595677354 0.455284322232413
-0.123441345366057 0.0926463241656835 0.454035981853035
-0.114649236456068 0.100003803009956 0.459779520128143
-0.111799095906763 0.100934310468511 0.461469784591464
-0.0974926349216325 0.100253915963341 0.468557238152483
-0.093915226086745 0.1011609584102 0.470422075274784
-0.0844478953988076 0.100487424315207 0.474776694287712
-0.0783038308454609 0.100472488355232 0.477448559083594
-0.0689395317244491 0.0987775783026229 0.480680739495719
-0.0625176092328409 0.0939218673100811 0.482342362739421
-0.0571097449841061 0.101185751238948 0.484228024855648
-0.0479420604603074 0.0940806654343689 0.48632073563813
-0.0328056511489871 0.0969890525998185 0.490085451177654
-0.0289005431563236 0.103853120970956 0.491353744403623
-0.018304643840636 0.0990234931038408 0.492987471233856
-0.00743634760071072 0.0965338597580242 0.494219948080659
0.0023630716322469 0.0952392768383642 0.494399782566758
0.0251214693945718 0.102352926947266 0.492032944475626
0.0378119160916801 0.100151139255802 0.489120653398308
0.0674739259310625 0.0980234957090742 0.481074927705339
0.081022420733988 0.098301121062923 0.475840475368868
0.0933786373607648 0.103532606498062 0.471113132928402
-0.260302158060434 0.0994148877313719 0.255532160073801
-0.258375020786068 0.102847848803794 0.263112966464217
-0.257961226001399 0.103795331140031 0.264772160251196
-0.257058238480343 0.0968713909235557 0.267048841939366
-0.252721202581168 0.102122491459107 0.27833865961086
-0.24834512643245 0.100602103414582 0.288883129309496
-0.245494195359631 0.0978928166073956 0.295728857416387
-0.245398451902312 0.0982326409693621 0.295964723233177
-0.241063946508086 0.0983317615716271 0.306431245922988
-0.239610264347799 0.10352241593506 0.309943577948449
-0.235847682371403 0.105128387260454 0.318937129095534
-0.232427885102862 0.0973030759448528 0.327223569100674
-0.231579103302325 0.105978215161429 0.329151895732688
-0.226905448432584 0.10577033745255 0.337285619115015
-0.221510057476908 0.10263662870293 0.346581263919979
-0.218727863576603 0.0992685004917583 0.351145456935826
-0.21608700160988 0.104195526297002 0.355506651920682
-0.212608012949354 0.103712063835086 0.36101593347436
-0.210911005350903 0.0996707023977517 0.363589044408131
-0.205122605173138 0.101921911885583 0.372864268451765
-0.199202841317949 0.107248166406403 0.382443987214588
-0.199240538692865 0.104465735299675 0.382297545181047
-0.192672159487814 0.101490378578103 0.391410366014336
-0.186876365218373 0.0983023209407904 0.39802035578106
-0.187912227396407 0.101653919961735 0.396680348144259
-0.178767176791262 0.102315514624926 0.40678552650507
-0.175272319689545 0.102197561805059 0.410668447787766
-0.174253646330688 0.104018091715564 0.411694460649861
-0.168508499653176 0.107840670930116 0.417848508771057
-0.161598745937644 0.103851885296677 0.425429552490173
-0.156838243955664 0.10239025972661 0.430396433196013
-0.154361696507726 0.106196403602653 0.433074522887716
-0.142743855508498 0.101846690588758 0.442858690378466
-0.136685014164888 0.106861924678517 0.447051201030374
-0.132325678019981 0.105467549641206 0.45036573051306
-0.128535571173295 0.102791528913663 0.452534994693777
-0.121790146429381 0.107980375386456 0.456933314097484
-0.115718701141629 0.104119455146893 0.459672067278374
-0.106227185552733 0.103305120139028 0.464839277715625
-0.0998493901762882 0.104228746208114 0.468170094589989
-0.0966027563203818 0.101581291134622 0.469223854467251
-0.0831810714756622 0.106708170942267 0.476544004272363
-0.0799317140979333 0.10903858957472 0.477694613412536
-0.0711248976613215 0.111341457279511 0.480519962755984
-0.0613100023696487 0.107080307618327 0.483257723643243
-0.0529411597535619 0.108118675999289 0.485738705065405
-0.0475519213311692 0.110071326090121 0.487230736508141
-0.0352627802009448 0.11291201122863 0.490540579919968
-0.0242938675184608 0.113516566867283 0.492936459192714
-0.0134286947272325 0.108098777596281 0.494412233707253
-0.00693067147134049 0.111424788170122 0.495204460911488
0.0112593845973808 0.115074032658925 0.495064353539535
0.0223269385988291 0.106896206848991 0.492758937988137
0.0400432421944437 0.115154277255823 0.489439331226248
0.0497146272719606 0.107019398658966 0.486523165353345
0.0717409897704515 0.10939640393812 0.480255007439811
0.0909981871618929 0.114631626031259 0.474269545366111
0.131277313509341 0.113626285166172 0.450656562030692
-0.260686849142657 0.113075559726486 0.255733127342574
-0.259670222342246 0.109195872232237 0.259311777559432
-0.258989367783875 0.112893949670866 0.26236154732788
-0.255763773706787 0.107441078214072 0.271066362711218
-0.252242046057856 0.107050247989399 0.279563746761591
-0.24807029835856 0.108381458501888 0.289619510013076
-0.246983539430579 0.107077351717864 0.292238517532181
-0.246000018841701 0.113575259844203 0.294515917766457
-0.239009702134741 0.111110315909785 0.311290456631559
-0.238759243529464 0.11292700752662 0.311868450594589
-0.234094456471418 0.111798306583329 0.323056217504017
-0.233655097314402 0.10616740019333 0.324176731645498
-0.229373268771545 0.109291544538139 0.332848535948842
-0.227807501360148 0.106342745409053 0.335727181270417
-0.220457926427657 0.109047770399104 0.347770704970977
-0.220110350485026 0.106946523760644 0.348538118154146
-0.215067981088452 0.111261501853449 0.356582634110896
-0.211960630355756 0.11086184397824 0.361811533099121
-0.207649056604015 0.113782122623817 0.368758431086111
-0.205014529201289 0.108002872529806 0.3732251681785
-0.201088375377065 0.111648320026926 0.379582217308607
-0.195850610980333 0.114499168033308 0.387143300211798
-0.190909574993251 0.116150652243103 0.392529300230293
-0.188418457284871 0.114431249615784 0.395390279513313
-0.184593747378882 0.111719900005178 0.399786928506994
-0.182117547802331 0.110244691104081 0.402617437215984
-0.172595260245164 0.113860933391011 0.412972531464348
-0.167527087208796 0.116588597648847 0.418438173938913
-0.165630712480731 0.108519845076292 0.421001574513041
-0.161609099092077 0.117804143294316 0.424932583863981
-0.155507947623388 0.109429562541989 0.431938000389322
-0.151244109080684 0.113873025234098 0.435841258157991
-0.146876791687541 0.116843620628997 0.438901683279925
-0.141426508672498 0.112887330926512 0.443177517256947
-0.137162060087863 0.114508821042199 0.446242054313389
-0.126456546316813 0.119015974720005 0.453909293198451
-0.120356534792634 0.115640655887751 0.458632146304353
-0.110744639361317 0.11496978713602 0.46391544419567
-0.109765158901014 0.117754882342054 0.464850702689813
-0.101570976118286 0.119525370058266 0.469531946794152
-0.0962717062069069 0.113325878532401 0.471542167128282
-0.0915091367738947 0.112253128607336 0.473605198103765
-0.0810939025226231 0.11438077356236 0.477520074327671
-0.0720657206715695 0.116964597668143 0.480439124808651
-0.0614912092641173 0.122088773106872 0.483920401674811
-0.0550335433907103 0.113935998662725 0.48537877786392
-0.0456253300627717 0.122325314451224 0.488477315175926
-0.0390308168477579 0.121027468258833 0.489994533156778
-0.0236626168003309 0.123126018979692 0.493611279639901
-0.0228901541695779 0.124137504377503 0.493843018789963
-0.0113212938876129 0.123846513127941 0.495711073372035
0.00179208492437973 0.122445128229111 0.496147464022827
0.0278826128411273 0.118167849863254 0.49237663544558
0.0472237032529044 0.126519179964446 0.488191568795805
0.0635593902102256 0.123462507545251 0.483328917022122
0.0753429996689307 0.124219272784283 0.479719472760916
0.0936512142501215 0.119752951679771 0.473458813769295
-0.261399124960896 0.120163585387779 0.251960197115571
-0.260366846593115 0.120255883249433 0.256053262804094
-0.256001077623582 0.123219298716495 0.26934124576737
-0.255847356736486 0.117770735693373 0.270719656144918
-0.252323505893528 0.115805391929849 0.279341554225652
-0.249151161995492 0.115606453256476 0.286943054500184
-0.244764396280877 0.116674192599707 0.297438293735255
-0.245623237400202 0.123944536239114 0.295293127208075
-0.24063694312848 0.122412210742516 0.307255917758848
-0.238788163098738 0.117597903913261 0.31174271586847
-0.235986257211812 0.120778175417037 0.31841601482527
-0.234631286992135 0.119469805424882 0.321677552530977
-0.229316150422293 0.119324657160586 0.332053506949341
-0.223540488029013 0.117249638812096 0.341890748610493
-0.221865452410824 0.11670353665727 0.34473876548329
-0.221074816139618 0.1221929495956 0.34557296930119
-0.216335022742745 0.122864458004376 0.35343515671218
-0.214756642566161 0.118071226879269 0.356498585507508
-0.206593476870338 0.123362003501893 0.369672393324629
-0.206945943722728 0.125301187901067 0.368911189687184
-0.202536843429648 0.120183668975265 0.376734485257546
-0.195187088522241 0.122108161121151 0.38730571736048
-0.193914829255151 0.121666372651865 0.388841787530242
-0.187768312636014 0.11758644644632 0.395931445251402
-0.18196184988999 0.123240210406047 0.402049080203241
-0.178710236507354 0.121675061175758 0.405744739959937
-0.172872096079077 0.126322791609005 0.411954876145747
-0.169062487316317 0.124945868049222 0.416258683244875
-0.164439174364454 0.12510058569837 0.421377642318054
-0.162014074312707 0.121590168744077 0.424267529534226
-0.155609260697052 0.120358259635052 0.431441445742096
-0.149378089190053 0.121760141354044 0.43658540571381
-0.145077179239899 0.128388163329226 0.439170900138304
-0.141430466262014 0.124799539752662 0.442454722766343
-0.131745288659327 0.12730118136461 0.449495332319261
-0.127173694498952 0.119602937806007 0.453342723895964
-0.120831878694867 0.121383832004989 0.457937665593769
-0.112779286603258 0.126651630963022 0.46359304851527
-0.107728320346789 0.127847185671539 0.467265984344826
-0.106103576194996 0.124850902808673 0.467862954165571
-0.0939896390753737 0.128849980882475 0.473347978067255
-0.0858265395884739 0.130574014256473 0.476370041226726
-0.0848865457504037 0.126213622000221 0.476710883074667
-0.0673674016275615 0.12950781011986 0.482508611051627
-0.0632047926707968 0.130080799677857 0.483750183515877
-0.0515112453098311 0.124998128930382 0.486894161829224
-0.0408619760632372 0.130572654687503 0.490217472254802
-0.0309171391581245 0.128610585191083 0.492514153066484
-0.0294105007056295 0.128635106816037 0.492798416883892
-0.012929572014152 0.133393742615271 0.496028140244868
0.000660024419073947 0.130927490246425 0.496778382645381
0.00125494589167273 0.131240588297509 0.496754510418039
0.0140330642726906 0.132547325953151 0.495811373072856
0.0359836829116491 0.126539444107966 0.491069301910752
0.0547008854928766 0.130599232304304 0.486352321173205
0.070804461666479 0.137033079718434 0.481632039029516
0.0962715313768024 0.139296567095639 0.472398351842078
-0.262536632527366 0.129787249393145 0.246159784183475
-0.258468613713267 0.124886615271207 0.262817391485486
-0.257146544460734 0.124373641790152 0.266243605023966
-0.254931416561238 0.125540772522483 0.271615665101755
-0.252364933542285 0.125194860350977 0.278148651601287
-0.24933273114452 0.12966054117249 0.284980670617645
-0.247736149709403 0.127155374444211 0.289461229083486
-0.24266244081524 0.12500785264346 0.302372625135451
-0.240221869060112 0.129079277909577 0.30805477381122
-0.236368546698006 0.126094887550533 0.317436004380488
-0.235133235409432 0.125191714102108 0.32040601082763
-0.233167283586283 0.13268125773907 0.324431498925207
-0.230492618294589 0.129432455960463 0.329190112067722
-0.22880874374629 0.126730258277838 0.332244266890144
-0.224217476663088 0.130143431833453 0.339614879328953
-0.220056596467663 0.129539103845888 0.346622745629962
-0.217320896575695 0.127609228352908 0.351366306264156
-0.212030572877434 0.126014186439358 0.360349783382691
-0.209179948846386 0.133333792954824 0.364464479366748
-0.205178503839424 0.132036583475307 0.371267372871159
-0.197956191117334 0.131878039484419 0.382686351197255
-0.19381708194542 0.127502915469524 0.38810933800101
-0.190528921008545 0.134662932604984 0.390876623188032
-0.185013446156518 0.129336902350604 0.39802989309104
-0.180806141599541 0.135473541348387 0.402008931669961
-0.179077592015534 0.131385519355236 0.404601187490156
-0.177816555642925 0.133598827299897 0.405739624706118
-0.17094657229164 0.135244393195702 0.413450143937415
-0.165922241610277 0.130268054337851 0.41943808686896
-0.15769214771758 0.137127853653173 0.428175033497752
-0.156572158373083 0.1374854021912 0.429082334043965
-0.150277954950454 0.131199478857232 0.434761094816567
-0.144033431080025 0.137563278992023 0.438901381229194
-0.135981327095277 0.135708702281916 0.445432739663134
-0.1326244597133 0.135761737496165 0.448057679012078
-0.12503045324704 0.131715735831064 0.454209897352293
-0.123019344461977 0.131482536640774 0.455714573595299
-0.11751451275804 0.136814686150343 0.459477532163207
-0.113231496268728 0.130003758446058 0.463058151058244
-0.107428234753461 0.130757665248485 0.467315053434075
-0.0951872316667009 0.139162926742874 0.472949517043869
-0.086373882003656 0.134322536564205 0.476173472739009
-0.0793001220809166 0.13436267099937 0.478789969973595
-0.0680004420631039 0.13733950559383 0.482545104913194
-0.0609587606024221 0.13901108959388 0.48491394125113
-0.0588806586254236 0.137768465631224 0.485478904916892
-0.040902201087961 0.133260582454552 0.49032092684063
-0.0323440683765814 0.133527650603808 0.492372910870887
-0.0291778564673426 0.135640379314899 0.49331255349019
-0.017831547042122 0.142219978830402 0.495993939499046
-0.00734150638951781 0.136677022035914 0.49691221947584
-0.00278085487317805 0.141062593503878 0.497554294080242
0.0151303381792928 0.144489693680781 0.496394242706351
0.0327131623930077 0.140608970654661 0.492777884768323
0.0510610188301211 0.14218652950314 0.487953315177083
0.0652402545014711 0.138620220822856 0.483493162405645
0.106975272733525 0.149864755821852 0.465800598261546
-0.260937748598936 0.136218029772597 0.251665383973166
-0.25786946594459 0.141486091468305 0.26130903855632
-0.25897607076546 0.137019397823521 0.259360555059421
-0.253051204005132 0.139016636930809 0.273904927344968
-0.253056724438007 0.133475663616821 0.274898697750194
-0.248250681741816 0.132948158854108 0.28711061687303
-0.246635593095769 0.136577207236874 0.290522256883015
-0.245190969222844 0.138760594885449 0.293767066285388
-0.240954984955244 0.142323501686398 0.303797987052694
-0.236411499017577 0.14048124067519 0.315587106144719
-0.235095663283915 0.139325382979069 0.319114520657544
-0.232837301356621 0.138802771386911 0.324032066347296
-0.231110627705944 0.140175919454261 0.326732869048031
-0.227082686755148 0.138822180702851 0.333974078250141
-0.22233804521707 0.142763204234219 0.341360833097868
-0.217294220123457 0.13441414711679 0.350806918272546
-0.215693800760815 0.134863500466743 0.353441874255648
-0.212777555590524 0.136960342220977 0.358129793804054
-0.207193349555832 0.138526289851657 0.367323892155046
-0.20724887281848 0.144593269550293 0.366692616898576
-0.198640810919161 0.136100712953833 0.381282467247593
-0.19644712357588 0.144031950944243 0.382671663861987
-0.190742777540891 0.141981475954184 0.389568932940527
-0.189903505379669 0.13876551532226 0.391005913525659
-0.181980853960007 0.136678702294249 0.400475137324003
-0.175952112455622 0.138924258678915 0.407125376171131
-0.173434866885846 0.14366893402575 0.409350587604308
-0.167108272569335 0.143920331088856 0.416634353694533
-0.164030498770738 0.141284945118249 0.420577284075777
-0.16212970351867 0.140257664813939 0.422925422859362
-0.156580729101425 0.142530442325699 0.428477562751149
-0.147852999060508 0.145896778958414 0.434919597988372
-0.144577302200655 0.140140606935696 0.438169552920481
-0.138263565295585 0.142783892262759 0.442805131156028
-0.133753966744316 0.14185962748409 0.446449472111897
-0.127329881658205 0.142168555746886 0.45144826624792
-0.123932037448281 0.13992678678827 0.454377357171248
-0.117203650301104 0.145097742135707 0.45903831518069
-0.114180673948523 0.141414048402456 0.461674840073652
-0.097690972797455 0.145657044264092 0.470901491373158
-0.0953711318817642 0.146994775744562 0.471876240723593
-0.0883122780530477 0.145758051138521 0.475508144930308
-0.0762951704233281 0.142095647787501 0.479913572077315
-0.0733363390618 0.150467549099049 0.481039353165383
-0.0641877438172932 0.143701055151553 0.484048423647438
-0.056929754263711 0.148158381522879 0.48652528585813
-0.0449642065533932 0.149510837327377 0.490149202396991
-0.0393426981904668 0.144046184664297 0.491331186778736
-0.0276210019772873 0.146458887658892 0.494347473168828
-0.0226290098274466 0.144206404111736 0.495219249734667
-0.0110136057556196 0.14542617120348 0.496602273609704
0.0122032456386867 0.155516653137268 0.495012586279773
0.0106279623813012 0.14588762386033 0.496566583236532
0.034054875515737 0.146864832853222 0.492897300855961
0.0449213958776443 0.153836653966052 0.490458335020165
0.0553719190332612 0.153823484727963 0.487349197577929
0.0845091189174211 0.152889428134714 0.476486302786267
-0.26167858225013 0.145562464559524 0.247479560229781
-0.256974100613003 0.150333005995248 0.261957336398339
-0.25582537816198 0.146898398348534 0.265477875878532
-0.251590316078113 0.145404261583943 0.276426151207903
-0.251313343496897 0.142323930714718 0.277684588653588
-0.247621926835327 0.151089190084078 0.285396554392983
-0.243314252499399 0.143983423039379 0.297548421612437
-0.241307264308628 0.148670646701839 0.301755595640498
-0.240725038366519 0.151020948284077 0.302795953163076
-0.238013779682184 0.148354607415089 0.310115913353245
-0.234376938935535 0.151283556616466 0.318751691386058
-0.230479811366805 0.148579130018634 0.3260881994648
-0.226685051025729 0.144257595366297 0.333539127043104
-0.225825108186496 0.151072979176333 0.333618295510782
-0.221578194674942 0.152440106031382 0.340676211523017
-0.219904828295867 0.15192256952354 0.343675235000025
-0.214329744759706 0.145360017167429 0.354665878973061
-0.211434045970105 0.153282298479496 0.358035024849412
-0.209450307601593 0.149171399384419 0.362312374574421
-0.203854139985019 0.146927864792275 0.372159148204819
-0.199925290080576 0.154006077232019 0.37716421971847
-0.19343338706351 0.153432343830299 0.384796859907359
-0.190391082859134 0.147811304162765 0.389131285988
-0.185798496277308 0.152798435272637 0.393722645960155
-0.180881561552796 0.149247286132121 0.399926245482169
-0.179292533397539 0.154557327539999 0.400995557534389
-0.175903937780542 0.1539967184802 0.404997548508075
-0.16480747288681 0.153934442440107 0.417845735892391
-0.166622025723429 0.150103399739868 0.416301215898336
-0.16020210652151 0.149973977804117 0.42374813332978
-0.153098843604859 0.15043412847781 0.429977742070761
-0.148598626166293 0.149689324721724 0.433780634604433
-0.146734194483532 0.149831852087495 0.435275755200282
-0.138301708857245 0.150387438943719 0.441873887103848
-0.13318937072228 0.153073439668804 0.445562704709362
-0.125980813451564 0.153706333179246 0.451137990947251
-0.121463078481503 0.156094861337921 0.454396001699055
-0.11100526005451 0.157430604691196 0.462434851027302
-0.104738788598053 0.159105732100653 0.465461522491235
-0.0989263323499712 0.156612944635112 0.468886501766758
-0.0901905340250273 0.152469380416459 0.47374093746772
-0.0875562797068774 0.155446408257796 0.474664855875477
-0.0825721577857572 0.158986475785249 0.476675517050678
-0.0703334275836641 0.151501085369272 0.482133453034235
-0.0645073851030324 0.159750272232066 0.484435017321337
-0.0555829368461086 0.157232553835212 0.487510047301659
-0.0533381380343119 0.157107545354723 0.488173025339989
-0.0362584901370473 0.155239382244412 0.492337209888842
-0.0278723419100182 0.162191863496046 0.492249160901687
-0.014360353006585 0.159531355344596 0.494225421673139
-0.0140201301899899 0.163275034996195 0.493688250920101
0.00276672993643249 0.161097867126593 0.494717641571146
0.0148368103946924 0.160894710413532 0.493963979069622
0.0414728826614525 0.161664550275864 0.490783420299395
0.0554459533684043 0.165798497068668 0.487807288746416
0.0629180247841292 0.167027134174394 0.485227942919488
0.106296367827031 0.166598164666425 0.463425293710865
-0.260498305241765 0.15700208331757 0.250733477600824
-0.257798329951304 0.153392372775167 0.259323082582762
-0.254857078260488 0.152824781340702 0.266841172060499
-0.254933598998757 0.156536324484571 0.265973278803827
-0.249008610632015 0.151249769561752 0.281871534974101
-0.248414589968975 0.158959637217198 0.281966930425944
-0.245208425082659 0.153274719415846 0.291083505946749
-0.240879954578549 0.158252738130034 0.30109022983644
-0.241204064567956 0.154446635801416 0.300965333589641
-0.236401429168801 0.15797621834629 0.31243083669166
-0.234090972474317 0.160066031527009 0.317475220003923
-0.230476784225335 0.155107868404076 0.324745494476577
-0.227553176994447 0.153710522614047 0.33008702573664
-0.223282364966708 0.154995193044504 0.337203271003909
-0.221415120093755 0.162171105042267 0.338948979972914
-0.21858555540141 0.156941760386852 0.344919134794315
-0.212891161279328 0.160743098459779 0.353976239395742
-0.210193539407159 0.162242118985306 0.358329197802405
-0.206812833388802 0.153584932127669 0.365959640169114
-0.203444004006887 0.163016958483878 0.369834818741658
-0.197122919984528 0.156953283360173 0.379839193259634
-0.196155909814662 0.156476177134797 0.381092957091574
-0.19145171915843 0.161681535723267 0.385526177504552
-0.186486075461184 0.161026461804284 0.39156702064212
-0.181436031833918 0.159202000569293 0.397842542311474
-0.175883423984874 0.158959576202521 0.404302307909324
-0.174597079235061 0.155707524425618 0.406261802434056
-0.171041602114119 0.156574161304562 0.410250116561521
-0.164472485555718 0.158890705648907 0.417515312272909
-0.160142775997572 0.161329285635926 0.422171722507968
-0.153508483241826 0.160038105894861 0.427931702002119
-0.147929809579704 0.161573017525015 0.432207751941266
-0.138857719698485 0.164315990082035 0.43911749463427
-0.138029785627451 0.166283809304812 0.439441937267041
-0.13095327617982 0.160241549918163 0.446290210411932
-0.127814247078241 0.162778951870606 0.448397922523569
-0.115649170520788 0.167030521204709 0.457561217753248
-0.113320896747263 0.163881309276805 0.459855091908671
-0.108851437910531 0.164115564960853 0.462506167674271
-0.0992650070245607 0.16117373771134 0.467963288200094
-0.0916072961060363 0.161980028056949 0.471805208910472
-0.0895293893734181 0.16010280333596 0.473108772055988
-0.0795639407819717 0.164563938564889 0.477457335961612
-0.0710274818169395 0.162717006654173 0.481893576746646
-0.0638695677642689 0.165806066778127 0.484854883868478
-0.0588525917506371 0.168003138975473 0.486684676487788
-0.0430594485765169 0.167728952920529 0.489729203699098
-0.0383189209082833 0.168200796501037 0.490151918179644
-0.0256793257886514 0.172352512281208 0.490926689594921
-0.0202153391346841 0.171962285411752 0.49163356400189
-0.00557170867289145 0.168060528068683 0.493678800403471
0.0101476930163515 0.169944246942503 0.493055599738391
0.0221784793099482 0.173137982441351 0.49121965348119
0.0419914180110752 0.175190288626687 0.488703582171271
0.0680302727116717 0.172816564356394 0.482102529458852
0.0566055311383551 0.168645431446245 0.487493114441276
-0.259832839496822 0.168404709688151 0.248426175450638
-0.257664216859192 0.162823153922805 0.257249888142575
-0.254150624532124 0.169236125391049 0.264189408254756
-0.25200579543134 0.167126482787351 0.270609687553291
-0.250120713053312 0.167037825231059 0.275612364759977
-0.245797946035681 0.167646136337507 0.286789976812653
-0.244987629183137 0.162716727113839 0.289922996577354
-0.243680779884435 0.168565114896118 0.292039287376162
-0.239937189057406 0.165854673607505 0.302084436319886
-0.236312300078861 0.169154335572178 0.310622665840852
-0.23288433576795 0.164322958851958 0.318681822957265
-0.230577152302854 0.165567847496399 0.32241243363578
-0.226852158270653 0.166385545279339 0.328681723574181
-0.222655635350836 0.168425844196095 0.335513562225342
-0.22022346724534 0.165385682102686 0.340344891307446
-0.216738333452982 0.164439693273671 0.346563751928297
-0.211657683006069 0.165639839729757 0.355097136792468
-0.210582126076327 0.164478079436226 0.357195940871201
-0.20851606991375 0.165542550419417 0.360547047282809
-0.204683977056091 0.163912646891377 0.367506778933252
-0.1995708949743 0.167945057892453 0.37449964341295
-0.193959524182467 0.169389361981409 0.380842483745542
-0.189883785418266 0.172224699683035 0.385054124421709
-0.186624338982167 0.172645476448362 0.388831016121695
-0.176818444045206 0.172906776976704 0.400415984261424
-0.176459732902821 0.173782623496262 0.400648025294541
-0.172372953246218 0.16552790731932 0.407327531424386
-0.167367698323959 0.174673991347534 0.411245943710018
-0.163095901584662 0.168033387175553 0.417783575874957
-0.157477308190239 0.170326513558273 0.422860984809612
-0.153134871555858 0.172671073574394 0.42598450434189
-0.145785780239378 0.174851196110894 0.431589396209149
-0.1420866120185 0.175257021910013 0.434533891597322
-0.135601584498273 0.17233950176833 0.440342783338379
-0.132417822938354 0.174369350767284 0.442577450807071
-0.120756317985646 0.172905812025568 0.452348809843705
-0.120371527769234 0.172406712847697 0.452751590478905
-0.109521273287764 0.171387228582521 0.460875694277621
-0.108525363931646 0.169111453702314 0.461856626929871
-0.0963368530460567 0.17755146507479 0.466719889205345
-0.0947562071673831 0.178085299444344 0.467462177111992
-0.0880422936818289 0.176015646981841 0.471355055597031
-0.0745842680989188 0.1707533100616 0.479133385019108
-0.0752001992666488 0.175545601084858 0.478096649248945
-0.0629771856991167 0.177286054694657 0.484030574980821
-0.0532444149809941 0.171720346312194 0.487900761780093
-0.0529964013871992 0.174745505775693 0.487432011573405
-0.0363998299196393 0.181937300454372 0.488273901979078
-0.0191931129761241 0.181785320353593 0.490226905240953
-0.0102087909835614 0.176622847211818 0.492057831717592
-0.00122589075534615 0.177192846837298 0.492545561219025
0.0124037755928708 0.181798033038834 0.491032622976459
0.0299667323049337 0.178258965312094 0.489554848807559
0.0418398032898782 0.185289958729514 0.487006916392369
0.0574830534751545 0.180467119152434 0.485576197534318
0.0875936179889852 0.184492671988379 0.470016345655266
-0.259951407148775 0.172998661546568 0.245828158697353
-0.256287334063708 0.170911321049114 0.257948047331492
-0.253626665352869 0.175993911252459 0.263120931716137
-0.250783214680784 0.172673088006253 0.271822431559387
-0.249162495748236 0.176748236449497 0.274618452829582
-0.247470951778127 0.170076769739839 0.281497413277766
-0.24533867832362 0.172302477335195 0.286312803235291
-0.240217459334917 0.177321176160449 0.297996764076838
-0.238807134464542 0.171471341581598 0.303836330529069
-0.237107654034935 0.175459846102006 0.306871440779464
-0.235135681614689 0.173545172061853 0.31276525031384
-0.228883610487896 0.179683209124274 0.321995667064588
-0.224335193036553 0.175588416766459 0.331131889944255
-0.2225268034074 0.17740259311213 0.333882871277642
-0.219723891626248 0.177442767554882 0.338719004476039
-0.214605953169732 0.177493852621644 0.347554073887401
-0.214681365057695 0.175330801940857 0.347870323305829
-0.210569765670458 0.179783811219147 0.354057250690326
-0.203344761708548 0.173510729719195 0.36783977877438
-0.200250450867786 0.176547645259532 0.371788626502698
-0.196806042917142 0.176805474589997 0.375821196067211
-0.193625797175057 0.174650397397759 0.380074209597435
-0.187236474868479 0.177174026048195 0.387101827119065
-0.182096636644137 0.177343933164672 0.393166888632892
-0.180297618161359 0.177401891939877 0.395290083286563
-0.177077122187647 0.182391359885626 0.398009459422402
-0.169212824962182 0.182510188562592 0.407320651466118
-0.161953438941375 0.179325178294602 0.416644912616036
-0.157366228016578 0.183323534168361 0.420022097161465
-0.161631152285301 0.175392486155818 0.417898064134549
-0.149204645447667 0.184758976499237 0.426495535696532
-0.146634178455268 0.181066544213333 0.429488304545054
-0.139455999514655 0.17701157303101 0.436366514767186
-0.133963371629335 0.184838090922517 0.439183106085422
-0.129314305972411 0.180166909738723 0.444075060631541
-0.124090294737767 0.185842004653237 0.447182648273721
-0.119770000319278 0.179236848870713 0.452024654273262
-0.106700116247581 0.183670697826524 0.459900907048402
-0.100138316414153 0.18251603165274 0.463666521282789
-0.101446187354139 0.18352460921557 0.46275798638852
-0.0907416741859042 0.182298517474612 0.468767520072243
-0.0809627423677207 0.188977435682112 0.472674575408921
-0.0753824993968139 0.185823661179428 0.476317691300898
-0.0713908059867707 0.18978751955646 0.477661352145242
-0.0656787547778846 0.183083200374022 0.481802603495449
-0.0523573198204802 0.184101880851296 0.485609777066871
-0.0390791198200766 0.189067501124707 0.48663947923152
-0.0325129197666532 0.186923735494749 0.487926321453728
-0.0260378956353432 0.185168065258437 0.488957293361767
-0.0109412398245273 0.184721051051216 0.49073487622818
-0.00301529800734275 0.19050137393401 0.490592252026606
0.00586509232968473 0.194646667083012 0.489768230704637
0.0274698760262254 0.195638681696257 0.487067402758165
0.0402264447798129 0.190523955244769 0.486151063836517
0.0567810431722582 0.195938182407047 0.482246284548514
0.0755906909393185 0.195486676251487 0.474244463300191
-0.259003376465278 0.185501641510561 0.244240337180751
-0.254165230494708 0.184464308025203 0.258629911931679
-0.252094278751632 0.185250375351012 0.26380555261082
-0.250194906093733 0.182956604315181 0.269645374817499
-0.246109615784883 0.187573112376742 0.278743641277284
-0.247135319910155 0.179851074952306 0.278838720064672
-0.241431437413003 0.184385135217832 0.292234738234982
-0.23889506746366 0.186228313666148 0.298254325027211
-0.238669937635402 0.180189118841207 0.301037453789914
-0.234025239039134 0.185995637466424 0.310856825020493
-0.229979196680316 0.187798633709028 0.317462598638032
-0.229081810955743 0.185068603216552 0.319926088033609
-0.225851858885743 0.183188654616988 0.326258243357307
-0.221027842118802 0.1819170619261 0.335225482070636
-0.219311118050995 0.184635992432093 0.337405036699369
-0.214315983512246 0.18835936376578 0.345082697779312
-0.209336625661581 0.188407963083676 0.353904524488371
-0.207515121857081 0.186767342672368 0.357660635817569
-0.206080744100049 0.184811682967722 0.360777810434772
-0.200038048844596 0.188282886883454 0.369398490596618
-0.200626408208381 0.183262012213719 0.369856033400597
-0.191620856131762 0.184853215383374 0.380196361947588
-0.188390617422671 0.18923454133191 0.38306191664238
-0.186165072764671 0.184676891094392 0.386713191216992
-0.175446947250458 0.187295293977729 0.39885953674788
-0.175063398444017 0.185391041664716 0.399736436293436
-0.170363609835253 0.188381481122813 0.404654696967548
-0.165158350112841 0.187954794239388 0.410929489832142
-0.158125332407084 0.18557030223116 0.418872118282143
-0.154527200984717 0.189013958567613 0.421079020926385
-0.15272324820972 0.191901122266444 0.421918311578152
-0.142560008420691 0.187974283802636 0.431294697276356
-0.135706083745844 0.195351730817495 0.435310296556244
-0.132226703911104 0.189843673539222 0.439478691347447
-0.127953163819328 0.193051958608176 0.442302820996813
-0.123088241679797 0.193026636030753 0.446364257849258
-0.112205287258579 0.18979556250415 0.455617947224431
-0.111227020193853 0.191620401869958 0.455722370327118
-0.104803262560416 0.18929346822748 0.459780532072075
-0.0982451401566533 0.196775911869146 0.461621519928891
-0.0919483007638606 0.190073171676759 0.466540252267716
-0.0816424853247902 0.197778239118741 0.470489936356506
-0.0752707585023488 0.195316608634275 0.474451171454924
-0.0724698880998723 0.195460837457964 0.475929202580997
-0.0594198888480287 0.200808549632664 0.480654730268185
-0.0444541974911801 0.201070076742224 0.483107088579517
-0.0455170578557838 0.198455792020967 0.483545110069963
-0.0392421013541493 0.195301197589137 0.48527662210669
-0.017440979642588 0.197518977064231 0.4880204148179
-0.00677096449164259 0.198358084888825 0.4891107665491
-0.000359277370483814 0.203868331155831 0.488792656068218
0.0227777634848986 0.205319735087654 0.485725397093251
0.0310165115676125 0.205350171793536 0.484355258646974
0.0569380771671267 0.207391367828005 0.479480999370608
0.082637359150049 0.208317301568159 0.467448693605961
0.111285437050311 0.203276693843862 0.452930207557977
-0.257081301050654 0.196409444427817 0.246610181747206
-0.254390887790726 0.187649873933223 0.256879976663285
-0.249613566455541 0.195478277170298 0.266638497986723
-0.248726755734407 0.187856938270819 0.271739936050453
-0.246204645619545 0.191665646323398 0.277009319350234
-0.244147408544434 0.196597508502983 0.280645737977609
-0.244320872775802 0.189570548524912 0.282735979325878
-0.236840858742655 0.195003895946124 0.300489216309853
-0.236152514096642 0.191125059171244 0.303710498734663
-0.231642679935312 0.193848520652634 0.312580488565595
-0.230872096524101 0.189742397710528 0.315257871299235
-0.229366454837565 0.189936587063155 0.317868131567496
-0.223818945798493 0.196876187765257 0.325500241320109
-0.223701267181576 0.195410367678893 0.326176658676266
-0.218403706746277 0.197646097820025 0.334865585685249
-0.215007835109157 0.190526527900109 0.343163530036644
-0.211304385707473 0.192993164264244 0.348949586505452
-0.206440475587293 0.199712653945408 0.355438660026209
-0.206030331797842 0.191863922860899 0.358670141207365
-0.198491627895318 0.194776573412879 0.369359332455889
-0.196169664294872 0.199555174088203 0.370758429045155
-0.19321117409954 0.194516219361551 0.375804066478205
-0.18508100992491 0.196848071486296 0.384925507552645
-0.180933195611631 0.201233854397732 0.38864182457387
-0.181173260290681 0.199403023861337 0.388889166460116
-0.175059291850506 0.200308824545821 0.395997184909569
-0.168926423642966 0.193805323113464 0.405160553153513
-0.162300475339542 0.201642716476703 0.41099356093472
-0.157888991640463 0.195453113891871 0.416794335133909
-0.154542045630062 0.195417154154911 0.4195927702965
-0.143474708038843 0.203252243678707 0.426915906162455
-0.142675210375271 0.195696907149674 0.429421081085252
-0.137158331993089 0.197788268563758 0.433538802344221
-0.132839947322862 0.204641199945755 0.435483858779851
-0.123170056243691 0.197597093085073 0.445244034519807
-0.120159582427662 0.205569674008939 0.445902553578132
-0.112743584963979 0.19883642764353 0.453181901550671
-0.107067961333564 0.201213619885353 0.455731806269941
-0.103211410333621 0.199708858900362 0.458203256845264
-0.0921555068107198 0.207226331973523 0.462486803870643
-0.0867380480310843 0.206367076807642 0.465661486200961
-0.0792874062565858 0.20433065522546 0.470230016961591
-0.0743315349978612 0.20787439372029 0.472108941798256
-0.0658131109589758 0.204856122160065 0.477495595344613
-0.0569154261658571 0.208663066882702 0.479172069440139
-0.0440430640747273 0.21151832137253 0.480659554260785
-0.0415897920632097 0.209370765381703 0.48160513666629
-0.0315189297777419 0.205821831366974 0.484159708136016
-0.0169633357485686 0.212421955439033 0.485043990977416
0.236575641725598 0.229011950085215 0.28546152008179
-0.00544971364789092 0.207645902426408 0.487837602808569
0.0169812978817949 0.213580029755603 0.484756011544245
0.0459088696108692 0.217447992382645 0.478844734998865
0.055530613517891 0.214869447752729 0.477862690807714
0.0705034761802193 0.210632506989012 0.473555308977024
-0.256270064179791 0.197066088556015 0.24851116265767
-0.254841720931203 0.199941040533133 0.251235064622356
-0.252933904456709 0.201613335457408 0.255659252454152
-0.247615461118221 0.202781084894666 0.269259412385533
-0.245948468553026 0.203670340689507 0.273332493378338
-0.241756572707309 0.201471194151674 0.285182872748159
-0.239455342463614 0.203936354671721 0.290356949656911
-0.240428970216063 0.204340663021693 0.287643132103515
-0.236628486692834 0.198809936526831 0.29966931166585
-0.234450281365246 0.201924215174545 0.304283661756524
-0.227868730320135 0.207345694994171 0.314973185712861
-0.225615932520946 0.20666039694955 0.319190029141286
-0.223754263621552 0.20485950290003 0.323068548721101
-0.218955144077996 0.200642144509223 0.332931230106317
-0.217562042182422 0.20772832973396 0.333143370711226
-0.213977082113541 0.201950540015622 0.34134891148405
-0.209167045532467 0.203979167206188 0.349238645616562
-0.205238927856871 0.207552589534137 0.355070403000271
-0.198230963621666 0.20855836988179 0.365632369117085
-0.199371864362543 0.207526461914432 0.364559001550168
-0.190579263551501 0.20643495222494 0.375483217734158
-0.185363245355372 0.206502292423502 0.381754148381751
-0.184355401914441 0.208424276631817 0.382406041508821
-0.177832519536911 0.204833654968831 0.391325739981354
-0.17406857609815 0.2100550070871 0.394334077208139
-0.167532756998806 0.209301154702019 0.402437532098107
-0.168277741833443 0.20508850203987 0.402774363186326
-0.160434438303293 0.210584689633966 0.410592712440506
-0.160318203620763 0.204577587631261 0.41236389308804
-0.153230151755449 0.208443947722031 0.417255296009755
-0.150112196324326 0.207209184905539 0.420224676261117
-0.141602921400655 0.205377493103613 0.427900019842625
-0.135616532340829 0.21410198178889 0.43051052802109
-0.130381951401311 0.206058608245523 0.437158754382504
-0.125581332372808 0.209415125286572 0.440266075366862
-0.122448986231205 0.208252755222831 0.443227407771005
-0.1096672277219 0.212606318833088 0.451431822005232
-0.105296656880659 0.211230792144659 0.454214493555827
-0.103415186882049 0.210234866629425 0.455520693969602
-0.0963293995249274 0.218076569760663 0.457330722729262
-0.0849727721614913 0.209872123192379 0.465799684367526
-0.0790230465617102 0.213129923828901 0.468215266145468
-0.0726779846122606 0.216500450500734 0.470815439864334
-0.0702366095560421 0.212034215736231 0.473361640064161
-0.0568444298589161 0.213098918810401 0.478090854727604
-0.0477974964975249 0.220590933546128 0.477720097499259
-0.0400476444080173 0.222176197512968 0.4786156791977
-0.0206686686497542 0.217457410758471 0.483146497555293
-0.0230654867215981 0.214298652955531 0.483543998154032
-0.00280055841074408 0.223248630368674 0.484187302396446
0.00759531817234859 0.224179259322451 0.483270373954444
0.0126647474738397 0.218791481372753 0.484143173134459
0.0377573368097627 0.222433734082455 0.478935189547189
0.0512231879551631 0.223721664339 0.476314218016309
0.0709346133660073 0.220312083942538 0.470755865837063
0.11053248525566 0.223969254978194 0.447906175123438
-0.256616210019261 0.212826997127092 0.238560719958787
-0.251840983657595 0.208971487058775 0.254776528365663
-0.248722500277707 0.206959728761843 0.264513289549883
-0.247077228553351 0.211603713814241 0.266361615724734
-0.244412619176195 0.206889979523225 0.276214898244608
-0.243566592146125 0.215690912201369 0.273661426269153
-0.241129048797805 0.209084621360459 0.284077259783859
-0.237158771918236 0.216610842613052 0.29075538495763
-0.235166527136306 0.212918574243355 0.298363185948727
-0.230933129872592 0.209550958687499 0.308831083939009
-0.226702596176048 0.217074964285421 0.313594978182439
-0.222736407241875 0.214732848954204 0.321725667407645
-0.221268543471662 0.214748908453442 0.324325698940232
-0.218297448300818 0.216958992547145 0.328893812500632
-0.215324270766598 0.215108549502214 0.334760834633055
-0.210832184915124 0.217931473391066 0.341832910086346
-0.209041535370453 0.210938057562342 0.347241677539972
-0.206371219337876 0.210966537516357 0.351971850926347
-0.201106517338099 0.212118732879352 0.360948083169424
-0.199645320050021 0.211990196699622 0.362920273516578
-0.189750397677579 0.21564036595007 0.37378348755122
-0.186839126095198 0.218421379479069 0.37647907399686
-0.185814652751747 0.21182107142819 0.379650074563954
-0.179636841992136 0.217354779058794 0.385478015330838
-0.172342418081174 0.218767119236927 0.39386116302595
-0.169775861328082 0.220864350210531 0.396341523190577
-0.164823799168444 0.215818669654098 0.403793441574552
-0.161838566883618 0.218107799140857 0.406722465479192
-0.154934450450024 0.219551335907571 0.412726199070199
-0.147886799391146 0.221901182778189 0.418006015024864
-0.143517862829181 0.221549357561015 0.421782820145204
-0.138222098104045 0.217950758538436 0.427244452376483
-0.13182557944533 0.219509233592712 0.432196431694818
-0.131163833684278 0.221791112294203 0.432118017380509
-0.119240775255267 0.224345394954379 0.441446156036136
-0.117388100741628 0.220729932766214 0.444013279148749
-0.116547903010219 0.222961843950365 0.444099046534613
-0.103318844968709 0.219349592590546 0.453129216447372
-0.0987557997711385 0.218708499751899 0.455821201523161
-0.0903521857914278 0.225524369167048 0.458598661644339
-0.081998713322522 0.222897608451902 0.463952076681898
-0.0777597251434053 0.219772665249741 0.467131294539836
-0.0653390131146048 0.227216626015351 0.471855216626424
-0.0604331116894974 0.225008593053729 0.474414083731641
-0.0527836353689999 0.227507325297202 0.475047381901608
-0.0498389734931472 0.230521298174943 0.4747363085921
-0.0351563451458932 0.231200949075939 0.476988593564302
-0.0244342366925572 0.230683217665002 0.4788632912818
-0.0175596204853269 0.224440413010207 0.481756275037715
0.00198790234459489 0.230733636755998 0.481529264974937
0.011046780755927 0.227756290761851 0.481625181631483
0.0281464255741713 0.227536945103342 0.479162818564557
0.0462230268883072 0.229341833760249 0.475661904855322
0.0563196533046086 0.238564926539481 0.47144497366549
