ply
format ascii 1.0
element vertex 825
property float x
property float y
property float z
end_header
-0.202608892443854 -0.00825287914096271 0.0325027510952067
-0.210006420014868 -0.0184769966542705 0.0325027510952067
-0.222146729458132 -0.0306003992110642 0.0325027510952067
-0.22576874276156 -0.0385767915917884 0.0325027510952071
-0.243800226608799 -0.0528294980540895 0.0325027510952067
-0.253479486632682 -0.0512769433354691 0.0325027510952071
-0.260236638844051 -0.0639605551515545 0.0325027510952064
-0.274611280542008 -0.0661034909911939 0.0325027510952067
-0.279418643143138 -0.0715361904571272 0.0325027510952067
-0.281157359275064 -0.0885167900836251 0.0325027510952067
-0.290211548271767 -0.0959303290996697 0.0325027510952064
-0.142408447167619 0.0348891072218991 0.0325027510952067
-0.1482242140554 0.0312651867999701 0.0325027510952064
-0.158746223083656 0.0246983581830757 0.0325027510952064
-0.157982431065918 0.016756573109034 0.0325027510952067
-0.164989505809421 0.014896409045477 0.0325027510952064
-0.172370325545844 -0.00046761974788262 0.0325027510952071
-0.175239608457755 -0.00330767462245501 0.0325027510952067
-0.194273966909554 -0.0206294794334731 0.0325027510952071
-0.19637198240819 -0.027551512387561 0.0325027510952067
-0.209875554027363 -0.0334236673241797 0.0325027510952067
-0.220181715648306 -0.0405575815874547 0.0325027510952067
-0.228254870392958 -0.0504783062696617 0.0325027510952064
-0.236915026749594 -0.0551763568505132 0.0325027510952071
-0.241151900025294 -0.0569863020190711 0.0325027510952067
-0.251375747389949 -0.0675327662429699 0.0325027510952067
-0.253535458969224 -0.0690900879557305 0.0325027510952067
-0.269439421678253 -0.0857975690540368 0.0325027510952067
-0.284835659248367 -0.100761375368549 0.0325027510952067
-0.284862731930607 -0.0942125334647318 0.0325027510952067
-0.289737277788539 -0.101531519698768 0.0325027510952071
-0.111498867123777 0.0471048671688705 0.0325027510952064
-0.123787710043794 0.0412366976780702 0.0325027510952064
-0.131249331851886 0.0237212113361515 0.0325027510952067
-0.139882255352314 0.0193597608237549 0.0325027510952064
-0.144801638669636 0.0141282104107863 0.0325027510952064
-0.153725452380835 0.00644977992101486 0.0325027510952067
-0.159835565308972 0.0074649668409176 0.0325027510952067
-0.170718935605086 -0.0116777593050639 0.0325027510952067
-0.176804565194324 -0.0191328215964284 0.0325027510952067
-0.188292291731204 -0.0266571641465977 0.0325027510952071
-0.196693009471086 -0.0329208502906627 0.0325027510952067
-0.196761669577838 -0.0379042662334408 0.0325027510952067
-0.215122862865237 -0.0508440122063009 0.0325027510952067
-0.221550253778291 -0.0486494430078995 0.0325027510952064
-0.230384817877221 -0.0615027858243726 0.0325027510952067
-0.236568696280545 -0.0691266204725383 0.0325027510952067
-0.246744624339948 -0.074291773198082 0.0325027510952067
-0.252407679584431 -0.0872780692120538 0.0325027510952064
-0.253355061762433 -0.0873480810430766 0.0325027510952067
-0.271619762787453 -0.102790080626707 0.0325027510952067
-0.275890494748051 -0.109461217662455 0.0325027510952067
-0.288165889447909 -0.11778327942538 0.0325027510952067
-0.0943043417363437 0.0455652217317488 0.0325027510952067
-0.0996610578252801 0.0446254504707076 0.0325027510952067
-0.106421084399549 0.0347442269748288 0.0325027510952067
-0.108514116716014 0.0362648453446882 0.0325027510952067
-0.123954870855359 0.0176152529124716 0.0325027510952067
-0.12584809174958 0.0120841246901846 0.0325027510952067
-0.137559055208275 0.0100492167828443 0.0325027510952067
-0.147424688496891 0.00394131063759753 0.0325027510952067
-0.159649423693807 -0.0131699348868029 0.0325027510952067
-0.166390016827477 -0.0131359491701009 0.0325027510952067
-0.17232959427716 -0.0231207905017023 0.0325027510952064
-0.174822954406361 -0.0327604641419908 0.0325027510952071
-0.185540467910757 -0.0419976443671694 0.0325027510952071
-0.197249678538546 -0.0380593557978624 0.0325027510952067
-0.205321366142062 -0.0563444860625163 0.0325027510952067
-0.208240395622305 -0.0543584680244678 0.0325027510952067
-0.214352636305093 -0.0648875357564423 0.0325027510952067
-0.221986635958543 -0.0780009818770082 0.0325027510952067
-0.232948967928993 -0.0812697895364532 0.0325027510952064
-0.252809647273187 -0.0993000111191282 0.0325027510952067
-0.252352089635161 -0.0966900825116321 0.0325027510952067
-0.257261603776117 -0.107281746393922 0.0325027510952067
-0.267940896231524 -0.111965774892164 0.0325027510952067
-0.276413307175393 -0.120112186643439 0.0325027510952064
-0.293206606354839 -0.128538267391229 0.0325027510952067
-0.296837467779974 -0.1412243508915 0.0325027510952067
-0.0843308093345189 0.0480202495936547 0.0325027510952067
-0.0869030571374537 0.0414045289338169 0.0325027510952067
-0.0987622801858429 0.0353529055054633 0.0325027510952067
-0.103743666934502 0.0265973880569083 0.0325027510952067
-0.112013056800482 0.01641286608199 0.0325027510952064
-0.114149928417501 0.0148549663574183 0.0325027510952067
-0.132134171553997 -0.00408525819087751 0.0325027510952067
-0.135247278874972 -0.00749955264618142 0.0325027510952067
-0.143015696046084 -0.00908483867033913 0.0325027510952064
-0.158218548333472 -0.0187646113610063 0.0325027510952064
-0.167067240289597 -0.027397833930151 0.0325027510952067
-0.166704031897166 -0.0381567306256088 0.0325027510952064
-0.180385176713316 -0.0490013278497869 0.0325027510952067
-0.192504135664719 -0.0575288354942098 0.0325027510952071
-0.197166767271469 -0.0604420911570572 0.0325027510952067
-0.200171478629394 -0.0652048483804347 0.0325027510952067
-0.207501288981044 -0.0796373577266016 0.0325027510952067
-0.217456691066732 -0.0808002460765137 0.0325027510952067
-0.220108007197235 -0.0893122421530811 0.0325027510952071
-0.23183933526936 -0.0986884089777765 0.0325027510952067
-0.23979931940627 -0.102743542342564 0.0325027510952067
-0.251235211961457 -0.121760808831614 0.0325027510952067
-0.263136166101083 -0.115707992616663 0.0325027510952071
-0.271912891763023 -0.131451724093271 0.0325027510952067
-0.275103381131394 -0.13463666519088 0.0325027510952067
-0.289988111039903 -0.145262546791479 0.0325027510952067
-0.298351703270339 -0.163522453444972 0.0325027510952067
-0.301270600085826 -0.168739405319174 0.0325027510952067
-0.0592286496883674 0.0504412332291814 0.0325027510952067
-0.0641793069547449 0.046891327355015 0.0325027510952067
-0.0635219259960581 0.0508290389444094 0.0325027510952071
-0.0734446943315479 0.0434763701045876 0.0325027510952067
-0.0882155231171796 0.0262120099076369 0.0325027510952067
-0.0923267863186443 0.023565620264705 0.0325027510952064
-0.0927222173819107 0.017875026088838 0.0325027510952071
-0.109784488134469 0.00295466072708617 0.0325027510952067
-0.113613986946608 0.00131219859339527 0.0325027510952064
-0.127137751903615 -0.000975803047971047 0.0325027510952071
-0.131986836987902 -0.0172923672342683 0.0325027510952067
-0.139318659776005 -0.0241403654093917 0.0325027510952067
-0.14650103507247 -0.0325176244610733 0.0325027510952067
-0.157436972882098 -0.0340501953884886 0.0325027510952067
-0.157150569968685 -0.0424439465223578 0.0325027510952067
-0.174212190517665 -0.0509271308727677 0.0325027510952067
-0.181763298849111 -0.0642868177733252 0.0325027510952071
-0.185345310826083 -0.0729226436110081 0.0325027510952071
-0.190967877349393 -0.0743187587248394 0.0325027510952067
-0.195877336170215 -0.0820983666671688 0.0325027510952067
-0.211935279167451 -0.0904875123097906 0.0325027510952071
-0.22459894573611 -0.0970312547269115 0.0325027510952067
-0.228296443397255 -0.106664526702252 0.0325027510952067
-0.23499099358706 -0.11182856269997 0.0325027510952067
-0.246231200586615 -0.115325708435806 0.0325027510952067
-0.248568539030275 -0.125876262130524 0.0325027510952067
-0.26267806231896 -0.138843386842639 0.0325027510952071
-0.27398259155938 -0.146465677210887 0.0325027510952064
-0.281623272564492 -0.155414524950825 0.0325027510952067
-0.2886933121786 -0.166058751681865 0.0325027510952067
-0.301864829014311 -0.175647370748793 0.0325027510952067
-0.309361802031133 -0.183747696289518 0.0325027510952067
-0.0370874419361695 0.0557637772350872 0.0325027510952071
-0.0532119448752905 0.0526715003271113 0.0325027510952067
-0.0551134596947449 0.0518192430272227 0.0325027510952064
-0.0655709613065958 0.037527760353094 0.0325027510952067
-0.0737980821347851 0.0326024393360449 0.0325027510952067
-0.0731951936038665 0.0247981102308477 0.0325027510952067
-0.0834565551097956 0.0224968953446651 0.0325027510952067
-0.0951820649638038 0.0128661571904933 0.0325027510952064
-0.103389191014047 0.00266502607004149 0.0325027510952071
-0.108786270176886 -0.00769583604056979 0.0325027510952067
-0.120722502372692 -0.0138226670111302 0.0325027510952067
-0.125235478642912 -0.0200991048845507 0.0325027510952067
-0.139386905695346 -0.0335650501214028 0.0325027510952067
-0.141346933728393 -0.0339008462917484 0.0325027510952067
-0.147101558321165 -0.0423717477068817 0.0325027510952067
-0.158265024252147 -0.0510605358815542 0.0325027510952067
-0.165365227461749 -0.0591729066577829 0.0325027510952064
-0.172903168643606 -0.0635171660884977 0.0325027510952067
-0.179478473291674 -0.0767303238339165 0.0325027510952067
-0.183760745352022 -0.0840944220390728 0.0325027510952067
-0.196908815616981 -0.0869801683206993 0.0325027510952067
-0.205788801696762 -0.0905366025517039 0.0325027510952067
-0.210910656137495 -0.10631804419841 0.0325027510952067
-0.221438783074401 -0.114454201941958 0.0325027510952067
-0.231122332979985 -0.121610814725554 0.0325027510952067
-0.236250074160484 -0.133411043481356 0.0325027510952067
-0.245265062515763 -0.144551502689398 0.0325027510952067
-0.255316600332697 -0.149526053786215 0.0325027510952071
-0.263910950101521 -0.157342166218893 0.0325027510952067
-0.266219799682225 -0.161869305190646 0.0325027510952067
-0.284174238847316 -0.171130293481774 0.0325027510952064
-0.288071731360657 -0.186336061057728 0.0325027510952067
-0.297348096821869 -0.184824038382213 0.0325027510952067
-0.0336322261905201 0.0510289216234641 0.0325027510952064
-0.0408262243237557 0.0446997289543242 0.0325027510952067
-0.0488329376578505 0.0339037374688107 0.0325027510952064
-0.0482291605704444 0.0298567359580346 0.0325027510952067
-0.0702315267065587 0.0184713596266105 0.0325027510952064
-0.0695855157293393 0.0164393714697515 0.0325027510952067
-0.0731827420671904 0.00643936328389729 0.0325027510952067
-0.0777856999368874 0.00657661186993476 0.0325027510952067
-0.0934368634421774 -0.000283091042993053 0.0325027510952067
-0.103674526500099 -0.0173381948562121 0.0325027510952067
-0.10947815700938 -0.0204941139239105 0.0325027510952071
-0.120572265744444 -0.0270429264374176 0.0325027510952067
-0.118347659093368 -0.03410828167898 0.0325027510952067
-0.129759030891172 -0.0410469818597292 0.0325027510952071
-0.144071742482795 -0.0587190255167798 0.0325027510952067
-0.152903980953893 -0.0595286456053038 0.0325027510952064
-0.162672683097872 -0.0648039517829283 0.0325027510952064
-0.165016427605616 -0.0767393519227632 0.0325027510952071
-0.179572422467087 -0.0855500517090979 0.0325027510952067
-0.176895485573497 -0.0843110812920098 0.0325027510952067
-0.191263035123503 -0.0981579105285811 0.0325027510952067
-0.190186656738651 -0.106650458897598 0.0325027510952071
-0.198425951165597 -0.108728610023731 0.0325027510952071
-0.20792781755975 -0.125238258762195 0.0325027510952071
-0.224499252573063 -0.136614511875842 0.0325027510952067
-0.226837942129784 -0.134845390652437 0.0325027510952067
-0.241869028407319 -0.151381433219298 0.0325027510952067
-0.251413298829746 -0.159999444086917 0.0325027510952067
-0.251587609023628 -0.163062855230259 0.0325027510952067
-0.264865007175451 -0.171623843980625 0.0325027510952067
-0.271895743390081 -0.179776489444487 0.0325027510952067
-0.282901428271225 -0.188414030745667 0.0325027510952067
-0.290549353866896 -0.195057017183559 0.0325027510952067
-0.296786884724862 -0.201187332083321 0.0325027510952067
-0.00773579804251106 0.0551082882545707 0.0291871757148249
-0.0226825495959459 0.0559505229551059 0.027033532640062
-0.0203465133043218 0.0524576062494925 0.0325027510952064
-0.026520208500847 0.0423544898372852 0.0325027510952071
-0.0346765220453958 0.0293939822423847 0.0325027510952071
-0.0434140678468757 0.0293615454852204 0.0325027510952071
-0.047263046872066 0.0273764602200704 0.0325027510952067
-0.0568308175354436 0.0182438086911439 0.0325027510952067
-0.060678866111139 0.00957382612537939 0.0325027510952071
-0.064888698186412 -0.000866105414291835 0.0325027510952064
-0.0819514066584184 -0.0112046176560482 0.0325027510952067
-0.0895211618171966 -0.00991432802238444 0.0325027510952067
-0.0955767295713869 -0.0262594974708327 0.0325027510952071
-0.100317702531727 -0.0287127456037649 0.0325027510952067
-0.109545174271867 -0.0411001023053484 0.0325027510952067
-0.115013150868027 -0.0488318992987253 0.0325027510952067
-0.126762669069123 -0.052934651726239 0.0325027510952071
-0.132823782802661 -0.0606286902101618 0.0325027510952067
-0.140758497996048 -0.0671060668931986 0.0325027510952067
-0.151891316134986 -0.0770903286441991 0.0325027510952071
-0.157510100419841 -0.0849550048251079 0.0325027510952067
-0.162547156519356 -0.0942347515059683 0.0325027510952071
-0.16775144531645 -0.0910744868546483 0.0325027510952067
-0.178558732512712 -0.10453364095346 0.0325027510952067
-0.184467329700632 -0.117597644076306 0.0325027510952064
-0.202164084852121 -0.12636322606407 0.0325027510952071
-0.199506371400699 -0.132477627594323 0.0325027510952067
-0.209811048391359 -0.132160469599064 0.0325027510952067
-0.225064704656617 -0.150378432347256 0.0325027510952067
-0.226604379486877 -0.150664054864852 0.0325027510952071
-0.241290924634108 -0.161822587109007 0.0325027510952067
-0.2518764940006 -0.172134327611768 0.0325027510952067
-0.25978180851958 -0.176188138316385 0.0325027510952064
-0.264490965064958 -0.186450287509199 0.0325027510952067
-0.270124957794322 -0.197857719786355 0.0325027510952067
-0.289362488633263 -0.205969521166061 0.0325027510952067
-0.295648037033255 -0.216267269449892 0.0325027510952071
-0.300893286170337 -0.229898050195827 0.0325027510952067
0.0061906433405382 0.0531611441213942 0.0325027510952067
-0.012223467444944 0.0504889505836645 0.0325027510952067
-0.00684255287846337 0.0490321136616056 0.0325027510952071
-0.0213947078804399 0.0323031264362527 0.0325027510952067
-0.0258484362781876 0.0255576282712285 0.0325027510952071
-0.0325060322020644 0.0245827299381218 0.0325027510952067
-0.0399176377760888 0.0100106999984757 0.0325027510952064
-0.0412580387444539 0.0140121810027595 0.0325027510952071
-0.0565287528735022 0.00372763318619574 0.0325027510952067
-0.0598857007263511 -0.00351358469496815 0.0325027510952067
-0.0737200016288506 -0.0148643605793315 0.0325027510952067
-0.079654529589877 -0.0238030604102311 0.0325027510952067
-0.0923193694770643 -0.035148716541628 0.0325027510952067
-0.0933415854259143 -0.0308677819884351 0.0325027510952067
-0.102818969107084 -0.046153072076843 0.0325027510952067
-0.106586617953449 -0.0451453716570598 0.0325027510952067
-0.119528462476929 -0.0596938941236021 0.0325027510952071
-0.128739782660969 -0.0646251263526037 0.0325027510952067
-0.136022511719793 -0.0683332315132466 0.0325027510952064
-0.139087066749484 -0.0760629046809077 0.0325027510952064
-0.150579543989699 -0.0897088733670444 0.0325027510952067
-0.157898996125732 -0.0911782903931214 0.0325027510952067
-0.170527163502022 -0.113904749262527 0.0325027510952067
-0.172683281541128 -0.109363705997222 0.0325027510952071
-0.180996592627447 -0.11791666360731 0.0325027510952067
-0.188775608049193 -0.132483350218897 0.0325027510952067
-0.193745447720181 -0.130809134762469 0.0325027510952067
-0.202203862921935 -0.148086966486577 0.0325027510952071
-0.214303329417103 -0.156455635395058 0.0325027510952064
-0.220591561038814 -0.165937450270838 0.0325027510952067
-0.228207865343377 -0.171014685435592 0.0325027510952067
-0.239135340693541 -0.178741766345324 0.0325027510952067
-0.250098559416298 -0.190194192057712 0.0325027510952067
-0.26149744162543 -0.198536410079425 0.0325027510952071
-0.272587757740455 -0.203733586905629 0.0325027510952071
-0.277386754895753 -0.2196573588885 0.0325027510952067
-0.280878597724956 -0.219135198421204 0.0325027510952064
-0.297431134377725 -0.227010493730183 0.0325027510952067
-0.309454408455317 -0.243400364112151 0.0325027510952067
0.00537036544324262 0.0461418779276088 0.0325027510952067
0.00108552760975114 0.0464418397670148 0.0325027510952064
-0.00762999448341231 0.0337712689571006 0.0325027510952064
-0.01055436203445 0.0295859364841914 0.0325027510952067
-0.0259428775921498 0.0154865867404972 0.0325027510952067
-0.0215215973620232 0.0212192759721095 0.0325027510952067
-0.0361581143632143 0.0105151422866547 0.0325027510952071
-0.0403705253004045 -0.00162975998312357 0.0325027510952064
-0.0506128118620985 -0.00763943484354804 0.0325027510952067
-0.0616846427946637 -0.0124723547022024 0.0325027510952067
-0.0600713461180145 -0.0186828833267332 0.0325027510952067
-0.0716912701143053 -0.0267307590949083 0.0325027510952067
-0.0759386643138207 -0.0384387712128761 0.0325027510952067
-0.0858662871277459 -0.0383460227005505 0.0325027510952067
-0.0875577242445484 -0.0458251221745297 0.0325027510952067
-0.109710867804508 -0.0611906913081368 0.0325027510952067
-0.110815751584848 -0.0734903784858057 0.0325027510952071
-0.11285854422722 -0.0763375554166429 0.0325027510952067
-0.129665584411724 -0.0874826941222527 0.0325027510952067
-0.131918405349037 -0.0944571193073757 0.0325027510952071
-0.145867436157044 -0.0993559241036999 0.0325027510952067
-0.157087714096771 -0.108547047312125 0.0325027510952067
-0.153756136387943 -0.118222389749646 0.0325027510952071
-0.16636330033638 -0.124200423024901 0.0325027510952071
-0.171531661087663 -0.125420115522741 0.0325027510952071
-0.189133148762041 -0.138346002514425 0.0325027510952067
-0.192824749034486 -0.138031503512293 0.0325027510952071
-0.199913618991124 -0.148655241768653 0.0325027510952067
-0.208586292135151 -0.163877647650438 0.0325027510952064
-0.214477505911949 -0.162840916690384 0.0325027510952067
-0.218561139914348 -0.170734528855325 0.0325027510952064
-0.234208476238677 -0.185943112504797 0.0325027510952067
-0.242225725623075 -0.202325013028689 0.0325027510952071
-0.25941024029377 -0.208557108627793 0.0325027510952071
-0.259831071532615 -0.207144327298826 0.0325027510952067
-0.260195065811754 -0.220190493446189 0.0325027510952067
-0.281325807243734 -0.231950125617531 0.0325027510952071
-0.287185794752841 -0.239628357955875 0.0325027510952067
-0.297856995392218 -0.2464118228461 0.0325027510952064
-0.300118584324165 -0.249938770640165 0.0325027510952067
0.0136534171568715 0.0401793815703099 0.0325027510952071
0.00455685271083519 0.0366943039651941 0.0325027510952067
0.00488120218470984 0.0290424157390366 0.0325027510952067
-0.00723811905705338 0.0232821763896775 0.0325027510952067
-0.015417731075448 0.018612951088264 0.0325027510952067
-0.0244522573792095 0.00499352482558734 0.0325027510952067
-0.0265952465219968 -0.000962630226764472 0.0325027510952067
-0.0345393797895058 -0.00807898530179342 0.0325027510952071
-0.0354484239477052 -0.00854657717973378 0.0325027510952071
-0.0495221095163721 -0.0197250677583573 0.0325027510952067
-0.0553155574226069 -0.0223326298940597 0.0325027510952071
-0.0581178828770827 -0.0317447703319061 0.0325027510952064
-0.0705337115048952 -0.0392514746135354 0.0325027510952067
-0.0820391758152206 -0.0497610849307385 0.0325027510952067
-0.0861816733430698 -0.0602941123766287 0.0325027510952071
-0.0905208470904343 -0.0638102728961422 0.0325027510952067
-0.101350424896445 -0.0759908579360268 0.0325027510952071
-0.110692650932528 -0.0763586503532116 0.0325027510952067
-0.120795647704407 -0.0871190905239348 0.0325027510952067
-0.130776807200474 -0.09580054432021 0.0325027510952064
-0.140599343579803 -0.110158683342999 0.0325027510952067
-0.145103171534288 -0.11255205300057 0.0325027510952067
-0.151318696530234 -0.120967315087303 0.0325027510952067
-0.153225915466264 -0.127350498858236 0.0325027510952067
-0.169422608160473 -0.137711500616554 0.0325027510952067
-0.172576933768794 -0.143245167770228 0.0325027510952067
-0.182110888358452 -0.145781627796953 0.0325027510952067
-0.195051469452678 -0.165102936390839 0.0325027510952067
-0.194814184811864 -0.16323857103651 0.0325027510952071
-0.203343291463091 -0.169937972057521 0.0325027510952067
-0.220383181695477 -0.179898854400266 0.0325027510952067
-0.222683398261311 -0.197187463711985 0.0325027510952067
-0.229636989724494 -0.198202574377012 0.0325027510952067
-0.244549070443155 -0.214076855832529 0.0325027510952064
-0.251964064000061 -0.2169367945032 0.0325027510952067
-0.2640353148771 -0.229654964074325 0.0325027510952067
-0.263499810432633 -0.233456996621597 0.0325027510952067
-0.276354680754445 -0.248528218917459 0.0325027510952067
-0.293320745774786 -0.263939537887765 0.0325027510952067
-0.298396467726298 -0.26316806233814 0.0325027510952067
0.0255711456052013 0.0320836829164248 0.0325027510952067
0.0183985090239469 0.0270415282160055 0.0325027510952071
0.00609846236074773 0.0181111357865865 0.0325027510952067
-0.00114471185551868 0.0185466477240351 0.0325027510952067
-0.00713087511094901 0.00277353223117912 0.0325027510952064
-0.0100100131492745 0.00402657075157976 0.0325027510952067
-0.0148392116774129 0.000517001399799827 0.0325027510952067
-0.0305873584945886 -0.0175557139441363 0.0325027510952071
-0.0377632360909821 -0.0218261371508734 0.0325027510952067
-0.0453759473172524 -0.0258063068316157 0.0325027510952067
-0.0493949906546742 -0.0376758304493588 0.0325027510952064
-0.0613271794529728 -0.0385388475883441 0.0325027510952067
-0.058709847199385 -0.0454520671768644 0.0325027510952067
-0.0725421220524679 -0.0604587791385578 0.0325027510952071
-0.0817798420316149 -0.0667378579164479 0.0325027510952067
-0.0884407366873745 -0.0795363064671521 0.0325027510952067
-0.0967806586496271 -0.0784416110109944 0.0325027510952071
-0.107831480923954 -0.093126816923834 0.0325027510952067
-0.109355368135847 -0.094828461615278 0.0325027510952067
-0.110070978519726 -0.0977681435790594 0.0325027510952067
-0.12189210313942 -0.109373984241055 0.0325027510952067
-0.130553637158098 -0.119474185056971 0.0325027510952067
-0.143854227447662 -0.124517771045674 0.0325027510952067
-0.144626289190788 -0.129363790458154 0.0325027510952067
-0.152735918104439 -0.144486432204456 0.0325027510952067
-0.172558618124622 -0.149828560669413 0.0325027510952067
-0.172419013132342 -0.159098423670322 0.0325027510952071
-0.182847185032391 -0.169653073167261 0.0325027510952071
-0.193875483511664 -0.18235355766582 0.0325027510952067
-0.202455305576438 -0.185843115504432 0.0325027510952067
-0.204724710000376 -0.195354640405482 0.0325027510952071
-0.225434353223335 -0.207002109368993 0.0325027510952071
-0.228804312349036 -0.208882502620937 0.0325027510952067
-0.23536816305188 -0.211321451650461 0.0325027510952067
-0.246839952747687 -0.223925990316959 0.0325027510952067
-0.255870699028769 -0.234684913758796 0.0325027510952067
-0.257945783081109 -0.2519565950255 0.0325027510952067
-0.273459451430527 -0.256392652861228 0.0325027510952064
-0.278663196149555 -0.268701520819125 0.0325027510952064
-0.289121961271572 -0.271296578018696 0.0325027510952067
-0.302360845016585 -0.277545244891179 0.0325027510952064
0.036033749963877 0.035318206747628 0.0325027510952067
0.031043148414238 0.0304962643404828 0.0325027510952064
0.0273417310905066 0.0212017977812649 0.0471971547701505
0.00918425736518299 0.0137011699139353 0.0325027510952067
0.0276269656047442 0.0197485052778454 0.0655342560079933
0.0158799364661741 0.0137659036413704 0.056592092155641
0.00647306887437811 0.00577138086285314 0.0631178828470959
0.00635093189305923 0.0045364237104017 0.0727104625450054
-0.0286572104796406 -0.0196425275184858 0.0409153969412179
-0.0078163122214306 -0.00593823176657171 0.0693797895017579
-0.0284598017219691 -0.0208791710159126 0.0618202339649818
-0.00731092958233743 -0.00778660533062616 0.088175702569064
-0.00272522632726789 -0.0055033943292546 0.0985607843746458
-0.0199076159782019 -0.018331171263616 0.0955622841891237
-0.0214914600796358 -0.0198114107226783 0.0977889888976823
-0.0252224357961318 -0.0234907562741217 0.104651734077909
-0.0884905558374562 -0.0838930066102851 0.0325027510952067
-0.0190758678698577 -0.0223604607091542 0.134794659051192
-0.0198463120238791 -0.0234763271399362 0.139204844196724
-0.110695624475481 -0.110803753089048 0.0325027510952067
-0.120605535732419 -0.121803916448347 0.0325027510952067
-0.130536635921367 -0.133484174740427 0.0325027510952067
-0.133420521453456 -0.13924117156879 0.0325027510952067
-0.0423353751892077 -0.0500978393847689 0.154652584298608
-0.149555666351495 -0.15018868464318 0.0325027510952067
-0.155826073921154 -0.160104576719431 0.0325027510952067
-0.164356077094848 -0.163103237493809 0.0325027510952064
-0.177153788209489 -0.174203569204958 0.0325027510952064
-0.187160992708616 -0.193569127325055 0.0325027510952067
-0.199113220248464 -0.197422011093803 0.0325027510952067
-0.196197450729727 -0.200783836948459 0.0325027510952067
-0.213610580501805 -0.211079450238821 0.0325027510952064
-0.214419038350652 -0.218610344673891 0.0325027510952067
-0.229040239597233 -0.224929665602181 0.0325027510952067
-0.237462722324265 -0.231051622434079 0.0325027510952067
-0.242184121360123 -0.237457660912949 0.0325027510952067
-0.259622470403692 -0.260929950788676 0.0325027510952067
-0.260181674156154 -0.259915365068347 0.0325027510952067
-0.272579594962712 -0.271307028598742 0.0325027510952067
-0.278730772817125 -0.27972585994585 0.0325027510952064
-0.286370246225417 -0.28584151222071 0.0325027510952064
-0.300516576378667 -0.304820355746927 0.0325027510952067
-0.301159743800708 -0.307650906514393 0.0325027510952064
0.0306770468341764 0.0226233338677434 0.0325027510952067
0.0350451878861436 0.0243926740631724 0.0389761310149914
0.0386405100090319 0.0258819052475729 0.0475758459272782
0.0468115846414676 0.0269905994635728 0.0724294879633927
0.0256580134987086 0.0189156229852412 0.0657037467725268
0.0265546087089702 0.0189814794835936 0.0686943248423413
0.0356449209421948 0.0210640220287819 0.0851659803260005
0.0343656308601026 0.0200364267928964 0.0900375836555509
0.0246930232057752 0.0155742289164386 0.0944978494874287
0.0293200103898784 0.0157413109765323 0.11162229454484
0.025344399813548 0.0134754134151034 0.11768268655153
0.0238301281072553 0.0112634437543713 0.128902666862599
0.020429482034916 0.00872964970081305 0.128267104437319
0.027217455909559 0.0118678734746312 0.141012005490509
0.0162063161006039 0.00386403368825768 0.141926464619904
0.0109893313351137 -0.000524572623113977 0.145166525845533
0.0149642893185449 -0.0001079630435251 0.156981746053062
0.0151303752326248 -0.00429766929097082 0.16591752478996
0.00160177029933391 -0.0158196964645942 0.168279543293694
-0.00297247284012149 -0.0173326011087021 0.164146012063364
-0.00397006823356078 -0.0224469491708769 0.173147441247145
-0.00975413846209568 -0.0276322900091805 0.174693746941939
-0.0331989728117043 -0.0443669950023051 0.164461465126526
-0.0267762818287916 -0.0424823929257232 0.173038211164562
-0.0546191135616909 -0.0671102681488829 0.156247095791256
-0.0510650655613562 -0.0687288065357023 0.166174009636762
-0.166405856079218 -0.181636349539381 0.0325027510952064
-0.166490551700734 -0.183873394484655 0.0325027510952067
-0.175259215729245 -0.188399678021298 0.0325027510952067
-0.184384247628756 -0.196391864433436 0.0325027510952064
-0.195107486269737 -0.20777760531961 0.0325027510952067
-0.195402052204563 -0.214070244164591 0.0325027510952067
-0.217463747804937 -0.233792993860002 0.0325027510952071
-0.213480832352198 -0.228584225767076 0.0325027510952067
-0.22874507079009 -0.241354117496899 0.0325027510952067
-0.234277457509346 -0.252472950267537 0.0325027510952071
-0.245048554187912 -0.265981213941278 0.0325027510952067
-0.258613897737839 -0.266015624897155 0.0325027510952071
-0.263134279586442 -0.280332496137409 0.0325027510952067
-0.281969109206292 -0.288201806931218 0.0325027510952071
-0.284823099914537 -0.294836440787455 0.0325027510952064
-0.285432339525479 -0.303717017560659 0.0325027510952067
0.0503512299245178 0.0307326442617197 0.0474227391923342
0.0638291032920162 0.0348541536795557 0.0644552708936513
0.0549220805978852 0.0310303896850666 0.0657703736901861
0.0594357657635444 0.0307254013187336 0.08705621403261
0.0661435245460732 0.0321329960781086 0.100474521260977
0.0662778601388628 0.0317903160379713 0.104373437766654
0.0502005869609539 0.0254728701087098 0.101026043705139
0.0548174415767736 0.0259866889042128 0.11471543923097
0.0531479408270956 0.0241831056983392 0.125600564968191
0.0507331586118012 0.0227234178658368 0.13009782755003
0.0487018373662061 0.0215068908054465 0.133769680521657
0.0339712458886658 0.0149941339899443 0.137794106481434
0.043524649479363 0.0172646287392171 0.153780881551107
0.0335704267841271 0.0132455045631153 0.153285136024432
0.043973808937867 0.0137738783102462 0.162643334229992
0.0317591820633968 0.00593647140965309 0.168445795045594
0.0279386889626319 0.000795648751616872 0.173494355526181
0.0179531670412729 -0.00343753725549776 0.16862046309955
0.00998292778529946 -0.00957932112025231 0.168674287430146
0.0207204459308167 -0.00991269698211642 0.184921559332199
0.0206229225451681 -0.0152386079542977 0.194905655538002
-0.00562707465439945 -0.0288329419050531 0.183733660836878
-0.0078386693651006 -0.0306653897659474 0.184013981609786
-0.0209133651008054 -0.0428132734913924 0.183391426493911
0.0018796591505629 -0.033260959122426 0.204821407976548
-0.0198604640994266 -0.0484597385793119 0.19370853405585
-0.0256317358295252 -0.0543159404997698 0.192875487137877
-0.0281974931764586 -0.0614490087003123 0.199362089583115
-0.177741343646832 -0.204794251646551 0.0325027510952067
-0.179548696627398 -0.213581709099137 0.0325027510952067
-0.178217051980084 -0.21015214522303 0.0325027510952064
-0.202478949858792 -0.226831965403241 0.0325027510952067
-0.20348115929796 -0.238322151767393 0.0325027510952067
-0.209112197633264 -0.248016100969925 0.0325027510952067
-0.223713685702966 -0.253423838336299 0.0325027510952067
-0.232433427230879 -0.253906050175588 0.0325027510952067
-0.241432677165217 -0.26346456354987 0.0325027510952067
-0.252826965136675 -0.27964254133289 0.0325027510952067
-0.250052091627718 -0.285771157485774 0.0325027510952067
-0.266758420832542 -0.299497691708028 0.0325027510952064
-0.276062907030164 -0.305745090785529 0.0325027510952067
-0.288603093280947 -0.314069077703508 0.0325027510952071
0.0867201984779635 0.0419119418235115 0.0881822768429373
0.0880696184617633 0.0415022065352113 0.0976640521577159
0.080942118116392 0.0386522922598136 0.0966617971480877
0.0762247742153789 0.0356717532761003 0.106710000716034
0.0804132877218923 0.0371760912670027 0.108967196440771
0.0850501204110963 0.0376328816758268 0.123295803772283
0.0820827859383394 0.0355367554097724 0.131782428139904
0.0728275322585141 0.0316286406054622 0.132511297279134
0.0683063419928807 0.0286869790519601 0.14297425186917
0.075128795338666 0.0298597953794857 0.15497570114126
0.0688613195302301 0.0244226210355175 0.161823811759599
0.0641503409955902 0.0226491603280048 0.161395029454054
0.0680502757710773 0.0208017928229102 0.169741602248242
0.0607475000196744 0.0169225078148381 0.171800967031681
0.0532731085892136 0.0093776870209504 0.182524294862038
0.0481801746828167 0.00744143933154388 0.182106542146695
0.0431945168631288 0.00389150174670477 0.185685488137854
0.0350730130917456 -0.00140319413181342 0.186451009796955
0.0268852038459156 -0.0058928947768738 0.184886451749174
0.0376631614208093 -0.005768500680575 0.197922216878594
0.0289381494728514 -0.0141617784009036 0.20310192652128
0.0292107541328884 -0.016816379357593 0.208473848752777
0.0186451230974559 -0.0246484200200991 0.210322291824548
0.0216240780528752 -0.02473264697785 0.214150310947232
0.0162305378164409 -0.0296958786686617 0.216656020411406
0.00761299370353034 -0.0392550329227402 0.221897170820998
-0.0228133899013271 -0.0577036458930964 0.202739962786232
-0.0159309238047887 -0.0564706347586486 0.212439017331585
-0.0176281727693535 -0.0583378641019294 0.212413540264589
-0.0446538382395844 -0.0809330582421746 0.198827453436459
-0.0411061237298887 -0.083855841565325 0.21081271087842
-0.0582694105201373 -0.0995358070686855 0.192951757366813
-0.201300436669318 -0.245811989071105 0.0325027510952067
-0.200245794453463 -0.244864247923002 0.0325027510952067
-0.213933826635383 -0.260526546765095 0.0325027510952067
-0.216370341349504 -0.266571981426552 0.0325027510952067
-0.226307365366319 -0.274638348914112 0.0325027510952067
-0.238580378035924 -0.287101930901387 0.0325027510952067
-0.242705101497328 -0.296491327000619 0.0325027510952071
-0.24957412643463 -0.305014411229582 0.0325027510952071
-0.261659129699428 -0.309858483291383 0.0325027510952067
-0.272033407142435 -0.31757098117917 0.0325027510952064
-0.277616570540526 -0.326076700742708 0.0325027510952067
0.103975485560111 0.0444614817835836 0.0929289205089158
0.102005361076281 0.0429957577060024 0.105600629531038
0.0948723601553185 0.041657151863915 0.109797337628684
0.0884695129661353 0.0406495869151606 0.107631112433145
0.0975946465818013 0.0406290683895488 0.124361128385834
0.0981838649937739 0.0397585337364664 0.134320186696358
0.0917037737495327 0.0383858148985871 0.139778130414362
0.0993504562550184 0.0381403597949968 0.152931010376304
0.0897627934246434 0.0346550880601762 0.157774982533994
0.0787113774347576 0.0299418813679142 0.158354725088142
0.0893638489811823 0.0288597340164456 0.169963528550127
0.0854833271634326 0.0260528345992832 0.173291684176694
0.0744197845327914 0.0218700555845551 0.173526065384449
0.0709006677011683 0.0191565803893495 0.176553033188233
0.0740980521260586 0.0128788617958075 0.193680553319089
0.0601102950511767 0.0104493891861639 0.186767401318523
0.0606630532993414 0.00576588951165845 0.198608257605337
0.0612012297591705 0.00577251096001303 0.199129617599957
0.0613671807294177 0.00231294922070021 0.207519112164402
0.0498547917355822 -0.00399689280080109 0.209573697860692
0.0403952473029333 -0.00952268864927521 0.208408804213792
0.0381684870434494 -0.0124638135216161 0.211246644196794
0.0337406575951382 -0.0236651036245347 0.223705724576203
0.0197452557977105 -0.0291788405485938 0.218987565968436
0.031727660343247 -0.0324374950727072 0.233168858235554
0.0229868073662888 -0.0382476306833606 0.233753136537879
0.0193951318834288 -0.0413070246824608 0.234715479285768
3.22523574361611e-005 -0.0539032631957141 0.228606100547991
-0.00978114914203327 -0.0618772255947085 0.226405796234483
-0.0134274995941763 -0.071099527818637 0.231651742492077
-0.0172768865213633 -0.074915769039339 0.231406489172223
-0.0159816380232484 -0.0769846750038756 0.234769583655021
-0.0585041149862977 -0.111689129669302 0.204964078582586
-0.0405953182938094 -0.107334381625647 0.229635385574759
-0.205966759107888 -0.261175728779286 0.0325027510952064
-0.209235472441475 -0.271005553563612 0.0325027510952067
-0.219380870545916 -0.284833046863039 0.0325027510952067
-0.232637465422848 -0.293377605833315 0.0325027510952067
-0.240882511298177 -0.299449818992672 0.0325027510952067
-0.252479866165455 -0.320613598036086 0.0325027510952067
-0.255094874543699 -0.321157221924395 0.0325027510952067
-0.267897245075826 -0.334753491195915 0.0325027510952067
-0.273234467459636 -0.342555163265168 0.0325027510952067
-0.287624418833964 -0.343560976504581 0.0325027510952064
0.110735065218486 0.0450020166657985 0.096598868506122
0.1049890747429 0.0432618884045379 0.106931323573653
0.116531651625874 0.0435839866967995 0.119510160275103
0.117157913202577 0.0421957144216831 0.134958840794014
0.107106792389115 0.0411279594410968 0.132275027785663
0.110936926194365 0.0404749646283952 0.14443086970987
0.101901998561534 0.0386673211685064 0.150924250144266
0.103029340276394 0.0367298680110637 0.158344127243928
0.105270939276851 0.0351735910584595 0.163133019083187
0.0988365231320105 0.0308479875854322 0.172130665200275
0.0998864867486717 0.0288225137967464 0.177392575032923
0.0990554037523268 0.0248872988186942 0.185277720871205
0.0905090700207098 0.023672582990474 0.1819221273477
0.0915184761714979 0.0195677536948983 0.191457545235146
0.0881621106340816 0.0151016186504876 0.198721175453144
0.0808979343520276 0.0127389793358004 0.198730489654505
0.0717526371751386 0.00812060539523568 0.2022786498805
0.075465699542841 0.0045045796210204 0.212650761580351
0.0693125759742337 0.000243769253805416 0.21707015666175
0.0643429659659836 -0.00713280089092148 0.225706571324526
0.0614888560746198 -0.00908451548643967 0.226816338741855
0.0514048818312539 -0.0154932479163197 0.227167862692292
0.0451090742770904 -0.0181103911100669 0.225729980916168
0.0409282846686384 -0.0258651644478349 0.23197997985401
0.038214098613218 -0.0276159269872487 0.232105487878129
0.0340133966996489 -0.03251432115765 0.234920666200934
0.0262882372815794 -0.0465174755483625 0.241241258040968
0.0216506542979411 -0.0497092579205049 0.241455062064584
0.0136611471109127 -0.0558883287374417 0.240410001792233
-0.00474525720358185 -0.0682010343444669 0.237262953792592
-0.00813360976104676 -0.0714768144300681 0.237143652907683
-0.0151314117942578 -0.0901620937610003 0.242330820563879
-0.022475978859678 -0.0935306957244374 0.239610940379918
-0.0206868655144418 -0.0980716342233837 0.242113301950293
-0.0412592614547158 -0.114493643691358 0.233645233052594
-0.0473740692169298 -0.120740719062723 0.230348856757088
-0.218943254536649 -0.300452324408517 0.0325027510952067
-0.224119582911627 -0.295937524600111 0.0325027510952067
-0.236799838421663 -0.308413011156115 0.0325027510952071
-0.244715162649641 -0.320343576322654 0.0325027510952067
-0.256670514645026 -0.330660698716879 0.0325027510952067
-0.261033150417725 -0.340295677566402 0.0325027510952067
-0.266253058108136 -0.347797384471423 0.0325027510952067
-0.279453023517083 -0.359187775335956 0.0325027510952071
0.126050682617269 0.0455747299994842 0.111762936611433
0.128614590183869 0.0445221253555996 0.126365279680592
0.124981652746438 0.0431679565515146 0.135565694311344
0.123756773240642 0.0428215124685862 0.137510912606834
0.125300118628983 0.0421795669636526 0.146388295778212
0.121454170349649 0.0410803826381317 0.15261574211954
0.12400822091328 0.0375605263030615 0.163339626767952
0.122908492488614 0.0341905516887281 0.171682064863564
0.114512238419477 0.0333279098350369 0.17105416649491
0.108084430708933 0.0294428414073252 0.178914553938159
0.110802767842318 0.0261274131100235 0.188416098884926
0.11274278660531 0.0249835426188195 0.192035540635207
0.105160355621796 0.0247561035650938 0.18982363181495
0.103257641651255 0.0163489111508368 0.206580627645456
0.093591089798337 0.0127425286119016 0.207587714082695
0.0888083680547842 0.0110439682049888 0.207901478625919
0.0812162564006035 0.00632394864555596 0.212753042322449
0.0860989485794346 0.00486707455636087 0.218308524253014
0.0766758035603557 -0.00320716258389144 0.22582377058532
0.0811235987098063 -0.00464558388283637 0.230143176588917
0.0753757234708433 -0.00525770531714019 0.228264114498628
0.0687511321841032 -0.0157173436594027 0.238418347655008
0.0668137034229989 -0.0144356347092589 0.237011693969715
0.049831202884217 -0.0295713467950996 0.239737287533394
0.0558355561016029 -0.0273373821784835 0.240530224632742
0.0422379581636396 -0.0415311384421531 0.243881689770889
0.0398862549445405 -0.0438391481265044 0.244378607545234
0.0311452984733607 -0.0531880994575799 0.246659683212808
0.0256985629398206 -0.0658406897116618 0.250887521146923
0.0109319443953458 -0.0744480052175185 0.24759988818702
0.00726949543466921 -0.078172644132271 0.247526208298287
0.00542406071987446 -0.0834893393146429 0.249071506745359
0.00183956418145664 -0.0880564489431597 0.249447495627474
-0.0159654918583821 -0.0999008648094835 0.245494370729853
-0.0253632305879689 -0.111838977803465 0.243731059907315
-0.02458177564187 -0.118678623509161 0.246351547693035
-0.0442273025066487 -0.128165503425558 0.238011621939705
-0.216538350779849 -0.302765952410241 0.0325027510952067
-0.227898994791333 -0.322471619734934 0.0325027510952071
-0.240811688198318 -0.334347867615616 0.0325027510952067
-0.244774497123277 -0.335865475887644 0.0325027510952067
-0.251664036923293 -0.354569451898725 0.0325027510952064
-0.260166682552115 -0.352429363473972 0.0325027510952064
-0.274538953877731 -0.375354213892794 0.0325027510952064
0.148115420271843 0.04665269192531 0.130953141023193
0.131772195687089 0.0450753917602842 0.124920330955116
0.145351267104237 0.0448799129569647 0.145752140973292
0.146556887115875 0.0445881161760617 0.150484468562501
0.144504820264104 0.0418362171660402 0.15925980419602
0.128125881387341 0.0399065011323338 0.158673638257162
0.130716347171917 0.0391326458278815 0.161557483323261
0.128416503411575 0.033386746374413 0.175636917009574
0.122495696354287 0.0307013016965221 0.180566953388555
0.130915130207665 0.029172753004832 0.187387913652034
0.118302342550374 0.0264147048945411 0.190226871370306
0.120107377546821 0.0219792475740845 0.202314522471873
0.117679642490677 0.0210339442725424 0.20393295171057
0.110521930578189 0.0185932667397677 0.206825848187367
0.109921162437674 0.0140887810197317 0.216078922339542
0.0986532124491205 0.0102400133407728 0.216364599180083
0.105204133743322 0.00642408898436309 0.224817804082829
0.103687984714199 0.00524584828930999 0.225808487277475
0.0943904829206111 -0.00223478042309106 0.232226923517926
0.0845863926770752 -0.00736139168578242 0.235281847071252
0.0813208458935856 -0.0106881552845569 0.237663809270817
0.0848428305579402 -0.0158543760890131 0.241581396287989
0.0772201559475608 -0.0193882990952734 0.242413085878309
0.0689324197112622 -0.0300218928064524 0.246656693484445
0.0646422890778973 -0.0337918351034786 0.24728789048026
0.0493175238004292 -0.0432972722867246 0.247295994024788
0.0513435104280379 -0.0451706415480981 0.249068816020213
0.0497197439662839 -0.0513365637062044 0.25201572683827
0.0310568010747685 -0.0658408344648887 0.253517466902087
0.0371270822987134 -0.0664688260095111 0.256192152946722
0.015460308709395 -0.0779473000988865 0.251432381191322
0.0184776142079872 -0.0868747736160316 0.257020579082598
0.00750778465445137 -0.0944196157726419 0.255107636435641
0.00360304858771221 -0.102974025602867 0.257096766915239
-0.00668684565825335 -0.10979616418472 0.254138514641378
-0.0262097918499507 -0.127759380669442 0.248290898038994
-0.0290917660104419 -0.134138400055392 0.248649074787792
-0.053446977869945 -0.150110857480135 0.237836586806294
-0.0516183848769887 -0.158572482478584 0.240333909378086
-0.0595295982884652 -0.170952348748156 0.237211606793472
-0.232958538496782 -0.344480487925883 0.0325027510952067
-0.24158580789619 -0.358733354361777 0.0325027510952067
-0.249894718490662 -0.358586832091498 0.0325027510952067
-0.267128258849951 -0.380434976853441 0.0325027510952067
0.149304780323947 0.0466753987054056 0.132359389165849
0.157640150027706 0.0467583008257551 0.143015538699238
0.154853615096332 0.0459286087691714 0.147877257567897
0.151676276320761 0.0438680122417906 0.156446423613182
0.149037013672707 0.0399820841154149 0.165599180897854
0.147958455327353 0.0364520888430824 0.173949369712903
0.147585413004584 0.0354625286248864 0.17614052968993
0.14148442142833 0.0323138953594371 0.182533508763023
0.138520242684367 0.0305281162149017 0.186217796708141
0.138637250466402 0.0259972803652988 0.196465343778277
0.132974216284589 0.0264932320612767 0.194677928751307
0.133001645118243 0.0225651280093643 0.203553536409893
0.121863866466243 0.0206519787369635 0.206345852180733
0.129193533102993 0.0156219073592886 0.217953457972308
0.124026224085421 0.0111368238445499 0.224586202899954
0.125175269878367 0.0109685047535905 0.224945341644599
0.115168118388571 0.00601308369720318 0.229271295540508
0.112708218919091 -0.00131140475930145 0.237513300007152
0.10336928271016 -0.000994520590353369 0.23407444668509
0.101252015701386 -0.00945889292858414 0.240557838800224
0.0928340689367495 -0.0192601216567845 0.245208446602974
0.0929613411470885 -0.0191875237206062 0.245185959325758
0.0905583715637241 -0.0257263922770696 0.24888052299649
0.0789067377913341 -0.0357322637205841 0.25306488817145
0.0774667291900515 -0.0406789029757181 0.255776159034947
0.0609720710569552 -0.0466657714653353 0.253341419446917
0.0673556193633111 -0.045276938141329 0.254814036186363
0.0464123855781083 -0.0600243681178638 0.255806011781777
0.0490975123204319 -0.0666286387156532 0.258772179684082
0.0412596039126344 -0.0718080352888822 0.258842284546603
0.0278292622180505 -0.0849164968876439 0.258858946082602
0.0280237926826749 -0.0899598165338715 0.260047148164287
0.0123715663557912 -0.101084216570866 0.258785907202496
0.00376798710154531 -0.110008125635888 0.258640786906245
0.00970294258218997 -0.111105498899819 0.26029623776552
-0.00740691835574835 -0.119014178502671 0.256636856478822
-0.0203752824604342 -0.131148786921179 0.252795602208849
-0.0222690576547779 -0.137376750890746 0.253648815885522
-0.0263471018468695 -0.146257001133793 0.254077762915781
-0.0510157300331862 -0.173864671678573 0.243117694457652
-0.0512106800699886 -0.176522176709678 0.243409652135735
-0.232852939667415 -0.372717026353543 0.0325027510952067
-0.239393406657373 -0.375036795505692 0.0325027510952067
-0.254688846944082 -0.383228837422385 0.0325027510952067
-0.261978463740925 -0.394036454059639 0.0325027510952064
0.162878869564082 0.0470758907779239 0.13982186215849
0.163662141328814 0.0461211628192877 0.148767285925087
0.168998516864686 0.043108162198687 0.158393891769378
0.163470442057564 0.0419892892752197 0.163170545450207
0.162035629159839 0.0391857618703598 0.169433403735664
0.154724392520265 0.0334628567342721 0.181498279449713
0.157198334938221 0.0334726688035769 0.181767594442066
0.157301111111567 0.0330026810731331 0.182841260814541
0.149708238415862 0.0281103611535973 0.192996918513764
0.149493292585091 0.0258766379319245 0.198016885912038
0.140247453518044 0.0227431434966915 0.204005148235591
0.140337000815948 0.0203382026680452 0.209447718498886
0.143392943740699 0.0145384908711954 0.220823489890342
0.142520995676656 0.0107251232774412 0.226751887008837
0.13431115730235 0.00949850954579272 0.228008040874517
0.125296793917004 0.00611469525509393 0.232592308940924
0.121655535125251 0.00341030316725963 0.235310761561097
0.121587453733833 0.000641958488027467 0.237913145168285
0.109146121504899 -0.00887066192818699 0.241639940801051
0.111423034868708 -0.0139737369285496 0.245327158959472
0.102123796345366 -0.0190972878667375 0.246816811638193
0.100630768439474 -0.023040029889537 0.249059693361314
0.0910781861929786 -0.0361729975645205 0.255652271173096
0.0863723830332535 -0.0354117534772614 0.254244433152164
0.0803764885105717 -0.0411246362636423 0.256753295324072
0.0727241756482625 -0.055096009694801 0.259656381102491
0.0724131183135651 -0.0558179196022245 0.259804964681077
0.0705734332461787 -0.0626208971116028 0.261395760637539
0.0527999021287228 -0.0724948562207839 0.261067413614142
0.0503346471275418 -0.0765047472883671 0.261693719190911
