ply
format ascii 1.0
element vertex 838
property float x
property float y
property float z
end_header
-0.239971502627532 -0.132652070352927 0.252667579321798
-0.231657895826624 -0.124464043893652 0.255214300295747
-0.223356618240932 -0.123769018484251 0.257083060636415
-0.222709404872723 -0.11520522472819 0.257995655260511
-0.213433173556661 -0.107743605595454 0.259466206311172
-0.202983494407211 -0.105612528383496 0.260066258499066
-0.210311433282662 -0.1027051202822 0.259742010315982
-0.203307505453908 -0.0935746123839154 0.260302463244324
-0.192146833333089 -0.0830059928913095 0.261015702522318
-0.183213787265296 -0.0787579123379548 0.261555079678369
-0.178540276940888 -0.079336404054233 0.261816312625354
-0.174249977292143 -0.0642625079165645 0.262026402629391
-0.166256456197402 -0.0623100492066238 0.262445652837107
-0.160431011058041 -0.0548779704534802 0.262587576478864
-0.148272833782069 -0.0461678138877663 0.262759231611725
-0.139608558576387 -0.0374506179021749 0.262545746946031
-0.136267521013619 -0.0280550636118054 0.262067329954327
-0.128608744816223 -0.0147976397355353 0.261371303939736
-0.126726718064126 -0.0150418104828993 0.261384798725183
-0.115188026865714 -0.0114119425759724 0.261092221636011
-0.105646403668929 0.00356321116529926 0.260151853713134
-0.0968755778999245 0.00812006494220672 0.259718200068005
-0.0976213226634745 0.0139351967342091 0.259426644192028
-0.0820693102820973 0.0362837059089987 0.254259820030887
-0.0738374370666576 0.039100384055473 0.252905124143845
-0.0609384351500689 0.0469358642425383 0.25003787133624
-0.0543109271136542 0.066151845568489 0.243552557581827
-0.0500551703174827 0.0662139625788074 0.242985663884542
-0.241601363316057 -0.129804577463115 0.252569587051151
-0.237230714084471 -0.122035548815004 0.254220671107783
-0.232159537997289 -0.122697423103449 0.255264367072002
-0.229368068933191 -0.113176813463638 0.256729720629302
-0.223484915519934 -0.101370257547651 0.25907374967586
-0.22078286762955 -0.102537452326695 0.259191223798325
-0.212976707002274 -0.0903882696499602 0.25977687150603
-0.201037819842716 -0.0817737986912222 0.260519712266874
-0.196033493614456 -0.0846698280354354 0.260782405909352
-0.191634976661296 -0.0659408708321747 0.261051099035476
-0.185381292376667 -0.065402481531344 0.261402421416883
-0.183541035816138 -0.0561360149969514 0.26139501887975
-0.166473234369968 -0.0514519760614039 0.262193308338365
-0.168047051248277 -0.0398784576813899 0.261717949827062
-0.164106326551569 -0.0407634323176134 0.261928008504387
-0.146539766879621 -0.0251870632521696 0.261744370120869
-0.138063781079315 -0.0181062660872873 0.261488576898584
-0.141294127445782 -0.0133378454786579 0.261193457664294
-0.122875435791944 -0.00552832898529192 0.260815408154892
-0.122312201515623 -0.00163068500445107 0.260589720822136
-0.120530134203645 0.00465813331764554 0.260219043109165
-0.115438038751317 0.0102740849521948 0.259861837625515
-0.0930342378434102 0.0237178713304076 0.257981963436924
-0.0878748047979189 0.0439048384996838 0.253124874621941
-0.0818396561422981 0.0469653927700527 0.251915089593398
-0.0759384463105968 0.0533660789372846 0.249990656813869
-0.0594814128145677 0.0621035239781588 0.2454772517376
-0.0523953052642816 0.0730567344604556 0.241045359005221
-0.0255679951817415 0.107335183432457 0.216221682565595
-0.250165608357609 -0.122862733616961 0.251331856127544
-0.241967342201935 -0.116611955441471 0.253678895117245
-0.240317278446917 -0.107540330703172 0.254855448025999
-0.231118270436951 -0.102661014720087 0.257296622412786
-0.223886021854929 -0.0949455066801766 0.259122885071168
-0.221434745331228 -0.0892453154714916 0.259304814859803
-0.210256787794085 -0.0776716422119156 0.260026554968795
-0.211259819734453 -0.076810201187278 0.259976004474838
-0.206074079552617 -0.0684091257931304 0.26024909768845
-0.19714359968985 -0.0644098516587713 0.260726632016756
-0.191702025052403 -0.0628693402169135 0.261024311598058
-0.191045969558552 -0.052047259800109 0.260907954277512
-0.182740143111786 -0.0424161439916872 0.261136512906752
-0.169521095895305 -0.0397825334565935 0.261647579243891
-0.165202210501461 -0.026557604337966 0.26127690564214
-0.160642510623748 -0.019248440874994 0.261103650144822
-0.154429452458768 -0.0140658242120917 0.260982457105697
-0.145896336734021 -0.00474302858923038 0.260670650361059
-0.13302765495965 -0.0022135642996314 0.260623188220259
-0.130361695353986 0.00329506960658779 0.260330117443364
-0.119542434269961 0.0239312379679047 0.259116508305206
-0.117497412207367 0.0275573412598994 0.258339948847044
-0.10014528240924 0.041769325476606 0.254488306814463
-0.0942630729673775 0.041090748887553 0.254312859443048
-0.0812738019147012 0.0546696646681395 0.250187861909158
-0.0766480349772285 0.0583383263356509 0.248858940380984
-0.056813786116135 0.0814975313954551 0.238861536867104
-0.0519205620001909 0.0996473254129515 0.228698726171113
-0.0364112089809272 0.104232646453722 0.221314822144838
-0.259230533872571 -0.112880699185637 0.250259176839192
-0.252237286700249 -0.105716062154953 0.252325027663682
-0.239607920958153 -0.100723502617988 0.255427238118985
-0.243583858467783 -0.100484693905551 0.254506263804925
-0.232084160165591 -0.0958576209438602 0.257333481221952
-0.227530293787695 -0.0850420179241327 0.258729190055696
-0.225535743157173 -0.075521622833038 0.259174450440046
-0.210788076775958 -0.065875905463617 0.259962286004231
-0.204428407263119 -0.0624301284566523 0.260297881075332
-0.200886338665604 -0.0604695784365936 0.260484483739424
-0.202320041220209 -0.0497820305611104 0.260261308078364
-0.188662781734845 -0.0431257462385336 0.260838471827171
-0.180077277301278 -0.0375742489702758 0.261090550209459
-0.175852925413561 -0.0296579577591141 0.26100643051837
-0.169823874632385 -0.0228508893976589 0.260947114752963
-0.167437034907849 -0.0142153544213918 0.260637739319526
-0.158694551959701 -0.00287396275221796 0.260296301460915
-0.147755247274318 -0.000880805725186606 0.260430691636533
-0.148765954609677 0.00856926464172674 0.25989274546862
-0.135519733188033 0.020143240760196 0.259334175859519
-0.124081160108087 0.0243675259113017 0.259125670742968
-0.125264416861168 0.0246284177029593 0.259119697954676
-0.112562834930099 0.034682660073335 0.256524623677852
-0.109442781670545 0.0431251915974992 0.254457527384252
-0.0914066408932319 0.0688115283836815 0.247334079124468
-0.0857790036045402 0.0622864174075336 0.248807349919868
-0.0626221434213702 0.0842673307794203 0.23874132229486
-0.263310675627068 -0.101878779706484 0.249857529291757
-0.256950385607717 -0.102442254540891 0.251325230275043
-0.249951798392806 -0.0976703817452178 0.253105964416096
-0.239156686251857 -0.0893227201549752 0.255883038640381
-0.240291899769534 -0.0807285657170317 0.255882158029835
-0.234185489474666 -0.0753366445982652 0.257473643221258
-0.230231835419482 -0.0729900953393839 0.258403627673635
-0.22612298694291 -0.0612487108704393 0.259002060731081
-0.216002529659289 -0.0615293526626172 0.259633471956908
-0.207256004737831 -0.054212071799654 0.260075732080869
-0.19957355950038 -0.0371262069077907 0.26012915871332
-0.195047849323759 -0.0351643034663181 0.260325765930589
-0.186832630394606 -0.0250941830207293 0.260347961492862
-0.183832384671286 -0.0233526807682506 0.260423619891655
-0.176508717185766 -0.0180054746352844 0.260493564008594
-0.169551474996743 -0.00401890071251662 0.260100341073116
-0.16952239958713 -0.00192962940333138 0.260006357770468
-0.156666851981336 0.0121481348374017 0.259545352145781
-0.14331455727031 0.0172709081080936 0.259439077274757
-0.147955052934706 0.0247295098980989 0.258690776945173
-0.132496109704339 0.0356680233232149 0.256612004009688
-0.125054250503225 0.0452395402722427 0.254443737905016
-0.121061472167684 0.0434230414379447 0.254745127381255
-0.104657475790947 0.0580348390096665 0.250829279960196
-0.0970826419977001 0.0724701510052005 0.246362629781901
-0.0874698987245175 0.0870552200777739 0.240954854339015
-0.0660083599350883 0.111995891446728 0.224330418161698
-0.0619624657029841 0.116979991328943 0.219863683802909
-0.268128491228565 -0.0933851426922394 0.248888877310022
-0.262552668334237 -0.094974488591421 0.250246739974756
-0.259810619439287 -0.0919336322941418 0.250980434416967
-0.246544503497605 -0.0818130751587691 0.254388943170541
-0.243902644145982 -0.0768283535225785 0.255158996841049
-0.244286585656178 -0.0707228829326849 0.25505238727035
-0.233450152612916 -0.0713609160849458 0.257602125600172
-0.227080937309092 -0.055231571822049 0.258593436545658
-0.22540807615511 -0.0472288837214209 0.258700021848605
-0.217631813450335 -0.0450031482768694 0.25934573395182
-0.20853191595894 -0.0326287189399445 0.259556170574094
-0.201637173213722 -0.0301487111131178 0.259851160691899
-0.195470700065164 -0.0243001910209394 0.259927492118274
-0.184220654923033 -0.0135983021697926 0.260024104661716
-0.17689567938472 -0.00541835433231301 0.259907735202202
-0.174926502356268 -0.00453634905301778 0.259936335284138
-0.164812661829459 0.0142224737369703 0.259256856278652
-0.159070300406047 0.0184890507186739 0.259156885724473
-0.15002160206797 0.0279665360511147 0.257871462478974
-0.15152920394126 0.0331656054290481 0.256611224992936
-0.134862388127954 0.0438154328532237 0.25463698379762
-0.129939430529546 0.0482422009229337 0.253754732533187
-0.121633784216805 0.0555390391474987 0.2519338364701
-0.113421743112334 0.0686535199838568 0.248353907585056
-0.104502959970503 0.0765771831256504 0.245318183727564
-0.0850810350433571 0.102244189393107 0.235276739777584
-0.0681075608014619 0.121816463250121 0.218327085250007
-0.271127277470602 -0.0916719874186513 0.247963514449324
-0.263072834178142 -0.0810172149203438 0.250554317808942
-0.255985851911815 -0.0772807240985663 0.252323864464707
-0.254679282810722 -0.0714756378950137 0.252649004816763
-0.252153595354769 -0.0672015931338022 0.253107332233565
-0.248513132423799 -0.0617969316275969 0.253791187454828
-0.236408625868798 -0.0498862704923863 0.25625126973437
-0.235609442284082 -0.0516468756885759 0.256491984389278
-0.230743462905814 -0.0460784941557796 0.257435517728814
-0.222861358730476 -0.0411235756961373 0.25870389811591
-0.213702965568283 -0.0289619110687479 0.259201939895255
-0.206830238921714 -0.024274374329045 0.259410080908195
-0.201363968817274 -0.0142631555362062 0.259309338714604
-0.197671675764293 -0.015926788923157 0.25953526864927
-0.189003234525465 -0.00327647215121471 0.259387914695885
-0.186273126576574 0.00942263864380384 0.25838343111445
-0.175539935069058 0.0189484282518147 0.257831144561877
-0.169785518183085 0.0279013300331015 0.256401840569245
-0.160755864485693 0.0311412710720292 0.256510683900324
-0.144707808060497 0.0406889534289776 0.255064329502183
-0.147411492867366 0.0484053413537229 0.25317957421334
-0.129874831459032 0.0599590668196113 0.251021025815339
-0.126362828446441 0.0645809861143053 0.249968057412667
-0.11437310816414 0.0806809938920026 0.24438243154736
-0.1057884351689 0.0872976707354062 0.241723869927921
-0.10199355476007 0.102943656510915 0.236000083616018
-0.278456053042578 -0.0814292405201138 0.245968039724247
-0.274948286718916 -0.0790989564313503 0.247240861473301
-0.269845157050985 -0.0738198489001683 0.249155195738661
-0.255490315162208 -0.0615215847455627 0.252153668075295
-0.252995079296101 -0.0588814220670032 0.252655108897846
-0.250572456797759 -0.0559279916003932 0.253129966280826
-0.245907195309719 -0.0526913514566752 0.25411973690953
-0.236334952774015 -0.0417072486220316 0.25582502543437
-0.231710086751365 -0.0320132110365559 0.255957627647276
-0.227548304252941 -0.0287792880851631 0.256571669143459
-0.217385354562483 -0.0238397872291702 0.258337686625447
-0.218040606391328 -0.0187743837886782 0.257572774278622
-0.208006612258196 -0.0109065461577106 0.258319507068667
-0.199898646464157 -0.00434781453848096 0.258894070144616
-0.195005584790909 0.00172992470844169 0.258568781366048
-0.182641525023505 0.0167241482521088 0.257539901247348
-0.180281683310694 0.0212736045364673 0.256897919817966
-0.166297930963666 0.0321789966499453 0.255785446482714
-0.170967066396963 0.0379302345841515 0.254113351324404
-0.154223265953381 0.0483182871451687 0.252990515150643
-0.146392856259251 0.0645483497109575 0.249441763022498
-0.136948128571836 0.0642901233508371 0.24979237282059
-0.135439201854059 0.0734351568856767 0.24704504364187
-0.111104786706492 0.098996513625704 0.237824629879761
-0.102371580277222 0.102806978626901 0.236066180694881
-0.0897888292928079 0.129115296526621 0.216428466569884
-0.0879631420109415 0.125056084996436 0.219177022953604
-0.285859822132517 -0.0814173591355268 0.243498108180915
-0.279210294572968 -0.0701139077277476 0.245867483534397
-0.269278493676708 -0.0626718030736751 0.24885455289353
-0.268242541054033 -0.0571512937333353 0.248957713152565
-0.261897660327502 -0.0493802474790179 0.250284451622867
-0.250793290858057 -0.0423854680280756 0.25266212621217
-0.252922969907557 -0.0381625288750129 0.251896486499978
-0.241276575132502 -0.0287765961002791 0.253584542065366
-0.23606612605226 -0.030298116984752 0.254855310067258
-0.23247748951603 -0.0131192151966301 0.254064749318832
-0.227505924790245 -0.00745540140556975 0.25418162606326
-0.221406750891628 -0.00754436391999006 0.255333907678308
-0.21405431173797 -0.00157870726231276 0.255852337820314
-0.205779252591865 0.0102015259498247 0.25544146988555
-0.202817643908391 0.0157509315724051 0.254829239505885
-0.19750718090033 0.0142354332946914 0.255873703947701
-0.182130210728957 0.0334794974312027 0.254075670364529
-0.181024548577321 0.0326731122591314 0.254350760614897
-0.166954552031055 0.0534872113235532 0.251090204598153
-0.156203580276961 0.0593279524859768 0.25035907005157
-0.152450146012577 0.0710976537959024 0.247077733727551
-0.142735434872295 0.0802969305631484 0.244434923137745
-0.136044387113936 0.0892232618583712 0.241673793793325
-0.127460076724566 0.0938757062304137 0.240403349227262
-0.113923563542081 0.111738591815615 0.231221933928207
-0.291540650155617 -0.0699644147941009 0.241669780936068
-0.277512296534846 -0.0560144303520327 0.245814684995866
-0.273614819631599 -0.0495935409148779 0.246833111747537
-0.277048956714697 -0.0485027540000939 0.245639308315649
-0.268494618403733 -0.0510047038633721 0.24860358667295
-0.256664781423989 -0.0355191130994615 0.25084414610364
-0.252205835797923 -0.0331046833993026 0.251596695617518
-0.248053856473028 -0.0251184425704093 0.251780319694705
-0.243391061756523 -0.0270971446203387 0.252973135265206
-0.238261762296846 -0.0190218842459716 0.253361374086785
-0.233041866390098 -0.0032500989054921 0.252544447739867
-0.223622006454029 0.00761924570117128 0.252746137558057
-0.217219323707499 0.0139157969701294 0.253039683988127
-0.211440943104137 0.0181556475722471 0.253143704564689
-0.20669555218392 0.0180986834568366 0.253834656577263
-0.197941837711436 0.0351908306848589 0.251896228106968
-0.194579986217435 0.0426267707224601 0.250963493201356
-0.184730527648705 0.0516669890579757 0.249884241604253
-0.178414491391976 0.0598049036320949 0.248444617173732
-0.165906965894858 0.075054476941669 0.245166293500484
-0.153894629784113 0.0797333485745218 0.244132762340937
-0.14256076339384 0.0875337620298772 0.241968605893674
-0.14646704271401 0.0972046192542477 0.238357867888896
-0.135592593885059 0.103841341098856 0.236512613171836
-0.117528213035217 0.129034076852267 0.219115358805522
-0.291923230855588 -0.0620307489016237 0.241163870063308
-0.288258333985651 -0.0606413199870794 0.242398267800682
-0.284045503643005 -0.0499522282992666 0.243368408924753
-0.27760013822609 -0.0444982729621092 0.245279479267016
-0.274784418924136 -0.0414216055981192 0.246083859302526
-0.266917444746602 -0.0319689454863037 0.247888177078418
-0.262774443195436 -0.0225048347948542 0.247957465539083
-0.257847300530606 -0.0182049363633904 0.248935689918109
-0.248061255104853 -0.016868151591896 0.251035183950507
-0.243413248564461 0.00322112963204354 0.249679000984468
-0.241997139622859 0.00298913781180695 0.249976835888757
-0.229429830284065 0.0171421977806763 0.250295813191954
-0.224706854283857 0.0122431104235659 0.251880565063299
-0.223857269821715 0.0198153299689147 0.250953726260277
-0.210415755545427 0.0320978301060597 0.25068581598153
-0.209508270228892 0.0317087279092324 0.250888612168294
-0.194838506105973 0.0519039174885851 0.248786004833328
-0.187129818811504 0.0635684094229063 0.246151928833736
-0.181387500418139 0.0682557662087161 0.245434037173858
-0.170857583223134 0.0740412494700527 0.244991311759672
-0.165595917688975 0.0873174935862185 0.240970173349911
-0.156519276089426 0.09505869623147 0.238649460597545
-0.142456181389316 0.106484557632082 0.23487172696848
-0.13255796574688 0.127602599808533 0.22064784250102
-0.296260362442131 -0.0486529683054963 0.239001939253159
-0.294677928135091 -0.0444429579705863 0.239366438714893
-0.291986834541203 -0.0382169426309133 0.240029878405094
-0.283974575145112 -0.0346814033985324 0.242705299309566
-0.280061521194189 -0.0307513388072073 0.243644394229831
-0.275006761948655 -0.0236186954502707 0.244297459216698
-0.263672714596119 -0.00856351606995522 0.245882605668037
-0.262155473491618 -0.00495941517014229 0.24589018430037
-0.255038060904013 -0.00502317269872925 0.248111453573352
-0.248839386409916 0.00608362168259966 0.247832920670142
-0.24202222505916 0.0144118921845696 0.247946840248291
-0.24062630539713 0.0173683754451518 0.247713831719693
-0.22777780822485 0.0253222210849132 0.249431760292454
-0.223625811169816 0.0354015547019551 0.247718453516296
-0.219872524261663 0.0393495779025332 0.247433283890063
-0.204765939438429 0.0519034274972418 0.247176381044645
-0.194860856693227 0.0566343018716442 0.247312280814315
-0.197965254989527 0.0602793030547438 0.245779092592614
-0.187544301664011 0.0740550388703556 0.242829219517011
-0.175001895023494 0.0843918111770921 0.241130705111481
-0.167768616793039 0.100830770564626 0.236078166138897
-0.161263614848226 0.106670905540253 0.232993081065549
-0.141108456583366 0.132718587606568 0.216155498112681
-0.306083807656091 -0.04520923495978 0.235077674542467
-0.299973449147326 -0.0348674437075634 0.237042208764665
-0.295804114398535 -0.0334118720463092 0.238452348143414
-0.289961489068137 -0.0294703275688384 0.240240339092767
-0.282942527078995 -0.0142595009761093 0.240477673932028
-0.273109138305566 -0.0133091958538208 0.243559698677216
-0.268476189779724 -0.00426134673680479 0.243834941049904
-0.264270877589289 0.00686956851357991 0.243551585729201
-0.252401200217805 0.0136308308341932 0.245335610857636
-0.251082036055354 0.0112225238743815 0.246181253444352
-0.250287648413043 0.0177468087779968 0.245056655997965
-0.239405574938155 0.0318589312716735 0.245070930442185
-0.237499713586987 0.0383170040147204 0.244097505945477
-0.232094793986396 0.0373740479316046 0.245456648485894
-0.220529964145226 0.0567563553954186 0.242630526476226
-0.214795761788269 0.0523780360769508 0.244994734142521
-0.203096691783506 0.0646845025404771 0.243748461613457
-0.192054638229226 0.0764898133489616 0.24140771152693
-0.189097699787211 0.0879822293285785 0.238015790864284
-0.181309835463491 0.0959184469066075 0.236459710406209
-0.172222311745701 0.0987031156880099 0.236624578870707
-0.311438193416193 -0.0367726569159538 0.230466226024957
-0.303489841470696 -0.0359775123352202 0.235847419123589
-0.298602611507929 -0.0238145603049026 0.236611818737575
-0.295200133300697 -0.0189799806997222 0.237074287587488
-0.284976358252068 -0.0168084818441488 0.240154587315701
-0.285423106175417 -0.00896228781207708 0.238933361227918
-0.277200068032835 -0.0045421120331199 0.241045014502694
-0.272859962765125 0.00339208943757821 0.241393089790746
-0.270114788814715 0.0132773493708489 0.240534884524882
-0.258490263184567 0.020730183848179 0.242210227305804
-0.253863451768004 0.0277487731989003 0.241994988066703
-0.241797177415534 0.033651574535954 0.244065077803036
-0.238415517496134 0.0377612827317968 0.244058256044477
-0.231593213295304 0.0603844876971036 0.239193110881377
-0.229197073156341 0.0522834743584154 0.24201277930859
-0.214391098443989 0.0719464110520915 0.239657699064545
-0.2130751632508 0.0795120550575048 0.237532943781937
-0.201483715978113 0.0894117524305432 0.235848692190685
-0.192260032544312 0.0921059764578125 0.236220783810297
-0.185576240685657 0.108620539288492 0.227650325635269
-0.169027157872364 0.123985966494829 0.219795227341739
-0.310083100453096 -0.0181637315632572 0.228393846667562
-0.308324140228905 -0.017662517922332 0.229434313475819
-0.304128937168995 -0.0149518033771026 0.231494916539911
-0.29676348099678 -0.00258799707892065 0.233000066519183
-0.292464534647341 0.00151089361728124 0.234710266065883
-0.289864400379494 -0.00351451894053572 0.236720721965156
-0.281583956015555 0.0085463109789254 0.237805822481076
-0.273535776483314 0.0228198173564024 0.237487267194345
-0.265882072253865 0.0286433155185184 0.238390835746457
-0.261983987274402 0.0382367203699402 0.237408399673823
-0.2501878065439 0.0383569046126759 0.240728570121394
-0.245217858671289 0.0512653442366352 0.238814281478989
-0.241751867620586 0.0603189270202049 0.23700042672004
-0.232159819431707 0.063901862469505 0.238071968859009
-0.225388016884261 0.0727411263998615 0.23703850354192
-0.223688750099539 0.0731571710322754 0.237290367762055
-0.215952404195792 0.0823809832141565 0.236191478854023
-0.201097399052816 0.100691562095197 0.22865628717575
-0.192241047452181 0.110457279382749 0.224566925360779
-0.311893343720647 -0.0174869848535009 0.226991739967696
-0.313901467520308 -0.0103849314839301 0.22367192531856
-0.300449858553434 0.000701511981787654 0.229613823126269
-0.298485964622912 0.00500542741913967 0.229735320152131
-0.298732831788727 0.00474571671368253 0.229641899530286
-0.290746554413289 0.0111098778436198 0.233225517653665
-0.286603628522663 0.0270024950267294 0.230066216692255
-0.280257859386486 0.0195392181852358 0.236294455409059
-0.271347446941168 0.0364696942462458 0.234636046313648
-0.267411152428576 0.0434345618163525 0.233841014260105
-0.258860807152115 0.050541421935033 0.235589734564011
-0.254080943444301 0.0504199584261947 0.236998346012043
-0.243731120104759 0.0694434776039865 0.232322642635118
-0.243169270504148 0.0695849367890878 0.232489468287565
-0.233616897286945 0.0790844746283819 0.231239848041009
-0.223693378962987 0.0936152756407053 0.227124930229638
-0.206998659037351 0.106360794515062 0.223214612241858
-0.204547226273244 0.115184879083616 0.217977460162154
-0.196474947432249 0.125809584647686 0.210811882501161
-0.320420968502502 -0.00883207330574669 0.218868003177839
-0.315121550112044 -3.82491215628804e-005 0.219979258322735
-0.308534647972338 0.000367814920836027 0.224284183862676
-0.305507199745961 0.0132839798208891 0.222726450527318
-0.301626809307576 0.022479195521874 0.222774476487343
-0.296785863921063 0.018442486873502 0.227142647536855
-0.29208976078117 0.0281416590081783 0.226403162975352
-0.286808814942638 0.0335330628058845 0.227062012948658
-0.270362275401358 0.0462586213685987 0.230910303824194
-0.271388800047772 0.0594876026930884 0.224472860669476
-0.268518758627821 0.051877610779604 0.229488859891533
-0.254710901672895 0.0610511910405704 0.232303754351926
-0.249789334878379 0.0735451597333939 0.227283076233188
-0.240363275855202 0.0964393945143577 0.218263229405839
-0.2298949052339 0.0934308533062883 0.224622187996711
-0.228472954690431 0.101422625682805 0.220560864346422
-0.213256626269789 0.113199679943627 0.216889373603197
-0.3223216823409 0.00955930226212626 0.209526632563077
-0.317303168724779 0.0146807866525812 0.213619320717813
-0.313640157833959 0.0216922355950846 0.214691219090069
-0.3101494112848 0.0192986194696368 0.217942084905125
-0.306789495781783 0.0269478259315576 0.218070527981777
-0.299159950493373 0.0319707454674417 0.220639055434306
-0.288552857236602 0.0375618338729994 0.224277146456892
-0.280195508451526 0.0585908815570968 0.219797099756225
-0.282061047196574 0.0537750535862773 0.220850922278608
-0.273124306455487 0.0639043805053213 0.221521439797313
-0.261293824909702 0.0800270871820079 0.218465802440371
-0.262447458134358 0.0792891319527371 0.21838099178076
-0.247855843998371 0.0957260446011199 0.215362904673695
-0.236145414431236 0.100668741870597 0.21769140688573
-0.32058518009088 0.0167906022932925 0.207748360486528
-0.31482137357757 0.0316232715899978 0.207211423203914
-0.315132817796249 0.0232146110634255 0.211691765102002
-0.310424928016181 0.0348165887566994 0.210389351942559
-0.301583002994823 0.0346332483692816 0.218066916805067
-0.297166858317013 0.0475443056666704 0.214625154428844
-0.288672429403545 0.0574815880560709 0.215405214615848
-0.282501718311227 0.0652156660222384 0.215541217176964
-0.27999130121137 0.0712891724332123 0.213358058670232
-0.274865597544866 0.0726222295503736 0.216665930123485
-0.265051951456307 0.0818142506626833 0.215775706150431
-0.256250271812141 0.0885804951852851 0.215768519587884
-0.249907278261337 0.107450863929897 0.199457756552554
-0.239299565504189 0.113153579724895 0.202413895017534
-0.322798224738182 0.0319466788398536 0.195753506918919
-0.317218007421675 0.0457009515462402 0.190906899874187
-0.311129275312548 0.0481623556058765 0.197112196204164
-0.305598705016963 0.055344845991469 0.197135550087189
-0.29976145212774 0.0525122676601884 0.206853323407403
-0.293335299593848 0.0655323091476267 0.202529295787075
-0.284785678296994 0.0743989605493739 0.204647349726464
-0.283277098674652 0.080150662320002 0.201123500279918
-0.279695852134392 0.0778063358711305 0.207650054598793
-0.265122235712105 0.100152623271515 0.194148542766919
-0.32189512896874 0.0436906748845388 0.184839632473125
-0.309608013458631 0.0703656357042114 0.167363226592222
-0.302887649641661 0.0799181986229394 0.165999800155383
-0.301356756687603 0.0679422958605968 0.188574255782335
-0.296853283572867 0.0787230332594629 0.181279251736413
-0.295321843721772 0.0812271469046607 0.180524305350343
-0.281324948286678 0.090498782997189 0.188928781650173
-0.284460705135115 0.0859068099060955 0.193159638566524
-0.25148116757968 0.129329508244166 0.15475533230928
-0.313104257307817 0.070626101609861 0.159096212888323
-0.302517032361972 0.0851363278465527 0.15787305383688
-0.297398754554894 0.0868734523041547 0.166339644331032
-0.30650183514878 0.0904418500037463 0.139854629344712
-0.361413954084361 -0.147989962243544 0.133570069348917
-0.364276730836343 -0.137443976037841 0.137491437506093
-0.363470687610924 -0.132736819112424 0.141476637819419
-0.364073418887802 -0.119345011420412 0.144719951816079
-0.363255345437826 -0.123930387609905 0.145319225576678
-0.371646681729875 -0.094765476092467 0.132596504383197
-0.365592942420833 -0.10199856449141 0.146855953092448
-0.370207899785511 -0.0810482259016479 0.141665926418952
-0.368181008845829 -0.076339881982306 0.149064023793625
-0.349408360213599 -0.158876724507682 0.153095072608099
-0.347409288978272 -0.157142170863447 0.160173388370069
-0.349323473006622 -0.153871630857649 0.158716121781259
-0.354029088691111 -0.141734368206022 0.159554313050291
-0.358432783107277 -0.125000252408273 0.158405342558521
-0.351566139428932 -0.135265710318999 0.172948456628077
-0.359160597222905 -0.10953184674185 0.162063196331876
-0.359400934635227 -0.102438922743215 0.164001535939621
-0.358453524738028 -0.100085378914357 0.167515773730285
-0.361917322266003 -0.0834228635776192 0.163965545653404
-0.362218643935161 -0.0774662419181432 0.16531527760607
-0.358968821144029 -0.0769117013272461 0.174603105481738
-0.36291947586558 -0.0443197261490676 0.15367189425453
-0.343086143842517 -0.167095298435266 0.160695428809103
-0.341936372499004 -0.1657060385969 0.165189063641665
-0.336404791164012 -0.167555455891106 0.177601695580387
-0.34503148168176 -0.153074744755562 0.170755099970795
-0.344184491597015 -0.148860767790927 0.177507648519692
-0.336743166499945 -0.154113503242018 0.189651633995234
-0.347531066980569 -0.137299563091573 0.181033664891036
-0.344167183672521 -0.134144593955616 0.191561655636717
-0.346720647311199 -0.120444810545849 0.191032977644581
-0.352116323602494 -0.0995309801894599 0.184641510781824
-0.346571972126178 -0.110280907936719 0.194350133941427
-0.349977213901815 -0.0952887710987243 0.191166715029239
-0.353458623445594 -0.0807858322096346 0.187364077593003
-0.348717624899609 -0.0805219819748294 0.197036736611009
-0.361568327325701 -0.0146609629438468 0.146534457690572
-0.353230654659658 -0.0310100059141687 0.175855829671027
-0.353055297941999 -0.0241717224641812 0.173829563862443
-0.332532618656826 -0.179288597847554 0.175028660783374
-0.328169298465853 -0.183241927271869 0.181781597334274
-0.328061660220705 -0.179612630130473 0.185412730591894
-0.329279148460014 -0.168835526785563 0.192730558011335
-0.33453999879539 -0.160809396001229 0.188366013792103
-0.333420100448192 -0.153579668412163 0.196237250073738
-0.336686418811612 -0.147044054996048 0.195447313990635
-0.329486482512412 -0.145725688389664 0.206389902742401
-0.329436615818856 -0.14661085237562 0.20594239613891
-0.335875163490134 -0.128772928825137 0.206875629482326
-0.332515362567245 -0.125282004061177 0.212665763107935
-0.331960928559435 -0.112011558059908 0.215630802626761
-0.336764566512564 -0.10635621409921 0.210001305517426
-0.34162910331366 -0.0903545448588306 0.205820408230417
-0.346125488304566 -0.0721170057160351 0.201871646747239
-0.337360685024871 -0.0721079030470348 0.215157130780138
-0.346613662705692 -0.049335650541171 0.196584809439618
-0.342869274823617 -0.0393831256402444 0.200274885774026
-0.341411777082439 -0.0290046357693963 0.200413058048586
-0.322398104003525 -0.189498049629137 0.187275862186988
-0.318925759366343 -0.191524487855034 0.190987171100619
-0.317462959319266 -0.185960345690815 0.199021303981652
-0.317383260222664 -0.185013440462054 0.199999399524022
-0.320770932613638 -0.17157932925046 0.203573912122758
-0.320628177879705 -0.169576811651459 0.204947346820506
-0.323256853970863 -0.159494699777635 0.207133416493141
-0.323042964419165 -0.154279434893515 0.210487273848886
-0.323756268710413 -0.145765712584076 0.214461395915291
-0.326420616716819 -0.137026092232488 0.215467809003369
-0.32005646188868 -0.13827758501511 0.219388475707958
-0.328592346789397 -0.125110436186028 0.216814102621997
-0.322208984269732 -0.119515973035454 0.221938521117273
-0.327348571491965 -0.105248001813723 0.219591346954605
-0.331701991691937 -0.0933275562834448 0.217587564203713
-0.333039465037155 -0.0773987189580933 0.218134271907984
-0.335957573052235 -0.070723247990537 0.216035794346854
-0.33562784695625 -0.0494590912889472 0.213263766068763
-0.337392887357783 -0.0388855911426601 0.208477701611207
-0.337037566059066 -0.0287745482265068 0.206998370013711
-0.336602340274993 -0.0254335052722481 0.206991349696259
-0.311585504945146 -0.201578047937513 0.190263040428465
-0.308264950285926 -0.19862736748233 0.198388388546973
-0.310627230365446 -0.191111352921682 0.202518909116754
-0.306744716540853 -0.189834196312326 0.208417567412019
-0.306739794923515 -0.187078609032433 0.21098853751379
-0.314247708893914 -0.179107922138738 0.208383747680707
-0.306946967797783 -0.169939811849483 0.219384834106822
-0.315582376989823 -0.160837637408662 0.216121843555778
-0.310088466805129 -0.154896572489664 0.221456990666856
-0.317099133340616 -0.138658446426914 0.221266104153628
-0.310180302008524 -0.135601118441438 0.226755802580537
-0.317131742011394 -0.128645799248864 0.224025813428229
-0.311908231932191 -0.130253567512254 0.227082491764417
-0.312326077370898 -0.119323789445447 0.22906978627343
-0.320383442905252 -0.102978961601211 0.224819382419096
-0.314302827925331 -0.0968800183928816 0.229773705333973
-0.322157197508551 -0.0778988220252986 0.225919212568809
-0.324140033433299 -0.071902907778081 0.224653046605826
-0.323118334091201 -0.0548085594040496 0.22376862831276
-0.319705682378485 -0.0538664452255225 0.226135556882837
-0.328696225477624 -0.0271953903848823 0.217137559135075
-0.32789241859845 -0.0135119945067628 0.215157130780138
-0.326909137432057 0.00736855520853966 0.204327973824519
-0.293341896740117 -0.212941028725917 0.203167710677071
-0.301540212977989 -0.20398203217183 0.201561779245446
-0.295762094252442 -0.203426990617135 0.209087804418789
-0.295793529723243 -0.200510217945947 0.211764707294258
-0.305120645320605 -0.187387618043416 0.212665073460433
-0.30419541926512 -0.17507692555274 0.219803130850829
-0.305582367163703 -0.169429600694825 0.220441790548994
-0.303008689820682 -0.167212343773753 0.222783884502153
-0.302907511960247 -0.156090443591496 0.225941480120491
-0.30243410054829 -0.152117137524902 0.227362800413417
-0.306871750282247 -0.140795694805426 0.227531709196498
-0.307338033734439 -0.139745447756169 0.227510745692904
-0.30322747987773 -0.124743055115154 0.234407117744798
-0.304330953287015 -0.121851691615865 0.234469036956999
-0.30492428012018 -0.114593153038231 0.234809041097354
-0.312273671475231 -0.0913882506568041 0.231754526883673
-0.306639912035336 -0.090075041569591 0.235759836484792
-0.3144218417542 -0.0790935535371002 0.231373397496356
-0.308765962363808 -0.0664297238311555 0.235156404881245
-0.317347805707113 -0.055904166459905 0.228025682258305
-0.317557083730098 -0.0370224971996487 0.226085931879351
-0.313064512043871 -0.0301532654795243 0.228668492580326
-0.317195620996441 -0.0202404533302917 0.224200516771226
-0.317911090532699 -0.00371275737404162 0.219129159572718
-0.320814797211667 0.0227283363648358 0.20394953386926
-0.285468006088821 -0.216989871619124 0.208950632599
-0.285063086423149 -0.211128388108195 0.214897915863527
-0.288279171300796 -0.206180577056308 0.215368394719017
-0.2857906115089 -0.19720638046725 0.220767565465107
-0.293356355218364 -0.190931922248841 0.219183077457919
-0.286019839854458 -0.190990628406832 0.223382451404503
-0.291827399016946 -0.179910912098739 0.224934125003499
-0.293741231437715 -0.169113801112059 0.22847118730213
-0.289937634948103 -0.164241714109914 0.232375698196689
-0.291600966850717 -0.162670266789365 0.231696685788867
-0.297195742556236 -0.149993972378428 0.231465914914383
-0.294779747962963 -0.137138035863415 0.236116442258928
-0.301348395932067 -0.125378533116027 0.23546960391838
-0.29592984275324 -0.119130482570794 0.238200589354699
-0.303210595784833 -0.110818118825048 0.236007440406132
-0.301822004677344 -0.0974439436889397 0.237123913526928
-0.297252789087201 -0.0915618981828075 0.239018277941487
-0.300083375864063 -0.0838375040660635 0.238375319093086
-0.304230987682982 -0.0753482472515275 0.237301158505068
-0.306340484026345 -0.057705717360513 0.235850939381708
-0.301668255319831 -0.0559570300558916 0.237425679733687
-0.300833232010182 -0.0396898182946924 0.23696247744307
-0.30293244649034 -0.0174560522146466 0.232993081065549
-0.313897115129246 0.0100865270084572 0.217987738255021
-0.314148444364248 0.0318165617181075 0.208048948216575
-0.309704061441825 0.0292866505257299 0.215466033235661
-0.275537537363073 -0.22549025740238 0.212070225505732
-0.274233264664701 -0.220753838302972 0.216995819871184
-0.275348113439382 -0.215339751367341 0.218768094575778
-0.280585278359009 -0.206261267321878 0.21976387769985
-0.281667486984882 -0.193950717108027 0.224580959524675
-0.283408873043915 -0.190638922457888 0.225041613139844
-0.280021751776422 -0.183793641618765 0.230017467983455
-0.282064281635313 -0.176749496439262 0.231954108410999
-0.286845664434999 -0.161376859068976 0.235201156120937
-0.288630136679963 -0.159206510702071 0.23461891826737
-0.282208640783357 -0.149820720916976 0.238533877319135
-0.281322166264736 -0.14871235357296 0.238978390092939
-0.286143073767313 -0.138790314622212 0.238743488925421
-0.286527273057954 -0.128998992515388 0.239956374040119
-0.292730638308551 -0.118273258323417 0.239374750417688
-0.292579445241501 -0.108573235318367 0.23988107170496
-0.287966000772857 -0.0897404119382392 0.242395557429721
-0.293987821277106 -0.0859308660381753 0.240438557091653
-0.296341904840675 -0.0723539952718012 0.240079211396679
-0.295825446153581 -0.0674540257964906 0.240033609066969
-0.29455345219879 -0.0578481971665017 0.240036219196709
-0.295921972011519 -0.040427545166884 0.238738003463883
-0.300690574330925 -0.0303365295167199 0.23657651227592
-0.301614644249888 -0.0142745961732208 0.232993081065549
-0.299837453514881 -0.0047746152005288 0.231545857897121
-0.300784347168474 0.0128219795502639 0.226022341010093
-0.271039916438408 -0.219688544808583 0.219020579241661
-0.268519005072372 -0.220226569326642 0.219824772357577
-0.272633390188592 -0.209144739441945 0.223069324324727
-0.266448128011527 -0.210753974974421 0.225920437290792
-0.269668883321675 -0.196113208547991 0.230535650600492
-0.274812715860764 -0.194625528097025 0.228230609578779
-0.273371213055802 -0.18598955049654 0.232877281090394
-0.274975065254584 -0.179236250803294 0.234899906506874
-0.272449857736327 -0.170283907029284 0.237934431055707
-0.271209431204345 -0.164028517110627 0.239647954632781
-0.270222264315636 -0.152723641145689 0.242096370192255
-0.276341257978062 -0.1443207265425 0.241224773373144
-0.281029100504172 -0.135540796414798 0.240877548747191
-0.278026946178598 -0.127803382746532 0.242928072008772
-0.283581607273453 -0.119781817136422 0.242190720987693
-0.276517554669551 -0.116135747509713 0.244902963757648
-0.278828290899131 -0.0962872656456402 0.24519113262413
-0.279061384816112 -0.0870338749240126 0.245519848684506
-0.282196403497025 -0.0778061262801175 0.244879138238379
-0.287949327667616 -0.0749662754695047 0.243084282885733
-0.283596372376858 -0.0610321997169076 0.244005006708882
-0.2807240726552 -0.0403130557288034 0.24405324701003
-0.287502057108808 -0.0372080595880611 0.241572693573145
-0.286336574031241 -0.0245761117639755 0.240768129892898
-0.293560640446756 -0.00779723867695976 0.236085694125624
-0.287669911788775 0.00609785427834372 0.236130355233995
-0.288255590688113 0.0206233143924543 0.231933931254635
-0.295575637746217 0.0436649547344032 0.217535387289802
-0.260981428883168 -0.22976962045495 0.217659699371385
-0.260671240890088 -0.220302709964797 0.22324905542567
-0.25993662328922 -0.215800849047555 0.226166458201536
-0.26206043273794 -0.210215792542227 0.228444491006365
-0.2592649979175 -0.203131402401246 0.233417544620912
-0.257816020537748 -0.194084560460573 0.23690494591931
-0.265387801106571 -0.187708377754799 0.236144922868798
-0.262668969853987 -0.185506799062442 0.237395426890643
-0.26567357810418 -0.175583875820267 0.238703051585541
-0.262436394697716 -0.170685368358413 0.240687654598417
-0.268120524566765 -0.161725768407974 0.241025463511515
-0.264522275906724 -0.148858234508927 0.244418271227529
-0.270200589066815 -0.144151807883301 0.243258839426339
-0.267337014333919 -0.129747708514706 0.246004385545365
-0.273437891296515 -0.121952578588438 0.245111369362225
-0.26966428596478 -0.116078669758572 0.247041240952419
-0.270034500589863 -0.107375798270808 0.247638291648074
-0.275285227455798 -0.0864903695357413 0.246803734152012
-0.270391205063436 -0.0814871771814206 0.24865653367047
-0.275482824985456 -0.0697497100740972 0.247095248469942
-0.273280152016386 -0.0537319444429241 0.247126578600296
-0.270365219316234 -0.0581401030340436 0.248292865808905
-0.280628169001629 -0.0405824144632116 0.244097080375864
-0.278707635695211 -0.0347808668916996 0.244483057419932
-0.275738510397867 -0.018378231029603 0.243394993243922
-0.27966066784973 0.0120350514113003 0.237963798059314
-0.282261426276081 0.00979245365015481 0.237411501937651
-0.281771850693845 0.0414479308930344 0.226465160988288
-0.281748191505062 0.0402384462874828 0.227013290283296
-0.24985177354654 -0.232929173814423 0.22075850777469
-0.251755573528718 -0.223963677476666 0.225080664588951
-0.251672044165725 -0.214848264367183 0.23036741638215
-0.249571973664218 -0.212929002635563 0.232400853133371
-0.254186494509703 -0.205171718750228 0.234793228091378
-0.253007727344354 -0.205325838462388 0.235216921891776
-0.248794398271727 -0.194283700122892 0.239420845145563
-0.254397155944997 -0.18621595139772 0.239587604183883
-0.251244196393164 -0.175878718353907 0.242732187774961
-0.253950443020033 -0.170544155722368 0.243116916319346
-0.252979584092134 -0.165286010759877 0.244453437719358
-0.257123884065135 -0.147608561787269 0.246879645490442
-0.258488020892337 -0.1406626078029 0.247350082355388
-0.259092625816852 -0.129647530291982 0.248580762632386
-0.262909708606075 -0.122343610382533 0.248334594802459
-0.255047868012466 -0.12239370361448 0.250311883693896
-0.263611485261763 -0.103218673477595 0.249746108731483
-0.25991401129222 -0.101882429091825 0.250650481480956
-0.263288831686881 -0.0864521437038498 0.250336823580672
-0.266764846419945 -0.078288327941063 0.249776176965893
-0.266778575332246 -0.0677093216702357 0.249708250675577
-0.261356149725141 -0.060334073930725 0.250747591229411
-0.266492286087771 -0.0422531560684627 0.248887266973241
-0.265117854250689 -0.0280746712745597 0.247946175698348
-0.272370037919041 -0.0146710164340383 0.243964905405173
-0.26724023527348 -0.0124981293821668 0.245280089856521
-0.270987351778728 0.0128473830974305 0.240380949324737
-0.270952874934734 0.0156887366129019 0.239772238822708
-0.270472252000843 0.0527921941054075 0.227959606282174
-0.272093400376492 0.057846723853865 0.224792208144878
-0.238481044677312 -0.237077336980348 0.223394483115415
-0.243294449051709 -0.225396859269982 0.227994447380188
-0.241607809484994 -0.220592369285124 0.231506866958992
-0.242781904922572 -0.214679323472462 0.234366047533657
-0.240705063771552 -0.212273780917042 0.236135646237116
-0.245397508691125 -0.197301930838834 0.239361422514216
-0.246809166475379 -0.194129194556979 0.239954179683414
-0.246981829183539 -0.184647817043006 0.242032521630022
-0.245326306276237 -0.178793269018871 0.243729527983562
-0.245928516421415 -0.172297824289044 0.244899529266026
-0.245451507100477 -0.157035132537503 0.248153934405366
-0.245285343133984 -0.156260403151895 0.248357028855696
-0.24533630738494 -0.145315458072966 0.250181149804747
-0.24390766788844 -0.139411741648557 0.251201991202575
-0.253160490657427 -0.121565897028235 0.250797126675648
-0.252506467219397 -0.110505215845717 0.251936225435855
-0.246850012251759 -0.104863150034409 0.253609083604278
-0.256547046933945 -0.0933148503886525 0.251699967273912
-0.252842277946811 -0.0878206044568601 0.252733854677121
-0.257918691242251 -0.0803212677976058 0.25177911654336
-0.25207760063342 -0.0631633727075897 0.253000946253081
-0.254727202386787 -0.0645967920787317 0.252426369904928
-0.258032802290497 -0.0474567252867322 0.251127704904019
-0.258946993282143 -0.0378833523012468 0.250560669225433
-0.258341851717841 -0.0217467844565555 0.249238084321369
-0.258489744112193 -0.00956098624965185 0.247622644209401
-0.258272796300602 0.00583823606663451 0.245364413437827
-0.258029239566021 0.020041880644301 0.242490836348893
-0.268795503996847 0.0461750807957448 0.231849572940488
-0.261198277974912 0.0411215708765262 0.237003330023843
-0.229101677784399 -0.239894684458031 0.225916879285254
-0.230678404761562 -0.23238074469762 0.229547583643806
-0.232830353723328 -0.223431186542935 0.233736040834091
-0.227047225989468 -0.219534941756605 0.237048771875369
-0.237389627497376 -0.2102844139211 0.237421675048286
-0.231592597220179 -0.200919497070489 0.24134017450782
-0.232559698254532 -0.197786139904696 0.242018529411182
-0.2314047911503 -0.187739233823525 0.244994043676488
-0.23417772788943 -0.183139308023919 0.245654131004912
-0.238126535608629 -0.167711690261494 0.247922322413062
-0.23533924848334 -0.15834306288022 0.250181266789243
-0.235652002741808 -0.156772785765625 0.25034795216323
-0.240089238096937 -0.142933135478009 0.251503010973922
-0.241513319160198 -0.135396495241004 0.252084792711714
-0.234823532068335 -0.130333660251074 0.25399657036166
-0.238860259405772 -0.122889385305282 0.253789179257382
-0.237618464804327 -0.113987983083412 0.25486156366034
-0.238727873448712 -0.105765833290065 0.255361177529022
-0.242552807514125 -0.0905693130418701 0.25505178247947
-0.243465957712641 -0.0828255471908131 0.255076610139178
-0.245096231362405 -0.0689729866760196 0.254809559063319
-0.242594094693138 -0.063523190680663 0.255226246749432
-0.245536903153585 -0.0464153264953262 0.25401327735347
-0.242411753465482 -0.0377790612011298 0.254148872117996
-0.247949737327429 -0.025582728992345 0.251844815126765
-0.25349019688461 -0.0103700769575209 0.24926838517299
-0.246226508499039 -0.000128765456067464 0.249633638829233
-0.247178458453532 0.0178694575909296 0.245861701608842
-0.252816060603819 0.0338809512243431 0.240957290978422
-0.257562483726156 0.0540255863529359 0.234813260145788
-0.257953940478624 0.0667205960060746 0.227605390447008
-0.224651889659708 -0.237844266315404 0.229064255337616
-0.219835622984318 -0.233369616779757 0.233754548206129
-0.219854499934068 -0.227530886885714 0.236346163002361
-0.221714903562981 -0.217663897441343 0.238740260152968
-0.221144399691133 -0.217875089050594 0.238804533756669
-0.226375535047396 -0.203088403107124 0.241860523516988
-0.223443637812209 -0.194849716125384 0.244726590033763
-0.222615651359572 -0.19277538939812 0.245450087804689
-0.228982757567995 -0.178586368848052 0.247934147964114
-0.225222272560302 -0.175779952279323 0.249389120432014
-0.231260441614095 -0.16557445614978 0.249906615294423
-0.225146051783326 -0.154915116811861 0.252577131215361
-0.229648073425749 -0.148133698861888 0.252708202759881
-0.228630956895779 -0.133912061027929 0.254937077754505
-0.226531559125604 -0.136027088800139 0.255026099982838
-0.225305732113913 -0.122811606081589 0.256745271583082
-0.23430105467889 -0.109318071067548 0.256004196531516
-0.23228847541423 -0.099285350697964 0.257180413211458
-0.236746909283811 -0.086786036792424 0.25652365554008
-0.230258906649119 -0.0796694887290986 0.258257248885188
-0.237843212362899 -0.0654111104563196 0.256393530510784
-0.23900768673407 -0.0682791158396645 0.256209803840312
-0.237708976961296 -0.046911200075053 0.255856209809005
-0.241530368490301 -0.0362327945814914 0.254201285242846
-0.237796339802295 -0.0276814680809283 0.254243048860587
-0.2384790551355 -0.0226357093962493 0.253639779504621
-0.241154414083777 -0.00152290329881245 0.250781140649316
-0.24306088257741 0.00578952092704325 0.249376624644468
-0.237687318345087 0.0374929667184066 0.244279092583528
-0.245240236822851 0.0351044333574686 0.242840073723654
-0.242454033788514 0.055472218993993 0.238222493310243
-0.250055081402573 0.086266741445638 0.219838897927422
-0.212903046762727 -0.236563451751666 0.233568423757602
-0.215793157879116 -0.234584428484245 0.234082551103977
-0.216518500445072 -0.22966767277991 0.236383741411168
-0.215353294811373 -0.222436275654934 0.238771197038265
-0.211962090795336 -0.216816393738122 0.241103620266229
-0.2111916941356 -0.209666219619729 0.243280681128444
-0.219060768708717 -0.198616183592329 0.244618886611536
-0.21615192341468 -0.18547580734997 0.248723421126534
-0.218460537493091 -0.185502269397475 0.248243363672312
-0.215046134294908 -0.172303368851866 0.251497533998549
-0.215117878084145 -0.168717843530119 0.252157143583486
-0.220558080437447 -0.153555910950746 0.253629174883748
-0.214275960909658 -0.149061956637076 0.255447145697839
