ply
format ascii 1.0
element vertex 846
property float x
property float y
property float z
end_header
0.0871393845232951 -0.0700862370692756 0.266160363556852
0.0968212361261658 -0.0815643110252583 0.270537837347576
0.104536864136343 -0.0865621992004929 0.272133322548012
0.107371674018663 -0.097232184061178 0.274490926107146
0.118535645475362 -0.098728145131722 0.275635828087587
0.126146530176282 -0.105150486099898 0.277406904472249
0.128216793102641 -0.121199637623658 0.280021605126639
0.145970070524518 -0.123871295665365 0.280373307172395
0.148057316468253 -0.134633058514985 0.280921024277317
0.165329556430932 -0.144000773371257 0.281443647357161
0.162357135747984 -0.146171396961087 0.281544052506692
0.17230163524802 -0.153961583559694 0.281872614510265
0.183620109155144 -0.167465581627827 0.282360214971365
0.194957346745987 -0.175279338417904 0.282433474828633
0.20304973513818 -0.189036889304481 0.282628338354589
0.217388451387083 -0.195752163511156 0.282202090920921
0.220412920670886 -0.210541848472673 0.282291252690458
0.232392230613849 -0.214749765563705 0.281706205540841
0.238745717987208 -0.224471722923267 0.281415347342977
0.247971737825964 -0.234652739839837 0.280898555372882
0.261687965575485 -0.236530237071964 0.280202278270078
0.272674896692012 -0.255567288353969 0.27842170727928
0.285411601557092 -0.272543514166184 0.274628954658156
0.307120318614133 -0.281935985960709 0.269151866691455
0.303336312775061 -0.287695783465644 0.269498972914509
0.330925229345043 -0.308166042538988 0.258644011607458
-0.0202978428920365 0.0399296332541518 0.0325027510952067
-0.0155383620436471 0.0449348035985535 0.0325027510952067
0.00160657740172197 0.0346547560863552 0.0325027510952067
0.00669258912453595 0.0216075459273172 0.0325027510952067
0.0118463241568902 0.0114369277166654 0.033332426852248
0.0146352224200899 0.0135769246207453 0.0465635556449912
0.0128306983378022 0.0121922645919484 0.0491298868028988
0.0186952219161857 0.01543661009675 0.0607068623733953
0.0146548255974312 0.0123601224089408 0.0605066668363206
0.0175499489413721 0.0127249304005045 0.0761129855130428
0.0156083012197875 0.00966638871406797 0.0892982481424982
0.0176224278693353 0.0106827557652972 0.093745777246073
0.0224971489144601 0.0128703162898816 0.106798919398746
0.0193479379397868 0.00976717219250597 0.112570661386587
0.0176188429320925 0.00753773052540405 0.12015789622595
0.0204966636928408 0.00863810736514427 0.129469857345493
0.021327578128093 0.00685216174623824 0.149840620535969
0.0209608787138059 0.00698098799557861 0.146392680789327
0.0208752045295787 0.00481357384208618 0.156182930799165
0.0252571777500423 0.0030225866519849 0.165967505312887
0.0254753198890279 -3.72369030024458e-005 0.172041141618031
0.027366209147349 -0.00429432597610123 0.182445987517153
0.0339314541966621 -0.00223701314354565 0.186627217381395
0.0348745525934717 -0.00682947934224833 0.196501241535241
0.0401333854453364 -0.00636357254375773 0.202092956983517
0.0381803602217862 -0.00772383988560993 0.202268705631318
0.0427426401812956 -0.013736948812961 0.218306677012143
0.0404658899388124 -0.0203796441158564 0.225075589976127
0.0453633042049341 -0.0224702967019974 0.231135346244438
0.0481244306920218 -0.0269266538145166 0.237663851510741
0.0512190893710771 -0.0229688556107028 0.235984587275787
0.0583113482461589 -0.0304484709467924 0.24312985083001
0.0678998066996448 -0.0352280956908972 0.249265062218039
0.072674143362595 -0.0405459328233493 0.253998754364041
0.0682629112968061 -0.0458543093295229 0.255466059795819
0.0814235616216489 -0.044691442450457 0.258117780505633
0.0888731699530355 -0.0595499291261567 0.263282424489567
0.0875052662924898 -0.0630237859069977 0.264142275665769
0.0949268012770266 -0.0645320070602058 0.2654116393454
0.10646392971534 -0.0768836701339146 0.270302388379743
0.108938816453131 -0.0781546674256126 0.270785852233031
0.120029451821098 -0.084516221146182 0.272914301096055
0.127118413855795 -0.0895838482007175 0.274390497572001
0.129438287583351 -0.10804293972025 0.278195612854851
0.142414701240799 -0.111887049930121 0.279634812918021
0.153631595731242 -0.121487888466763 0.280276107353948
0.152166605932603 -0.130603729757199 0.280730463457748
0.169036452320732 -0.142855177645285 0.281357429010899
0.173328547603243 -0.137025291214494 0.281025994398539
0.17629661034 -0.149956716030476 0.281634303914238
0.190554134638454 -0.163809048535843 0.282039869177214
0.196514042513943 -0.1688393374841 0.282125423785204
0.215671667959768 -0.181184026441647 0.281882634331117
0.210889529919708 -0.179891502501523 0.282052789326403
0.224728955472855 -0.193947176198515 0.281823075618167
0.235964763344175 -0.200608940791702 0.281391779008336
0.245423709736954 -0.207668985200403 0.281029462229762
0.256459379841967 -0.223297604355346 0.280520524819036
0.269745923065999 -0.234436998867478 0.279825698359027
0.276028434916611 -0.248443269809239 0.278036146443183
0.299446061479605 -0.268085788903388 0.272265590633827
0.311344057641934 -0.274107235954878 0.268942318431605
0.314722188504707 -0.290867785141723 0.26584857531611
-0.0108121926588658 0.046956818810053 0.0325027510952067
-0.00149615696532648 0.0433876376836028 0.0325027510952067
0.000307210296603498 0.0430667864157663 0.0325027510952067
0.00559291548849336 0.0285473182754589 0.0325027510952067
0.0146352437258429 0.022192344202218 0.0325027510952064
0.0239789347642188 0.0198088819354176 0.0446252249121423
0.0261443565155222 0.0207058289930653 0.0474301056652196
0.0251961718390631 0.0199483192059166 0.0537228787013204
0.0217214233520077 0.0173704841560455 0.0639699449243329
0.0273876389531374 0.0192621831348504 0.0693241907488418
0.0202391486008175 0.0134231848101835 0.0875884025575866
0.0286849553515051 0.0173797138374772 0.0930102953008192
0.022161732474898 0.012649184423996 0.10649428851386
0.0275191585667407 0.0146106129860924 0.115388452920693
0.030783253972829 0.0162486908107288 0.112588552736137
0.0283466091875407 0.0131414159348198 0.133124271436283
0.0296599094326213 0.0140962116962153 0.129103144679231
0.0345899880656594 0.0142245653157004 0.147835545483954
0.030916585018338 0.012356155848488 0.151230485666018
0.0338882910137912 0.0067103853577096 0.169599510952733
0.0381689490579697 0.00743889411313382 0.17211738063068
0.0363429976896171 0.00455939062806199 0.176702777473813
0.0399852702525256 0.00215282117440843 0.185753482567866
0.0408133968767679 0.00115186813150588 0.188672204192891
0.0470002108058685 -0.00389495235503643 0.205865224853648
0.045118788760607 -0.00638942121210359 0.208280922865102
0.0459659102987966 -0.00815405948021672 0.212671878882236
0.0544360917937335 -0.00458471428296605 0.216241744995573
0.0543189216025334 -0.0135214571102598 0.226922811152079
0.0614231343642674 -0.0135563285026063 0.232123370781378
0.0636774408116378 -0.0215164571345895 0.239930892254746
0.0709311686633304 -0.0235949903233126 0.243693774827242
0.0690583822475824 -0.0285196377947448 0.245842984517747
0.0739685362913276 -0.035755942095198 0.251721154772413
0.0781923540768063 -0.0359096982629912 0.253045547130874
0.0855587262578183 -0.0408968010474427 0.257337997221658
0.0970767382597688 -0.052567788278018 0.262138714827968
0.102642225192935 -0.0498172406291746 0.261801532274961
0.101702732034626 -0.0623625023959788 0.265536624962218
0.1092762445305 -0.0666504532860778 0.267633381832334
0.11404587408305 -0.0690943573255303 0.268879077360306
0.119817337607675 -0.0783180677231284 0.271655088526027
0.131313236997435 -0.0939201247728255 0.275524261645115
0.140503006505276 -0.0943988673663782 0.27588238898484
0.153381116693385 -0.100855155918668 0.27747315516372
0.151019717975231 -0.10944143027608 0.279231374964067
0.164488057205221 -0.116611835578121 0.280062958659478
0.169273084209054 -0.126926906434949 0.280568604981178
0.188596444701748 -0.134358580189949 0.280739244964539
0.186390667705187 -0.149737843268861 0.281502049339678
0.20199071440265 -0.151372540047483 0.281223978328528
0.207359648187929 -0.15964506216388 0.281429121598761
0.213998134263168 -0.169595138301957 0.281581753925481
0.22470253335401 -0.17731238644685 0.281397316204737
0.237226204177582 -0.188819899312365 0.281145355905271
0.250219589239478 -0.202062249845573 0.28073406519195
0.252776422310972 -0.208571863427421 0.280662157746293
0.264293152999036 -0.215182539130838 0.280102257701986
0.270608720092118 -0.231662287517792 0.279811284539868
0.293482204159259 -0.243393121167104 0.274619656725593
0.315429161791622 -0.267205022308435 0.268485872097071
0.311636115787738 -0.267773877133006 0.269665206974899
0.327074095735693 -0.276549262445795 0.264030460229565
0.00833621489116089 0.0509599579937478 0.0325027510952067
0.0157617249675185 0.0451820847819505 0.0325027510952067
0.0132874030237825 0.0425350893181742 0.0325027510952067
0.0260198941585228 0.0278273655195588 0.0325027510952067
0.0322316081739393 0.0240434550529566 0.0325027510952067
0.0349521795212449 0.0243541487370172 0.0447352106483442
0.0358988795526565 0.0240416640294946 0.0570495528482656
0.0301217012582891 0.0207472755676265 0.0658727657326659
0.0316475784526597 0.0207119760046912 0.0724048844092341
0.0349817695397381 0.0207973999496512 0.0850870451650214
0.0357987214207518 0.020637854603753 0.0899610168858849
0.0392034574058605 0.0213032113804525 0.0972526347428588
0.0388719404784936 0.0203549956109806 0.105189947613483
0.035828830962257 0.0173838787699477 0.121934026904161
0.0414815571871644 0.0191629123894587 0.127438995851597
0.042473637512812 0.0182602655868669 0.140296726686926
0.0427213791418382 0.0185882215552044 0.138091047673569
0.0433168033589724 0.0147934259881473 0.159529884624932
0.0438902813867369 0.0157028282660982 0.15791045217744
0.044451048837353 0.0134698399829921 0.16385266031821
0.0442559951811656 0.0103770171051422 0.171112771392342
0.0469388389804974 0.00720427583983862 0.181438833867931
0.0550706134716462 0.00846201820678764 0.186526042356946
0.0527629322683035 0.00270638844867008 0.198095243109494
0.0562262720383568 0.00262386840398284 0.201751976271618
0.059036753517629 0.00055083567141169 0.209554766431359
0.0611024064992485 -0.00259480734588501 0.217329631649848
0.0628060203144299 -0.00603899138723094 0.223319717859673
0.0637595918595273 -0.0144383746327217 0.234876218343942
0.0669384531133692 -0.0105749386558541 0.232127489629749
0.0771881482307629 -0.0164240906945498 0.240531686261198
0.0805303348702617 -0.0238804001367321 0.245865126578062
0.0824012015418169 -0.0244569006062069 0.246574546753753
0.0862458550544578 -0.0362107887216099 0.254734207484215
0.0976871165661186 -0.0372795072187837 0.257355856548291
0.103062157926792 -0.0431115192414274 0.259718282671497
0.100913272705337 -0.0482547405232637 0.261140886302571
0.116399304941842 -0.0567312619097047 0.265310613768164
0.121875039292033 -0.0606561454438197 0.267078759792468
0.125915042440448 -0.0659691582456229 0.269056245655205
0.137279513192318 -0.0794780397562562 0.272623243334502
0.134565420944706 -0.082192652753256 0.273142356173601
0.153406514746979 -0.0885298663020714 0.274908003702972
0.152015337862925 -0.0959354014593983 0.276432364486897
0.164944920935187 -0.100757091181549 0.277594664990506
0.168606254905407 -0.114221750662511 0.279948091687559
0.186882875456224 -0.124639320800972 0.28027678566678
0.190773746215028 -0.1301365044051 0.28050867363829
0.192611467492975 -0.137564431004873 0.280815472625755
0.207228443181062 -0.142772063023636 0.2807199279662
0.215137773348881 -0.154330161306957 0.280968424919293
0.228196843727352 -0.157472730522057 0.280649575280325
0.23566612240814 -0.178711740154195 0.280976510740935
0.237200570485003 -0.177861955179647 0.280888750907654
0.251442815658588 -0.189248222350178 0.280473278776461
0.267684626363429 -0.20924820763188 0.279913994151264
0.283501229715069 -0.214862499332391 0.277049707369631
0.282022716337945 -0.222654020081114 0.277453079133061
0.299459268283595 -0.233965336820336 0.273669340114792
0.307329594539131 -0.247016619502378 0.271560495348731
0.340469823168109 -0.270217812101202 0.260190796868321
0.340214909277928 -0.280945454510585 0.259465490275193
0.362324782796861 -0.298121393143476 0.244841468290333
0.0184320171648772 0.0480741652752139 0.0325027510952067
0.0253301538453726 0.0427654824621997 0.0325027510952067
0.0316401800417064 0.042380198293431 0.0325027510952067
0.0453867322665498 0.0302593401102229 0.0325027510952067
0.0490897814250481 0.0302101351850035 0.043170369288967
0.0473453253701276 0.0294875578280918 0.0497865531233454
0.0431982584676496 0.0266756239725629 0.0608625097232176
0.0475456088046144 0.0280831717964461 0.0647111141215031
0.048775851731358 0.0270935988841355 0.0793853236678345
0.0403049528432196 0.0225190846567436 0.0898172473008889
0.0463553034246317 0.0247816759863303 0.0922011510539105
0.0461602101117605 0.0228261531616012 0.110551423134516
0.0506002506997182 0.0247657008154885 0.109568455100076
0.0473293821381764 0.0216101385479886 0.127194505795366
0.0467599449920685 0.0205572719000089 0.135191538111416
0.0547536762613048 0.023112265307338 0.142592662261518
0.0518464115232772 0.0213226568613625 0.148322544262456
0.055355471240294 0.0206168081917761 0.157512878649445
0.050603479872386 0.0161061682393264 0.163640769605402
0.0608169415709581 0.0165815140855401 0.172692219907643
0.0549924807873598 0.00949119512952256 0.183967334518762
0.0582782749000204 0.00764413520178363 0.191700002453292
0.0640539025248325 0.00928306439170742 0.193516010885317
0.0612224972898241 0.0055823313002747 0.199609255061514
0.0663796636480769 0.00458299517689723 0.206136412474629
0.0716713683647167 -0.00230102341433003 0.222031207992906
0.0737134410564218 0.000498847027168296 0.218828941990448
0.0744842237209708 -0.00344840071682607 0.225119068521994
0.0803557333767953 -0.0048281095918254 0.230043131718316
0.0823322015682231 -0.00745097868780766 0.234519798345705
0.085295133458521 -0.0124115176263821 0.239486368704414
0.0975681588879628 -0.0224245890369003 0.24808279069756
0.0952783355478936 -0.0275142745487351 0.25089655968319
0.102317894132649 -0.0326882695268015 0.25560062266907
0.112204853752891 -0.0349656606995599 0.258015671954458
0.114892935085865 -0.0411876732662009 0.260243866209417
0.119457252299947 -0.0498260926430735 0.263417244294426
0.137490581634431 -0.0540611604014079 0.265734831716643
0.141191488314216 -0.0597176362428939 0.267611765171418
0.143325258731658 -0.0681066496865164 0.270286289456816
0.146150163903358 -0.0776737887825422 0.272436311256353
0.155431854936802 -0.0858337480955123 0.274371673567848
0.16769227235085 -0.0908344011235851 0.275510816354011
0.172153222043118 -0.0967025775649196 0.27660528833519
0.184238808462761 -0.108274807267505 0.278542628658772
0.186801118436994 -0.112528436018927 0.279303686832078
0.195268656266738 -0.129498930598452 0.28039357195206
0.20892715571022 -0.132394211710095 0.280215825490598
0.215015535604768 -0.143921785479903 0.280580339787827
0.227467608554701 -0.154811227110301 0.280573709365426
0.23470180889363 -0.152021662222464 0.280226377338627
0.249333071225924 -0.167028524982996 0.280081279016439
0.252711304930588 -0.167493593030975 0.279952550656041
0.263453055468342 -0.187432450299658 0.279871113717694
0.27285133354321 -0.203690562004011 0.279129331341696
0.287826880852158 -0.214828887402001 0.276148926665483
0.286827454240981 -0.209898302840641 0.276291197150059
0.314832519695631 -0.238611633420884 0.270173585664946
0.317964831593793 -0.235999622304978 0.269335529925437
0.343679516929054 -0.254378827994126 0.260348766207646
0.023275170742254 0.0530909677652473 0.026505645539277
0.0321921086123631 0.0525109045755982 0.0320306660310338
0.0367133031234395 0.0466286960259696 0.0325027510952067
0.0540451718828272 0.0334554566788645 0.0325027510952067
0.0582535163007946 0.0365312561651327 0.0325027510952071
0.0485743373342586 0.0299966312519536 0.0487948819000957
0.0546719774094974 0.0325223564695872 0.0487807279184877
0.0554210378955205 0.0312241642092776 0.065896646401345
0.0544768192929131 0.0302990030762696 0.071124123881184
0.0518245847595638 0.0284413123036014 0.078554424641713
0.0520648551452656 0.0272866889802034 0.0908304032483226
0.0551796276713525 0.0271014643532436 0.105272134826598
0.0531162461254736 0.0252412190296729 0.115114916379282
0.0562456922483053 0.0264254008517142 0.116211963083692
0.0567774519480716 0.0251126972217756 0.131217110502495
0.0595408934951087 0.0259912926586503 0.133821384333328
0.0597564068285749 0.0247848520404393 0.146504190539781
0.0588415662614538 0.0228867473471697 0.155522028530213
0.0631308599204632 0.0219082150224653 0.162163124495972
0.0668825163879431 0.0188946503039184 0.173172624289464
0.0702679595612315 0.0189236918913953 0.176482679738624
0.0699643821263145 0.0157250939759427 0.183889396922889
0.0778137261204856 0.0144212232703467 0.192957586577305
0.0702795647113097 0.00998082233660125 0.197248097211399
0.0761897683537976 0.00882742107162356 0.203857001797711
0.0748072156867844 0.00399569572333131 0.213285607303602
0.0856777227143088 0.00545236753364907 0.217226507423052
0.0857518833713518 -0.000844344201437647 0.226698509441147
0.0901805340203781 -0.00302242783551314 0.23163780797514
0.0947775641993708 -0.00722998695178817 0.237954822950497
0.0966673330341213 -0.010956356098282 0.240660698669288
0.0974894287299193 -0.0142805952132486 0.242915448922282
0.106507481288837 -0.0234688781883856 0.250481871497309
0.112170751816964 -0.0230869790100302 0.251340433937934
0.114494120538532 -0.0314712088503087 0.257128656775838
0.122548598792155 -0.0388460644991021 0.260236675278185
0.130300658762109 -0.041544468339372 0.261614047131488
0.132320587907833 -0.0470350578828367 0.263384792464152
0.142756387727332 -0.0599556040395301 0.267736562032985
0.151995848593539 -0.0615522812360539 0.26853290754748
0.163723373986368 -0.0719534302916113 0.271584298212825
0.15998581196713 -0.0731201221013913 0.271773188546044
0.177332627493008 -0.0809534114629726 0.273090351696967
0.175539003119505 -0.08884220126909 0.274824026539344
0.192906694694819 -0.0993957589455176 0.276365054840665
0.189172482861139 -0.107468763856373 0.278170709524232
0.196815052786071 -0.111041825044192 0.27857931537977
0.209796358463135 -0.12296279211137 0.279690273731074
0.226774099569424 -0.13921652146893 0.280009336051203
0.233934730095629 -0.138832515413838 0.279615730825473
0.247228125817585 -0.15391726629805 0.2798075550201
0.25195616941506 -0.156167109313831 0.279267631041007
0.256481017498857 -0.159600206226318 0.278873531024092
0.27481606983102 -0.172137771905796 0.276788548020366
0.276575036426269 -0.188415570421905 0.2775641436225
0.289545612867314 -0.195381417158549 0.275385845618804
0.31062614818643 -0.21248810696158 0.271265824994483
0.315774901134311 -0.225694285693586 0.270461512020568
0.330769089785794 -0.230277414521012 0.265582874503983
0.362472895466399 -0.259626213766446 0.250759526255529
0.364148257593457 -0.265605573468705 0.248789282659102
0.0465170196660307 0.0445610225505754 0.0325027510952064
0.0630929077951248 0.0379075319018412 0.0325027510952064
0.0622303782245291 0.0388935507089552 0.0325027510952067
0.068273684248087 0.0381563679135542 0.0364173946723664
0.0646311990663522 0.0366476011505365 0.0499859015303616
0.0630826931132636 0.0346168366218877 0.0637519203300718
0.0704133367924261 0.036901746915966 0.0711082457269657
0.0625274630984741 0.0326228749085921 0.0810182873681203
0.0637281949073866 0.0318241804640805 0.093704467417285
0.0662667527260498 0.0319024579949647 0.103230722777284
0.067479069619247 0.0316716235172813 0.110405483179734
0.0664237085053023 0.0302405695523816 0.120134175836295
0.0678253062853693 0.0302126431820473 0.126090238505661
0.0729019169961695 0.0312854641827217 0.136172004680883
0.0685735544553758 0.0287243611767208 0.143691743997145
0.0759071434281055 0.0313957310585107 0.147277223731081
0.0711126909923836 0.026352724370735 0.15941933351336
0.0740576637714093 0.023679044430367 0.168804184328522
0.0790259446719339 0.0226771854742524 0.176043682620684
0.07874225035603 0.0187529766953898 0.184287446068797
0.0790716323926535 0.0192630320165882 0.183420236665118
0.0873448120690044 0.015702773323688 0.196857151831215
0.092154300464307 0.0134775157434806 0.205003135012522
0.0904045689761705 0.00984438652366583 0.211596842230437
0.0905770768773338 0.00732074256067815 0.216810206062767
0.0911469010965105 0.00278473790247909 0.223884846123539
0.101976692407843 0.00289585627641394 0.228298296356474
0.103426320634607 0.00214583694916552 0.229874287315544
0.106269731520371 -0.00600857518812931 0.239299151167661
0.108150630825372 -0.00596155598076301 0.239615908523988
0.120862067578674 -0.0142466315781764 0.247343647232954
0.12241469701806 -0.015145386766469 0.248225092255183
0.123060681737792 -0.0244854928250469 0.254364591307539
0.134766840561074 -0.0340176645585505 0.259417939872336
0.135593594964075 -0.0343749756220463 0.259544944978303
0.15488175273935 -0.042355943422571 0.262390538962608
0.151691146356322 -0.0502361791784894 0.264962501341849
0.151541305795714 -0.0542215264396599 0.266241631687169
0.165580916321456 -0.0670453583728347 0.270536062341907
0.179841644645683 -0.0749867388237378 0.27174028379627
0.179012741126212 -0.0755444507890458 0.271886491265623
0.186810622086486 -0.0842761741532365 0.273475978448147
0.19410650953416 -0.0861573924765858 0.273610965656947
0.199987746563477 -0.101057864169897 0.276387704006662
0.219728088055552 -0.110716621134977 0.276479565941188
0.231493599308925 -0.117719171362381 0.27655703538461
0.235111589326892 -0.124162891706991 0.277142986389167
0.240424800889282 -0.131318644551457 0.277545722845056
0.255753208411083 -0.143342368251771 0.277071094915109
0.266773542759255 -0.154553371116195 0.276502479377374
0.266494240724085 -0.162256963605744 0.277434728346818
0.280773456371914 -0.168399351436254 0.275306471600878
0.293565193318376 -0.189346730734648 0.27426337786081
0.308366094112172 -0.202315205451853 0.271520981673372
0.325198991535448 -0.213362208900478 0.267150400276867
0.337470833485577 -0.219836040031919 0.263254912928811
0.350163746749662 -0.240613353748575 0.259180263987137
0.360795243189573 -0.244608301920139 0.254085333579829
0.0541948497356686 0.0509433895699693 0.0273217877722319
0.0701230886490529 0.0389224162987469 0.03488085028102
0.0698512129470399 0.0425041074526283 0.0325027510952067
0.0776155621423735 0.0420259004354011 0.0411967626826067
0.0753883879063603 0.0408470857194626 0.0526611414924943
0.0746537099052243 0.0399902980671801 0.058068930243073
0.0773885447295035 0.0401111369637346 0.0679743773123424
0.0771057178729113 0.0384522659656799 0.0830652171858431
0.0786175247508997 0.0385423515640825 0.0883129793007327
0.0719737436851237 0.0345496425931274 0.100457972395784
0.0770392538791921 0.0352546906112092 0.114094608944306
0.0808578849491792 0.0361562223765197 0.120752589875826
0.0745168735693242 0.0326154796602165 0.129701161125492
0.0797832129708806 0.0340982177570291 0.136539776494005
0.0823776414645646 0.0340401822943886 0.147626830991059
0.0842951137238135 0.0318889176330694 0.159236494771212
0.0781927593472991 0.0278360707014554 0.16291271974077
0.0896549119373492 0.0269293986536287 0.174319410696297
0.0922988990006472 0.026565155038516 0.176949536484299
0.0860493247774911 0.0214669519348404 0.183552285709131
0.091775190556836 0.0177457103473542 0.195556476891028
0.104290743420463 0.0212548950808223 0.196748219085536
0.103517016048204 0.0151236917356293 0.209397508605493
0.103496050952087 0.0149427331249633 0.209772151117213
0.106970754982939 0.00783529528976374 0.223611936768989
0.113701848225157 0.00922629799448869 0.224376805039867
0.115105672900306 0.00284690174818448 0.233504061082393
0.113073390567653 0.00400704084988923 0.231148521032145
0.123320822413995 -0.00505908318668442 0.241907853052133
0.123387630311022 -0.0127866506278999 0.246896187320539
0.127660929224918 -0.0139206007467937 0.248365547940324
0.134363152163584 -0.021797312361657 0.253693008679773
0.147789752822462 -0.026405586388666 0.257012112111704
0.143392694705263 -0.0293601725718276 0.257969878889159
0.153565404853248 -0.0403322921595016 0.261707224265283
0.160177589857993 -0.0466141214227539 0.263855378400264
0.174392039467012 -0.0474668214998994 0.264117515466813
0.179300687626144 -0.0502658500473376 0.2647403582019
0.186194875387052 -0.0683667333286039 0.269984729017512
0.184841388128417 -0.0701009995110442 0.27053561892636
0.201266711669213 -0.0859012175427814 0.273257793233951
0.203057113099677 -0.0843779126919418 0.272847338559685
0.212895598495567 -0.0941454402683091 0.273903271177782
0.230204200070206 -0.105494970343505 0.274527334067873
0.225272301022921 -0.11210537646499 0.276220348874882
0.247020669849449 -0.12284109926326 0.275310863251886
0.246699885725991 -0.131505880081527 0.276705784893633
0.267939034111347 -0.134644045828292 0.273855784252563
0.264267154745469 -0.140476936380746 0.275229884035624
0.285768298185862 -0.157616129219009 0.273475724186544
0.287482987013023 -0.172394325575034 0.274268204574271
0.306731797929968 -0.17968492078126 0.270968868477011
0.307096561203491 -0.182962492097837 0.271147741892297
0.330447868185792 -0.209738371868313 0.265402549324546
0.344211797937058 -0.214154162257298 0.260964864023028
0.378525626919774 -0.242681683049977 0.24255911728218
0.384507467577147 -0.256280192219622 0.237062917118174
0.0882223817185492 0.0464974686477547 0.0308496884724121
0.0782623433102575 0.0422938059670263 0.0444850138895807
0.0893976682764187 0.0465682511130682 0.0506394583658545
0.0797892902560527 0.0419673800208621 0.0595385971899264
0.0912626073892931 0.0450767284869344 0.0688856610771492
0.0853707992487395 0.0421395873769729 0.0804829369045176
0.0884081401292335 0.0424042721027327 0.0902068722668532
0.082024261333772 0.0390932784255796 0.0967327842544106
0.0870872592178068 0.0405105744885542 0.103387528320994
0.0930947560389737 0.0409596218793082 0.114666054256161
0.0892455881130138 0.0388305453844429 0.128583018658235
0.0857111003504738 0.0366921627181004 0.135183766205594
0.0892869751475566 0.0366179373072389 0.150408519697692
0.0924416939442318 0.0366297690837255 0.154997544916523
0.0920964222083259 0.0332610179183709 0.16240375378629
0.0952871350374559 0.0339278246317299 0.16295550690518
0.106671958667882 0.0316413996467592 0.172746656275618
0.101532515905499 0.028619866053479 0.178812121140211
0.100595073123901 0.0239275755295275 0.188417611288453
0.102538900095222 0.021466971920313 0.195068510142105
0.113189193289163 0.0225385822776867 0.198511811191831
0.110105527626595 0.0181543798167707 0.207479182520248
0.113122523889709 0.0127585362872577 0.219400594044289
0.117398486832458 0.0159396714017505 0.216485437519479
0.127603973317117 0.00810591998070443 0.229648668168561
0.122020990417931 0.00492660226967878 0.233415037037751
0.124437865208949 0.00230121040207456 0.237388424192082
0.140708748889134 -0.00653697814990037 0.243782930567358
0.143641322805212 -0.0122787739188083 0.247624868286296
0.14981057941487 -0.0169175970138386 0.250809649185218
0.153893041052616 -0.0230358827425863 0.254923880096268
0.154518236457633 -0.0249334507390405 0.25618625712404
0.170130732646165 -0.0333758617019458 0.259583761530196
0.169454142104027 -0.0402682532447517 0.261855911060602
0.182255178998587 -0.0468140285463461 0.263531254501141
0.186522591372441 -0.0550958466649554 0.265876254154559
0.195908352604984 -0.0596644239367736 0.266825598755075
0.205746649307773 -0.06707090401071 0.26851960566118
0.203375897300999 -0.0674458592250046 0.26881885975354
0.208619269959503 -0.0811807900463922 0.271733908410412
0.227365781021729 -0.0901807099969659 0.271860488899751
0.236880392761079 -0.103524429669061 0.273460199674802
0.243498458306856 -0.103046305549392 0.272485552173789
0.248447237728935 -0.107909096338134 0.272627773881165
0.264276451361198 -0.122149294867072 0.272813054604669
0.26309322756727 -0.124477680675042 0.273339837102131
0.280718925843433 -0.14410077980002 0.272827893626566
0.29116583419338 -0.145313924376375 0.271165348906936
0.303122074664794 -0.158599975118111 0.26991097086131
0.314514195812216 -0.17004249426949 0.267868870740153
0.328435223891431 -0.181630507528946 0.26475157520328
0.335032096430697 -0.193909568874984 0.263464131603919
0.352323304355931 -0.212134876062079 0.258260719612034
0.0930648442175586 0.0470974021363099 0.0271677172703816
0.0965685218747294 0.0475586700506174 0.0374297271088276
0.0982602871848772 0.0477813951790299 0.0406344364056083
0.0967368717096377 0.0475808337268512 0.049245981301892
0.096187460904453 0.0462750659065713 0.0631087113411295
0.0937621974176733 0.0444546321952023 0.0788769338741221
0.0970979829345497 0.0441175262936388 0.0870309970272411
0.103598446419596 0.0449499843751343 0.0872762077835901
0.102496133687284 0.0440689046816489 0.0950068177750048
0.106854527647791 0.0434290580263387 0.107755079352859
0.0967953729452823 0.0404651779655424 0.124977344590098
0.100950529767656 0.0400750591770779 0.134821370168651
0.108669311194495 0.0411693785798725 0.134000758940481
0.107552262596308 0.0405859808234566 0.138584094065941
0.10729685237462 0.0394754578723709 0.149895990971117
0.108080989938927 0.0382927025858497 0.156021906356945
0.117214365437641 0.0354721860578078 0.166427857401668
0.115949325530769 0.0301271036860948 0.179822909108197
0.116560040453235 0.0309377979064702 0.177933900559407
0.123154654589019 0.027744722026044 0.188438985091583
0.122988897310368 0.0250427617047295 0.195371558634545
0.121589771282323 0.0187222890955474 0.210888789160723
0.12864561328305 0.0188419421034672 0.211449842182329
0.125969451782517 0.0155821421153345 0.217751416014383
0.131386099831316 0.0126599420055467 0.222793769750536
0.136695156090938 0.00860770272142642 0.229605299032211
0.14519119504301 0.00275812402549734 0.237634469323707
0.150610724494696 -0.000170809522646977 0.239678266491867
0.151979596981528 -0.0015542329234015 0.240626403160904
0.157260337209919 -0.012703044435211 0.248184196138389
0.16696253335128 -0.0176425207394009 0.251639069673316
0.171365320763148 -0.0180869042724209 0.25200090078526
0.177004126538652 -0.0215394575989714 0.25439924510395
0.182272491741461 -0.0253106830177899 0.256596467342042
0.190290332964904 -0.0390989364011584 0.26067016106137
0.202847713452432 -0.0519339026196816 0.263860532768681
0.200019561631929 -0.0462147524838069 0.262230642505205
0.214091329979315 -0.0590011446043235 0.265291379163583
0.215475451957636 -0.0643955006950377 0.266669381630464
0.226737012042354 -0.072533386280887 0.267558917819423
0.242444770670712 -0.0862260588225479 0.269426969181356
0.23623912298783 -0.0883282358555734 0.27072135566741
0.257198424717568 -0.0970462534863007 0.269271999256228
0.267830924409472 -0.112491842622121 0.270771433972714
0.276426988977917 -0.113374931268564 0.269362414281935
0.293067646220676 -0.13232076819554 0.268637373134089
0.300115545516801 -0.141564262357974 0.268524189954147
0.298692293421576 -0.14170555054404 0.268937697385412
0.310375229897997 -0.157976249433613 0.267726656427283
0.330978403735256 -0.167260099391532 0.262567796123914
0.346272946723269 -0.181063320872468 0.259048421324532
0.352358875789663 -0.191453436504617 0.258003589571118
0.375705636849029 -0.214206715092684 0.244039997613056
0.114770866416631 0.0499550541715049 0.028788841987917
0.107522385434332 0.049000773546471 0.0370184407485203
0.111054079093128 0.0494657298373648 0.0447922382596777
0.105748494338338 0.0479786547706347 0.0584358869813959
0.110716301473719 0.0476987559556479 0.0682459575685628
0.114867970718256 0.0480246039591519 0.0705645353266611
0.108423886305824 0.0459915252298712 0.083008794274921
0.106889335920358 0.0438973875550875 0.102883810533807
0.114016149345965 0.0445238117686414 0.106159410680694
0.116301836487794 0.0442804338260673 0.111876762050976
0.118230025644991 0.0442259458328353 0.115115601210364
0.113849738505306 0.0421219769987998 0.131158521801928
0.122939234480611 0.0430928289998591 0.133530389484188
0.111828751986901 0.0393603621917243 0.154536504664827
0.117132870471002 0.0404150808537948 0.153628257008624
0.119427745534698 0.0364388651400061 0.164681140389271
0.121564541155254 0.034110351124479 0.171431848092014
0.123432113537196 0.0311557210556144 0.179710416718289
0.128368172765952 0.0292212259249513 0.186395193765047
0.126892124865579 0.0253528518110514 0.19589866460334
0.133279432392201 0.0263453541451913 0.195047899630886
0.132631974546144 0.0222787381607535 0.204156848565411
0.137308890120109 0.0177938640057953 0.214837826132094
0.143676007409507 0.0130911132852777 0.223124028424194
0.151809547015323 0.012919495829434 0.224061592249132
0.150140794570662 0.0101077111677803 0.228246442525829
0.157595083667436 0.00517213371627084 0.235381494872608
0.154780495459368 0.00155602467051433 0.238579720799567
0.165675235499913 -0.00237595197883079 0.24137573873551
0.17301797560532 -0.00818204534615402 0.245378064653499
0.178724607374997 -0.0156798980776847 0.250492013053118
0.183464399973974 -0.0175962425391995 0.251470418998365
0.187868210743608 -0.0312788206907374 0.258332761335347
0.194269763296238 -0.0366864684102482 0.259593322260091
0.208050315264987 -0.0389135233402897 0.259273671357986
0.215082122774979 -0.0435686929642795 0.260244339888121
0.228160484749014 -0.055662335860305 0.262566402013891
0.228743868866133 -0.0556951381958768 0.262501607612633
0.230108041861023 -0.0635372223481738 0.264564764147497
0.255283818507137 -0.0785377710314648 0.265158531582222
0.250350706591048 -0.0871221509745687 0.268210742500101
0.264766240514314 -0.10217226269849 0.269027756365782
0.271067523485577 -0.104325109896372 0.268311256256003
0.286057754010655 -0.112751649538611 0.266818874302255
0.301027895890906 -0.128611471419577 0.265945609592036
0.308012202185665 -0.131342923005806 0.264519987919509
0.315787532437118 -0.142142404389253 0.264220406994549
0.334180530353864 -0.158884070887497 0.260750330478608
0.330777370399354 -0.160100422361349 0.261944697140517
0.365229246962562 -0.189992708362057 0.250475792349791
0.37628649252229 -0.192555252263281 0.243251894623534
0.118083990354027 0.0503912352126796 0.0318027880969612
0.121033457739776 0.0507795399605663 0.044796271152922
0.123014969742675 0.0510404109647474 0.0465948574467163
0.119949299903856 0.0498980558115728 0.0579124700652426
0.123544223770948 0.0500794388149082 0.0609786082447618
0.124981002348996 0.048383951988399 0.0807751798125287
0.129600820121574 0.0484757907096852 0.0861992285808478
0.122890934373792 0.046740778593755 0.0951449740286071
0.129820088272463 0.0466828321032335 0.105335965919595
0.127868029291182 0.0453359208505828 0.116784629576037
0.12469329596386 0.0439133379356669 0.12733732605489
0.131234123688193 0.0445721848350149 0.12946199488846
0.131010617582634 0.0437787921191933 0.137486827362218
0.137315359403228 0.0438600854949057 0.145351724154403
0.125070197133942 0.0391151619513694 0.159679975523133
0.142028454998843 0.0405152920452696 0.161833274401654
0.139052466733596 0.0363497946522303 0.17159451088105
0.139146843776667 0.0326135674905949 0.181290954491727
0.148385399006718 0.0312527155107905 0.185743453185416
0.147242456382815 0.0278532347488926 0.193287171806617
0.153212836282748 0.025129006705207 0.200143787292977
0.152564556038846 0.0240820796375366 0.202432093039037
0.154122435876841 0.0185520013977064 0.215106382713413
0.161966036388404 0.0149844922239921 0.221646092106151
0.159861353781977 0.01246732481322 0.225235830519822
0.16954972440454 0.00743253456676 0.232577149881904
0.171677814319774 0.00318575348626345 0.237730264174281
0.177550371591318 0.000372262221278973 0.239703139771411
0.178792658305388 -0.000963253812717428 0.240617298604998
0.192633919995346 -0.0126468163547398 0.246922498969974
0.201980488900592 -0.0186527372029519 0.249374022630215
0.19387445826746 -0.0251974425110338 0.254785714598915
0.203519963802418 -0.0344101069345584 0.258163620837056
0.211833861869225 -0.0322016961386634 0.25658717989364
0.224770632269183 -0.0486197268647743 0.260988723009054
0.230210510612178 -0.0548182395238783 0.262065104130397
0.234871859419731 -0.060305774457314 0.263037668889141
0.24367826010954 -0.066233000060022 0.26340147642171
0.252215726410269 -0.079143462259149 0.265835419571248
0.264011696924294 -0.075334531054152 0.262665697768592
0.268131330246452 -0.0866856016876649 0.264609417341849
0.278817109432984 -0.0947210218784986 0.264318376848757
0.296366381203176 -0.111078934401031 0.26390732462125
0.295457169201797 -0.110394487831057 0.264011504766542
0.314584714311863 -0.134901402291245 0.263294090921908
0.332343510982588 -0.139763142859341 0.259151768369924
0.334100656939221 -0.143701401720027 0.259213944813065
0.347906620271702 -0.159016020097678 0.255771110569083
0.360368951711183 -0.167151877651773 0.249469256598452
0.139945994335117 0.0532694226390553 0.0296514716562415
0.131577885459643 0.0521677402055165 0.0409223067897923
0.141485704075891 0.0531816206123052 0.0532040527032879
0.132522992859939 0.0505144765099474 0.068825627484747
0.141632281861453 0.0514823667525259 0.0712559776681707
0.13336448781861 0.0491706548245929 0.0841050380135447
0.139368997085107 0.0487610478893014 0.0967112358705519
0.1412285849766 0.0490595661058122 0.0961471751753772
0.139042456928431 0.0478958953189034 0.105347359265733
0.148301090736499 0.0488404214980722 0.108229657784666
0.137381862729501 0.0458016582424293 0.125049113917462
0.138750685459824 0.0448638954296311 0.136792460369547
0.144883182096534 0.0451291457505414 0.142486847709923
0.149021741100371 0.0441470316369434 0.154820726749914
0.145551160019598 0.0409304994587516 0.161958896257886
0.152957350134913 0.0405117519902505 0.165368807063377
0.149374276632023 0.037983461790451 0.17065728100241
0.156837630404307 0.0361623412858228 0.175649955680421
0.158813588032167 0.032003766969286 0.185275698334898
0.161062420061449 0.0270248257499793 0.196786546694233
0.159014717448521 0.0248561589633106 0.201443638083888
0.174546282268666 0.0239615388054763 0.205294222708531
0.17460300512269 0.0223994900300425 0.208829092343536
0.174894654639072 0.0147607516422099 0.222478069765048
0.173541115159864 0.0138660119303346 0.223689984248163
0.186902291012228 0.010820164521485 0.226879074247331
0.185775969444079 0.00518657263935179 0.235929994715907
0.191831209096015 0.00333767486412257 0.23652049995829
0.205171770459392 -0.00550330044673194 0.24037260001927
0.205947786974651 -0.011865555834774 0.244396402601186
0.20942454399515 -0.0153275482137643 0.246098062280006
0.214082626267793 -0.0274516158076966 0.253203926874719
0.232206562546167 -0.0342972117880684 0.25469360981977
0.232828182773761 -0.0348293194092281 0.254809469856984
0.245089798222613 -0.0420002844073875 0.255164013869092
0.250535913412109 -0.0557099878066356 0.259260945941163
0.263042326786525 -0.0601271419641326 0.258597438891685
0.272814438516441 -0.0680974063539473 0.259179592923309
0.276306532957203 -0.0735451235831854 0.259774481186774
0.277876493536808 -0.0804289812299897 0.261081029260372
0.29301840691367 -0.090998196342895 0.260206082432421
0.313597721575749 -0.112004835473841 0.259573440780844
0.311437862044278 -0.104409567091975 0.258854248961911
0.321495861822868 -0.114896993872287 0.25785861694311
0.347638116783024 -0.137329635697176 0.251705403134838
0.354490629824509 -0.146741899529978 0.249277728492284
0.363363818971355 -0.161085143561803 0.246402680018368
0.146150276171677 0.0540862318385744 0.03045538608694
0.152528255877742 0.0549259087964402 0.0291675756077437
0.147761179149833 0.0541329051083242 0.0518899565753495
0.148151680397098 0.0536129362906479 0.0578918120804723
0.15014681751159 0.0528483437321284 0.0686822805652047
0.146999042734625 0.0523643846174522 0.0694128097915071
0.157519339815319 0.0532191221181889 0.0749830139609099
0.152408890082604 0.050714802112197 0.0942215441986554
0.155108772079625 0.0507681148165912 0.0973952008029754
0.157770060700907 0.0506881436765688 0.101915520623555
0.154278057609131 0.0488774155983351 0.116106601631555
0.158594019837296 0.0486042526434267 0.124944482693203
0.156195568022718 0.0472943787100325 0.1353867849177
0.158082635269007 0.0464062172119067 0.14732579086783
0.161112317300437 0.0455947459502815 0.154647530764866
0.160625067119257 0.0412818821273344 0.164532723293176
0.162701018494112 0.0396176378018915 0.168536324662165
0.169373196499665 0.0383498114945774 0.170574477275933
0.170843484263323 0.033489851745475 0.182644792680268
0.171271401828932 0.031089194192428 0.188708726299333
0.181107452108848 0.0288769214010256 0.191081541829797
0.180086404917753 0.0269439966769496 0.196429043788144
0.180995757497175 0.0208774662964396 0.211811352845878
0.184796993387729 0.0163381689924471 0.219066088353599
0.193127022687985 0.0153404748298805 0.217871730312348
0.195855065681016 0.0107692689345364 0.224021440142693
0.203146643942617 0.00681942488863282 0.22771699864982
0.212977523336561 0.00225340615845471 0.230948328578082
0.206102854986169 -0.00247667774148277 0.238250735095176
0.221757301038161 -0.00855823843901197 0.239715108298909
0.218724917828158 -0.00977331808743804 0.2409915992988
0.229769460184996 -0.0191188483513058 0.245320165294497
0.233481635681108 -0.0288865736581959 0.251095125065907
0.249595945833386 -0.0310390797620478 0.247398793288205
0.252037328505722 -0.0409367294542413 0.252387834788334
0.258364412696897 -0.0486340481164318 0.254891869739932
0.266666252864764 -0.0606457353202515 0.258183056012883
0.266275569375572 -0.0589669062884822 0.257754244063819
0.282760127128634 -0.0757753161290018 0.258852496250025
0.305592809024633 -0.0815007698233636 0.253087275355954
0.314741787849566 -0.0932982524131397 0.254597045451382
0.318624199558654 -0.0939739564152614 0.252976543062937
0.328393394182967 -0.10998417669073 0.253075852399204
0.349442585968242 -0.129629482101466 0.247989785198147
0.355912153887135 -0.138785188088338 0.246862614255606
0.363611103473885 -0.143971822187705 0.243000109598736
0.392021460940709 -0.173676611283902 0.223078219767268
0.159313665246628 0.0558192248870067 0.040737039317602
0.160023829564751 0.0557334269581646 0.0520358246447715
0.158978502927711 0.0556069840974075 0.051918419705709
0.161950608469394 0.0547567717298523 0.0604244024796294
0.165702438668749 0.0531225753910458 0.0724018526674068
0.174214519798142 0.0514777965184678 0.0779075219134502
0.159613369106032 0.0515013863225788 0.0959222028052514
0.17332629508262 0.0499037758440462 0.0956696003730881
0.170597358804723 0.0496833485276043 0.101758843195264
0.168840276792022 0.0483089375554839 0.118625731785144
0.168946571100245 0.0474115825373968 0.127904692167331
0.170308365433958 0.0454606194566406 0.146514684557496
0.176650873133655 0.0445056643898029 0.147774637639384
0.173976595005402 0.0451092986248337 0.145132225047611
0.172534638868365 0.0402204298517167 0.164659252627177
0.178202405587043 0.0397299092151672 0.163997963108519
0.182014232850291 0.0381703451215832 0.166733931884884
0.190797981066242 0.0336831037302339 0.175349639979754
0.2010957380718 0.0289436921018665 0.184102045175807
0.192496129405243 0.0260262715211026 0.194576884648253
0.199847074140315 0.023628057815801 0.197172442662873
0.201736032598834 0.0190806664091595 0.206342985024147
0.212061486321658 0.0141587212495607 0.212370322787409
0.200834620577957 0.0142392142511665 0.21704109800141
0.207220153868702 0.00544641095301418 0.22849694734921
0.22247003473102 0.00731342397664696 0.220618617208088
0.219422647624563 -0.00116196628963259 0.233446072736024
0.2307353597601 -0.00582355557870371 0.236016796926229
0.234685224942462 -0.0112431414386037 0.239400585329158
0.241559967435679 -0.0145642902628001 0.240328623779374
0.246180559239953 -0.0189251852306497 0.24142539674443
0.259635332864837 -0.0290272270244817 0.243056485557432
0.263919115461914 -0.0357120840171104 0.245605985588587
0.272672889188654 -0.045673701324253 0.248639590882743
0.285886407990854 -0.0556147154673867 0.249524920113967
0.28209832951676 -0.055169931907518 0.251017374972421
0.288859539569554 -0.0661090888007186 0.253228344895396
0.312130622664694 -0.0811632350395598 0.24992721408662
0.318278554585225 -0.0871828109238409 0.249990640579368
0.335916989438388 -0.0985757436399245 0.24490195630702
0.346372985081953 -0.109108374908938 0.242609279815157
0.356662543224924 -0.118933535265437 0.24012341067579
0.365701691954484 -0.126687897255872 0.237634457326732
0.173593526039792 0.0542018416845837 0.0377045706942583
0.178443297881992 0.0535633571088292 0.0434102768878567
0.176012024170322 0.0534490899164974 0.0547149888900524
0.179364645900249 0.0517728462126226 0.0676861756359466
0.175525543438889 0.0511340769218905 0.0797049932348985
0.187021388297903 0.0498087593208233 0.0777287514507999
0.194659674211734 0.04840202874043 0.0819422946282938
0.180774569903909 0.0482390623512889 0.102855801540519
0.193324039833278 0.0463796719779127 0.105032485962998
0.186968325644215 0.0456426013884799 0.121564092790148
0.181646172205871 0.04523165948658 0.133240684829875
0.18338560967317 0.0438593687440303 0.145249972402652
0.198730561890862 0.0425573501830972 0.137706071058313
0.194777754355134 0.0418894662257952 0.15018795609486
0.190087839522321 0.0381951944453485 0.163920280138244
0.190322156686385 0.0378856129991144 0.164641264316342
0.202683972193495 0.0361516005573173 0.164916867926299
0.201986588720427 0.0335567737468671 0.171866257591009
0.212633829528888 0.0281273557298768 0.181199143684811
0.214683196005971 0.0243237096864571 0.188648837685145
0.21777423340419 0.0221847039014986 0.191925570955493
0.21952093821508 0.0180155576695473 0.200326322161707
0.221279504429017 0.0122826149643592 0.212180954825753
0.229178796964635 0.00966967399878222 0.214242469273369
0.229745954408949 0.00784644736702046 0.217411070753937
0.23217150568972 0.00132919751240365 0.225809056914118
0.25066242479631 -0.00209916480327009 0.220569265964559
0.257275143265857 -0.0136905646073538 0.231796804222067
0.26076881454504 -0.0147179676169085 0.230540806523757
0.252790921810213 -0.0204977585118504 0.240248774766123
0.273877057890786 -0.0305315067933151 0.239341303912542
0.286070139865886 -0.0368817525056119 0.239139117783539
0.279312645954148 -0.0366174273759297 0.241166354895412
0.289718884339952 -0.0500248368307018 0.245112816117018
0.299771305603285 -0.0595773716973435 0.245175133720318
0.311861763781124 -0.0623785962110627 0.240946622602349
0.333422642101452 -0.0856349596724038 0.241799735871971
0.32411140793798 -0.0831391086155905 0.245322413153592
0.337261549115247 -0.0929562405069222 0.242196704752587
0.19374299672418 0.0515491135439201 0.0342602407975975
0.188807949263954 0.0521760294492123 0.0503919518096811
0.19290455798621 0.0509125792177602 0.0579982345639315
0.204103130071275 0.0498808510516599 0.0533491823073039
0.203758386569571 0.0487254265924242 0.0659626829168306
0.19044640037423 0.0489477145737947 0.0820368550148301
0.208620263981372 0.0466140144892567 0.0814177985227091
0.205206914430114 0.0457116893179274 0.0956162746149736
0.212709019645696 0.0444140486144099 0.0988722450306092
0.20725031771778 0.0437455935565708 0.113442627340029
0.215775962976077 0.0422813511974474 0.117033155587042
0.203891976482397 0.0416229892723895 0.140383031268361
0.204136817498865 0.0413085732880266 0.143347114778624
