ply
format ascii 1.0
element vertex 852
property float x
property float y
property float z
end_header
-0.083216738285144 0.356692661843852 0.396677426674329
-0.0772377225525361 0.360350399700177 0.397158306974958
-0.0758634767755353 0.355476170079562 0.401417241267733
-0.0723086676140718 0.347937115634578 0.4087542426249
-0.06371787661766 0.34870867905114 0.412206244243959
-0.067734822764326 0.343578150450345 0.414317339159657
-0.0598063379276231 0.344375158133336 0.417092093550644
-0.0537437822963787 0.336387224311481 0.423764975992296
-0.047821290084296 0.337691914783434 0.424709272686038
-0.0495072991564203 0.332761503816205 0.427112201559253
-0.0377804055212206 0.328764335122957 0.432667961661548
-0.0379630218178166 0.320615787301312 0.437449997814661
-0.0349563134927662 0.312456169332731 0.443015309456214
-0.0281377052228955 0.316785018244677 0.441826603136446
-0.0249535139265437 0.308285271483535 0.447613244635946
-0.0162652812233976 0.306060588671615 0.450276872430912
-0.00987970425605764 0.301535220486165 0.453774465794481
-0.00296847945175886 0.292932618112667 0.458819156351751
-0.00219548795503303 0.294531084348792 0.458264459240404
0.00431007323606349 0.288171569895794 0.460592426216893
0.0104825198571837 0.281754329476523 0.46263334857401
0.00862718951016829 0.275277984835576 0.465067945590815
0.0283507153448758 0.268398176894501 0.465916058416046
0.0284582192322918 0.267367128914565 0.466244322663029
0.0332592050608581 0.257928430931701 0.468730352235022
0.0395067059698806 0.249920947048436 0.470224712639741
0.0480312522451908 0.247039727549353 0.469428448816572
0.0584463202129876 0.237745006930041 0.471317271602472
0.0770024362126977 0.222287105069295 0.466875044577273
0.0851560378528364 0.217071007524134 0.463771095394271
0.0904091759850055 0.21232239636433 0.462143600895847
0.101829108013006 0.19621841204565 0.459787907466738
0.129340093023273 0.183612333866219 0.443319468968529
0.158744429980669 0.158228966930945 0.423983997267597
-0.109586477912587 0.394550682282153 0.347336165788497
-0.100636427464358 0.39538678785401 0.354447705739084
-0.10420355390126 0.388997050255573 0.358048708634862
-0.0972802626083762 0.390227032750051 0.362930125443655
-0.0970934927186904 0.385624703807097 0.367987303457552
-0.0913031386843014 0.386485119903095 0.37077556243978
-0.0934149850097868 0.38092085922518 0.373562880372977
-0.0876220159848494 0.37383731308513 0.381921769948297
-0.082584020951972 0.374145590164116 0.384340418569327
-0.0791532999317701 0.368941199787112 0.389869304814095
-0.0744548927600212 0.363565473531203 0.396073624331081
-0.0681031035490002 0.36496184387005 0.397776915139101
-0.0680537026351654 0.360013462721634 0.401616332368181
-0.0672951539793029 0.357881452973238 0.403593297276451
-0.060918471625029 0.35027126672791 0.412109153772558
-0.0563549281022623 0.349686193145856 0.414364496437112
-0.0517637203803142 0.344431110890998 0.41962227426488
-0.0492863506543922 0.342132284432483 0.421684306590655
-0.0415826887112082 0.344003835800639 0.42267883289699
-0.0372955562229806 0.336623610789829 0.427992543318062
-0.0353272388756513 0.329737064721575 0.432564725027381
-0.0282605417758843 0.327547174617704 0.435242392901389
-0.0242094000464982 0.322484021954741 0.439098722068549
-0.0249757934977116 0.318572987092024 0.441337370615263
-0.0105067882536159 0.316490138998491 0.444622337098402
-0.0109474827745691 0.313714984185497 0.44626828023493
-0.00598063350773959 0.308288564141977 0.450005505811844
2.2265205176342e-005 0.300618417851626 0.455097769764301
0.00482248927098491 0.297125298945183 0.457031187231169
0.0099964651872921 0.289483132613477 0.459853130898103
0.0203847119634723 0.285987273586998 0.460579381350296
0.0331396225489349 0.28082508452371 0.461157435678256
0.0330173611737077 0.279868409588792 0.461499168230452
0.0355451140356215 0.26945405238298 0.464634118134027
0.0484467978294988 0.264895079317878 0.464321076903964
0.0583104034860891 0.253802110239798 0.465619720209106
0.0634032031164499 0.24480639809653 0.467204042030963
0.0794088280554003 0.233550074495766 0.462211390455265
0.0867710462746888 0.227965664935526 0.459836396143066
0.0943915478739655 0.217724227492071 0.458495382131097
0.104396492963838 0.207759763248291 0.455642586723156
0.113794262895473 0.20227913779924 0.451790454796273
0.131219299491297 0.183750063475039 0.441721173661087
0.183764471883705 0.145325389606223 0.397158699591257
-0.100789713436259 0.405218991658148 0.343863419229874
-0.100300899774832 0.397773906519741 0.352211166548271
-0.0960766662434977 0.398844514651597 0.354849390888578
-0.0951646821749259 0.395352530552024 0.359374993078883
-0.0858237134100175 0.390988985897118 0.369938818625148
-0.0865519228160212 0.389430230654189 0.370822646245535
-0.0858056374495489 0.386693689772867 0.37326065246342
-0.0786107260614187 0.38279194327217 0.379420657091062
-0.0738200093856864 0.378536592999498 0.384800990848964
-0.0700304514262249 0.377909946804209 0.386943417847261
-0.0669684001086411 0.37393271153523 0.391352421533459
-0.0661504648849019 0.370199022022217 0.394591117241163
-0.0605664124647783 0.363780505907574 0.401838976259716
-0.0565875084362932 0.366020832218186 0.401686060753993
-0.0515055622769996 0.358748328567202 0.409299313141644
-0.0463563353741625 0.355654328296358 0.413719471958255
-0.0466716349528698 0.347218636365168 0.41945796245025
-0.0396009177178956 0.347679238111692 0.420814750874375
-0.0338752784867499 0.344469184288492 0.423859537087899
-0.0285235397661626 0.340208506388601 0.427473768900433
-0.0228854904995981 0.337477916989837 0.430163276722847
-0.0196683368024217 0.33441747120017 0.432503410463483
-0.0156131305582643 0.329626704085476 0.435940867317818
-0.012664640136732 0.323459458068263 0.440084792736728
-0.00388273851434555 0.320036992024716 0.443084306071471
0.000279085420413788 0.315010943419865 0.446438897202572
0.0100555513507882 0.306755491108615 0.450692833965884
0.00990519251696385 0.305024531539458 0.451751889235946
0.0109220192999485 0.298776479936238 0.455416329324342
0.0254278327355295 0.293286909613531 0.456666476931587
0.0236299636499349 0.29143571752937 0.458093251620292
0.0384586265472009 0.279656821867008 0.460870792546763
0.0497536767993957 0.277410526485569 0.458530110063254
0.0534031870086613 0.275032506901768 0.458385843136545
0.0525846587423407 0.264622972270963 0.46368193643611
0.0607237585654119 0.259426744651316 0.462696862595006
0.0719778093196416 0.254906555196692 0.458947401644374
0.0782636431240634 0.242130814945075 0.460079253918885
0.106713887529734 0.222929700154568 0.450293904751523
0.106117132016483 0.224383540952957 0.450233529361546
0.14643608070869 0.197741865311525 0.425815091861405
0.150987113310987 0.187621806745805 0.424350611579211
-0.092296080891312 0.409133522934322 0.3452823470963
-0.0882264408973539 0.407913604407802 0.349544635731959
-0.0866516080523489 0.402532787883784 0.356970246793146
-0.0859522451259646 0.399479452264527 0.36104895491135
-0.0829724382734845 0.398037077978787 0.364816011166019
-0.0769887473253723 0.39770177996637 0.368627425459237
-0.0763616672300049 0.388482128808023 0.376015117340554
-0.0707512683718197 0.388395564720764 0.378537968024232
-0.0696223243250014 0.385580852867722 0.381203801464639
-0.0638938731642034 0.378033021102344 0.38953487322116
-0.0602513485079857 0.376599030974142 0.392086391893646
-0.0554784739767577 0.377994644414753 0.39289831279724
-0.0523468850033065 0.371343172211982 0.399261824349553
-0.0493962460818438 0.366551619880439 0.404103508391476
-0.0427536726134279 0.361100232708942 0.410454291350766
-0.0423845866483517 0.363099872009266 0.408962071684371
-0.040264941528306 0.354206086744832 0.416595205355797
-0.032678738415932 0.353947795372113 0.418308486006727
-0.0290172680392535 0.351927210425892 0.420235955354003
-0.023954893843177 0.344370294177761 0.425807422197413
-0.0168845823763649 0.341461886327429 0.428531453922112
-0.0181578441938124 0.340670089928768 0.42885904342053
-0.00998619938977495 0.330652110717825 0.436008968856111
-0.0056962447557048 0.332205608332266 0.435588008397965
-0.000267471375995905 0.328646561778374 0.438173938332959
0.00721821531137412 0.323428114027056 0.440927038895053
0.0200066608600908 0.311518152684527 0.446399247285712
0.0162672471349875 0.310790834590561 0.447395799645922
0.0226269976049413 0.308337616812182 0.447948296249951
0.032629801341039 0.298815325337079 0.451661565487054
0.0383668240973907 0.296420830557631 0.451623766129555
0.0426063826980401 0.291205475946423 0.45333198848514
0.0490192598864179 0.286898571825885 0.453640248502503
0.0528488352564316 0.278496326853674 0.456736818617798
0.0744528509031925 0.266779730959071 0.452490168401606
0.0840290590851386 0.257319840253304 0.451718134045056
0.0905546926613609 0.254720837745959 0.449201931969953
0.0998836057837521 0.240857156482173 0.448750721024705
0.115431882295635 0.231658279527813 0.442327417583354
0.126987557900174 0.220617875162143 0.435961276541378
0.140481124342615 0.205829386866822 0.428718652657088
0.153290200363684 0.191947214362449 0.421435016667978
-0.0829848832141778 0.414710871121641 0.34518693934947
-0.0860247341579714 0.411559996358484 0.346783155802025
-0.080713808444651 0.408322800964723 0.35428141996529
-0.0781416548556769 0.401862113589067 0.363670481066797
-0.0745535576346921 0.40151892923222 0.366566615953976
-0.0686582401750055 0.400254267644585 0.370304968300229
-0.0632979891547268 0.397319685663901 0.374915623711486
-0.0644328739670364 0.392045635096994 0.378487857662527
-0.0616449131540069 0.388971601729873 0.382001804872245
-0.0593439407498352 0.386649974166147 0.384700561132831
-0.0507421439639291 0.386307290184191 0.387868968063145
-0.0522861750995069 0.378846399157367 0.393382738589211
-0.0464661787523939 0.37653363480215 0.396986547024587
-0.0434366312125043 0.374391016136161 0.399614656783231
-0.0414275778260112 0.367255100727947 0.405911592547124
-0.0348773696156476 0.36526283758714 0.409230586892931
-0.0268529624195372 0.362967145015407 0.41318130280795
-0.0227932449016451 0.361537821845943 0.41530800927776
-0.01418383182194 0.353305477765329 0.421608511645437
-0.0102390958056981 0.35152635772448 0.423186898377656
-0.0100127111297375 0.342301292987807 0.428867608960307
-0.00366654425203294 0.342927876785329 0.429269107614086
-2.28819451569147e-005 0.339604207796893 0.431585385269136
0.00673086790594553 0.332623089648499 0.43543181532927
0.0105210267887591 0.330375379523567 0.436277175079831
0.0140955501597464 0.324608527034931 0.43928211603312
0.0238568396567593 0.322904791966419 0.43889465358118
0.03191917596234 0.313655715788604 0.443015816956889
0.0310133628178923 0.308729978496567 0.446182626756247
0.0454477019315502 0.302272741245152 0.446131091469205
0.0594589410918647 0.29474416064182 0.445405432343936
0.0529325450086268 0.288152628845241 0.451490870752845
0.0658818539531575 0.281362554373146 0.449799866389011
0.0693842590412263 0.275388259658565 0.45102066128105
0.0779898418876251 0.267037523150473 0.450570991907215
0.0879359672787246 0.268107717868713 0.445659070882549
0.103707712912665 0.250013569087204 0.443657399642548
0.1186113224433 0.242935606786526 0.43594954466936
0.111809278504469 0.239994904059471 0.442446935078493
0.137292802573043 0.223817762815575 0.426392526337044
0.195414038273104 0.174506762051355 0.377982798999861
-0.07925472852796 0.420108016619814 0.341426972450855
-0.0813715285739729 0.414198340966287 0.346910685655646
-0.0728215721274866 0.409638268624622 0.358215448483432
-0.0693329244324579 0.413440310762748 0.356164724180094
-0.0660076799177282 0.409449019138006 0.363171090758443
-0.0606766811194957 0.405528898178185 0.369478899802898
-0.0616596285000446 0.403748460475463 0.370609847319965
-0.0543446902656557 0.402106776944123 0.37412561416429
-0.0585072921755527 0.396559280391033 0.377318567783418
-0.0523043572684753 0.391130862842273 0.383534054248594
-0.045392628832221 0.391353391229432 0.385434792210557
-0.0424653193956628 0.385458876621172 0.391038443580268
-0.0357471925146698 0.383520031228072 0.394483342475239
-0.0308124174440698 0.382591831888065 0.396528403972223
-0.0297786776323967 0.375028844770295 0.40281576639527
-0.019706633670556 0.372277095533268 0.407285091564879
-0.0221552160397414 0.365388678907624 0.412347693074823
-0.0139917188694022 0.362332377773483 0.416101023025718
-0.0144804828238891 0.360325095428207 0.41727050016062
-0.00495263672406264 0.356215310035299 0.420968010135364
-0.0048535377667448 0.352847932203784 0.423043648190589
0.000503573965503053 0.34578151074374 0.427901364795459
0.00407569993627571 0.342429461494015 0.429787970596969
0.0189589944522424 0.339174925832472 0.429703943849903
0.0209475583151329 0.336386313161935 0.431114969405671
0.0288415746322868 0.326093482187156 0.436018190753411
0.0299832142423459 0.327248098328258 0.435097399598338
0.0365812640618012 0.314059407868375 0.441669934094716
0.0480075785531198 0.306520423587791 0.442890383539834
0.0464769502898807 0.303983068316469 0.444826704032947
0.0680729258328548 0.292288811369382 0.443219113408222
0.0623408793918992 0.293155410526309 0.445135799544934
0.0769335679027262 0.287555799789461 0.441668927247784
0.076507227212424 0.28141622412394 0.444777541189906
0.094325255256299 0.269350935521042 0.441839744515766
0.105397969428117 0.2585590529989 0.439876866570521
0.119582453953087 0.250164041932144 0.432568674088597
0.13923200427513 0.235092875623202 0.421159876392561
0.14505192737577 0.232090591126846 0.41724452023589
0.175960371351215 0.200993594912673 0.394709577563797
-0.0739267160956407 0.421552693322717 0.34342784086452
-0.0726615287270731 0.418921033591469 0.347403376681745
-0.0643188556287207 0.416338278703738 0.355762176949068
-0.0663108610233191 0.413543057530138 0.358142953248333
-0.0602457579938205 0.414476248168808 0.360080599986172
-0.0533936782386139 0.408062605979599 0.369639430103375
-0.0522001315027974 0.409111832362367 0.36915773100509
-0.0542047362111212 0.406262581200333 0.370837776463841
-0.0427530549041746 0.403381716963568 0.376590795973388
-0.0436271364602564 0.396448551563292 0.381883234402159
-0.0389729195067044 0.395364693289741 0.384151687174424
-0.0327579061801101 0.390696085336668 0.389569178600484
-0.0314577367230491 0.386070033522036 0.393591858606811
-0.0252408571874405 0.380835078677917 0.39929558013156
-0.0216064960462566 0.378353046122368 0.402014960591095
-0.0228070483992542 0.37418248347938 0.40513597179775
-0.00802262696315279 0.371119360103749 0.410107781301137
-0.00879488769089408 0.368519825276711 0.412041369998348
-0.00192827150789763 0.365494836165384 0.415546142344902
0.00143366474838161 0.362055428246722 0.418160378109559
0.00383458419335884 0.355006478604336 0.422214658123787
0.014326376533146 0.353781604064145 0.421460135318998
0.0241809295807669 0.349403334140158 0.422693452524559
0.0224124911584833 0.34092793375816 0.42813219448182
0.0346281008631756 0.337301872788244 0.428085856048741
0.0315500343190727 0.331799184610898 0.432025254464022
0.0478827048457308 0.321812101313146 0.43399773073306
0.0531209560717097 0.316315988376025 0.43567341806901
0.0613593459959711 0.316064114266534 0.432936262488014
0.0642585941088218 0.310101134804045 0.435150921932478
0.0747327484380806 0.300074111774165 0.436298428708397
0.0791325192098293 0.294910034159137 0.437029613343998
0.0826785034764469 0.295251827497317 0.435292247367271
0.0898640365621753 0.283138395078884 0.437258806121818
0.10523057828459 0.273995665310867 0.434384066289469
0.131667343381773 0.256293543820549 0.420163967175693
0.156220612425035 0.239741978532391 0.405329306232358
0.174832581046662 0.219448189901982 0.390658128173355
0.198811285633347 0.200152523968093 0.367397423978661
-0.0692356890598848 0.428687897809566 0.337977420998361
-0.0662835922875653 0.422601635189707 0.34700214896041
-0.054626061219967 0.423400099871401 0.351735843086708
-0.0513730799958764 0.421466178566919 0.355740808289927
-0.0516154586916678 0.420540219653814 0.356774082598569
-0.0529342467267258 0.410587713771692 0.367754324899526
-0.0450219008152846 0.412078519744715 0.368939810826013
-0.0411263027476345 0.407910605067058 0.373451244114835
-0.0391049073769813 0.402538812585419 0.378363553653089
-0.0308205110972057 0.400830418143851 0.382024191906377
-0.0347048730030696 0.400915576144921 0.380927670591941
-0.0250095834226894 0.396776417320078 0.386502277120755
-0.0236244669375069 0.388866247333239 0.393147661240621
-0.0199214420120419 0.38686088442853 0.39549674189182
-0.0137272984704047 0.383504882468617 0.399378871624731
-0.0108722926280536 0.381311768812851 0.401576744884224
-0.00825759285494341 0.379161132207546 0.403702154886048
-0.00209649757119803 0.371384940544664 0.410855039886163
0.0113069191369157 0.370097905639422 0.410709481054107
0.0128935875176687 0.36245240033958 0.416377957606702
0.018447585394043 0.357742210350847 0.418455303703792
0.0294277160389648 0.356820016257725 0.417175184708256
0.0313895568666049 0.350994266817569 0.420353957184344
0.0377009876899728 0.340727647165473 0.425413578794047
0.0402777034741845 0.337856366416293 0.426674410536635
0.0419453543691521 0.331729299431311 0.429899044413772
0.0571495824697643 0.327310457029489 0.428101578939074
0.0631449333437742 0.320168939789498 0.43000416520302
0.0730942177652869 0.317818628286908 0.427598982781714
0.0750549533226657 0.308632635384802 0.431753920351673
0.0910019800968808 0.301752327005033 0.428254095072165
0.0958816380534269 0.300707336575579 0.426270047317457
0.108255412574482 0.289898517702333 0.424602273573668
0.128008416690632 0.274017555197166 0.416281985801755
0.122596451167734 0.272478182302646 0.421350552157804
0.130079490931447 0.262157506075677 0.419240158049826
0.182913551362488 0.224274379677494 0.379443398328505
-0.0609415451803097 0.432490633912222 0.337319856514336
-0.0544346555680583 0.431522670973189 0.341721342531156
-0.0526044795417952 0.428702583354597 0.346130112738036
-0.0481146261064512 0.425509959924421 0.352309211971401
-0.0397255924003905 0.42288251857884 0.359700622249525
-0.0389629392068497 0.419407397717205 0.364400103773989
-0.0363987549747502 0.416560410661724 0.367942427887202
-0.0341451365667765 0.415999948477274 0.369069398541495
-0.0257947068806096 0.411017892728561 0.37487658645383
-0.0243568968557253 0.407084950231107 0.378329158543301
-0.0238457544473105 0.401486571246318 0.382939400670441
-0.0207093210009099 0.399223906126633 0.385383410357594
-0.0112221991221634 0.398664415296549 0.387714430972756
-0.0153108570214679 0.392470227287785 0.391892827980644
-0.00519129097959729 0.391352677026538 0.394544065790861
-0.00496497781166553 0.382260265048094 0.401780214934894
-0.00167852087255701 0.37976343341196 0.404288293485398
0.0100360704726292 0.375710809191817 0.406503698235805
0.0184665323460619 0.372870081915217 0.407169956124416
0.0278678563688933 0.369830339360966 0.407455338806135
0.0288091998105473 0.362584083001017 0.412967740472128
0.0337357592516614 0.355959965022 0.416880973548802
0.0348652967284784 0.355925809487746 0.416657928035013
0.0445047483581957 0.353353187317769 0.416150401111511
0.0500295952407712 0.344184487368859 0.420267155871399
0.0617837100303359 0.334449159225623 0.422574285896994
0.0643920335802003 0.334945739300368 0.421377478685043
0.075486787724139 0.326140831386093 0.422111332486705
0.073952747895117 0.321236154364562 0.425391620845791
0.0924777840031124 0.314189009909433 0.420936162808847
0.0930199095991683 0.305857590887802 0.425318358180031
0.103579785079516 0.302612374727374 0.420490885656763
0.11412783479176 0.291005799212226 0.41945538403819
0.140506285839754 0.277699351942901 0.404521247629417
0.185355328761817 0.239778069286759 0.370769905963656
0.189584122546968 0.236890985383914 0.366691658788015
-0.0447831493626157 0.437018258045813 0.339623901785984
-0.0451532871332222 0.437951523685612 0.338280602903704
-0.0426366365843481 0.431831629598851 0.347133249061581
-0.043108712028127 0.427220575652184 0.3526397729391
-0.037113385934871 0.425213595304019 0.358082983161197
-0.033537772685982 0.42219233612539 0.363599650395177
-0.033635844168117 0.419110543178455 0.366730156322512
-0.0267689252657745 0.415076804665539 0.371414445438768
-0.0278966307491289 0.413109989058344 0.372774999040589
-0.0205995151762125 0.408775109002393 0.377712642487457
-0.0152154925111916 0.4069281427322 0.380267334902064
-0.00791127626289526 0.408405854121003 0.380524928688835
-0.00157983451246804 0.402198112037215 0.386539944191024
0.00637147694447034 0.397247870014276 0.390138305005161
0.00152208588547891 0.393122564435879 0.394227383894676
0.0120172756440179 0.389067343223953 0.395555650844798
0.0179575888742141 0.380849723145734 0.40091951400716
0.0190039563615202 0.379555848678765 0.401727205081608
0.0286413230327205 0.378289866982878 0.400524043596545
0.0361589316218548 0.372030483556845 0.40350996605851
0.0357112685595715 0.36576592872737 0.408609677526558
0.0515626935217781 0.359738178485798 0.408513977130824
0.0527339891813927 0.355765680456021 0.411111784964875
0.0591273578139822 0.348533276796841 0.414156558333913
0.0674248994622991 0.340960780368052 0.416379775747685
0.0806095015974417 0.338892127775145 0.410966085660897
0.0755003047152598 0.33420524000448 0.417048006854276
0.0865232328132417 0.32238185955168 0.4191856142461
0.0834430432837327 0.32604244839653 0.418668844055271
0.097346286757968 0.314447951239073 0.41768327860612
0.109842895986475 0.302423529151005 0.415973181216542
0.11574358878582 0.30223976508008 0.411720375965288
0.251971446972231 0.190583218171432 0.262195738367349
0.137798517440819 0.282491316122254 0.404608193654666
0.167798891623278 0.258255893550415 0.385039815049327
-0.039900034790456 0.441806650756576 0.336063837859116
-0.0333393352423284 0.440289178344609 0.340609083831907
-0.0325990284446298 0.438216298731256 0.343477835571734
-0.0272069336806134 0.437281390378217 0.346335633539495
-0.0291120144469593 0.432879142561911 0.351352964376058
-0.0269795638560617 0.431796255701835 0.353391372951126
-0.0198329078953223 0.427418268576021 0.361176496767704
-0.0169250130247584 0.42658867270905 0.363132091867935
-0.0141279558651853 0.416587847486838 0.372702972079743
-0.0147177632762501 0.417541887767383 0.371817685178968
-0.0072690431349284 0.411852848668411 0.377876016342861
-0.00641758084349346 0.410244548974033 0.3793401049544
0.000976829326118398 0.408906314636332 0.381641343792822
0.00939082080587446 0.403139952173792 0.38490583795047
0.0102335235652359 0.39689523868342 0.389692300845902
0.0277595401889567 0.39005534811072 0.391380797640527
0.0274906010778883 0.385437451109856 0.395145555179712
0.0281558424956574 0.386138653869085 0.394411811468029
0.0406576254795105 0.378004846284222 0.397554888943841
0.045420667900575 0.373686022955835 0.399582728996252
0.054544122862722 0.366073372895233 0.40245354607153
0.0529535528255746 0.360204779345556 0.407604468222847
0.0678330520555472 0.353481103293995 0.406752763011627
0.0683618427400118 0.355274023592868 0.405137994643689
0.0689683230766822 0.350388534487208 0.408641764045925
0.0852061815032099 0.338258326123565 0.40893794355385
0.0951337124136295 0.330019691069638 0.408598673986632
0.102835707386359 0.327315371566129 0.405516272048368
0.109526769806378 0.324345599013213 0.402878984485297
0.131567827518979 0.307357689509401 0.396118666353319
0.121496584137103 0.305240319669513 0.405466482188036
0.133839580216768 0.296947496198239 0.401455086961277
0.146682373943222 0.289406785699578 0.394355759910701
-0.0293774838828683 0.449328094549299 0.330322783109756
-0.033853640928907 0.44265573562114 0.337436204003987
-0.0288757649796718 0.443664361783454 0.337690796584084
-0.0220425144101177 0.439513852868225 0.345089320683195
-0.0242198074315542 0.435854227519019 0.349076740717109
-0.0163595167173098 0.430387226915925 0.358469394482487
-0.00885396858363185 0.43384054255198 0.356392147599748
-0.00569231535250248 0.430852504732764 0.361175024957011
-0.00134909610968622 0.423766722541571 0.36945396136281
-0.00178968523954885 0.423393799840167 0.369666985513515
-0.000696015104142475 0.420754096812071 0.371989696771395
0.00621019481642968 0.413621363360335 0.377203681930118
0.0129550099809187 0.409923703973229 0.378700383451028
0.0242882324058799 0.40375574726307 0.381155516311881
0.0303379745688762 0.40062878270399 0.382312298132379
0.0238423371619869 0.394816947097734 0.38842301895752
0.03554699874189 0.387571498728239 0.39131489445558
0.0466389822124548 0.388055497774561 0.387702380357926
0.0497121168709214 0.382844334098195 0.390953551962874
0.0631880551638997 0.376712695148594 0.390837546161392
0.0596415684148387 0.369929491929794 0.397466620827798
0.0748079978630108 0.365883176648238 0.394130853122708
0.0780258729309229 0.355815792725422 0.400036505953182
0.085067248617865 0.356042603027028 0.396178677911775
0.0848492802919995 0.351831608381254 0.399349713162231
0.0948937923574959 0.345893842624738 0.397889963682233
0.102538994245674 0.339260771328794 0.397694438658551
0.112871817848633 0.326587437122732 0.399115003874402
0.122855183402832 0.321752533966151 0.394848022294987
0.240292392251834 0.22670468925033 0.276367212555505
0.158075265284912 0.291674799089704 0.381012602377994
0.188794978245066 0.273068668378309 0.352832312700332
-0.0234876966471124 0.449823074446853 0.331513467618497
-0.0232669546790736 0.44616206903399 0.336244089134524
-0.0150463788350691 0.448450216040491 0.335871788143663
-0.00953330278206989 0.444013013172798 0.343227240998988
-0.0113107351990938 0.438824686859899 0.349285127402357
-0.00768290161607428 0.438599619613735 0.350693438539997
-0.00362093073603694 0.433162223787904 0.358873994586356
-0.00450202491333321 0.433906577645206 0.357653619760758
0.00337528363823321 0.425221854291446 0.368536724307212
0.0021814087703634 0.423630432819512 0.370034806801478
0.0189044896453016 0.42030296521702 0.369067418843232
0.0256703179205997 0.416888126684269 0.370318659991799
0.027613872575412 0.412599064951455 0.373331399792805
0.02795362104569 0.407283904048532 0.377519777267261
0.0327002420077753 0.405249042387658 0.378012916256134
0.038223752374426 0.401432460067689 0.37951506755039
0.0510890003860984 0.394002890626939 0.381598329886844
0.0473505136220503 0.393598628680613 0.383046787896303
0.0555234215105986 0.385893138718151 0.386762589913248
0.0654529108178379 0.376227420823841 0.390245405222716
0.0735885806863868 0.373621293896709 0.388694540230938
0.0802389192355012 0.369247085480109 0.389126150390615
0.0817548600163865 0.362556489352907 0.393187666785525
0.0969803094724929 0.354271654292685 0.390670874555489
0.109171505792732 0.346937935398189 0.388296238619425
0.107657005207712 0.342190879440606 0.39244957343188
0.12165087103918 0.333064757020563 0.38884689299675
0.131388094661548 0.326915639080445 0.385241315640856
0.142757232591748 0.315036240308139 0.382731213408476
0.171069125700434 0.300324359058384 0.360701459067122
0.180853148796441 0.286418915310283 0.356440502940413
-0.0172239120345904 0.452131815861481 0.330509922586212
-0.0122942643686817 0.451464883337275 0.332883464305263
-0.0139105137558176 0.448964420541659 0.335568133422531
-0.000805563428074249 0.449504735936766 0.338931924924434
0.000793286321120509 0.447967241966592 0.341384302585485
-0.000794152785981981 0.444035157601863 0.34590108097928
0.00314340131923869 0.440518274892713 0.35066891328915
0.0109905011344699 0.434445328947335 0.355725884936209
0.0131668704559826 0.428435971376024 0.362625517302168
0.0265404511363868 0.425543412719311 0.3617656900016
0.0211884883376249 0.427561932487064 0.361015524402766
0.0340306649657997 0.419198597799531 0.366540807567501
0.0313357787802322 0.415357432183069 0.370300651574376
0.0342257070086124 0.411405393911471 0.372713774650915
0.0496222691882941 0.40769012332327 0.371072303214476
0.0530321887785664 0.400710880782949 0.375638885110727
0.0649268833304589 0.395088671933892 0.375923790979924
0.0590998395434239 0.396209915510187 0.377420245631842
0.0743601751071591 0.389159724923592 0.376368498877325
0.0744532715305497 0.383892994496693 0.380391148905214
0.0849297159611613 0.373409807633674 0.383644164967999
0.0891314946600585 0.369866284291641 0.383966745075187
0.0957059133952829 0.367145310063813 0.382149269365647
0.114786829795723 0.355483386906517 0.378839404769841
0.121812626320065 0.350126883769868 0.377538978140361
0.132035034310969 0.341641547257104 0.376100823220578
0.156440312251357 0.324082286720394 0.362112718661328
0.155110254141853 0.318439676129789 0.368166634714049
0.173306309910861 0.302845203443432 0.35664291588778
-0.00496140287216484 0.464027585406279 0.31915182126982
-0.00316118226011028 0.457853181986879 0.32757166633425
-0.00189931256276246 0.456508772388644 0.329673956580883
0.0065303697748463 0.452944615279396 0.333726293483882
0.00734079808214755 0.44646480940539 0.341687181634899
0.0124241317942083 0.445228351144944 0.341534470890843
0.0185498139401448 0.440726076174348 0.345179027926569
0.0160395128750376 0.436234316155074 0.3517394992142
0.0272387037347056 0.433409584077637 0.351531006113045
0.0314118143596785 0.426446028073483 0.358966133174824
0.0332828204705882 0.427628561059782 0.356828508154691
0.0450396538676603 0.423798952400914 0.355949261979089
0.0528306674011426 0.415891362280792 0.361962509285426
0.045837634247155 0.411828126201435 0.368895045690222
0.0550152710817422 0.406818263468662 0.370148691187686
0.0629437871989801 0.404450824903638 0.369560837531215
0.0743206401228093 0.40056087062623 0.36758955739047
0.081243553485847 0.388855690335793 0.373589731860055
0.0790916741084943 0.392023397592213 0.372087800437865
0.0993869885681489 0.379731463524915 0.370990264206112
0.10619196600531 0.373755581259731 0.37137994820602
0.10569940216089 0.368660498607737 0.375324757358529
0.106954725188915 0.364116883266151 0.377870049416104
0.130321811256488 0.355236869443397 0.366494565772577
0.144683494900026 0.341995609577551 0.362239263904482
0.150226938152593 0.337169931648291 0.359328299970911
0.147122497853455 0.331798134058341 0.367317134393432
0.00562149392197369 0.462310040556127 0.322131199204054
0.000632907249269035 0.460050417673552 0.325946525896203
0.0110369560386586 0.457343408999215 0.326606852500445
0.00578733445906015 0.455260869115822 0.33103438707658
0.0153034284182998 0.454233449380711 0.329112421815728
0.0266288709701306 0.44884736508541 0.33211656284933
0.0266081631228516 0.443585761265664 0.338811042884455
0.0346049201354333 0.439406066716151 0.341410944357527
0.0348803076572916 0.438389913418628 0.342609057054414
0.0513502542732095 0.433052511015115 0.341332796422042
0.0455374291643775 0.429067028106122 0.34914858519387
0.0540078658067103 0.420220843914832 0.355996110102196
0.0565025427654758 0.418438117577981 0.356989070918442
0.0626049117298746 0.415948457648391 0.357089341552557
0.0791904947455772 0.407460382760929 0.356354292665711
0.0896278735070897 0.403311113378305 0.353986977969509
0.0800983354286944 0.402160066609628 0.361960703005554
0.0813312588462851 0.397656045320237 0.366404291321122
0.105209598436245 0.389671909544128 0.356432249849715
0.0973786068977377 0.384693865808462 0.368576162240557
0.108048376282112 0.375015659486634 0.369408829613773
0.119687285073659 0.370453262221242 0.363444088983857
0.143089906693872 0.353476039087624 0.354318084534054
0.144672721330199 0.352473218453779 0.353499990754388
0.161776396758555 0.341611736622904 0.341847734543568
0.174162570538991 0.331302351097021 0.334286946467935
0.220111579110909 0.286002501860505 0.290397875059368
0.0102629228377908 0.468040550910083 0.313273419216173
0.0194125562346193 0.464029750993018 0.315267607555492
0.0146283740797011 0.461554126804419 0.320036874586562
0.0269189124691249 0.457263832387673 0.321320920242564
0.0342282017727036 0.453723875359554 0.323340905800918
0.0401232884070863 0.450541234661226 0.325083924305341
0.041464180401453 0.44448763953473 0.33195883755299
0.0478420265884928 0.441203495804867 0.332912500307481
0.048590435314867 0.436285382769665 0.338665395100398
0.0517088972478899 0.435682659564832 0.337883375178099
0.0560614276010477 0.428716734482834 0.344414056710166
0.0693865808167439 0.425344328830762 0.342119697811402
0.0715154243541067 0.423918911625916 0.342318313327229
0.0796083562199183 0.414411930327087 0.347884002286045
0.088134300878224 0.405327896998167 0.352651226143377
0.0955406083638893 0.404450829309223 0.348538834916994
0.0926263282815016 0.400837594485335 0.354814882126135
0.104052459853263 0.394456961924684 0.352382168162823
0.123377700754257 0.379846675575982 0.350345279483656
0.137902808573157 0.377792836482117 0.33721695397547
0.144057479948262 0.368079710620389 0.339609280489411
0.140443066006197 0.362583536465862 0.34874780435222
0.152281466658154 0.355146047808447 0.342570233873367
0.172149994548822 0.342051977732615 0.328485458987383
0.0196976713477573 0.469477210960531 0.308247220343942
0.0344229583725987 0.468000352818787 0.305129557638171
0.034597172574406 0.463614967656437 0.310644254320247
0.0314554739476993 0.460516023277294 0.315648634784242
0.0371429303397811 0.454538093190627 0.321317381377617
0.0473950934274588 0.448916562309384 0.323533171105881
0.0629919273055118 0.44582377284373 0.319719380057662
0.0602414881961181 0.442330270285831 0.325418340957703
0.0603247074429561 0.4395114618104 0.328885461316008
0.0714508669434253 0.433809957001058 0.330514669998675
0.0752427624262706 0.425934408721385 0.337357605960007
0.082915322816266 0.426249563572799 0.331657359217108
0.0870061047710804 0.417497720712558 0.339114372229419
0.0934799890675397 0.417477524709227 0.334641346472742
0.104209175328339 0.411692743319075 0.333928094092769
0.10891487553217 0.403131061004141 0.338819179678399
0.125465877151896 0.394141611032684 0.333209038155122
0.136367906357334 0.384294292455119 0.332722891171721
0.144836295166759 0.379502376301377 0.328079995265131
0.145812469086246 0.376220392984055 0.330062523245077
0.163981558577596 0.36041285943872 0.324371794436962
0.174670585342385 0.351883970452655 0.317704707976096
0.0372614346611441 0.472665073775984 0.290710454023956
0.0456475093098345 0.467427185108367 0.299240641990601
0.0422078424703839 0.46703093871705 0.303538346134408
0.0514806472664715 0.461561028635607 0.305789893414748
0.0471614854791413 0.457736609244913 0.312671397879029
0.0611716756018348 0.452325294514524 0.312522533092885
0.0654190030442523 0.449013303180439 0.31455758177956
0.0707016340630012 0.445124239787076 0.31680214901388
0.073931014199308 0.438007803207588 0.324071948780802
0.0825614951404509 0.433647631125538 0.32319765771912
0.0897519929895921 0.428343502875768 0.324444590269252
0.105139613757532 0.424072255608735 0.318782348023663
0.113798214673899 0.41848751375348 0.318137109475355
0.114206398693924 0.414663247990224 0.321835753472174
0.116997772437494 0.408533977940347 0.325776035058793
0.121689280077185 0.402043279362803 0.328317589350668
0.14657197254075 0.393111701187947 0.313448257997069
0.13733722107612 0.392554926818496 0.323867262453979
0.161108572985845 0.375671050182018 0.313620372178364
0.0511669358774767 0.469104136885411 0.287108090502791
0.0674303396195999 0.462931014791328 0.285142500269436
0.0741482643647873 0.461057199803397 0.282914735038633
0.0596264925463933 0.461298624693482 0.30005137928745
0.0758155215884132 0.456744222812011 0.293458504858372
0.07150690581153 0.455324910817644 0.30306632662114
0.0804436438377247 0.450464982005999 0.304879373643523
0.0929177727426072 0.442089970832592 0.306069847670676
0.0861903582382565 0.440529505715909 0.312578976080258
0.0978655886487565 0.433714283880941 0.312488929733537
0.0954655580857526 0.430863227630097 0.3175109041709
0.109137948141578 0.425418709860858 0.314420683035868
0.116855444687819 0.423278823057072 0.310233658782025
0.139942677988869 0.406979667546417 0.303738652286038
0.143552721347711 0.401926271805262 0.307164609333964
0.155361400954448 0.391256722761312 0.301254655374652
0.0705033439221088 0.464886167730604 0.275787268843807
0.0749354805358271 0.461941925425549 0.279587030027509
0.0748323242888905 0.460615664878203 0.283464564385878
0.085388904394165 0.456662966858199 0.282134484720143
0.0959982350476397 0.451581479843584 0.278494579805542
0.094073333007277 0.451271217395919 0.282265275706191
0.111359452234439 0.441363003706326 0.280966332127544
0.104051420205421 0.43962685251782 0.296170673115029
0.11447448925855 0.432969512855085 0.29711471897003
0.136280214335725 0.424022763051229 0.276574668199218
0.135772265208734 0.419791084082745 0.285918169884175
0.117219396051831 0.425916808779753 0.307091219894095
0.160938509389452 0.401460324476608 0.274106561882078
0.170364086269138 0.392923066293426 0.268719377489407
0.0840358807312125 0.46751282003139 0.254359080887188
0.0998041191220544 0.45778459971084 0.25693014056521
0.0945270869221325 0.456778706130738 0.267659389560394
0.10930437524419 0.450967068172133 0.260404710447856
0.107952968279964 0.450407659924865 0.263633904843469
0.119576459279652 0.442898741238036 0.265877272654507
0.118471633070373 0.441187907232288 0.271571313556712
0.134242138098145 0.430985980210992 0.266469742282832
0.135786898397769 0.424685234332725 0.276162327981154
0.166530738899597 0.408581399108121 0.251769903332803
0.162393676242876 0.404344570081974 0.266674542979912
0.113099170746205 0.457277803069103 0.239788612017822
0.117943057892022 0.455918299478241 0.236411734455158
0.153819955326027 0.434334307881596 0.208478197270591
0.12679981401597 0.446626669999201 0.246819292979896
0.147346901971356 0.432250214295 0.240816666377069
0.163580825136111 0.419567016554226 0.235202959154237
0.152724625651807 0.438957246004063 0.191379940155205
-0.085224687892273 -0.490598969967051 0.122916426602603
-0.119985765991037 -0.478991582184013 0.109220734112229
-0.114962860200924 -0.47972140322257 0.111707243887345
-0.0964573441192303 -0.485280746485775 0.118968285127499
-0.0920519860089192 -0.487670243531597 0.120444954524965
-0.0793668294364814 -0.487922899985228 0.126262906945746
-0.0757623385097707 -0.482424326613323 0.129232141645164
-0.0732277035313016 -0.492851881953696 0.127767760976644
-0.057189204896655 -0.491979861274306 0.131726782941907
-0.0577612094616453 -0.495043871350913 0.13089811874948
-0.0431449538749912 -0.496597227416623 0.133973836522403
-0.0310782349821955 -0.492012161337795 0.13784302715771
-0.0276101217581512 -0.495350052709442 0.137899774136803
-0.0142002027532094 -0.493583208662372 0.139093683073838
-0.0168980012394884 -0.495042754515918 0.138810879888803
0.00532879241079764 -0.497090380882363 0.137983575508246
-0.123482023674221 -0.465994456157913 0.11005015811422
-0.114834607954007 -0.468098234273778 0.114512774284057
-0.104052097296462 -0.469782246543341 0.1191109650327
-0.103007924359116 -0.469467538157495 0.119669134168114
-0.0955101277963194 -0.470500926926859 0.122899075471445
-0.0839885198612343 -0.47750395809821 0.1265830473753
-0.0801240686239251 -0.473936893151251 0.129216393554629
-0.0689361623156671 -0.479589602580431 0.131780369131752
-0.0641835117333017 -0.480095282074316 0.132780342515834
-0.0572053943087082 -0.482343088370614 0.1339073473943
-0.0464698094171164 -0.480531047291375 0.13683579959464
-0.0399264856200411 -0.48789081006743 0.136702112386797
-0.0290583515228074 -0.481441498334569 0.140712777333348
-0.0194357037885037 -0.490353134206631 0.13990503048373
-0.0113912289610306 -0.487457150266885 0.140421607212472
0.00502544245798752 -0.491751234523883 0.139186467435895
0.013884570837948 -0.492933321528665 0.138774619066685
0.025910582222622 -0.489327920977239 0.139384453871906
0.026300640306579 -0.491517148920261 0.138886830544296
-0.119759595834749 -0.455869961308478 0.115008778813312
-0.111742066772982 -0.465622796173797 0.116530548101886
-0.106198028658939 -0.458600494238599 0.120758466719065
-0.103257837379544 -0.467585264629394 0.119998045782276
-0.0915708464967608 -0.461340797817487 0.126888518608915
-0.0882095701351715 -0.46717722605545 0.127067038108758
-0.0775631951311993 -0.467613498135197 0.131896943349952
-0.0807372584747266 -0.465608615916916 0.130899922656444
-0.0623163639141839 -0.465079889979378 0.136688259832811
-0.0634374483752231 -0.468215877629009 0.135648006970694
-0.0517932054753485 -0.47453690166448 0.136946041662622
-0.0413527529462669 -0.469775859410356 0.140473727411339
-0.0313305638509437 -0.471953791956371 0.142330468663353
-0.0210007877512934 -0.477880395051105 0.142729273131176
-0.00559987456191343 -0.480675439131611 0.141847265590745
0.00336784344587701 -0.482223891181848 0.14135142352206
0.00568336150392792 -0.476581537286519 0.142578993415274
0.0174919706796902 -0.483971169354233 0.140725622657015
0.0301974322264373 -0.486181361014705 0.140019446579285
0.0458600217668523 -0.490288015057518 0.134965564267433
0.060793784042707 -0.484827655008125 0.131669615279953
-0.119812512336929 -0.451264229704706 0.116135293347435
-0.115896482445962 -0.452275393434615 0.117898860082161
-0.111926113732921 -0.455009645370298 0.119065053359869
-0.102951864151227 -0.448289994137209 0.124729852637633
-0.0917963870657305 -0.452809303621189 0.128749162643627
-0.0939764484587837 -0.456945840294177 0.1267850768504
-0.0850745170904822 -0.455015564294502 0.131292414564018
-0.0751829189876129 -0.462132037548311 0.134126325146255
-0.0673225212390056 -0.456937483341577 0.137359968449731
-0.0624063111144919 -0.456539040739847 0.138573061797372
-0.0453634667391263 -0.46586799908772 0.140389113278026
-0.0413150918924331 -0.466199056217636 0.141241012571794
-0.0372721555075638 -0.461406755427173 0.143234633604126
-0.0178981547565214 -0.469423788542996 0.144513182734889
-0.0199465208926492 -0.463847980216776 0.145769511963211
-0.00421411546016701 -0.466067674751282 0.145059935003743
-0.000679773310111766 -0.474396565315274 0.143174530608073
0.0121273157055321 -0.475582035726349 0.142696574950934
0.026222582941339 -0.474597189349153 0.142684220957574
0.0523503615424552 -0.472969465051734 0.136871702287533
0.0522136733820532 -0.481944291477856 0.134934708946315
0.0926690272868684 -0.482891953241081 0.121771919858194
-0.121119828443496 -0.445817871840925 0.116611002372886
-0.116710749322166 -0.440274408352176 0.120345810715124
-0.116171152008622 -0.439046193053812 0.120879934166458
-0.112325178470253 -0.438797829201229 0.122689781830008
-0.0965085816594851 -0.441416278112753 0.129278172990062
-0.0924874245371671 -0.446229549226862 0.129979350817145
-0.0823665486169198 -0.450150686115494 0.133667931449467
-0.080595481164494 -0.445122603681326 0.135655084698792
-0.0757799318753267 -0.450267266820206 0.136640234971705
-0.0561625264005026 -0.45432389181478 0.140495023177864
-0.0573269892660292 -0.45175844190352 0.140801065755738
-0.0434881102246734 -0.452671429495511 0.143761967907211
-0.0373526901039338 -0.459110614418897 0.143728461564592
-0.0297006173607578 -0.458347653082538 0.145648493332691
-0.0191915599948985 -0.458146413550477 0.147014168303001
-0.0121978809794751 -0.454551051940134 0.147707528675123
0.00658190284921368 -0.464655086388002 0.145219349895141
0.0153427065805321 -0.463109683048338 0.145436580542499
0.0176399366653523 -0.459246960104749 0.146254743174672
0.0533528552329266 -0.469908847711293 0.137251392412175
0.0503513062873168 -0.467286897264355 0.138722481493365
0.0858585887330771 -0.471187402394263 0.127235720757681
0.0881910814058816 -0.469827862398284 0.126845238226062
-0.128331785910327 -0.433163921498603 0.114908546873453
-0.11951584604193 -0.431481402225607 0.121132877053658
-0.117504156243787 -0.428935254074361 0.122646866123934
-0.108724585771991 -0.433123716518681 0.125661822602756
-0.099972191456853 -0.431340480828239 0.130066533684862
-0.097237391881957 -0.438027487433527 0.129741933008986
-0.084890816863461 -0.433055798801508 0.136532141611958
-0.0741322905394776 -0.438778592198581 0.13985380810962
-0.0711202947546678 -0.443084990800675 0.139581859963989
-0.0594913255637031 -0.445852074319153 0.141623786506198
-0.0565007748177182 -0.436222261562767 0.144490929385714
-0.0452768101316022 -0.44241420742806 0.145641214868538
-0.0406371664092728 -0.440462997691462 0.147137470353384
-0.0246967333599081 -0.447693438472073 0.149169586409521
-0.0199006117292265 -0.445094429719621 0.149897647001906
-0.010135069514607 -0.447419834105008 0.149248574115349
0.00255084202400294 -0.449575686377753 0.148595826651938
0.0109744722657687 -0.450446847112478 0.148285760868007
0.0247384746977871 -0.44922491446054 0.148361529336726
0.0335996491933481 -0.453745456375524 0.146601168899413
0.0608013328939394 -0.461971889872596 0.136901610905869
0.0766343101527053 -0.461778224328619 0.132240275704368
0.110712068598493 -0.470633383286806 0.114654294946173
0.134469062749142 -0.473165008938647 0.100467392697247
0.127432733123083 -0.464446547109666 0.106709502424369
-0.131696664085471 -0.425508762146868 0.114549910573406
-0.119167141881082 -0.417020636471818 0.124852292050568
-0.119332016460313 -0.420943986926762 0.123861440204586
-0.10631126533851 -0.426361559623522 0.128417836826731
-0.103511258500021 -0.422926614078799 0.130472935581901
-0.0967031454608502 -0.431042506762152 0.131625285358227
-0.0843163543688372 -0.424288229204075 0.138738497580801
-0.0790558198015714 -0.433295177420074 0.138985518212761
-0.0754331913620351 -0.434253614432227 0.14038149331128
-0.0671957725919141 -0.429694222696485 0.143544438927577
-0.0603537800774064 -0.426600581062874 0.145754874438381
-0.0545546696465849 -0.427983124792225 0.146744304599135
-0.0398243707140254 -0.437629999205912 0.147903144649654
-0.0314196342106 -0.435636415660202 0.150219607733486
-0.0160461563544015 -0.435079695588363 0.151982807390037
-0.0129234387274523 -0.432517363280473 0.152503028755919
-0.00115449774808237 -0.435647282849308 0.151686262164062
0.00864082316846353 -0.442244868497645 0.150124272945875
0.0219594483935231 -0.444167783774442 0.149513925313163
0.0411390456182445 -0.449130370154109 0.14548989912662
0.0519558147938439 -0.451384286241355 0.141962610623073
0.0736025275562717 -0.450085775055306 0.13597227944059
0.0833428179765194 -0.453601462196171 0.132224771339021
0.119386500259034 -0.460092718067017 0.112311742277591
0.144297175413487 -0.465425710538563 0.0962667553672111
-0.129278646114133 -0.408822952605285 0.120312088712339
-0.120882737062425 -0.413892305761656 0.124652127753072
-0.121587210954251 -0.410244982676764 0.125099481681265
-0.114288431082265 -0.41085142184584 0.128476137135608
-0.097290915759879 -0.419415972936867 0.134075283790081
-0.0985671407030729 -0.416138963309888 0.134270595697385
-0.0922546057831104 -0.419068194989781 0.136408789577854
-0.0834804204991981 -0.419124951475906 0.140319288261819
-0.0778507229809026 -0.418618941757857 0.142955141800532
-0.0681377917263668 -0.416639388340465 0.146216177732309
-0.0648298964805435 -0.417670638925398 0.146726999166653
-0.04905619421397 -0.424419549243848 0.148758545726671
-0.0378301748536485 -0.422279436138847 0.151737206452031
-0.033335282520602 -0.428861339619127 0.151287636985626
-0.0168923039969468 -0.431780191063382 0.152709323977103
-0.0105887747844389 -0.432196394336104 0.152545581679111
-0.00372859948120475 -0.431751192339231 0.152562465192271
0.0152365111860928 -0.434828881920379 0.151673317042419
0.0226149643177647 -0.431583886478264 0.152292302095187
