ply
format ascii 1.0
element vertex 858
property float x
property float y
property float z
end_header
0.102790309821873 -0.150604372961565 0.271092099234741
0.106745062904075 -0.145345714098082 0.273541580373878
0.107128616048354 -0.138578494747459 0.278945061921086
0.103027497598715 -0.133353847789155 0.285220569044536
0.109655100875433 -0.125963805870673 0.288150958877651
0.109684114096808 -0.119671413376036 0.293332045486015
0.106517081772045 -0.115514237557467 0.298279366540447
0.105219936301755 -0.107952813701923 0.305142622444293
0.110944625198219 -0.104950041880813 0.304882878535948
0.108075945751702 -0.0961020115346939 0.313560206603176
0.109581711042763 -0.0914009098286432 0.316238450251861
0.111350838301884 -0.0888065044686782 0.317227922894995
0.106448255340076 -0.0782777520872152 0.326182799290359
0.112120752992626 -0.0732650130367709 0.32717300196112
0.108878603069972 -0.0705029880657355 0.330321808150185
0.10647288346505 -0.06414498101873 0.335502584453849
0.109330987952777 -0.0530168206202354 0.341680489988161
0.112840653852948 -0.04686285546432 0.344308276538032
0.106229721312896 -0.0401431095498462 0.351439986342236
0.109793736641357 -0.0329433632401274 0.354731591298182
0.104897805420852 -0.0268517843079886 0.360358598079557
0.114070175407949 -0.018079428410662 0.362634116120035
0.107959946022874 -0.0193805337873818 0.364002901767235
0.104935781694273 -0.0157672050280622 0.367383789230406
0.111999290840968 -0.00378779995745663 0.372453394431668
0.109058522279265 0.00231117388599083 0.37738273610843
0.109870705787828 0.0100326533758258 0.379557184789891
0.10816500448355 0.0147178772920725 0.381155470547413
0.113506856372742 0.0364182659808106 0.385676421475123
0.112778448537572 0.0335715979006801 0.385089380465733
0.114067774948264 0.0473945083971427 0.388429094265371
0.111254684709219 0.0545457122653421 0.390914226891304
0.113456764835219 0.0589426090330723 0.391586577810699
0.111224302131719 0.077853089513764 0.396474143884662
0.112121534776324 0.0853237322018588 0.397681528166614
0.113058312220591 0.0938270665989521 0.399086506467123
0.116987932846757 0.107069474268639 0.400177295353473
0.119873295373078 0.125371111687844 0.400752228560172
0.112966140958573 0.123125975740312 0.401680392377365
0.118350219733177 0.146060526712289 0.396051851696045
0.116072446589297 0.158272520582209 0.39333599505826
0.115263701912055 0.188530022696606 0.38585685655303
0.120798344386961 0.200090440276489 0.382542764300266
0.122484679625917 0.235204530794421 0.37293563381345
0.119818594001091 0.248595733644997 0.369353036906327
0.118750898863054 0.279721581902007 0.35998405672141
0.119137875158304 0.287111058515929 0.357537888075766
0.125158158533632 0.311714500304128 0.348663969779334
0.123408033172029 0.348934075936272 0.335399358655441
0.120235135732277 0.353980767367455 0.333755249747255
0.128021886651477 0.390435612233681 0.319252564501758
0.110724933958506 -0.220617004799399 0.215193986433337
0.115978832915078 -0.212209000450102 0.217437509571585
0.108282527291862 -0.215793405634777 0.218768721153987
0.109619417028497 -0.204726750336108 0.224161337776933
0.114542551273325 -0.19895975350168 0.225261056582688
0.110652233598166 -0.197711048890352 0.228005791169916
0.114568154975531 -0.185725099439725 0.236052802493251
0.113168423688025 -0.183293659036878 0.238821771804921
0.11347576330884 -0.177295497157648 0.243704678814381
0.110386400931588 -0.175389302287534 0.246952113633197
0.116191430810679 -0.164098535681978 0.253399657768007
0.111855449761374 -0.165876801571049 0.254216512713606
0.113335186059967 -0.158504159591706 0.259664080677671
0.109818168748338 -0.153415163749879 0.265616785132751
0.110831943214448 -0.145641109281175 0.271342450230514
0.114227602766963 -0.141100288919171 0.273466770197276
0.116684704748737 -0.135146675735921 0.27720651129121
0.109984372265819 -0.129351964510257 0.28519618170242
0.111314594492482 -0.122324672879609 0.290361470297992
0.111342591346602 -0.123355937210087 0.289496669412606
0.113905052299481 -0.115603641425903 0.294670987646028
0.113668747897624 -0.112265508467679 0.297539986422625
0.119147896412523 -0.0984623057489614 0.306314495130087
0.120586937737358 -0.0977725159934816 0.306195513030894
0.114425435983794 -0.0943698967223644 0.311952496050411
0.112487083106264 -0.0874769649378361 0.317641115943338
0.120078375790555 -0.0765916940283352 0.321723684520988
0.113101547921961 -0.0751347022953878 0.32553775045502
0.121482532165928 -0.0615910524128649 0.3310524309553
0.119630271576728 -0.0590141852690168 0.333510798184613
0.115328672601783 -0.0516360754888124 0.340140064114283
0.120795595786883 -0.0428028507173885 0.343736430361079
0.113846528587372 -0.0457240769232368 0.344648834362789
0.114441210084966 -0.0356915918891982 0.351028739771414
0.120278356352536 -0.0265212733917138 0.35469628871
0.124007702803219 -0.0206842186290014 0.357025056122388
0.122175135745411 -0.0130196807533135 0.362834035876842
0.114868556026978 -0.00865846592159536 0.368329728630568
0.118901259900336 -0.00615782727146793 0.368468978070034
0.115190913410438 0.0012591426425193 0.37451172077406
0.123528708272862 0.0150921525178215 0.37791001117394
0.12477165874593 0.0261326463626169 0.3805310864487
0.121848272741737 0.0273869605721611 0.381495792492346
0.117695798888193 0.0365497710768459 0.38479925620647
0.120879167416249 0.04624406859345 0.386478663880506
0.119874119657431 0.0517881561308331 0.387981735985279
0.123540197225219 0.0670013505237233 0.389772340975038
0.119243827084514 0.0787947713613902 0.393753861209807
0.118702041827374 0.0922456620892156 0.396711505131496
0.125321337928127 0.105283755810078 0.39674318432053
0.122973996196328 0.105893646463455 0.397730862182286
0.128730560535524 0.122024787036389 0.398666516312612
0.121612964951798 0.138299335285398 0.397655991805917
0.124408910600927 0.153165366620301 0.393957746801478
0.130493130600728 0.165034405514097 0.390523786514372
0.130735190602095 0.186991001775324 0.385031727225192
0.126164803180649 0.210693187830978 0.379252035550352
0.125281215937823 0.23288136613729 0.373307309661597
0.127044579972436 0.243019997516839 0.370278520129418
0.132777354701161 0.26866426672347 0.362064726742481
0.128165211133441 0.294287682185256 0.354266176788966
0.137609763735545 0.326477786307462 0.342219890129012
0.134530908735866 0.338872719594716 0.338138584605557
0.129042398979835 0.361516216066359 0.330141739532151
0.138746414528655 0.388809440846834 0.318952286243596
0.124896998214949 -0.216474785124962 0.209559012472356
0.119136124155323 -0.210450758344948 0.216408850583676
0.125060226144742 -0.202081032484447 0.217792670578576
0.124586055301238 -0.19846187230817 0.220074019879818
0.122802147243588 -0.197295146553971 0.221747428587522
0.117924906131783 -0.195814480564925 0.225751373411527
0.117674941224396 -0.187898674054967 0.232616323249019
0.119720970117235 -0.181168477883852 0.237213923985408
0.117501719166311 -0.176691786858972 0.242126671375092
0.123396591909622 -0.168930886869904 0.245567747403362
0.119460225329082 -0.166289541468668 0.249856369770193
0.124657061327342 -0.157390184727778 0.254645232876407
0.122564542974479 -0.151654682257023 0.260550500300241
0.121900980438851 -0.146735730603079 0.265037510751249
0.127192262311459 -0.144525893736705 0.264145815816852
0.128309093878342 -0.137228909451262 0.269701199147981
0.123527267318065 -0.130358611513417 0.27802770203827
0.128440948735845 -0.125486211390071 0.279520264165988
0.122604662290915 -0.125456394230795 0.282430663711612
0.128456114152889 -0.116998808388711 0.286674017649019
0.126686187377234 -0.112423411146605 0.291181793555304
0.120929720932405 -0.108669775292981 0.297034796280278
0.130095948189133 -0.0977967533526088 0.301626183145987
0.124722393955354 -0.0948004471580274 0.306670744744909
0.130060977575046 -0.088564072550135 0.309265368068169
0.130073616228322 -0.0825694142090818 0.31369125814514
0.131767527588038 -0.0729539884852185 0.319346458654893
0.128290519353681 -0.070335976402792 0.322496206938812
0.130511130590728 -0.0601014951791717 0.32834475945286
0.125255962346098 -0.0564348974966859 0.332913675264114
0.129864794624872 -0.0471852458807328 0.337135748000538
0.124009665036765 -0.0464438640079181 0.340018833284552
0.130337836371966 -0.0381886615757709 0.342881523855065
0.125320374266621 -0.0337726495485262 0.347847993595192
0.133381990367969 -0.0195385431023088 0.353949046146033
0.134065676961589 -0.0117469363972209 0.358813232638941
0.128096163771811 -0.0110410588648185 0.361719641040628
0.125673957700084 -0.00754702179798595 0.365016486245538
0.130135826085086 0.00497283392682632 0.37145748927778
0.13180643158126 0.00929637433968385 0.373628740266198
0.130220072807061 0.0147769046134534 0.376371255939357
0.129025816793567 0.0236234134377132 0.37887600288742
0.130826866481743 0.0366076944650498 0.380886702209458
0.12849709116067 0.0427142821244293 0.382986513169272
0.131140613219971 0.0535861214557337 0.384257554143854
0.131667286205423 0.0645565132528567 0.386317892957245
0.129529075889064 0.0672814496387859 0.387654019411786
0.129651214640247 0.0769003861524445 0.389583941533797
0.135029281442732 0.0928561170515592 0.390771522036336
0.133681271314826 0.10955658672502 0.39445334409983
0.129682323572889 0.113758379345576 0.396738450740282
0.134709459969356 0.120143600671559 0.396088376003062
0.133310404655382 0.12657386971936 0.397832733484423
0.139454254298752 0.156426947126487 0.391969259736414
0.132910100884868 0.173790154573137 0.388152396202774
0.133079510618763 0.185189799581856 0.385297557076023
0.136477773953782 0.200526182486695 0.381057198091464
0.139545472973797 0.226012439230471 0.373850244423046
0.141102064219213 0.242791707329285 0.368918863761675
0.142428619163832 0.281221003559503 0.35704361625241
0.13813612575125 0.297378217950568 0.352227215589735
0.14511478611367 0.331003145578185 0.339882394513286
0.141484365396383 0.36018172954934 0.329583981213953
0.141214844370797 0.367898638393964 0.326678015939595
0.132893489497966 -0.215307600617023 0.20695596108649
0.13226835309768 -0.20745487421313 0.211740556685007
0.132917998128527 -0.200949746693193 0.21522575014796
0.132981767010232 -0.200121199348513 0.215677427618578
0.132159232810975 -0.196050115545926 0.218362113873172
0.129188461991151 -0.18693808597059 0.227180479320722
0.132664174578553 -0.182876359358554 0.228809659332035
0.127221272528447 -0.177788578623164 0.235909120363196
0.130346714487598 -0.172505460949308 0.238748777090945
0.131287819004307 -0.16705213058391 0.242859854231343
0.128865287766528 -0.159025251579276 0.250909400386565
0.133594529747434 -0.156936199071555 0.250196239374627
0.132559451819189 -0.15045379264258 0.256195254272729
0.134220196812562 -0.142969604626481 0.261646696710069
0.135799458114163 -0.142262936065636 0.261426913647294
0.135998838493839 -0.135147280698159 0.267322301599077
0.136140093865941 -0.128912659642992 0.272505011016206
0.137763726996777 -0.123104211500415 0.276563004769121
0.134424074288683 -0.12088729770568 0.280270483812941
0.133384242436911 -0.111843337784959 0.288420017010937
0.130174131518044 -0.111823674191601 0.290104824446235
0.132940432315908 -0.106545901570191 0.29312594217178
0.13134130623187 -0.0984225599113304 0.300513713775433
0.140674291408688 -0.0900524719478709 0.30295927991686
0.135187395952564 -0.0832254012723035 0.311167620776815
0.136468034572929 -0.081906444651215 0.311514797284535
0.132515064027796 -0.07293209348361 0.319055309746257
0.133991496703331 -0.0660971221896605 0.322963880916281
0.140992956651339 -0.0602343803789993 0.32397192135572
0.13829670729015 -0.0511433299708622 0.331075708985594
0.138944628331451 -0.0531660914070547 0.329475489117351
0.139329097317671 -0.0413241310966958 0.33713587076059
0.13609854807919 -0.0378857732561326 0.340726420584449
0.13443668123042 -0.0295266565815072 0.346924147111077
0.135942737375882 -0.023394888413779 0.350356383052915
0.139535370424302 -0.0169807272625914 0.352195053168393
0.144271647207261 -0.00444928546658311 0.356529034610198
0.13778359399071 0.000213915170000072 0.36413414293037
0.136391586742576 0.00651718568316536 0.369055419986811
0.144228509351165 0.0123599354375703 0.367351367694374
0.140065161930411 0.0190140048837836 0.373919226257341
0.143011339970534 0.0281402452006447 0.374722023739063
0.142497504325005 0.0412033661090657 0.377589923183824
0.140296345646429 0.0478250960846481 0.379748740056811
0.146753200637762 0.0641029867318789 0.380743961069881
0.144411247700962 0.0719994691189505 0.383215573921809
0.138786467728713 0.0746336694294931 0.385799778064912
0.14648459594147 0.0838363998043975 0.384800303785534
0.144342313014879 0.101112513943857 0.388886672418303
0.142761914934225 0.107740453533017 0.390736012130547
0.149152513683684 0.119561010778139 0.390361951240899
0.147196446123554 0.137459364087612 0.393124026676825
0.146541244789126 0.131249317270542 0.392897361439551
0.146244158977851 0.159875696818084 0.390579101178226
0.143078062995657 0.165344432381319 0.389463264868997
0.14575633646273 0.184866998101521 0.384387601834635
0.145526773562353 0.206042398956818 0.3787197593287
0.15326144752218 0.236834597640603 0.369456835402857
0.149123722832515 0.240679115901333 0.368732928577388
0.153670885292495 0.273436579233541 0.358413986794593
0.157885680491574 0.293961301959157 0.351294411574034
0.155943161002656 0.311738959334118 0.345632078608071
0.154116528959414 0.342843941196197 0.334810693566009
0.153424308127074 0.365610366692391 0.326502163143828
0.137220555034509 -0.212314866364124 0.206909013299218
0.142196793415422 -0.207479943291178 0.207658447459005
0.137890952288897 -0.197930125225901 0.214929688923172
0.136570746527807 -0.194255804807003 0.217589465805258
0.135684589680383 -0.187497129904463 0.223354786737472
0.138459345172611 -0.186898166732755 0.222426888391945
0.136850159195569 -0.180322143891193 0.228801274294888
0.144446001597003 -0.177041744757975 0.227644284784028
0.138720951035898 -0.170488641602583 0.236124674880828
0.137539538997898 -0.166090489155833 0.240442272098646
0.146092889726415 -0.160243509141695 0.240954422174282
0.144499251008884 -0.155276221428858 0.245964651140411
0.14737369924393 -0.14995123875106 0.248969205761064
0.143454532778173 -0.141380527974412 0.258217883829139
0.147748091116422 -0.133679391349354 0.262492693168201
0.145778936886778 -0.132827225673912 0.264227870128063
0.138611106379416 -0.127503238924485 0.272417155704865
0.143065058060503 -0.123043119343232 0.273877035205172
0.13953049881705 -0.117621501304581 0.280272495433449
0.141239329340302 -0.110989710701168 0.284980555271928
0.140832687822839 -0.105835863132127 0.289535115783541
0.144800091796196 -0.100453053116734 0.292024043790352
0.142688089055197 -0.0935394282054436 0.298942662344801
0.145134382275236 -0.0881199190495784 0.302247988800426
0.144642242842764 -0.086518876831172 0.303851760533655
0.14594439876502 -0.0813189470366538 0.307120197390617
0.147889436096232 -0.068328244053904 0.314273831248683
0.146840984070422 -0.0656940419617193 0.316669460873548
0.147569750106991 -0.0571514241961153 0.321439610481922
0.149761886745625 -0.0510596964394218 0.323626493762125
0.147549622779712 -0.043807982657538 0.329731894070451
0.152455239787821 -0.0367614448836278 0.330540298424643
0.144161591371034 -0.0321835472485296 0.339403891701665
0.144693051359891 -0.0272045704554333 0.342106623601379
0.146366599944806 -0.0179763238309882 0.346615911031602
0.147942527937236 -0.0143415558829076 0.347726160123828
0.145292894118941 -0.00331440720991292 0.356491330318937
0.152155530172743 0.00321398479571 0.35565907240009
0.15093878370942 0.00981409234368406 0.360968528793622
0.146791757911614 0.0162773966482825 0.3682207655772
0.147900939141084 0.0160209179995789 0.367276867339394
0.155987521233812 0.0378892175972975 0.372008649390123
0.147229858481425 0.0441667349236235 0.376478851753733
0.148608603126389 0.0481222639759189 0.376789817960593
0.152130096992873 0.0613520362408232 0.378225852130903
0.157683794410083 0.0684940184595918 0.377674044005993
0.151689349648664 0.0759605531958749 0.381367630954394
0.158177495371721 0.0945607895382199 0.382502020030558
0.156480644198343 0.102280202772783 0.384602514919613
0.151862407066941 0.109326542029534 0.387659415323447
0.155520297950268 0.12072609928109 0.387313292810383
0.152987588231165 0.128535376982115 0.389399790519046
0.155689420966044 0.148054426339536 0.389794483326758
0.157940749791933 0.154511185631377 0.389235575362132
0.158986963797988 0.170819702496153 0.386855500344587
0.15853037510742 0.187539211076199 0.382539650544268
0.15981940975804 0.219099211321116 0.373847912917137
0.165325679351305 0.241073180943043 0.36697028255574
0.163398727841213 0.252814238318246 0.363671892019539
0.162103637493822 0.276361117106081 0.356588377985208
0.162320674146727 0.29532038046545 0.350392565649988
0.162336989605688 0.334155700424359 0.337076137251984
0.168367270249592 0.351112305064507 0.330486961843308
0.149097429291707 -0.213360293029369 0.201440220718455
0.150946911194658 -0.203785750777532 0.206203902477522
0.147515781849267 -0.200171608488633 0.209693815193181
0.151189900434887 -0.198571140830063 0.209111491061221
0.151069687355817 -0.18787896821376 0.21532666163985
0.148224169769261 -0.186066112954319 0.218085991210901
0.152774003253316 -0.17720913111569 0.223202819142753
0.155754515389876 -0.173209350633041 0.225035488495092
0.147338594725098 -0.16852427708859 0.233330665295823
0.151645356948086 -0.159200803401151 0.23896625136596
0.148620824477236 -0.155151183861444 0.243941782181533
0.155773414546361 -0.149583712532861 0.244941628737595
0.154659155243383 -0.140552085348505 0.253130468504064
0.154333697747058 -0.136395758976936 0.256775879128011
0.152372417169436 -0.132439811575756 0.261149750751853
0.154139866412407 -0.130076180552699 0.261983967866595
0.149076868771592 -0.128044850647563 0.266556342397339
0.156383087610793 -0.112878534919661 0.273746056179639
0.149503635898871 -0.115239193681462 0.277130861411855
0.15538066934507 -0.104634670890862 0.280841187172221
0.159164462763317 -0.0989864894947117 0.281616718979939
0.150030657158635 -0.096490420338781 0.291941997860565
0.159989681961939 -0.0882353308141416 0.289175239793829
0.154206250863639 -0.0814773285748042 0.299724529736282
0.155017902895371 -0.0807303755442533 0.299620282179141
0.153254106196568 -0.0734058956939554 0.307110056680987
0.159240800039082 -0.0642732142454195 0.308544896528944
0.156604945198913 -0.0634838253858273 0.310949017832226
0.157586705815812 -0.0504267283034337 0.318335995515602
0.156893223243938 -0.0447658693001858 0.322351411457042
0.157025058751269 -0.0420870163922546 0.323917498061407
0.162816528107608 -0.0276843617493245 0.328645909029659
0.15777987143601 -0.0215271918505977 0.336123659304785
0.155357620205807 -0.0225153389138346 0.337269937835244
0.159382257735653 -0.0160749303657351 0.338342182185289
0.162830631319786 -0.00659674485272609 0.341717465670404
0.16305429598811 0.000738909770472875 0.346414857354882
0.161939008008777 0.00988516272701198 0.353376061403065
0.161963185682771 0.0166944550764521 0.357965089374041
0.161563191720613 0.0203656064756035 0.360726092729988
0.157954699915786 0.0236110014437957 0.365427672969294
0.165662707751564 0.0415263014596374 0.369240084257835
0.162363050182856 0.0424595475445795 0.370630428492508
0.158829412652904 0.04953760641732 0.373367008583339
0.159333486495162 0.0672506714520877 0.376819498193142
0.162957438414303 0.0694550730742983 0.375944872156628
0.166241405750005 0.0761610990115639 0.376003094933803
0.164790637913882 0.0944691457751734 0.379922015831302
0.170413947728514 0.104295959382595 0.378159203404014
0.1665560113269 0.116146022560857 0.381332656128097
0.17144652897884 0.137147670818471 0.380905325910121
0.165854409607695 0.137044908577054 0.383707488536045
0.165410697449898 0.149859207862682 0.385067517200649
0.172820705006511 0.166194307378979 0.382791697173527
0.174300994412001 0.180286416882977 0.38161272376436
0.166032757120845 0.205741719917317 0.376899835262256
0.173467721285868 0.216987971693657 0.373155702553724
0.168970274159735 0.248403077448214 0.364418818479581
0.17626860837503 0.27153795624819 0.356691836519079
0.172635781159536 0.273991385853315 0.356269212501009
0.172386181967371 0.302371727622038 0.347054126125963
0.183210550538866 0.349084000129358 0.32213957242106
0.154353593778058 -0.207102085303335 0.202895744125588
0.157975417883158 -0.205315090183741 0.202442410802249
0.155290533582607 -0.19704985119003 0.20830876511557
0.158806964457275 -0.192004853791172 0.209777422899838
0.158286923780438 -0.186272691690913 0.213296082492609
0.162906218702519 -0.17564075079972 0.218817653548461
0.158874289969749 -0.176195510244947 0.220907250739987
0.161394503604083 -0.171099881315478 0.223605787551181
0.159493606548876 -0.166246283751115 0.228940926457795
0.162228458301947 -0.16032755965498 0.231596130373859
0.163201417129391 -0.148856709028784 0.240039884184668
0.158076449966098 -0.150296135311592 0.242792925885438
0.162268169394597 -0.141196182226378 0.24688522851285
0.157624027234437 -0.137856142405441 0.253098976372646
0.160391541170124 -0.129091012751431 0.257880964814787
0.16440211995714 -0.123005946411389 0.258659959917136
0.162983827983943 -0.121410717549019 0.261181878335261
0.16394653585557 -0.113550494379244 0.266146411444713
0.160309070801332 -0.110417265066477 0.271899120136751
0.162896450688335 -0.101840098101941 0.276061442753987
0.160014763206708 -0.0966059143874612 0.282686362548132
0.166791044779009 -0.0853677881431662 0.285548765955519
0.167892999547887 -0.0823086514616619 0.28706726859119
0.168707045976884 -0.0723677075388473 0.294424101546912
0.165487796278432 -0.0736562723311043 0.296196495727991
0.163625402183999 -0.0694297551883432 0.301257834073719
0.16567243602286 -0.0574736291835873 0.308091755670471
0.16286020090151 -0.0554254030651613 0.311404907364218
0.170626003622475 -0.0464857737660405 0.311310347994891
0.166565799011279 -0.0395490580534508 0.318562496351569
0.165008479511813 -0.032901288206521 0.323817551370129
0.167525149930347 -0.0301892475138004 0.323672121535925
0.165500187705456 -0.0240830599539991 0.328930852222928
0.173112257961813 -0.00612170354616939 0.334788259748976
0.168157759240801 -0.00800728870627387 0.336973337467671
0.166356762831951 -0.00279438033733271 0.341731103090533
0.169159688794013 0.00799330295722677 0.34708106008485
0.166030637467377 0.00909023864918378 0.349996407501433
0.174468576825232 0.0175008963753484 0.349824569292875
0.167889087304867 0.0224152124087297 0.35771860826474
0.176736543209637 0.031656467944064 0.357824146217934
0.170510544213974 0.0428650574273056 0.367753603703933
0.176703855522322 0.0503035927290394 0.367030286051142
0.177421441664219 0.0659377583921682 0.369904795746223
0.177920584177324 0.0729279614559071 0.371051074026588
0.173181236897855 0.0786082590144652 0.373892715621799
0.175565969975334 0.0846654808224666 0.373519249994205
0.17959974047741 0.101747422700319 0.373314609472823
0.173018146167883 0.104060709492317 0.376837222431257
0.174312260344957 0.126002343833664 0.378475777056309
0.17948157431188 0.135898035898071 0.376755057992605
0.183429364161784 0.152389708604916 0.376233662449149
0.178298800646862 0.158287534074937 0.379336200605981
0.18194238059597 0.174419114733078 0.377140906351562
0.184873796252373 0.190654735413643 0.374591550053145
0.177821623811428 0.193812070490775 0.378820384030972
0.184339116932544 0.219950884554427 0.371325281365762
0.186797564557554 0.236536514110213 0.366139815230507
0.186548610990844 0.262688241357157 0.358382473561794
0.185813868599693 0.288981359006436 0.350023514983818
0.190530580395139 0.300826212059864 0.345153691337379
0.190422052547582 0.330167123336528 0.328822187627224
0.163101686227215 -0.207917297823809 0.199227999357759
0.169226480457044 -0.198991825428595 0.199334138938057
0.166877202676141 -0.198329380926786 0.203339446642595
0.167149654018751 -0.191609821055511 0.207259521870937
0.166031295215625 -0.181468621516371 0.213326373672289
0.166311062690014 -0.176890473289625 0.21583378629786
0.165485956449971 -0.174648033635257 0.217646590273329
0.16684954169539 -0.161886178456355 0.226826419812158
0.172440838738726 -0.154463301917311 0.227631663160245
0.173212803911685 -0.154131458553238 0.227154939705737
0.16700441659777 -0.154095183600678 0.232946994950085
0.166358648576758 -0.143348632460797 0.241637140166283
0.17422044238449 -0.137962584188535 0.23828007461547
0.168690982987655 -0.129238867243724 0.249981886154277
0.174030162246337 -0.121387434458618 0.250985859050774
0.175366225174982 -0.11616885688628 0.253805471785402
0.170158363189871 -0.115634596363451 0.258900900128752
0.174263254889093 -0.10341188086089 0.264627429006375
0.171358090429811 -0.102392160283211 0.268025975308008
0.170179971828131 -0.097182111623198 0.273100173670071
0.178728618935379 -0.0872055257512058 0.273605915359662
0.17831445438891 -0.0877105370202254 0.273558566645666
0.172121327138358 -0.0833076617311657 0.282554521768034
0.173660935912628 -0.0706606385249797 0.291472787811347
0.177421583562285 -0.0657946701399645 0.292130351689218
0.172628418792195 -0.0655617659972055 0.296515717817841
0.172385930849777 -0.0578987110941118 0.302952045577086
0.180183250778617 -0.0461096106649203 0.304602277748653
0.178460517404821 -0.0373199187931255 0.311306223943085
0.17405685929383 -0.0374003535477105 0.314454700982167
0.180516917803173 -0.0321957031267741 0.312991491839904
0.178950381205759 -0.0250703520702059 0.318549510925402
0.181783733618204 -0.0164906793067248 0.321814087536608
0.176455429848493 -0.0142213727602954 0.327091807130489
0.176946643898216 -0.00236925147363253 0.334663138029609
0.176404636024061 0.0027517405149296 0.338503457030743
0.181289314226468 0.0122096515985399 0.341508008799541
0.183667567745653 0.0187436183610379 0.344275711090597
0.179044023393689 0.0211832455690459 0.349137303674092
0.187346950857488 0.0334498650039787 0.351667423612463
0.181268521130718 0.0318839269091466 0.35483017721727
0.181104798571761 0.0486721317917119 0.365096525848582
0.186621966507835 0.0555322677966651 0.364500139991542
0.182096674546641 0.0666076832333083 0.368296639950588
0.189759733587806 0.0827775413867926 0.366250014347862
0.186423083471443 0.0805916939045947 0.367681057135812
0.189154019510686 0.0970326171814054 0.368057629778217
0.183200848450799 0.107680123821324 0.372147662256384
0.192024363209577 0.121460895630397 0.369168571033025
0.186523698459218 0.123248045024354 0.372092442223831
0.19081022165819 0.142401125690882 0.371636894822775
0.192569159177076 0.159593681589849 0.371053898796217
0.185803008508543 0.163055355547403 0.37513550751095
0.196003576481349 0.182544434793755 0.368058644675377
0.194836608569811 0.199061982214408 0.368036932381025
0.1935468380363 0.200996213965193 0.368749142944832
0.191118563285056 0.225676434736274 0.367532826054042
0.189538611923799 0.249825869686671 0.361906604683938
0.2022167609001 0.289247965023975 0.340615394987656
0.196185415876803 0.305944953555968 0.33843806941316
0.197002528307474 0.323764397490278 0.327529054666094
0.178464364990454 -0.197323279377211 0.189230410253069
0.176030824690077 -0.19433408755171 0.193832528882096
0.176401108720312 -0.188521673329721 0.19794392677155
0.18099375876405 -0.18368299201129 0.197304623805517
0.174402556716703 -0.179853117489288 0.206493950057033
0.181926448223127 -0.165015666584879 0.210752119654847
0.183662815586105 -0.162722126721141 0.210866767308125
0.183580649738148 -0.160303927192024 0.212801228642863
0.178891914904565 -0.155468611686239 0.220827075338615
0.180357878347885 -0.149937591582361 0.223580472130464
0.179324588629979 -0.140897888239526 0.231298703225048
0.178312232750534 -0.14095646577772 0.232205028634208
0.176592278463228 -0.134812878850279 0.238405591213845
0.182977928471147 -0.123774858833281 0.241098935443546
0.18048878524325 -0.121007578760163 0.245469924076005
0.180158345374563 -0.118434446444848 0.247749856297041
0.180738456399028 -0.111617170284765 0.252481232736455
0.182828993015935 -0.103054552270247 0.257199077722897
0.183642113437394 -0.0954435589020042 0.262617079288918
0.186836155599551 -0.0893317974142417 0.264781959860797
0.184392637411507 -0.0871879604517182 0.268661453843437
0.186216788614049 -0.0814041499228538 0.271759430391772
0.185728222332613 -0.0726415725403867 0.279300138085355
0.180587568661263 -0.0736994629583862 0.282941926769879
0.184039461899512 -0.0626034052145624 0.28892704245566
0.184869530603458 -0.0563504971206545 0.293276103380768
0.188046164055711 -0.0490824693640898 0.296394818324323
0.187372527880475 -0.044594842445344 0.300320402100721
0.188536389166221 -0.0386897517019111 0.303138340227861
0.191375951929543 -0.0311875426880832 0.305729996688022
0.188881526454768 -0.0253976310094989 0.311133495151262
0.192910321188747 -0.0170205527307528 0.313664907068095
0.188025376280746 -0.00958968893098053 0.322084147470943
0.191801504972881 -0.00378596601233756 0.323386974497335
0.194853099420861 0.00719618927433252 0.328695752560826
0.18653854090622 0.00805321274687755 0.335050574149883
0.193584876472274 0.0210357575044158 0.338937751685858
0.189042670357824 0.0219151728212062 0.342687517347663
0.196817613632788 0.0317625352444017 0.343406378285239
0.190918130622415 0.0357363823656613 0.350733558050914
0.193423162767458 0.0461963335238098 0.355791979184971
0.188464023135419 0.0511445657640035 0.362860264242214
0.192975254392882 0.0541824041559305 0.361053461776093
0.191843620161941 0.0625047793424902 0.363070421960304
0.19189294843687 0.0795499913797936 0.364846517978909
0.196561195021963 0.0865563646047528 0.363261461457664
0.200157032928056 0.109349529383166 0.363878288303377
0.1923194036889 0.101486998873559 0.366951542353655
0.195362476833268 0.123317258215184 0.367655136646773
0.195502461771927 0.129825490767529 0.368162214318967
0.201407700160427 0.157989593127158 0.365630255665509
0.199574435576806 0.152272510374083 0.366945727785632
0.20576333682779 0.175978200758769 0.362305291022439
0.206405598244947 0.184096433406038 0.361541002605072
0.19969788901252 0.212034148189535 0.364197940904025
0.209683649246562 0.233325553742319 0.352502114107834
0.199248847933506 0.22669512032401 0.361446579929282
0.212343222280602 0.291733262101817 0.331405754351537
0.208369191524655 0.28357698417477 0.338047114348438
0.213522546230471 0.354409195131321 0.292385202509007
0.185054326319656 -0.191265954200627 0.187633113784989
0.189366678308952 -0.187263563420159 0.186617496204313
0.187540132248975 -0.182902354628694 0.191697498375565
0.186626178653157 -0.181068923641247 0.193971603852553
0.185490243633623 -0.172143633016593 0.201900908097491
0.184707740316472 -0.167079282596939 0.206530912775927
0.188352210863047 -0.162041198103452 0.206943646457283
0.190611271725452 -0.152729640107416 0.211922466829547
0.193516384109661 -0.148821031024858 0.212321530615233
0.193413893094878 -0.145787479928532 0.2147512337712
0.19158711479865 -0.136228990707807 0.223759536717732
0.19101507496942 -0.132365499363262 0.227251050918403
0.187157338047658 -0.124253561720183 0.236971267801622
0.195439503774502 -0.119788922369241 0.23296287123966
0.189569974324053 -0.113984240374673 0.242714542509376
0.196463008735045 -0.104710296402377 0.243870446997819
0.18924587531334 -0.101845755028728 0.252514161393694
0.198417703486558 -0.092397018242288 0.252154398762055
0.196468930855365 -0.090072570857947 0.255747363819293
0.193617511655548 -0.0837917880998981 0.263342111253696
0.199440523010696 -0.0824635596684257 0.259322379400131
0.193266297126018 -0.0736116051757215 0.271913304900783
0.191394748171653 -0.0729048271659264 0.274125527240738
0.195277309912183 -0.0633481411408631 0.278484024994963
0.196656222584545 -0.0568832974003325 0.282524623155705
0.199379999529455 -0.04991737137844 0.285794574135405
0.192614431649818 -0.0486775219277845 0.292724117459156
0.19789464783369 -0.0378850556838234 0.296840637599837
0.192895889826503 -0.0352605863523174 0.302099335101101
0.201331708599229 -0.0224311244443705 0.304155853522882
0.199084189322963 -0.0213937244261541 0.306418636036464
0.203723459827421 -0.010592501967868 0.310502262131156
0.194564446767213 -0.0118378218452376 0.31602159527756
0.201479358379646 -0.0048936077657283 0.315915716282119
0.202117632101034 0.00819430019878943 0.323468993821374
0.203103292901665 0.0189474381242142 0.328546670037202
0.205388729533267 0.0259365796186802 0.32990497754697
0.202329795902144 0.0300005544547167 0.335875485408599
0.205944048100275 0.0392987229993254 0.3370050987641
0.19846281020596 0.0407747114852985 0.346694840756609
0.201471305078452 0.048549382481713 0.347655383901575
0.201586342911757 0.0546020770711673 0.351358748824527
0.206519760718863 0.0670722579762777 0.353853939027464
0.206281578946519 0.0765079584432496 0.357358301690751
0.202279092433604 0.0892989839386736 0.360703157393674
0.205084024521675 0.087815140705519 0.359149290582479
0.208375903923684 0.102600365456642 0.359071553173201
0.206113705736409 0.112088736050867 0.36120069173409
0.20939662873141 0.128116975799078 0.361025723498729
0.205469181144615 0.138687019181537 0.363722636319032
0.209942312222981 0.153859685431302 0.360474392400068
0.207294401740673 0.161102538827587 0.361886291439915
0.20951992441422 0.188487552378352 0.359412535854254
0.208753349682863 0.203246863798828 0.359221950136513
0.218372725360178 0.209309545513699 0.351260937679892
0.210808438125561 0.225640243127597 0.353326044070843
0.222249145264759 0.277239977340811 0.329552164699874
0.221764726233228 0.29615545371982 0.321947814526899
0.197193267714939 -0.187104281468899 0.179681859748618
0.194763255197121 -0.183297020913554 0.184770182000967
0.199271794114565 -0.176645795355431 0.185839836115017
0.196882613542667 -0.173104541393911 0.190687834053344
0.202828461570908 -0.167881837348753 0.189378839385891
0.199440630135755 -0.157646931555893 0.200248486462634
0.204164916187578 -0.152788776533102 0.199751326895851
0.201909479106715 -0.146012706183174 0.206937082360922
0.195616020820376 -0.148528704154735 0.210658453321208
0.197317566986688 -0.13983595581392 0.215826414225432
0.200207624542731 -0.136816449869129 0.215553912312826
0.205616873953603 -0.124357493877101 0.220289389273158
0.199072641165652 -0.123645779723119 0.226723436134501
0.198063266043764 -0.11836106355782 0.231703408770494
0.200893594033158 -0.107762471600217 0.237513981624025
0.20327865958155 -0.106150048234343 0.236734787397478
0.201965100621427 -0.099162502875312 0.243556884031824
0.204467406575982 -0.0903869861357614 0.248489654192609
0.206325042047469 -0.0893718972278175 0.247687329768835
0.199829859212532 -0.0858510165846128 0.25623177292018
0.20809206308699 -0.0738776374879431 0.258717731728769
0.20212631376996 -0.068148130870368 0.268591509050146
0.203695260249597 -0.0657550857807923 0.269160474441966
0.202020697133918 -0.0619233389815875 0.273736918135333
0.20287224063532 -0.0532070259948617 0.280066835130955
0.207336909131459 -0.0472188256255001 0.28101901095938
0.203997294276484 -0.0385994832195041 0.290939476905657
0.211481006791354 -0.0306379835484773 0.286922703488699
0.20807899588275 -0.0292572033443008 0.294692506947849
0.21371155147937 -0.0156309085655802 0.295951298225184
0.207072372341147 -0.0169488985903349 0.303025121166766
0.20716597595812 -0.0112951187224361 0.306196224356064
0.211253051812862 0.00576832624184447 0.311274773708509
0.212151300168632 0.0108394303927017 0.313157637471259
0.207042935316215 0.011079334596642 0.319328288473392
0.211097043132649 0.0244658201090467 0.322311547453682
0.208074844003287 0.0214740349352982 0.324143312475325
0.2074885014294 0.0343891965454838 0.332331942055889
0.214312574069797 0.0457375287772413 0.330861722661417
0.213955314448058 0.0474868050155678 0.33235332855287
0.209412797409669 0.0499384338590949 0.339226816208642
0.211073050870921 0.061217288031503 0.344727949476015
0.218129392402351 0.076863515927051 0.346855393837364
0.210813274372772 0.0808744130966396 0.355562377619892
0.218224602085334 0.0924869029247697 0.353097608586399
0.213214116920484 0.104506308056417 0.356863025404112
0.215504179105137 0.104683848484532 0.355741120428323
0.223504270591322 0.133028494287561 0.352730782363277
0.218434165123298 0.140239628588962 0.355643868807756
0.221014101569899 0.156585990688583 0.353531215438162
0.22416225166809 0.166705919837022 0.351262716674672
0.226089389716595 0.170605244350527 0.349946347440448
0.222243615929252 0.19809201987013 0.350790700290827
0.221092320352615 0.205991261859769 0.349983388156009
0.229419809406169 0.227317482616015 0.339533123797052
0.231968786318399 0.242996839036217 0.334355379227175
0.228320529889328 0.268638222393339 0.328347342161019
0.231995353219628 0.305356974942684 0.309822993427697
0.211340289701186 -0.182143024793478 0.170846534919745
0.206257643197913 -0.177232806385003 0.179149645349005
0.211204737170115 -0.171476000070694 0.179142121851467
0.206409858081281 -0.166778334644826 0.187025287862501
0.212434142424662 -0.154588213407977 0.190985593625451
0.21015555315718 -0.155650140206564 0.192207229813337
0.207597687271379 -0.146721869114876 0.201334164121261
0.209106666741404 -0.145217489109006 0.201139074532963
0.210262048455837 -0.136027156195765 0.207119548697059
0.213688825219428 -0.130041800816811 0.208649700934696
0.211434761453916 -0.127483323124608 0.212648373869027
0.210548716013108 -0.124894016500584 0.215440459498059
0.210454176011681 -0.117189825711853 0.221487861701347
0.212549163475312 -0.10631290841195 0.228486469982189
0.216805442464954 -0.102108704730184 0.22817293559916
0.217081479121022 -0.097284812880618 0.231847042163424
0.216035111525955 -0.0919272415164832 0.237112095451448
0.217555618698075 -0.0908202930539978 0.23667948576853
0.209371703520459 -0.0819666294260894 0.251031236170066
0.218978173551413 -0.072472473509842 0.250079825755722
0.21059518058417 -0.0698917449891351 0.259761837551785
0.210214394491165 -0.0635113377369539 0.265274471276087
0.215838875631818 -0.054100884013849 0.267456049415539
0.215279652108931 -0.0520336501028193 0.269640407998791
0.221171373720389 -0.0349756903254361 0.263149164603274
0.221900190257865 -0.0257754815950424 0.27233727512653
0.212582436793404 -0.0401253554319622 0.281568547848958
0.218460772487821 -0.0237349368217542 0.281352443989594
0.223611067884146 -0.0135492526717598 0.283109077524393
0.21892489761978 -0.0143932141859463 0.290514338392165
0.220447134403308 -0.00179802055577582 0.296027667177231
0.222721427401662 0.00330044675025269 0.296301728950237
0.221741005222981 0.0135894101355689 0.303431322291222
0.218635183572096 0.0169983797194793 0.30907700612306
0.226724280830297 0.0299750630824543 0.30705832568065
0.221367591994721 0.0261612111485912 0.311169251385201
0.221289386588447 0.0359122776974593 0.316921393797676
0.221004800074904 0.0473035895181127 0.3240700118507
0.220864185973608 0.0492776358881085 0.325532118855213
0.225978243166102 0.0603392086436199 0.326891018916164
0.224630883414335 0.0692013187382734 0.334284057666343
0.224588335335334 0.0723368455545896 0.336397081067856
0.224953298083326 0.0786980992825741 0.340161364850398
0.226215749174839 0.0866907249984509 0.343960174938793
0.222496457563284 0.0914234320903292 0.350857488124068
0.228683453749686 0.0978768287569061 0.348465299026471
0.224250378355827 0.118403047146982 0.352696539110767
0.225593064562652 0.128725020975219 0.351572607830382
0.233399897804157 0.144784079781765 0.34623171901521
0.226023347466624 0.146312937169226 0.350752246113758
0.230973442138343 0.165322590013791 0.34708776284585
0.236887798719389 0.196674297739234 0.34049672040276
0.229777120825647 0.189093441962897 0.346828893158622
0.24171435374181 0.225070075944166 0.331112494228256
0.242329186607446 0.252598818200503 0.323942062591654
0.23902507234132 0.289088491176827 0.31101967992479
0.219929048922287 -0.175494268282133 0.16826950301626
0.219007908696359 -0.172782569908062 0.17117040821337
0.218302168567002 -0.167572892114182 0.175793185742519
0.220172940095268 -0.162880799870719 0.17771776442037
0.219157894913275 -0.153283110683217 0.185979519905668
0.220786386860199 -0.149614048095842 0.18733654090266
0.220433170143917 -0.142361973600843 0.193209572381859
0.217296986365691 -0.13777590484778 0.199525532778973
0.219268146971678 -0.13401887583247 0.20056730820519
0.215646865017779 -0.12820317891035 0.208305480252723
0.222750003827667 -0.120613505150281 0.207947426127931
0.221624354296451 -0.115054593459514 0.213445325974723
0.224651302900661 -0.105451001165795 0.218590969608884
0.219978640682429 -0.110598695389053 0.218503164297487
0.221825228385879 -0.102873825562219 0.223157143506791
0.22676462709563 -0.0888921932752212 0.229009311060175
0.227961491104277 -0.0849105610330476 0.230687022047686
0.223829652612095 -0.0846248325118202 0.235499126782645
0.223911406245813 -0.0771963497335418 0.241022183743753
0.226974009030096 -0.0670150243776755 0.24474275357517
0.22687010486741 -0.0645187814283223 0.246587245398488
0.220900850918977 -0.0601803121885123 0.25719924050095
0.229201824454322 -0.034411005766436 0.248240234631661
0.226440848006772 -0.03651387462433 0.251166943401501
0.228523268750219 -0.0293488130807571 0.255387509773058
0.231542022640171 -0.0214177014340576 0.258676490026032
0.226381336951785 -0.0200472142839736 0.270254709603712
0.230138268073961 -0.00922941527739954 0.275439387622623
0.232792725482608 -0.00185033505219388 0.278798180800385
0.232154284815174 -0.00180037944374855 0.28009276060721
0.228717028948929 0.00185133002433203 0.288381662494537
0.227179646306128 0.00444716501246911 0.291703536296816
0.227119609538536 0.00923635849410764 0.294554210021162
0.233833012887126 0.0228178824636434 0.294510867126598
0.227102508879597 0.029130911597373 0.306121784633949
0.229230599041817 0.0343543466130003 0.3066410018053
0.237666302487986 0.0510101615882491 0.307216966085433
0.228499466056154 0.0512909590420895 0.318016228583919
0.239287294152647 0.0624531553183245 0.31287159546614
0.229703102450817 0.0602597735772182 0.322525653954772
0.231935785150061 0.0689014253973815 0.325628194439829
0.237534277467156 0.0831773002841536 0.328541763227638
0.239323262609022 0.093913234064956 0.333536493781174
0.233755000873905 0.0979225586506318 0.342622961512714
0.235852556581626 0.102758178807557 0.343376895653029
0.237538840599303 0.110136330121498 0.34475936254065
0.243955447855818 0.134311541389627 0.340023923511693
0.245622132792122 0.137546840272942 0.3388897771381
0.241608023168122 0.164093625817492 0.340539927644858
0.247220648718868 0.164249108590595 0.33705884687443
0.243960308189964 0.190794633485878 0.336603552879213
0.2475677082445 0.193919081401669 0.333346693099799
0.248432616646562 0.22027811510484 0.327249672126168
0.24858382198246 0.242564237224162 0.322452762663198
0.247931929929095 0.255717661013973 0.318110502590342
0.251936921040709 0.301457713844216 0.295393750622513
0.223175856174897 -0.176885846823356 0.161797407922304
0.225600344869088 -0.168462422311944 0.163696355810249
0.22537964039752 -0.163882369709267 0.170815114004322
0.223072533326679 -0.158559158400532 0.178439424641599
0.22863869673886 -0.149714299082777 0.178593363571484
0.227348644318109 -0.145802398813923 0.184054248937742
0.225212411797397 -0.14655288653311 0.185728716527686
0.234484574049569 -0.129146441436515 0.18523446933406
0.231230299714076 -0.127561566849432 0.194543891541328
0.227288462103508 -0.127515267268437 0.198365553736369
0.232197224935194 -0.113971807888792 0.204012550194329
0.230096619812756 -0.112944127797475 0.207125876669565
0.232206151294996 -0.108105174746411 0.208436267169705
0.228726629694405 -0.102305189628716 0.216690090191422
0.229199030390364 -0.092737661193427 0.223395161070494
0.237203326830502 -0.0837032450826076 0.220230109005189
0.233460702718094 -0.0823145806493741 0.225963965276943
0.238000046913616 -0.0553903923057954 0.2178601132733
0.237241736052843 -0.0497961526046157 0.219546115645411
0.238425223284795 -0.0410607520923468 0.222707606145628
0.239520502271579 -0.0369948711622637 0.225270031240941
0.239222791730158 -0.0300096294688647 0.233895080208229
0.23882253451318 -0.0270727436576086 0.238054409562766
0.237475444792375 -0.0241391812705584 0.244044462176694
0.242712747874534 -0.015534510744249 0.243810909456236
0.244400021070689 -0.0093874493702395 0.247624187672015
0.240984368172121 -0.00551260913759149 0.258706738190682
0.243123053690945 -0.00223184342190764 0.258342902698351
0.242303776446334 0.00272561792831161 0.265642166671052
0.245612685264129 0.00760766569074071 0.264855899579036
0.241063896491675 0.0153054493894637 0.281612986286283
0.238117027185604 0.0178736126333385 0.2865829676775
0.238379708227258 0.0186571424685687 0.286727606145763
0.246793308264904 0.0360499418293341 0.286889031659977
0.247771817097387 0.0458975430025061 0.292150559719928
0.238921697252206 0.0417870974965893 0.299692840811234
0.248614288769156 0.057343001743926 0.29870827392875
0.240593582323376 0.0597651828007282 0.30958983798588
0.24025844255863 0.0601405584275978 0.310224968933512
0.244887346661956 0.0804918389540959 0.31741036424626
0.247432489280728 0.0867431593147459 0.315470806268461
0.244682102969864 0.0869489405128167 0.320740232448829
0.252245602582782 0.107415319517927 0.315837563717903
0.249964397217974 0.114617736641181 0.32400991630611
0.254472577220894 0.127791867548097 0.322635538690095
0.253893086930728 0.127114809769872 0.323362042652834
0.249660447484477 0.133351933977388 0.334717964818525
0.248020231986027 0.147367045153778 0.337095261736617
0.249995557492731 0.165304382990496 0.335306972838537
0.256155904217618 0.177830110931639 0.330476897652969
0.252410825294904 0.199924361166708 0.3285983564292
0.256156953816665 0.211227942661627 0.323543350046303
0.255332396934352 0.240605499424736 0.317997788512425
0.261546515006359 0.259903158514881 0.305388367148906
0.26124791046422 0.290812912521664 0.292433799420405
0.240947655956132 -0.113169767743047 0.190914171819795
0.243736036939609 -0.105396735062411 0.187886326644668
0.247244948705539 -0.0916999300053592 0.183615188671326
0.241808973627398 -0.0958578363903651 0.206011152897673
0.237839728150596 -0.0973659702644844 0.210048127864605
0.238710780302494 -0.0870341341417849 0.216020089864373
0.238753376555001 -0.0850283902154597 0.217341062660832
0.241173760922242 -0.0633026248172082 0.21004523001466
0.245522382557444 -0.045584305842975 0.203744455533311
0.246086136481591 -0.0386333246059515 0.210660884452329
0.248221826472137 -0.0353276345586028 0.210331570169221
0.242673909641942 -0.0363918258465187 0.219854903014203
0.249455206090222 -0.0220751365351599 0.223210998131194
0.247245504715206 -0.0166741804950622 0.233715286589427
0.243786375730394 -0.0164952849300563 0.240623703280179
0.252333969949965 -0.00235360941430738 0.240355829879939
0.249010154670223 -0.00361350347785504 0.245344330918138
0.24625233052942 -0.0017714362384209 0.252810185058594
0.249771935793795 0.00781054782233195 0.257030824113333
0.248487112678683 0.0129420238799367 0.265432610135752
0.252114850175686 0.0175678460208956 0.263733374252935
0.254778465956886 0.0216948484567302 0.263327462675246
0.249221431115327 0.0243946762118684 0.277205267524008
