ply
format ascii 1.0
element vertex 846
property float x
property float y
property float z
end_header
-0.289573045447084 0.106240159889976 0.141023051162641
-0.291192646947825 0.102322135683982 0.147006757005375
-0.287043763198735 0.0975613796052712 0.164775642576295
-0.28609457415798 0.0976901007908081 0.166116795391759
-0.292905144025825 0.0910896989661591 0.169191042366473
-0.295903061961753 0.0859524168610608 0.171265774748932
-0.292243738365254 0.083060979928619 0.183758591622447
-0.290993677906552 0.082600061389931 0.186862767315837
-0.297993873340398 0.0714153603880364 0.189925118390009
-0.289569580255999 0.0721315146818754 0.200954670822152
-0.288354325284987 0.0707128802273955 0.203749399285463
-0.293759497997851 0.0599936235447936 0.207170313101473
-0.297214509534169 0.0529991618009666 0.209489772991777
-0.292438043802711 0.0538249719964494 0.214515357420209
-0.291636823794539 0.0431226738011916 0.220043515880344
-0.295815044580972 0.0361631684908523 0.22071274368211
-0.300335076617444 0.0257275916638474 0.222721280220557
-0.301450482254496 0.0160403488628403 0.224681490354541
-0.299335999873434 0.00665518578171138 0.22870690098105
-0.302907014827685 -0.00757844504688289 0.230266073288458
-0.302873542745338 -0.00273185368382393 0.228942107457548
-0.300283220198561 -0.0177006261140982 0.234801654662264
-0.302581972321556 -0.0256129846285812 0.235445154850904
-0.30561552275468 -0.0435290239430448 0.235252020508725
-0.30964692930887 -0.0488976082257743 0.232904353614276
-0.301147916069189 -0.0585733380224666 0.237732254542063
-0.304454224751995 -0.0606647270881615 0.236657742232454
-0.305009158626538 -0.0825815359783553 0.236687694787357
-0.304751475880809 -0.10036811600978 0.23594890673058
-0.316526435608554 -0.116495901796069 0.226314605088003
-0.311686098221431 -0.120666191605602 0.229403201573512
-0.322714523332204 -0.18015051220927 0.195812845583727
-0.311073739426192 -0.153878203011358 0.221079093400997
-0.273943108897849 0.12481384676298 0.113955908044154
-0.273307483241779 0.124352592563335 0.122575528321396
-0.279804543037699 0.118629003920107 0.129280752683284
-0.28300914770148 0.112959016325145 0.137260503875444
-0.274585002791741 0.116121629201502 0.144644821176945
-0.275203799416419 0.111868826533108 0.153094967562015
-0.275029774846202 0.111890096286037 0.153346066395228
-0.282443435558526 0.101315143719132 0.164275054047524
-0.283778933569617 0.098629198798 0.167990587863617
-0.278625933053397 0.0977144653777099 0.178880476446242
-0.28396939744508 0.095959271762969 0.173635478241884
-0.281744414218141 0.0885762316332 0.192027050195093
-0.279734334376356 0.0864985884980071 0.197110635840978
-0.286578285227809 0.0828659138874572 0.19459141322336
-0.28730299535267 0.073977254212548 0.201986159405271
-0.278325377344037 0.0778261927809629 0.208942531965641
-0.278617392381358 0.0718282119982038 0.214522975009166
-0.286048889746756 0.0575490223071359 0.216886388278466
-0.281726296267881 0.0503476806545968 0.222558362134907
-0.285167174538135 0.0474858501118169 0.221841376507992
-0.282974088063625 0.0386373405062025 0.227014830963457
-0.284873919618137 0.0318914896756066 0.22890183142654
-0.286432278233851 0.0209449852481441 0.2328418763472
-0.290739307606869 0.00988875440351042 0.233562868217517
-0.293682978942054 0.00334875734329126 0.233408534117854
-0.285912096874421 -0.00694678235286193 0.238496028613271
-0.294507529776111 -0.0102913335130992 0.236114169952063
-0.290256841297853 -0.0242567237235899 0.239429360056044
-0.296463488501595 -0.0293432435099182 0.238028700938669
-0.295674351453896 -0.040375300454942 0.238823349246118
-0.295007863475526 -0.0464833098873803 0.239344700852537
-0.298105028265666 -0.0721277453130113 0.239443605528147
-0.303018750707993 -0.083701798393333 0.237341030724799
-0.30060904706453 -0.0820226525206548 0.238273666150959
-0.299374204837155 -0.109314261449767 0.237437670770321
-0.302285760904854 -0.124846044371141 0.234998281588923
-0.30294812256007 -0.131341854864843 0.232789564347061
-0.29968339305405 -0.153410987081171 0.228848217206026
-0.306008349452642 -0.159980952648144 0.222780987579344
-0.270168283452231 0.127739523862693 0.11369112437044
-0.271593199802844 0.12528610736264 0.126044325218683
-0.269646493451737 0.12368078221621 0.136213198543945
-0.264258408320429 0.125598057396369 0.141172252937758
-0.267437973394583 0.12019499919695 0.147800194351243
-0.265936340513745 0.118215559959468 0.154804771870357
-0.272740084316073 0.113124457367899 0.154514912123075
-0.26745848974586 0.112380092299756 0.165244442558242
-0.266209078435408 0.108143766148805 0.176864078499446
-0.267065209011404 0.104298177778421 0.183397808363849
-0.265884485588081 0.102417239143955 0.188792182356022
-0.2739018964262 0.0958930228386158 0.189512687744792
-0.275279174563836 0.0918689103799755 0.194742980170398
-0.275279053584347 0.0850005899687285 0.203074977038172
-0.270620809353092 0.0803872899273951 0.213007382043413
-0.275070469188684 0.0739573361730986 0.215873289075839
-0.270084136769129 0.0741031303812101 0.217992914137294
-0.278834248099838 0.0606833132123102 0.219656389207445
-0.277179408893679 0.0504659603615124 0.225124779091369
-0.270843202969124 0.0519780383590014 0.228105761544767
-0.276751765175962 0.0408068900032 0.22963967072383
-0.275091783900601 0.0400949832876529 0.230910313813352
-0.277337648000293 0.0238453794021581 0.236185516248386
-0.277488956028728 0.0204129052193164 0.236889756202652
-0.282955192312639 0.0136255094307359 0.236657815070126
-0.280615560448829 -0.000562679276918487 0.239372171688824
-0.283445092395446 -0.00677130349621216 0.23928699532338
-0.285804277118534 -0.0216056819645559 0.240537513055681
-0.28313361356522 -0.0324014249747581 0.242897017584098
-0.282469463661272 -0.0407387474454586 0.243489553750404
-0.281681817146123 -0.0492006502976218 0.244124096090336
-0.286603632515729 -0.0623228280218431 0.243058255064083
-0.283815834381719 -0.0763816823927851 0.244401349082222
-0.289847147986327 -0.0966209233466856 0.241407541627712
-0.283436711515114 -0.0918830152213753 0.243846892387539
-0.29070183061528 -0.107187118472138 0.240611399514893
-0.290136652107431 -0.117434520466435 0.240333492281964
-0.298178022784373 -0.145700766230834 0.231999795818763
-0.298677003409237 -0.167269805324924 0.225673116002726
-0.299231006434534 -0.189035506088912 0.216637767318502
-0.261962380509024 0.133354869175646 0.119879038649892
-0.253412131225544 0.135288525215489 0.138112859937548
-0.262351750269246 0.12704847153422 0.141200471008069
-0.255452889302274 0.129327078767376 0.147944234211577
-0.255131085063139 0.126665224659528 0.154450256512006
-0.260558450953254 0.119076537085307 0.162108930543138
-0.257761389276965 0.118929935358939 0.167237334587544
-0.260363066589407 0.116544444768722 0.168107746842622
-0.256436286115802 0.11309491553302 0.182157330242709
-0.264306668462616 0.103657530908594 0.188734908033105
-0.265239794453883 0.101162192913794 0.19217895319665
-0.26083972161085 0.101055504153576 0.197039586000196
-0.260238199884816 0.0984661525427446 0.20074061813133
-0.257585422539687 0.0934736262945573 0.20926629759214
-0.259563780188935 0.0866761380015969 0.215400968557118
-0.258307357418639 0.0826607540994818 0.218268794244935
-0.264498803331185 0.0788561004550044 0.217723843776741
-0.262808443721877 0.0670025966476631 0.225297644390314
-0.269112896521666 0.0606580641013574 0.225266363429473
-0.26278930121213 0.0550111273565289 0.231403841174475
-0.262096687901404 0.0462087477569646 0.235641119916354
-0.266738920895495 0.0368427336718636 0.236362959425534
-0.268373279710373 0.0235014664184072 0.238803382550051
-0.272814791796801 0.022617480045398 0.237735839298422
-0.27408042536855 0.0110384158163015 0.239897275045536
-0.266726570160937 0.00114159885876216 0.243683094440632
-0.267812134951365 -0.00751372433419375 0.244460305430166
-0.271607827142443 -0.0174729764291436 0.24456277898612
-0.275464354790213 -0.0320644327423086 0.245242935745103
-0.268925242603117 -0.0316860505205415 0.247227445923076
-0.275056649938126 -0.0452607560834212 0.246161673251657
-0.278724130980779 -0.0651746239814341 0.245812725630168
-0.274571219131019 -0.070696812975898 0.24744103409253
-0.27971499762473 -0.0889657336892641 0.245216889420682
-0.278766990282912 -0.0896139049285843 0.24550474225761
-0.275591223447994 -0.109408384805359 0.245694861701325
-0.28128654397977 -0.115061945544971 0.243546118798101
-0.281469712101407 -0.123551849284314 0.242372512317518
-0.278490436198713 -0.136262915345076 0.241617388313527
-0.286218690479901 -0.163909146761851 0.234923719402936
-0.285479691687368 -0.184325293401285 0.226639126801483
-0.249019999697329 0.140520796144934 0.132318533877167
-0.243180286841615 0.139354393884539 0.141657036418061
-0.243936757151666 0.137305648097649 0.146177196998735
-0.252008034464296 0.129760926549218 0.152886142986703
-0.250855417429951 0.129079805765187 0.15638779117133
-0.245122282595099 0.12699329306687 0.170894242062901
-0.247333477550801 0.123066379512275 0.175882498651591
-0.25059980335184 0.118121747638287 0.181095965862941
-0.251914444496145 0.115960361636634 0.183326978606616
-0.245358495924965 0.11335471304341 0.196530032053843
-0.252925104855861 0.110265221462099 0.192849374275936
-0.248977994096936 0.108446446044894 0.199115037915271
-0.255368608346727 0.101044439232722 0.202145717723094
-0.256619569474566 0.0939590821282318 0.209576447206786
-0.248700416055987 0.0945869706877084 0.215645692524402
-0.249718688611612 0.0835416780224837 0.221557004011021
-0.248590008586051 0.0819608673082241 0.222966233573999
-0.254818471913409 0.0669048362268878 0.228884927573112
-0.252351521567803 0.0646501122828472 0.231273700920598
-0.259349375191919 0.0546193636391264 0.23354705024369
-0.253983479261482 0.0551185388837867 0.235813156052668
-0.259084990970032 0.0343931503712083 0.239067432798226
-0.257181200153318 0.0287168154174133 0.240843093413189
-0.258706661803657 0.0217577658917368 0.241925160864607
-0.262364518597449 0.0108528195054983 0.243244502306779
-0.262775381892078 0.00195902754694511 0.244806380214417
-0.262755146754802 -0.0120929688065588 0.246622481851843
-0.257052261277931 -0.0146906757179569 0.248730281075109
-0.262160854451906 -0.026032725811749 0.248602622628072
-0.258370790598149 -0.0323964264786505 0.250191546410488
-0.263406127411284 -0.0489042957192164 0.249917619645641
-0.266291143927088 -0.058560749382585 0.249540842925939
-0.268134615117691 -0.0638340459942747 0.249272517269019
-0.270923697567257 -0.0804234196643663 0.248525584150663
-0.2656186258977 -0.091139283468092 0.249648779173661
-0.266990628064148 -0.102734432996888 0.248857847441588
-0.27064754387208 -0.111756037192854 0.247241314137182
-0.273475499884828 -0.131375855609299 0.243886015985582
-0.26921273130006 -0.144481332762578 0.243523558920544
-0.27138440809913 -0.166218182133855 0.239121682572756
-0.274856651781848 -0.174182729210881 0.236402998487216
-0.27302290746034 -0.187926286622391 0.23222198569756
-0.274962419976938 -0.210566948945788 0.221099454661191
-0.238118608819684 0.143641250361071 0.135952179573012
-0.241848812199398 0.141385669726178 0.137802745772096
-0.237081154012671 0.139927950046225 0.146743405216062
-0.236617611935742 0.137578908844671 0.153361995847911
-0.242396943072122 0.132227797923269 0.161064616635319
-0.243190863811707 0.128640609720853 0.169551508784867
-0.236467177854605 0.128569239355678 0.176991523233654
-0.243205169098005 0.122568677449591 0.183471269617429
-0.238391430882645 0.122277029226018 0.189722487279204
-0.240029615923536 0.118101562033899 0.195731994692622
-0.244733534678845 0.113064631691617 0.197463662968078
-0.238059280243227 0.109377796801112 0.208148758049029
-0.236610273901274 0.107108662330083 0.212250207434827
-0.237014151034786 0.102288820079714 0.216374437881822
-0.243903468651599 0.0957663693014594 0.217086339766322
-0.238166858962465 0.0912327862522203 0.222232524974228
-0.242094570656879 0.084153256303483 0.224574077401909
-0.240841439164095 0.0752629619370434 0.230248054746355
-0.242965194101635 0.0648486833556221 0.235262032937121
-0.242077030555995 0.0632248836924585 0.236105287400541
-0.250890016947643 0.0497110981848901 0.238020503273128
-0.245098968982806 0.0428909839556243 0.241185213156945
-0.243866171838795 0.035402492582888 0.243153912343004
-0.246664154265346 0.0316080785299427 0.243184237312025
-0.247885560563558 0.021804948167128 0.244866592189896
-0.251884709171459 0.00736901826132145 0.246756445811607
-0.246577863570218 0.00174779344238085 0.249298966628162
-0.249331654329073 -0.00970876430127547 0.250113568440785
-0.248737368734956 -0.0235378088014529 0.251489158117748
-0.256026715624577 -0.0399245806184683 0.251364564598521
-0.251167482970463 -0.0381678163851192 0.252278907452443
-0.252760466986883 -0.0595884445891346 0.252731619875615
-0.251207431751632 -0.0719518997541134 0.253474263677547
-0.257342708589445 -0.0785398890011337 0.251968356062793
-0.26087240483878 -0.0921156687969275 0.250726929709974
-0.263075322550594 -0.0968863695446873 0.250065940292941
-0.264417852644469 -0.119419399439863 0.248242279171168
-0.260627769285401 -0.119061263295 0.249398178059148
-0.258411224727793 -0.138715004673174 0.247624800205576
-0.267108679330975 -0.162612660314697 0.241119449034853
-0.262690506779496 -0.177587604528475 0.239113125864803
-0.262399446265359 -0.180661718748425 0.238526536697813
-0.225782619453098 0.147956002194307 0.138022846893787
-0.231025839244329 0.144554187425168 0.141226597584954
-0.230775593203878 0.14095640263043 0.150867631559515
-0.226647202885091 0.139439521978911 0.159272686109879
-0.228739862868117 0.136173940440513 0.165520701788446
-0.22801850141341 0.13382160853925 0.172426022381404
-0.227215463866542 0.130429370818372 0.1817812584022
-0.230432242807807 0.126609082406152 0.187388990348418
-0.23360313811682 0.124114920575516 0.190050415491097
-0.232590406009194 0.12253599474161 0.194303505161944
-0.231001007253997 0.117080917536007 0.20293977403446
-0.235737770181267 0.1107435167697 0.208652963171294
-0.229340999458402 0.106979844868177 0.216592575319454
-0.230998461890534 0.103622450278086 0.218264852795705
-0.227477378765781 0.097015779562328 0.223625891111876
-0.231219440644621 0.0928767612919995 0.22435595883437
-0.228122656004076 0.0864503872209598 0.229425650210087
-0.233862436874297 0.0725708225931328 0.234845697620286
-0.233111523765912 0.0674945702370449 0.236845630283005
-0.236981976881513 0.0597029948334475 0.238213438582554
-0.237808936819863 0.0537730888881651 0.239715621478717
-0.232855977209119 0.0450509932202044 0.243250901636002
-0.232645322814399 0.0377657776042866 0.245239261023762
-0.241205014976309 0.0337568155716957 0.244201627125787
-0.240935932741555 0.0218411260609622 0.246714776114298
-0.241166546139684 0.0119605633911682 0.248677543612917
-0.242354597618361 -0.00255147031843692 0.250704364133079
-0.238879114896931 -0.00733562849150832 0.252039566438387
-0.240546247466976 -0.0140474300471301 0.252416030844579
-0.245077152765895 -0.0213595502889899 0.252089210617786
-0.247848530410259 -0.035377914801623 0.25274958866247
-0.245984824596535 -0.0429750914941545 0.253802946972569
-0.245834023246544 -0.0622149035769088 0.254429562578718
-0.246102376422308 -0.0679710733691553 0.254543843532924
-0.245747711744708 -0.0890973569876856 0.254351071680427
-0.252994790281841 -0.0995199950408633 0.252338622024967
-0.247579313770191 -0.105596651172873 0.253416257044911
-0.248738898612024 -0.113044470999849 0.252527101395995
-0.255276019029906 -0.135086650135414 0.249066957116781
-0.253235760449725 -0.151231449440543 0.247264554120016
-0.252656661461593 -0.166806340044669 0.244228173094221
-0.258629394758318 -0.182533575928096 0.239188566012541
-0.25878541524451 -0.222742472215951 0.222677319937418
-0.218009560909272 0.150306673014924 0.14028639839512
-0.214281721295063 0.148163886355927 0.149889582036924
-0.220147519072087 0.143941036287069 0.154560166411054
-0.217195387786153 0.142814220295465 0.160680176613393
-0.223549247277693 0.135991111957081 0.17159701355409
-0.218732498448912 0.135541162003736 0.177965727744179
-0.215512452423423 0.134716717184548 0.183043972582665
-0.224413907499798 0.129380525518752 0.186761088349851
-0.218866989426597 0.124520991282631 0.199529584967781
-0.222412547339401 0.119498912032021 0.204549460341117
-0.222746607753565 0.118050957812649 0.206399470123691
-0.216814441593693 0.11628998024435 0.212358348890301
-0.218346735474273 0.109206593773478 0.218153408488675
-0.218802164197462 0.100517086753111 0.223854804583021
-0.225976791298544 0.0980643472331918 0.223506660114106
-0.222355477921762 0.0954184707613637 0.226287233040747
-0.223735093354907 0.0862081006778792 0.231504170325492
-0.21935954054777 0.0743292491563173 0.237900233068584
-0.224518912407599 0.0757977285224267 0.236360591075978
-0.226570496249087 0.0655352445189308 0.23882526671874
-0.222436113199237 0.0580929040896679 0.241836454880021
-0.226881541153529 0.0480185608286782 0.243682592051227
-0.229267886891476 0.0392053135493424 0.245546869059204
-0.232562672149643 0.0279782588666898 0.247693107568662
-0.230436935946703 0.0222935483994273 0.249369144021637
-0.224025567528451 0.0137275929736729 0.251795033459249
-0.230498460026473 0.000125473945494078 0.252535711089152
-0.228633304665299 -0.00613887784115167 0.253782254561633
-0.235778525006205 -0.0147965182661768 0.253520861475076
-0.231522321898928 -0.0211036862393988 0.255015300665264
-0.237573249267535 -0.0440947025838155 0.255770767232698
-0.230874685309786 -0.0467604559382045 0.257447269041089
-0.23166141776193 -0.0572010085337365 0.257584508738663
-0.231260534634871 -0.0715012391920875 0.25811767815518
-0.239938704131919 -0.08161601373783 0.255937344348045
-0.234179832620211 -0.0934400104825691 0.256918490822994
-0.232728703823623 -0.100440773281569 0.25704211109369
-0.244619362021467 -0.124242586354213 0.252414208906782
-0.242818320993238 -0.130807546871843 0.25221442259761
-0.239603465768143 -0.152818647187909 0.250176561577804
-0.241364264770852 -0.150495951471275 0.250180572531197
-0.248464819105007 -0.195534380312933 0.23919516392028
-0.240688845198286 -0.205386657175285 0.238092910602164
-0.250108031765138 -0.230934535880397 0.221794031890678
-0.211524360708156 0.153921079238762 0.137868877241956
-0.207819708933481 0.151681816753466 0.147698331548124
-0.210309131689036 0.14682574114101 0.157660997720386
-0.206177629350274 0.146013212033718 0.164234805701738
-0.205614753604935 0.142443639919589 0.174139648012359
-0.210488051038317 0.138840632757033 0.178266544276519
-0.213547844987615 0.136383026369815 0.181122305966989
-0.212488281781947 0.133673030437594 0.188220019898789
-0.208988501404307 0.130836691744181 0.196387948047817
-0.208271038486584 0.127228346871734 0.201905178183388
-0.210707090328815 0.124911946452098 0.203752041723045
-0.209996807930414 0.116141377966711 0.215822021523932
-0.212105666797503 0.109406124969987 0.219753396046722
-0.212151560946502 0.110778995603197 0.218819883370343
-0.216079337895777 0.102559700951505 0.223241274111413
-0.210178557398705 0.0917401801967977 0.232137034115846
-0.215718217366996 0.0879197036027319 0.233157133764011
-0.215937336495256 0.0787919109945988 0.237379195926241
-0.211274449201581 0.0738579269009638 0.239647195915445
-0.21302760380065 0.0652304663770121 0.241859671441292
-0.215958101548801 0.0571758631291193 0.243475541216035
-0.221214703613412 0.0442090929926151 0.245860774079857
-0.213565065829934 0.0428829652609853 0.24778212679606
-0.217473683693625 0.0273510940361571 0.250560824116025
-0.21621915274213 0.0219184194617248 0.251755679918848
-0.223340491074641 0.0171932806735312 0.251426180156921
-0.214874688696105 0.00682200587818089 0.254494720309636
-0.218000684370922 -0.0110424742531544 0.256471770212749
-0.226069874621503 -0.0221583940660916 0.256296650901605
-0.22531374121577 -0.023181811643461 0.256553395806601
-0.220824045369301 -0.0370631591691341 0.258781230476893
-0.227473856778742 -0.0498090258349366 0.2583350146263
-0.223449487096429 -0.057873688492003 0.25918296983524
-0.226628738532461 -0.0620061466846022 0.258907258746389
-0.229673201351499 -0.0843561298129712 0.258249940226297
-0.227543634771408 -0.0915262663858421 0.25852675806067
-0.225231984146711 -0.0980366235287781 0.258866370211463
-0.231287702819148 -0.108299935821184 0.25675157244675
-0.228841207569119 -0.127719933748178 0.255533707546418
-0.225608039003774 -0.141878071743052 0.25435983491216
-0.226734949865151 -0.154044998389017 0.252405014418558
-0.236754040685713 -0.19002007918372 0.243289081702191
-0.232504922071722 -0.19975663302863 0.241471464821007
-0.236329507127405 -0.213397648030603 0.236769276597139
-0.201796202364751 0.154047276129823 0.14803578944457
-0.202339669552317 0.152469244677933 0.151559700967729
-0.197325292370667 0.150478247684861 0.162155555083858
-0.199611858725988 0.14898245709371 0.163584643803979
-0.198669137874863 0.144614783181361 0.175978089905287
-0.19808316918371 0.144055988144226 0.178065762989238
-0.204689969883921 0.138020433316305 0.185701721214181
-0.199000325704046 0.137418092690178 0.192371588552192
-0.198773502888661 0.132530414324036 0.19997255882013
-0.204009233817503 0.125926594163268 0.206237914195791
-0.196703504998024 0.12453211410317 0.212482789525639
-0.197707522434462 0.122222592923721 0.215157886949974
-0.202626294551459 0.111850406528807 0.220747486535832
-0.198282019888369 0.108295347311195 0.224338677600131
-0.201176781261174 0.0979896458458531 0.230446367475986
-0.204386624749957 0.0953654518744228 0.231314657869461
-0.198725178653414 0.0950279046278603 0.233111465315942
-0.205664710222113 0.0825683585658753 0.237537306614631
-0.204551018178095 0.067917189472822 0.242529735024088
-0.204868991613932 0.0637379709739974 0.243814510868196
-0.20495598949948 0.0590982802463032 0.24521637057678
-0.206034931777963 0.0556419785455627 0.245918170620091
-0.20707396690536 0.0462886303686955 0.248202696886427
-0.210834955573098 0.0320548520548843 0.250633748307308
-0.205000994326419 0.0235471370122647 0.253059640315699
-0.210924733357309 0.0138487901622784 0.254022373139057
-0.208966802922697 0.00297730108939216 0.256149694081154
-0.213061420992929 -0.00789190573802766 0.256942916126813
-0.206527959869916 -0.0191388657907554 0.259244648290555
-0.209743242595982 -0.0218978108731662 0.259194710717456
-0.207966019277368 -0.0243212370245592 0.259360072783146
-0.213600864645906 -0.0464264557459687 0.259590390186526
-0.2177419643182 -0.0578709432879915 0.259507265013552
-0.210808796424314 -0.0670162357660992 0.259969639272394
-0.211924463724906 -0.0859901614338749 0.259869564073817
-0.220528139506275 -0.0944685222723785 0.259317256578331
-0.21818631745439 -0.108928696624171 0.259188534466323
-0.217790354611154 -0.112952692727033 0.259121243790314
-0.216975731158047 -0.123355191693758 0.258508656224145
-0.224088640359618 -0.138361816448094 0.255147806678188
-0.226098297180569 -0.158783135320021 0.251844692952256
-0.225813577462783 -0.17681876159456 0.24905541648947
-0.219612474024613 -0.193090681874034 0.245981197606319
-0.230098059813152 -0.208462174080129 0.239525796697578
-0.230589890926818 -0.21962523982178 0.236252007546378
-0.190465793117473 0.157605037117094 0.150993258506956
-0.185331826691917 0.154515178732941 0.162017116027788
-0.190768888671475 0.153373623568489 0.161687692210759
-0.187688786217386 0.150435912229074 0.172551967838795
-0.189046005730142 0.14783669448985 0.177968372572227
-0.188792587715663 0.144603723903751 0.185705374370635
-0.191289516492326 0.142102778074711 0.189011343272434
-0.187478182728899 0.13706332644146 0.200178473699284
-0.19546255607417 0.131425823586064 0.203470377091365
-0.190803813182047 0.131044326357486 0.206735361436218
-0.193614730169075 0.12570323762527 0.212635766239452
-0.190905680602929 0.124645193083278 0.215422286044915
-0.193296028911471 0.11373850373206 0.2220731784227
-0.190370920016514 0.109935302219513 0.225436541057016
-0.188137666873795 0.103452599020125 0.23040480170441
-0.197844408148141 0.100894485442059 0.22942389196481
-0.189871306094315 0.0891611985842501 0.237520459405894
-0.192568789954992 0.0826467348737681 0.239303408983261
-0.194026034762871 0.078333706920721 0.240528820454141
-0.199431754931005 0.0637713458110493 0.244504415737304
-0.193106411443113 0.0598889691986486 0.24652625018104
-0.198551305652159 0.0554731289384044 0.247198024045405
-0.198594172132757 0.0434461750655304 0.250260336225618
-0.195991635019262 0.0301258718215302 0.253122115396528
-0.197134302886638 0.0241241933534679 0.254079612511569
-0.199589650515783 0.02208114659787 0.254109317532505
-0.200565969526109 0.00724013670477136 0.256742142744214
-0.198655522072539 -0.00135466767766306 0.258621822732732
-0.19642200063535 -0.00752940889039246 0.259299107329468
-0.202340257657468 -0.0182835941838914 0.259405219964504
-0.202027372263269 -0.0347331867508463 0.259946743669136
-0.201047025896552 -0.0460408343020837 0.260246660009324
-0.199240301301605 -0.0529946803236217 0.26049484271632
-0.209343550331758 -0.0693947309587654 0.260070691323024
-0.201333327793723 -0.0769447619630203 0.260539045940492
-0.208194123761475 -0.0919063292930072 0.260037273506465
-0.207810139787579 -0.102503616513353 0.259878873673667
-0.203267372642301 -0.114561891257753 0.259854943715714
-0.209519873504874 -0.125883080522991 0.259216111343929
-0.211518400762136 -0.14436711715301 0.256635411364951
-0.207140991757074 -0.150231934232303 0.25661246388082
-0.206360496553179 -0.164481119084433 0.254204180726111
-0.207875599940857 -0.184294246307081 0.250285223703407
-0.208848524898421 -0.19612395435635 0.247376626180769
-0.216771910185636 -0.223457744590098 0.238172630790325
-0.215729066815352 -0.256877016915275 0.219158075909174
-0.182169015707369 0.157915283182313 0.153677173084641
-0.177798510265834 0.157216516329475 0.15723863501272
-0.184707641630809 0.155071283023446 0.160692411014241
-0.183384240682885 0.152433767339224 0.168551677179601
-0.177868530593523 0.147868774501967 0.182831137489437
-0.180449681730645 0.146868222278657 0.184429385558884
-0.177310257242176 0.142142871466058 0.195747676805812
-0.18379472694603 0.139982007447239 0.197729321535597
-0.184493971611874 0.136386265775337 0.202881143436672
-0.185447869772417 0.128593240005294 0.213331962077323
-0.179838108446294 0.130798781840818 0.212440617883998
-0.180484994181446 0.118870907693912 0.222189944833701
-0.179530420930066 0.117918502505439 0.223093894922357
-0.17868134347855 0.11151001777045 0.227627845266758
-0.183684607129643 0.105126855829041 0.230518993062598
-0.180151467245793 0.102919188425144 0.23298140430264
-0.185524170528641 0.0881949172150806 0.238434516763875
-0.182284673651555 0.0850875223381737 0.239904329195798
-0.183916209975879 0.0748748291334937 0.243050252100478
-0.181189747883639 0.0637341463381547 0.246865439532887
-0.188699245041152 0.0629991762318354 0.246126791411303
-0.186325358032198 0.046517377288922 0.250860923850113
-0.186661389635837 0.0441874363130322 0.251337569712802
-0.190621670110433 0.0359829792670519 0.252765722946268
-0.18703794614151 0.0297678501067283 0.254440929180322
-0.184546016058549 0.0203463664637915 0.256590119031684
-0.191871374758134 0.00077438019129269 0.259103656271618
-0.189579895523856 -0.00134860710034915 0.259280136382891
-0.189889653516666 -0.00290613930962441 0.259340148903306
-0.190372283225008 -0.0216046135269505 0.260065265397451
-0.192928840130668 -0.0363877139943649 0.26046480042075
-0.193329652423827 -0.0471591669337822 0.260679824037865
-0.191437209755751 -0.0609429546051043 0.261024948113452
-0.190616878817127 -0.068724893141877 0.261129776681656
-0.194908840584493 -0.0816745279646969 0.260868718819372
-0.196331641917469 -0.0977969864852851 0.260589890698506
-0.195265546581553 -0.100192417560777 0.260593802405868
-0.193771850994361 -0.113144831423936 0.260376598561544
-0.200043868827767 -0.133613702643109 0.259377258680527
-0.19764451958865 -0.139906543931845 0.259266799264045
-0.202035354215474 -0.151115026994089 0.257321471080572
-0.198359717255817 -0.177388501490339 0.252939662602819
-0.201851875659732 -0.180583655957067 0.25184205870909
-0.207427817995807 -0.201605659740297 0.246204051291494
-0.207983838533984 -0.226661572768199 0.23854466044223
-0.209178925939267 -0.254308482147047 0.222696959134913
-0.168570338600688 0.161450724656582 0.148799229238408
-0.167358221135619 0.157690408051697 0.159755948411931
-0.168574647022669 0.154551534658019 0.168081958628877
-0.170320293167459 0.151968771881407 0.174658805313378
-0.174915171546868 0.150457008668753 0.177193553725679
-0.175217655856901 0.147461062743102 0.184661523173223
-0.171158608968997 0.144450000148585 0.193237553673651
-0.17647218510625 0.142563758746814 0.195276883467508
-0.176475968928826 0.137932472881262 0.202297083148678
-0.168899210098207 0.134835032326889 0.208504945976368
-0.174143647513036 0.127690221150078 0.216644341574528
-0.174953053782667 0.127268082733301 0.216871473538539
-0.175287074751044 0.120581663489265 0.221652260508319
-0.172812026458747 0.111668869833352 0.228301615145888
-0.172755513976017 0.104149827176625 0.233704448572868
-0.174287667451753 0.100321672037097 0.235954388422333
-0.173299113919409 0.0927461800067217 0.238603828978185
-0.175638528646846 0.0829169745815926 0.241530805107164
-0.178578343517109 0.0836290912158068 0.240893283657247
-0.17579898330781 0.0714855777811379 0.245149539712698
-0.178041092396648 0.0584315560778003 0.248919731433788
-0.171909261222922 0.0531377453521629 0.250719714264868
-0.178166708714259 0.0387054974461916 0.253295835688692
-0.182036246887054 0.0371362144357417 0.253288540032074
-0.179452043524464 0.0322691569793804 0.254580365909207
-0.1803443264373 0.019718194811329 0.257230687623655
-0.183906164959105 0.0131718695248366 0.258022283165048
-0.180499772590289 0.000820293356082938 0.25949832194151
-0.183973109000308 -0.0143405088770432 0.260066489129667
-0.182285223544398 -0.0180445626342277 0.260293799966174
-0.182461712253059 -0.0329500193511108 0.260820792978405
-0.181188385110154 -0.0393125168709867 0.261100676774818
-0.184881231176625 -0.0544258003849709 0.261286545780082
-0.180616395827859 -0.0625586363779096 0.261651900447083
-0.18006845356868 -0.0708692773318776 0.261745206339247
-0.190271735547805 -0.0921641904627782 0.261034305830313
-0.185403071535482 -0.0987230589792131 0.26114824879981
-0.182268080891577 -0.115565962315418 0.260815194273241
-0.187659408634409 -0.12875501140022 0.260109890553528
-0.187895846619086 -0.136684590961028 0.259796767233999
-0.187926309199428 -0.146752234626741 0.259337935521236
-0.188218770172866 -0.161851315676174 0.257296351204462
-0.187983845352736 -0.186649182474513 0.252445802742463
-0.197414141893333 -0.205917575420415 0.246616496679635
-0.187304497959317 -0.205933050593605 0.247913744212787
-0.163668620197581 0.159748522784332 0.155360929643474
-0.159782817450277 0.158543814368462 0.160158211938952
-0.161222409703068 0.155978426516125 0.166799117555853
-0.16112186385349 0.153662845476067 0.173308528439111
-0.162178409870131 0.149874863082231 0.182975194249371
-0.160148145979179 0.149100021583414 0.185495989933726
-0.165543809426212 0.143910683802129 0.195416085503005
-0.159503839399549 0.142316430594993 0.199038423469225
-0.16178310533279 0.138994079135986 0.203620151945259
-0.161348354353802 0.132580443305021 0.213429889622414
-0.16373085039643 0.131172518631187 0.215088774907767
-0.161318034820365 0.123511876350308 0.220866920993267
-0.161870430771874 0.116625948654594 0.225770608746023
-0.158838626557576 0.114739933114667 0.22741531405375
-0.165859388135159 0.104683554810977 0.233968467663832
-0.167889099981759 0.0976556831479941 0.237198145667987
-0.165075626806016 0.0938450243576783 0.238680376395799
-0.166096201201699 0.0846471378105802 0.241893493937803
-0.166981273424186 0.0792480801168897 0.243719799060605
-0.168249863827131 0.0675753241404983 0.247337656863144
-0.164990256474667 0.0699849091659477 0.246898152373961
-0.164930281430684 0.0579246646486337 0.250307169601744
-0.166899822026185 0.0426359134071411 0.253456073246056
-0.167780054067097 0.0363957416868589 0.254734431023342
-0.164524660410664 0.0246191486535506 0.25759006539175
-0.171409707691918 0.0238919618391825 0.25712779209986
-0.168258121191112 0.00433521271341039 0.259704820030994
-0.168634831017576 0.0044685009073061 0.259689500151391
-0.171952930168595 -0.01399051478048 0.2604699571794
-0.172160081958043 -0.012256272783255 0.260383874889257
-0.173241511113103 -0.0291351220036384 0.261106928089634
-0.176183348904567 -0.0346264054475162 0.261164754702295
-0.16988356178268 -0.0510523970173963 0.262006686755243
-0.168968842072247 -0.0616809688846977 0.262288234214273
-0.172742052886082 -0.0760922753495207 0.262170050969508
-0.174221533710767 -0.0865026695162053 0.262008338527884
-0.174956438389645 -0.0961498251951581 0.261757837373998
-0.176161568718612 -0.108578718213862 0.261336636994947
-0.172555405181693 -0.114569107833881 0.261291603088453
-0.177568875536267 -0.134708410294794 0.260246929123738
-0.180791891890291 -0.147837757658178 0.259537496165175
-0.181430963248805 -0.173790680815919 0.255834003478262
-0.177468064534704 -0.172265979589785 0.256522876587186
-0.185690505838579 -0.194468574051454 0.250951202195573
-0.181757843906059 -0.215131694892714 0.245767931839131
-0.18670807560131 -0.264794004987745 0.221912961265495
-0.149511556189344 0.161653976834488 0.155244535936379
-0.150770611838777 0.161149046568595 0.156192575955265
-0.154234720924551 0.156363469341112 0.168294257471467
-0.152135949279461 0.153906111958228 0.17593528114703
-0.151114363971513 0.15421013922424 0.175461409878476
-0.148792778672297 0.15035493964845 0.186076629989824
-0.152323332325628 0.146770303514419 0.193623143091635
-0.148759278980778 0.141984072901066 0.201686704723869
-0.150917677187549 0.136552011554589 0.209490842601859
-0.150612100822725 0.136540333254532 0.209569534585407
-0.149453409617603 0.128790936674142 0.218191635203702
-0.151282212399847 0.12511728067425 0.22066239931599
-0.152593303861731 0.120749935303499 0.223681490162638
-0.150046818088276 0.111549586103247 0.230544577067203
-0.156106360382179 0.104300844534093 0.235144544037668
-0.15151869300687 0.103527041345917 0.235880729249649
-0.153123661395424 0.0930245773660831 0.239529058596525
-0.157039768091522 0.0821465834622881 0.24318936262877
-0.154955045989926 0.0735400407543855 0.246152731828182
-0.154136730542108 0.0722521674378826 0.246618411013514
-0.154257423201102 0.0641118459464643 0.249301933121398
-0.154935713674126 0.0557368344823638 0.251236508618818
-0.157787861898932 0.0491207345558931 0.252693586191553
-0.156227683183378 0.0324409172453674 0.256636002626535
-0.155258650604507 0.0281691087219721 0.25765275802047
-0.156997340839779 0.0178562808317262 0.259235856509804
-0.163553506131658 0.00863063354300645 0.259580561646152
-0.157940996602288 0.00119324365480584 0.260097469787322
-0.160751810721941 -0.0102394232910513 0.260641182463243
-0.157200404567846 -0.0205667044640555 0.261265905261984
-0.166202192473513 -0.0316286444201473 0.261472593164858
-0.167266917670417 -0.0476890999084755 0.262025933977274
-0.165953325527743 -0.0521781687531573 0.262239484494278
-0.162864614328921 -0.0695757805386978 0.262713095077415
-0.165291104922956 -0.0697137190975494 0.262576247709033
-0.160222233205223 -0.0867159749442933 0.262744925103886
-0.162596063448413 -0.0992543610998905 0.262278776520824
-0.164296244266041 -0.114450324939513 0.261631130322399
-0.169128374671983 -0.122715942104995 0.261086706130715
-0.169609870199465 -0.13823589374264 0.260364225235374
-0.170612701953658 -0.158101270311521 0.259353327009193
-0.172757196789286 -0.172497219351721 0.256897114328093
-0.167896137739687 -0.182825817047497 0.255087987244374
-0.165778558758854 -0.197128084419411 0.252167056056595
-0.168882466205553 -0.203259699341387 0.250553261799105
-0.171810749523877 -0.219162622174313 0.245795696568557
-0.170335943449835 -0.243876526777129 0.237751250419484
-0.141353831441112 0.162372254616637 0.156238792777181
-0.137055572424979 0.160180654410382 0.163946371443503
-0.139412920973262 0.157449918771041 0.170711725467741
-0.145272640766351 0.155863266709717 0.172990351794562
-0.14111895025497 0.153283120641621 0.181437442825496
-0.144179517741226 0.149763321610774 0.18897679058099
-0.143782920019484 0.147276075232124 0.194657311314216
-0.14026836410289 0.144474540284663 0.199605839079927
-0.140498040202145 0.141838992488658 0.20355544767964
-0.142045439058523 0.136647816296855 0.211116352663456
-0.145822505769178 0.131794497016739 0.216373918557917
-0.14737821395563 0.1263386068885 0.22015329248501
-0.14860769042786 0.117641564685384 0.226296342700449
-0.141644548463559 0.118046874680709 0.226664417813616
-0.148720016352577 0.109060091094392 0.232462069579829
-0.147949235099506 0.107137753633988 0.233900528563685
-0.146263230113114 0.0926781808685981 0.23997205152552
-0.149512519809848 0.0893062342222693 0.241015791395792
-0.145276432987945 0.0763447564401068 0.245642041364461
-0.144562901270588 0.0673372266288325 0.248678974736215
-0.148382360276738 0.0638538601617088 0.249542760043516
-0.145543103344404 0.0554847550301685 0.251584081198967
-0.149680476075546 0.0477827004121174 0.253255204969647
-0.150630783550092 0.0314316071948744 0.257043700844249
-0.148112223050919 0.0341985101908546 0.256475092398381
-0.149007268343828 0.0178227496979459 0.25936513408577
-0.146618170814158 0.00757820219562249 0.259965127307489
-0.152986848636905 0.005983148195772 0.259952501342336
-0.149365171142312 -0.00781269722495574 0.260762426344224
-0.146978297515275 -0.0184332898277935 0.261377138720989
-0.155924920744255 -0.0301264246471272 0.26176286056118
-0.153355597774607 -0.0464704995529333 0.262595657730955
-0.153379509996772 -0.0526368891576421 0.262830012459893
-0.156330812438908 -0.0628568458586403 0.262983209780188
-0.149717469522576 -0.0812345154979261 0.263421376841586
-0.151801178686577 -0.0827753155636241 0.263277250294073
-0.159145100566259 -0.107661461543128 0.262119537850062
-0.15270314186215 -0.103960002615825 0.262512599527117
-0.152801348234196 -0.129757605363984 0.261244778538926
-0.157247394641323 -0.12701282640991 0.261292601318141
-0.161257093700776 -0.152362828186773 0.259862371762865
-0.155776955084112 -0.16488636536601 0.259319442758329
-0.153837131212171 -0.176231696595808 0.257716355742382
-0.163570001181704 -0.195736204118925 0.25266892777443
-0.165821638598758 -0.227461070077269 0.243734096081232
-0.158272543570324 -0.231951694249134 0.242541758004124
-0.158360993394061 -0.254664482298508 0.233340056235133
-0.129531752688225 0.163411887762536 0.157683254253656
-0.127697153121309 0.162080089908882 0.162083931023239
-0.137448846822642 0.159267627811555 0.166353702776532
-0.135842855554302 0.155455958697058 0.177598901595937
-0.129918003863807 0.152308910692939 0.187360913835997
-0.134944372708674 0.151152803102907 0.188556747188644
-0.13076619618116 0.14856534290406 0.19530071994876
-0.138023227052618 0.146491764345759 0.19699585119619
-0.13789216982301 0.140179480390826 0.206591328929374
-0.132013588385921 0.138583053343873 0.210184751971872
-0.131284024227331 0.131367461160698 0.218058859193261
-0.131004647668545 0.126929196352509 0.221279697353329
-0.133826350527954 0.120858528564478 0.225381588200243
-0.130279592826008 0.112821797724521 0.231501960918699
-0.130534514934329 0.11097429261164 0.232807516378309
-0.136529755626272 0.101044514186964 0.237460379060585
-0.13140253687316 0.0955553171104467 0.239645657390115
-0.131110783976401 0.08538699153124 0.243247157644004
-0.134103718357873 0.0776811210065161 0.24568693775773
-0.139534024552865 0.0753507369932665 0.246225980104969
-0.136024640507991 0.060335714488757 0.250744047998707
-0.140315930502535 0.048901292362203 0.253281886007312
-0.134926817578408 0.0478759257876215 0.253686946070441
-0.143197571430346 0.0330960695741125 0.256883563658584
-0.137589826739369 0.0349393679405662 0.256625558838467
-0.139831808546566 0.0240431936953548 0.259080312905559
-0.144090319613822 0.0112746511644929 0.259773996245031
-0.142049281714447 0.0066139461942974 0.260054097800004
-0.144117718360318 -0.00914120865846193 0.260933871480466
-0.136310213604808 -0.0162755838057463 0.26139767108391
-0.138815415054632 -0.0335101425509242 0.262354493973687
-0.141435602037998 -0.0439758019431931 0.262851184424891
-0.146643982463278 -0.0467277976775374 0.262841524043878
-0.146545233756969 -0.0651994532007732 0.263552737174614
-0.138523656604335 -0.0697017994693457 0.271896844025112
-0.139139590230638 -0.076600458105091 0.271888411674851
-0.148106645691875 -0.106741604545018 0.262546492975651
-0.146411780622258 -0.114680649435043 0.262183245733305
-0.144610750694618 -0.113567388895646 0.262281694424272
-0.146312627466399 -0.144364796206614 0.260610449067509
-0.14638798995934 -0.156502077248448 0.25992021463848
-0.151563506270144 -0.165539116538656 0.259367990343771
-0.14596530085714 -0.178371062682833 0.257458819012333
-0.154717036603143 -0.20140148771271 0.251812582974191
-0.154178272096333 -0.209260623551478 0.249994166974371
-0.154882886196514 -0.244112569200009 0.238388799490249
-0.150807188051231 -0.24716938101125 0.237495348645257
-0.126512798367867 0.16394420750909 0.156437600949849
-0.120422533157149 0.160692572654981 0.163285276278262
-0.125557938145448 0.160294441444351 0.166287889438783
-0.122332868478011 0.155864059329727 0.177484709026381
-0.120137217768061 0.15134865967056 0.187985986647678
-0.124227587642022 0.151117349395828 0.189848087909023
-0.122439934263972 0.149214587930686 0.193881368589096
-0.119862940738273 0.145332429734662 0.199252333686305
-0.123443084916161 0.13859782142189 0.210176427708415
-0.125814767910135 0.138511903426109 0.210780025777133
-0.12519996587398 0.12785087916954 0.220693879596745
-0.119905831601903 0.1280962138036 0.220015660279631
-0.128830818270126 0.119948385774285 0.226509997997735
-0.129539567877858 0.119983120110001 0.22641784122293
-0.126208423320336 0.112519170478615 0.231824173311436
-0.130494464147228 0.0979852914331188 0.238826587053334
-0.130720444848607 0.091214910616583 0.241216213081527
-0.130203182513571 0.0909106736600624 0.241348210152469
-0.124838758745743 0.0812904009645214 0.244638834832974
-0.125971918437529 0.0709438097852143 0.24814101356233
-0.130908322950331 0.0676736728134563 0.249166545199732
-0.128905477236693 0.0556360924286642 0.252060164750162
-0.130830997812989 0.0513936075211232 0.252991526168072
-0.123671015535475 0.0397762566021832 0.255676804567379
-0.125006190301899 0.0298193521327646 0.2580426168694
-0.134040984995104 0.0209634677149863 0.259298630768238
-0.125103441624245 0.00740192841497366 0.260097345919747
-0.130407309818723 0.00816945566491791 0.260052801406383
-0.127581610051394 -0.00958122171455658 0.261080909714895
-0.13418011015347 -0.0125347705380925 0.261201043650133
-0.135678962059575 -0.0334069308271635 0.262375839336702
-0.136037775570862 -0.0468079345347484 0.263119534971808
-0.131691330336963 -0.0512478447519293 0.263419435444722
-0.127850712318675 -0.0593552313731335 0.269560010115736
-0.132973240730155 -0.0650843863017683 0.272590887206998
-0.135502496471493 -0.0779530191691585 0.273022274471139
-0.131634413448516 -0.102451052688844 0.263101897907455
-0.132051039121523 -0.111310464223202 0.262595367289639
-0.138767549981142 -0.121527780137 0.261964548817016
-0.132034421904637 -0.133038513154098 0.261360849533517
-0.134490456861394 -0.141569478984174 0.260857725559743
-0.139994738745097 -0.161039332608068 0.259710223232154
-0.132546338027678 -0.169770290374888 0.259269828557406
-0.140257663129952 -0.177748114248004 0.257779712189046
-0.133798127129698 -0.211540696878412 0.250088266264545
-0.144038459690336 -0.237886745235224 0.241102054840329
-0.14587004923066 -0.24526385323584 0.238401306085353
-0.109148065841553 0.164584464001979 0.148257947880721
-0.117498790564183 0.162072514909054 0.15835221586325
-0.114422552186519 0.157321720125197 0.170499407287581
-0.111874382780521 0.15407285233903 0.17864280164333
-0.117869783877009 0.15593904440575 0.175632746561039
-0.109202593332013 0.149935251125538 0.187922703576188
-0.111796849713786 0.148548881584864 0.192102320669224
-0.111537487292021 0.144028033584238 0.199568157721469
-0.112279530123104 0.139896564149767 0.205979498105787
-0.110948794038513 0.133511575288421 0.21526932455528
-0.119588777828473 0.131348528419302 0.217644819594191
-0.117584283064051 0.126114923332541 0.221221683009645
-0.118104030329275 0.115613737003887 0.228828982497609
-0.114680465852387 0.115490335715009 0.228593399812769
-0.112021031636918 0.104549361663292 0.235898848530343
-0.119736367624888 0.101648497152358 0.237287328242578
-0.113224406532795 0.0941689920589812 0.239634965749979
-0.119896414419699 0.086159266212111 0.242785897480207
-0.11829411007371 0.0814801035065764 0.244288034884736
-0.120559237916287 0.066761814020746 0.24928047594993
-0.121943951330348 0.0657672174466079 0.249555261863584
-0.114536409842857 0.0563699043677849 0.251521679558112
-0.122172885979371 0.043458776828336 0.254770947134176
-0.121698991137183 0.0380003071683556 0.256030841701085
-0.118012993252726 0.0296844975002858 0.257859141677755
-0.118395045703657 0.0212462074612861 0.259260495039919
-0.114901935991659 0.0148725283283119 0.259596532085024
-0.120199955748383 0.00269684147033464 0.260328018608782
-0.124983261575068 -0.013382585556635 0.261277474925046
-0.124280924781233 -0.0230825291254259 0.261823395913261
-0.117228932162169 -0.0309896863215752 0.262219945639093
-0.121010130051869 -0.042563918696341 0.262905908937756
-0.121320543087078 -0.0522375332297223 0.263450286657048
-0.127152164038103 -0.0593677511186012 0.269529906676687
-0.1241416281093 -0.0643052855188201 0.272581571244264
-0.125230967159263 -0.0816301847300673 0.273225655497967
-0.121720800829516 -0.0774331453649213 0.273531044392507
-0.122620405021544 -0.1150253223578 0.262378932747945
-0.124977081586825 -0.124447118986556 0.261861192589112
-0.130034374594697 -0.131493177314318 0.261463621381796
-0.12170690525072 -0.154662668074899 0.260119805928498
-0.129155274489131 -0.163167591820764 0.259670378347672
-0.124090660443354 -0.170376331612658 0.259244748730874
-0.122609915976902 -0.192905925934927 0.2544705837812
-0.127457655896863 -0.207896375274874 0.251119577361041
-0.127836333547137 -0.229803878835232 0.244621021721927
-0.128290709519933 -0.250846102876297 0.237242805357925
-0.100476116748055 0.162517807368629 0.150843391703987
-0.104830669893837 0.161217371343276 0.156080742775346
-0.105939715730611 0.158623306408607 0.163739676910607
-0.106116349580888 0.153958244219723 0.176844254554849
-0.106449380849092 0.154195879073438 0.176302579929569
-0.107557972861007 0.149928383049789 0.187415583348638
-0.102015717473035 0.146656531278256 0.193564875492164
-0.103549896732946 0.144179379254876 0.197744532286342
-0.108367341399815 0.137998443620311 0.208076211663457
-0.107791460200302 0.13682968167271 0.209733099837147
-0.105793954976064 0.130790409211503 0.216739392754671
-0.104980219479503 0.127278593778386 0.219189857210881
-0.102439393113369 0.11829506533989 0.225414844534935
-0.104481243143865 0.114747544261142 0.22816158754778
