ply
format ascii 1.0
element vertex 833
property float x
property float y
property float z
end_header
0.0185187074175633 -0.187463527775187 0.231918517070832
0.030852463285028 -0.173903185734106 0.230807813748869
0.0320284437825406 -0.166458410539796 0.2334121939012
0.0486448216556085 -0.162186291625433 0.223494488255128
0.0520000707373945 -0.153211609403298 0.223737400780114
0.0790766867615261 -0.134854732176688 0.205720983245386
-0.0785933390145233 -0.261073250247822 0.226987886484869
-0.0717104134307225 -0.251376394640811 0.231764642005884
-0.071384327583021 -0.247318103609604 0.23436838434393
-0.0574782875728947 -0.242227820567005 0.233927975133712
-0.0534224404852312 -0.239778213988493 0.23443402771682
-0.0461792957802604 -0.22822320310721 0.237861413143768
-0.0486457940301372 -0.232362225531943 0.236831586916047
-0.0411942485689153 -0.221138262322338 0.239392210079639
-0.0276749890416319 -0.220797548767324 0.236546062237386
-0.0140989153829409 -0.208051903176646 0.237206569019035
-0.0163817677725827 -0.205017578725843 0.238564263140188
-0.0115702154829868 -0.194760412244526 0.240426654918362
-0.00347214140918972 -0.185368725997972 0.240476424952034
0.0100446181328789 -0.176815781260914 0.238503760909984
0.0157746849442591 -0.176126142480163 0.2370283768801
0.0278436635130988 -0.161918032204336 0.236541164240611
0.0274488574988842 -0.156620993270691 0.237396414909333
0.0516636125090573 -0.144145668518848 0.22648163623293
0.0521231017836485 -0.139620786537353 0.227430505972206
0.0693989591863086 -0.122371258725394 0.219813806288558
-0.0852984330342179 -0.252743413204637 0.233606223667649
-0.08195222456097 -0.250036925371004 0.235205130746525
-0.0781942962543094 -0.242802032605923 0.237426081894851
-0.0659776237660256 -0.23984631023226 0.236730827815266
-0.061524193964884 -0.231729104599683 0.238802968815978
-0.0623567406649602 -0.228900966011418 0.239851170951226
-0.0541011620982218 -0.226033202555213 0.239668879989398
-0.043972343819372 -0.212011180191659 0.242586094893144
-0.0337636450865017 -0.210585147181302 0.240768455078974
-0.0244470696170752 -0.200450474017525 0.241615468330497
-0.0236393840648902 -0.203361387261917 0.240613889952821
-0.020363829655432 -0.195610832593637 0.242099555938365
-0.00567835099139035 -0.184769770943846 0.241232658178867
-0.000638733577947527 -0.177445735739055 0.24139728077336
0.00639147737538053 -0.166549121260908 0.241774873554191
0.0171910088408557 -0.161829528517017 0.23973860682293
0.0180794706978706 -0.15161799136198 0.241176196625932
0.0384657028828995 -0.141959531096326 0.235763200570654
0.0410670337497719 -0.132023113652659 0.236263507293792
0.0550753732974481 -0.12585386265297 0.229275005614535
0.0626213354381084 -0.117402059627735 0.22516274094604
-0.0999073760699781 -0.2523801275951 0.235219693615997
-0.08688023860919 -0.245056785065078 0.237418245145707
-0.0799717393008454 -0.239548910201828 0.238743973947127
-0.0787685104928768 -0.235869760456096 0.23979474137121
-0.0745490943019159 -0.232846496975641 0.240216112616628
-0.0594322704877505 -0.22454687505817 0.240889378309607
-0.052097961407121 -0.218765060080539 0.24179581142264
-0.0556513381896702 -0.214247597369022 0.243727500243741
-0.0462029230763775 -0.208691031688122 0.243952548459922
-0.0425479780586062 -0.198032305627666 0.246049668074213
-0.0324592121641605 -0.195108305623463 0.244763395469192
-0.0288694844750353 -0.189324533048657 0.245572232419219
-0.0136867657505316 -0.177784431034342 0.244904616773013
-0.00705381674562552 -0.174470980424066 0.24381244014571
-0.00230287302655367 -0.164253828544827 0.244637210716179
0.0125507969055979 -0.158165391402809 0.241852528659563
0.0109310478214823 -0.157529032686731 0.242450537053308
0.0209096589541607 -0.142142100570754 0.241537883323659
0.0221787949382862 -0.136794503734919 0.241850366458743
0.0364812718095169 -0.123362790411816 0.238963464958854
0.0603188740253227 -0.111702373396863 0.227359970359364
0.0654192238868165 -0.10347785717745 0.224468391125748
-0.105322204844322 -0.251612883595901 0.235954765183188
-0.100707399389456 -0.241896141699552 0.239184071762957
-0.0914783754154968 -0.23747184687163 0.240321792879376
-0.0861653641273271 -0.232233800548923 0.241930766729412
-0.0830116209346621 -0.221892043256643 0.244874403473482
-0.068047237178923 -0.214194262909783 0.245340598592701
-0.0694809135206062 -0.215632715664088 0.245077980875573
-0.0599415149402565 -0.20764790552509 0.246332128185067
-0.0559368788111238 -0.199445491973841 0.248366779175441
-0.0436254682854871 -0.194708832456587 0.247157814782887
-0.0444926460145183 -0.187904551389285 0.249152270870965
-0.0346739421498257 -0.178525720481096 0.249522684172986
-0.0269859885704194 -0.180969059787904 0.247417305309863
-0.0165652986848859 -0.169930683026673 0.247282290209046
-0.0164109234499916 -0.164747438012468 0.248303021124538
0.00105651765323086 -0.14936654417845 0.246790357991109
0.00366203151442963 -0.145440366017648 0.246560545163386
0.0157627038318893 -0.138837864554 0.243648375247795
0.0215485169998793 -0.126780424372223 0.243402282722469
0.0304762366766362 -0.125828553075886 0.240609831873998
0.0386450035226975 -0.11429375946233 0.239099415667864
0.0492235741071534 -0.109501532968021 0.235503955237116
0.0610425717166027 -0.0880355762760517 0.229081640410583
-0.112897827570259 -0.243260247563144 0.239269435994735
-0.104275842023967 -0.233752560956114 0.242237606184169
-0.10362140619483 -0.226902270917956 0.24453805856235
-0.0933645990588508 -0.22525054304063 0.24463862610588
-0.0903036564664511 -0.220771366102122 0.245998751331127
-0.085547691989259 -0.213092921338379 0.247936994841623
-0.0704479882935359 -0.207428007683332 0.24775367075581
-0.0686285326458395 -0.200740280845488 0.249490481238445
-0.0589486241414536 -0.194589117882579 0.249956435938748
-0.0551806873984523 -0.186564624440372 0.250960640721919
-0.0504817834029079 -0.19048961928983 0.249553676876182
-0.0450498844875736 -0.177438185623953 0.251213388645035
-0.034653497626234 -0.169058100854539 0.251288618229974
-0.0292692906120858 -0.168076713732762 0.250508867331742
-0.0219252761208069 -0.161756861231087 0.250042789457357
-0.0161997973688719 -0.150924181944164 0.25052607602901
-0.00273480549576574 -0.138656542564387 0.249367660889775
0.0101654158713214 -0.131644976343551 0.246315171229608
0.00641563409553012 -0.127948787403358 0.247957158436277
0.020885603364489 -0.116599619730225 0.244919630614959
0.0261462192021591 -0.106380686240305 0.243845434506458
0.0358236818034049 -0.0991520654395636 0.240806301299302
0.0505805597300737 -0.0903608129886412 0.235985136212497
0.058846867746915 -0.0845148515515492 0.23099556621535
-0.122040370726445 -0.233079925867178 0.243285858528635
-0.119650782448776 -0.23196435055428 0.243553125636089
-0.107076665166164 -0.225111096469804 0.245287515528324
-0.101852933053002 -0.215264832572695 0.248343494566205
-0.100906014261234 -0.21402027629922 0.248717174671605
-0.0880236334557562 -0.211296243766991 0.248814531923936
-0.0849367110310201 -0.202254385317925 0.250630767200752
-0.0813080198274172 -0.197381431409523 0.251363962550608
-0.0713350843075966 -0.193669057553584 0.251272897596441
-0.0636925673201801 -0.186371287030609 0.252171933896924
-0.0615184935191148 -0.179469256449791 0.253194891768603
-0.0515816383024135 -0.172547643158912 0.253063509982963
-0.0407196232526368 -0.163931576691981 0.253116075330574
-0.0341723897689742 -0.160894675746608 0.252454560782988
-0.026410871156672 -0.150193365809939 0.252538614264255
-0.0154681461463288 -0.14625521457972 0.251058732326311
-0.0110183699049813 -0.135672788141744 0.251438830316806
-0.00900365597140473 -0.13025787369039 0.251488483913582
0.00681585068745111 -0.121721487849234 0.248634754294107
0.0161316045566878 -0.106777940195299 0.247169611139711
0.026967475574643 -0.102441428598414 0.243744449980924
0.0343907335225802 -0.0906816350301402 0.241709630810396
0.0438541242106254 -0.0867136844883943 0.238539949805746
0.0434679490416582 -0.0778503731159949 0.239090523585063
0.0570301840617749 -0.0708701492660632 0.232993081065549
0.0763914724838286 -0.0529801963229007 0.217362965292941
-0.127277292184188 -0.232777379783008 0.24361686419792
-0.120983901071641 -0.227438659869986 0.245121798767289
-0.112133578796864 -0.216637163930755 0.248337201897685
-0.106132878338392 -0.216326316672763 0.248177318149343
-0.108674700504709 -0.211058019972611 0.24980402330392
-0.093104816374345 -0.199324849485859 0.252004270900214
-0.0887830679686988 -0.198530122823743 0.251787699909528
-0.0858334268333018 -0.195013367421362 0.252287021520134
-0.0817806455763773 -0.182336003636152 0.254680016800534
-0.0753704635634888 -0.186852103622099 0.25311974763369
-0.0706593976305442 -0.176169711811638 0.25501936789396
-0.0601832595486794 -0.172480114195556 0.254309273153729
-0.0525487368797866 -0.158986728755993 0.255735783380135
-0.040881244086178 -0.156207710851588 0.254379930197409
-0.0349931379431281 -0.147076942895517 0.25458884299436
-0.0317004738333027 -0.142318970932998 0.254655777119455
-0.0198125297161371 -0.129563863865375 0.253902734914293
-0.013574100724614 -0.125551248288242 0.252907050425977
-0.00159689543741265 -0.110008758065234 0.251701856086208
-0.00377533657876544 -0.111725546576926 0.252021104408065
0.00851266293835181 -0.0973599692207284 0.249859097948732
0.0143230403793681 -0.0970127756080975 0.248202059491008
0.02976701487695 -0.0874337001899146 0.243469590321094
0.041982079683324 -0.0706611550646528 0.2396363393732
0.0472052363301406 -0.0692829584495047 0.237720350473519
-0.135677328133289 -0.224749731363597 0.245963016626379
-0.131549792041132 -0.220920202466663 0.247422154312471
-0.120926089308662 -0.215323018877935 0.249161947013717
-0.121006984356 -0.208442627337385 0.250793751643169
-0.114951191512759 -0.20301370098017 0.25187516828682
-0.106227187792929 -0.199093282853592 0.252522356242095
-0.103524534626743 -0.193761761000618 0.253684101576564
-0.0942150306529556 -0.185761634741382 0.255055297642501
-0.0887487230767987 -0.183421399624955 0.255071836662887
-0.0838156872436365 -0.175735626608327 0.256299473016546
-0.0711482825194248 -0.162379961847905 0.257768285017775
-0.0649806984548865 -0.161628144412351 0.257024551593407
-0.0636671920798099 -0.160021757521705 0.257136370849242
-0.0506787762554491 -0.152420740184392 0.256694446099062
-0.0458799212812246 -0.142653330466512 0.257257033209083
-0.0355901473484123 -0.12696734133476 0.257569501120297
-0.0330235924818287 -0.125677108679258 0.257127368480596
-0.0223990572973382 -0.115947203627883 0.255692639925418
-0.0160634851596247 -0.112127756289869 0.254658411277995
-0.00464709385302171 -0.0993091963683159 0.252871764642224
0.00114051242886251 -0.0998133811225903 0.251504957319159
0.0116227780996609 -0.0834368746916869 0.249560915272495
0.0307983404817387 -0.0724913629352092 0.243644788567428
0.0339695698099655 -0.0665719636242059 0.242286008890861
0.0464932227540036 -0.0579844175241059 0.237445438857722
0.0676985286529091 -0.0380285981756551 0.222202830862236
0.0651588463904944 -0.0315692873410061 0.2234186743863
-0.14002918357789 -0.216069432713824 0.248668242890751
-0.135668036753394 -0.21901371909431 0.247877389327073
-0.137469286533776 -0.206536830453123 0.251143738949157
-0.122809609543004 -0.207170568334301 0.251146166445004
-0.117974407281598 -0.201445706953888 0.252334198288619
-0.112903677246479 -0.190186434376201 0.254807182863058
-0.108236165329611 -0.190036643291992 0.254698683524072
-0.0988864257871589 -0.183300644006756 0.255984028353908
-0.094162094006326 -0.1763550519369 0.257097133990641
-0.0890127839252157 -0.173868561515494 0.257174062229895
-0.0783984831745769 -0.167354054556756 0.257634861796132
-0.0734308490706763 -0.157631161048971 0.258982751888235
-0.0761855455505196 -0.153611984466687 0.259330463787597
-0.0608502039216832 -0.140575692039946 0.259384794925028
-0.0599357263370828 -0.138599482998182 0.259412163859205
-0.0490827269378561 -0.12433705612896 0.259416299095841
-0.0420444381805637 -0.123500864076773 0.259125447516973
-0.0278273701244424 -0.111365352943991 0.257286609484871
-0.018386885421317 -0.1062766309129 0.255691227992945
-0.0111031305156211 -0.0980247032488354 0.254418624922464
-0.011283952599118 -0.090662734103586 0.25468714091204
-0.00173145587236891 -0.086155301836494 0.252595344962166
0.0182299826309148 -0.0700528686024591 0.247731415772468
0.0276962593954489 -0.0560637440819367 0.243958224293751
0.0380188353393611 -0.0474315065557016 0.239957172736994
0.038247013855839 -0.0428536853460567 0.23966262386225
0.0509404195480091 -0.0347976093793998 0.233939127047822
-0.146315733016785 -0.212487259186615 0.249482485370976
-0.146887147907252 -0.21468704060463 0.248828248107587
-0.137313904032695 -0.20959580943228 0.250434294720444
-0.133990496025032 -0.199889970559346 0.25280260302317
-0.128693987159598 -0.196441754083133 0.253770511529754
-0.122429500260994 -0.187292234680967 0.255775741151266
-0.117799933944264 -0.178866384310815 0.257600729765484
-0.115362570556306 -0.175591239943733 0.258290499969424
-0.106559201846078 -0.172773956127166 0.258677684922553
-0.101059387548039 -0.162498953509654 0.259477661896071
-0.0873629801531557 -0.158208484417227 0.259404444103679
-0.0760747917277308 -0.149279448924134 0.259523597035881
-0.0732170101051473 -0.142361378269193 0.259738449455576
-0.0681125260742081 -0.137924741167927 0.259762085713402
-0.0605406323943175 -0.131076937565789 0.259702128884488
-0.0486349021592336 -0.117035590904155 0.259616214192535
-0.0475390316354514 -0.114742179933542 0.259608488311852
-0.0371339607521287 -0.1107189479388 0.259145778548972
-0.0327589872582122 -0.096600005985685 0.259182036343316
-0.0286116136901246 -0.0921215734702554 0.258688017479327
-0.0222895804388874 -0.0846893255067305 0.257440385682789
-0.0120634008578129 -0.0781301682210532 0.255254363317592
0.00700238390485012 -0.0598886332955317 0.250492841246381
0.0208022524773107 -0.0528762288594957 0.2461185579541
0.0285991871091349 -0.042633779115235 0.2430669726819
0.0398403301902882 -0.0351633000352231 0.23873884859075
0.0462569236117015 -0.0309417768281486 0.236267069082045
-0.159983716776754 -0.210277664079322 0.249578253424409
-0.150793233735637 -0.199802056917462 0.252306635775416
-0.141546192385819 -0.19675395856095 0.253302557455147
-0.137384668760684 -0.191403776086518 0.254679655318299
-0.131338739508491 -0.192244933315062 0.254669102914366
-0.127909861116993 -0.182905771494538 0.256955040270356
-0.12711940112844 -0.173858534567262 0.259056446921056
-0.120385484060978 -0.171231808530888 0.259168420620734
-0.111821180438964 -0.163338550107657 0.259552867250969
-0.103441605960204 -0.158300139679907 0.259752238081368
-0.101364142018923 -0.149229791693684 0.260186949960623
-0.0874804683471569 -0.144139209263606 0.260151991033324
-0.0846101718613681 -0.135652020582836 0.260441024885742
-0.0737866033878271 -0.133704758349974 0.260151933063342
-0.0618100720947873 -0.121295621397062 0.260101117936135
-0.0618691751057488 -0.110407229457213 0.260462348449086
-0.0558860090846282 -0.106994378364846 0.260220391890507
-0.0445959249843447 -0.105335394864112 0.259658966279567
-0.0411009003204882 -0.0935451489694016 0.25967889754862
-0.0258684402727681 -0.0804141192853297 0.258407403757366
-0.0272687631505701 -0.0795380085458168 0.258761286219676
-0.0103548731903204 -0.0706914543073281 0.254877534975532
-0.00641721523498489 -0.0604041549724962 0.253641939858548
-0.000641053256951527 -0.0588430855350452 0.252245317371994
0.0172703525200302 -0.0409042471296223 0.246771145945117
0.0172122823291894 -0.0390317056024821 0.246708263342623
0.0407930247338691 -0.0124976258577149 0.235863821146737
-0.162704483332619 -0.204487906483592 0.25084643236673
-0.154403162438188 -0.200669095798056 0.251993232319257
-0.149937418253463 -0.187505650236476 0.255203947891191
-0.152978210965933 -0.189680406260957 0.254602708809697
-0.147400669123897 -0.182570927803064 0.25643409938865
-0.138837543608008 -0.174614909814172 0.258554915639619
-0.129754397508834 -0.169725191829958 0.259293277185357
-0.11783290180651 -0.165349419948099 0.259483577228864
-0.117216079383071 -0.159589522180979 0.259806254681346
-0.109009422724638 -0.150857723406522 0.260241024764947
-0.101236811407618 -0.141176453878971 0.26061058263196
-0.0961303760930029 -0.132653375136227 0.26094988310891
-0.0938033596808426 -0.132369039959394 0.260911048566949
-0.0819720364125841 -0.124151792001126 0.260871888313949
-0.0759784390905414 -0.120735962713614 0.260764870300853
-0.0700984670538078 -0.115384604301245 0.260684219995869
-0.0609857822620353 -0.108049158423504 0.260467291459075
-0.0543541888393843 -0.0908337297057646 0.260452266189804
-0.0493789986512538 -0.0846941238444574 0.260215492755295
-0.036050093192156 -0.0816416916273582 0.259480945729466
-0.0320321849133702 -0.0695850873926036 0.259276005317676
-0.0269014418587885 -0.0684095189925635 0.258670738648487
-0.0116010112131284 -0.0584460681654034 0.254792080640581
-0.00299210018996255 -0.0441317101406388 0.25234203960418
0.00875204982381787 -0.0330307284196834 0.248889076916002
0.0224606316335019 -0.0203106946959969 0.242989063609081
0.0240850194901652 -0.0148639977009708 0.241707140157694
0.0394173517918332 0.00216881900986109 0.232993081065549
-0.16616382223026 -0.196962532419762 0.252168355100454
-0.167778935562119 -0.188339027603485 0.253899030552598
-0.159615602718486 -0.186184348224014 0.255103517243097
-0.158394822406299 -0.181264957465358 0.25628385606772
-0.152296384567597 -0.177940171881176 0.257364815795365
-0.140725088523341 -0.17180351177518 0.259093112040138
-0.132474036182359 -0.166268020822461 0.259469377147438
-0.125386684910539 -0.151205182617063 0.260343796681212
-0.126864567526105 -0.153072132100502 0.260248767723515
-0.118069789996633 -0.148336944793177 0.260452040722104
-0.115441112109815 -0.140987802932594 0.260849972660743
-0.104159627218362 -0.130609222673615 0.261234224156365
-0.0999817543644046 -0.123839117078056 0.261501070309086
-0.0874241049012768 -0.115671160045023 0.261447718617944
-0.0885824965448511 -0.112117325556066 0.261638670999468
-0.0756573219846102 -0.105245315105424 0.261290735446574
-0.0759723298834364 -0.103114262533006 0.261369066691184
-0.0609563261496682 -0.0936406927725845 0.260781747824913
-0.0523042058366478 -0.0844153930325314 0.260383795477595
-0.0508472751020942 -0.0755493687848076 0.260367334198217
-0.0396657041786436 -0.0661175036971206 0.259683820584699
-0.0258510619373651 -0.0610358137789798 0.258198834682436
-0.0190517304696815 -0.0521517843127079 0.256338221249882
-0.0125831789661527 -0.0372981737938361 0.254020403692665
-0.00562330679455709 -0.0323692556895998 0.252061931896992
0.0117312119711485 -0.0260760492233807 0.247067029570044
0.029507724760426 0.000587843812027044 0.237801372453208
0.0411929998799318 0.0122061546448177 0.229013743493437
0.0394077914427061 0.0186005815470711 0.228434641069924
-0.176901556476753 -0.193251523379238 0.252008068632395
-0.172223960184995 -0.191874940406431 0.252729124781337
-0.172432460012734 -0.177870960226216 0.25575720556888
-0.165594036629731 -0.178750739252287 0.256182077299061
-0.159010722994008 -0.171463910383918 0.258360781736577
-0.147462317778186 -0.159706490509864 0.259730095007597
-0.14056591266072 -0.155417781854075 0.2600253809499
-0.138906227073443 -0.151689976735675 0.260249619973217
-0.131427854446323 -0.137893270440861 0.261089527710648
-0.122345257451469 -0.139612432988348 0.260979773316531
-0.117965839681292 -0.130474623597706 0.261466244839328
-0.111422555148894 -0.128468638317291 0.261506863775147
-0.104532793008176 -0.123839124308687 0.261600886338785
-0.10154914370599 -0.109945054350567 0.262200900988172
-0.0865242395987238 -0.10474917109647 0.261802157147304
-0.0884770105956884 -0.100114614212909 0.262052647229821
-0.0752341678085372 -0.096093309689803 0.261483969122239
-0.0722984510534735 -0.0792144749469841 0.261558825635417
-0.0676968864866409 -0.0765371797058869 0.261317381606214
-0.0487765617143072 -0.0676992425401232 0.260213354999656
-0.0453489612269171 -0.0607716167243322 0.259966765819947
-0.0453946059341904 -0.056811740700679 0.25993973633042
-0.0347997494505471 -0.0427753760122801 0.259140424151259
-0.0156576085738121 -0.0323756637879763 0.254245690405112
-0.0117459642484889 -0.0257872359910837 0.252800870017004
-0.00664801883698201 -0.0204419163146578 0.251209974356284
0.00987619348437957 0.00117381315391203 0.244134208108061
0.0400887070117244 0.0245951809948931 0.226020834969874
0.0376798917664246 0.0251873206447789 0.227146461242125
-0.186187625389258 -0.180649700955956 0.253912998151463
-0.179002516681583 -0.176954688017833 0.255364459252365
-0.176262515766271 -0.179579670879874 0.255040269164577
-0.167569303885121 -0.164863163097172 0.259025608677898
-0.165631533134137 -0.162765774996926 0.259215591143595
-0.160984738082576 -0.16283587955667 0.259313795703199
-0.145549142423181 -0.147049720984316 0.260463596425856
-0.146561259635837 -0.142720248516979 0.26069526654072
-0.138579787072868 -0.135632949579351 0.261164462443624
-0.124912916116252 -0.133238201168393 0.261361181308719
-0.122881992712218 -0.12490801630496 0.261819330259798
-0.115643211661416 -0.123093613466187 0.261868277118015
-0.11579618522448 -0.112318706927815 0.262457930285668
-0.105823651310116 -0.100910288105339 0.262760842496063
-0.0939921288212288 -0.099556382897639 0.262322892484965
-0.092918526283369 -0.0881584040771842 0.26259439203145
-0.0800693881951426 -0.08236395724223 0.261976828990376
-0.0779922335838699 -0.081913853780863 0.261862167016695
-0.0670803268803918 -0.064780605405754 0.261231586890087
-0.0592612428851321 -0.0585387765187815 0.260740592963674
-0.0484906032455233 -0.0561551070385193 0.260110746477617
-0.0462401317754208 -0.0483656203123986 0.259868802969707
-0.0344861701184998 -0.0384142169707223 0.258886455826082
-0.0297990972169752 -0.0294337639515201 0.257057351903599
-0.0218278378773144 -0.0199234821701031 0.254465952861429
-0.0097615046590864 -0.0140870111090179 0.251314669444521
-0.00277760283745281 0.00227600632593064 0.24760662418572
0.0233550687547818 0.0257824812183153 0.235091573406404
0.03325099754231 0.0306977898881487 0.227261971135981
-0.186269606765513 -0.180968890844331 0.253836163177112
-0.184664868040022 -0.170250711050798 0.256236560748725
-0.182253158958888 -0.168292743140433 0.256948121714723
-0.177305931698777 -0.165666551193209 0.257973337642016
-0.166357639091226 -0.152510510638575 0.259742683395502
-0.157493552934608 -0.151475509945887 0.259991899872935
-0.153384988185114 -0.143530115205167 0.260502721423358
-0.154648073958407 -0.142719407082918 0.260517945693616
-0.148680121589869 -0.136423736231488 0.260982195460272
-0.140090783194685 -0.131367470599929 0.261395534127978
-0.128677317280076 -0.121973832518072 0.262014686261247
-0.12151847039566 -0.108472403658664 0.262743042593517
-0.122500354956056 -0.108367350382559 0.262756357288994
-0.106683898951908 -0.0959256111063786 0.263017506250527
-0.100561638268528 -0.0922999995701568 0.262874777599248
-0.104357923143565 -0.0825074158195421 0.263324050946364
-0.0848246354816189 -0.0709194047146769 0.262285786148366
-0.0867333597159997 -0.072538630260307 0.262406357773177
-0.0743942100002587 -0.059884060897723 0.261610549827687
-0.0747092382282617 -0.0544978765345935 0.261510742894997
-0.0614286592398218 -0.0487006377017565 0.260680385462079
-0.053085663240387 -0.0418169083975739 0.260087644110512
-0.0488750393067701 -0.0328339610266082 0.259667670991991
-0.0381278633161518 -0.026169160763376 0.258575246542685
-0.0249737490078198 -0.00243292114328967 0.252918556045255
-0.0228559701313382 -0.00621191324057473 0.253064649044537
-0.00314350671459918 0.0087273110557869 0.246382571045299
0.00194809133174477 0.010325760860418 0.244695588536984
0.014551972995662 0.029192556720481 0.237120646309908
-0.201479216193592 -0.174848519922268 0.252966997381903
-0.19500580437575 -0.16397801594099 0.255926009627369
-0.188834376458382 -0.165217827353704 0.256579120671444
-0.177892575491039 -0.15618423988345 0.259259143988848
-0.176901638668706 -0.150012900000605 0.259574324217605
-0.166049925167174 -0.146567273067978 0.260064127648504
-0.163674249896592 -0.139779251925774 0.260475659217003
-0.15763864803082 -0.124861543500321 0.261390021754699
-0.15540311759783 -0.123088650985267 0.261540836872612
-0.147095519759225 -0.120022210212898 0.261885413115621
-0.136396710478058 -0.108552097942074 0.262719595355502
-0.132830895590046 -0.104589912752189 0.262971411858475
-0.131783055238364 -0.105289878890901 0.262939476741694
-0.122507682461051 -0.0895838507535332 0.264549025671922
-0.106462124826076 -0.0800770399673034 0.263488773344623
-0.102974961721335 -0.0806747902458075 0.263291017309773
-0.0960560081744401 -0.0709399027749661 0.262924134168804
-0.0947884910827791 -0.0629233737589147 0.262758735780984
-0.0831486865459339 -0.0524689197554951 0.261913112439383
-0.0739575686777043 -0.0468957393448774 0.261304206747196
-0.0652549953687947 -0.0461958023280153 0.260828052780082
-0.0619616309370675 -0.0283986545877837 0.260163522696981
-0.0464764965851699 -0.020689082659775 0.25919043853524
-0.0345552733576254 -0.00551553716706171 0.255150632568558
-0.0417376046486699 -0.0116335988912128 0.25736962822192
-0.0245575638156642 0.00547084398692404 0.25170769846065
-0.0111045710183011 0.0149648205910859 0.247230278076258
0.00224984322397279 0.0240708096600715 0.241725379989009
0.0192446440485514 0.0453519910200643 0.228852567969653
-0.208866257714371 -0.164488404979162 0.253843588286408
-0.19997615963675 -0.165991390066534 0.254837284043921
-0.190776052042556 -0.155682381435147 0.258082295199129
-0.190443137439268 -0.151627620912789 0.258887586144927
-0.185241421738526 -0.140936779450971 0.259696035571845
-0.176659298261628 -0.142064116325877 0.259944205196535
-0.171007108759209 -0.13028748953416 0.260676884322514
-0.157795677055534 -0.126450588136414 0.261310346618573
-0.155605105431543 -0.115320036323454 0.261894817529844
-0.153205581526711 -0.11760004066302 0.261874866280752
-0.142764787532563 -0.106251609845142 0.262709552849332
-0.139489683072596 -0.0952648641421524 0.263363134354888
-0.136799392310352 -0.0991744311413697 0.263215127481765
-0.129160684036272 -0.0892631977790926 0.269014434112713
-0.117084860425782 -0.0835273074396991 0.26988539741812
-0.12258206364704 -0.0748588564909908 0.273963357656079
-0.103771519322635 -0.0635356148756947 0.263247816471254
-0.0912635730065071 -0.0526830431817219 0.262343140264194
-0.0867541797057904 -0.049695715087715 0.262033873851194
-0.0819109829901695 -0.0446965238575046 0.261639236054472
-0.0758997403322505 -0.0345092449908091 0.261010476491282
-0.070796935227921 -0.0263822169437948 0.260494904771697
-0.0601753658260798 -0.0141245023826405 0.25958427964428
-0.0418304107513455 -0.000404514746316479 0.255777142343342
-0.0443341376383082 0.00492897188511721 0.255480301611946
-0.0211695528290294 0.0219091004961121 0.248494940796569
-0.0212789716267589 0.0251202001842411 0.247866261968357
-0.0174743738104361 0.0274085339581849 0.246381572599531
0.0267382859758491 0.066521804935475 0.215207944376061
0.013307371258606 0.0624104869548188 0.224733419331937
-0.215682267880522 -0.165817561360492 0.252618100275862
-0.203269389473482 -0.155934374971121 0.256244143312598
-0.199266793460284 -0.155540437328342 0.256891564503672
-0.195145583594433 -0.145554257565718 0.259140527435557
-0.185095999325754 -0.137385635707576 0.259862577415228
-0.181176328671397 -0.134946225402983 0.260110252392797
-0.183053956115955 -0.126342730677679 0.260403461406281
-0.168809013986917 -0.114550338209295 0.261462603805305
-0.162335089961082 -0.10951013472009 0.261924181743945
-0.160267589967506 -0.104896572158606 0.262187794812662
-0.151741519530494 -0.0976169586761882 0.262829453914501
-0.14085754870366 -0.0878503033385684 0.263658387322744
-0.141403067913801 -0.0830164619163416 0.265828834622314
-0.139898977910387 -0.0801000008545782 0.270360011758259
-0.136420056119437 -0.0795697246224498 0.272603055706547
-0.129461249028063 -0.0710463597189469 0.274421106991643
-0.111472121825631 -0.0584898511596676 0.263464607736261
-0.101987923350205 -0.0495120987206889 0.26272013542116
-0.0941708881466616 -0.0416392399723438 0.262090017438158
-0.0891255570550677 -0.0289535668922051 0.261348919650316
-0.0786276639307894 -0.0255133987331275 0.26082064973218
-0.0747002675003819 -0.0142050585515335 0.260175019097873
-0.0699402203170661 -0.0152412976713973 0.260056058927312
-0.0570574662110979 -0.00883545811162799 0.259257977003421
-0.0484105143032372 0.00715395128535138 0.255839333651302
-0.0398706659122013 0.012537963197876 0.253555536203104
-0.0209055581646764 0.0375504444207516 0.244920732388334
-0.0149137028666622 0.0472619560577975 0.240982903380123
0.00680599628928604 0.0703918595068442 0.223617999957824
0.00643934054486915 0.0683935356798249 0.224930929058762
-0.217387897003156 -0.157818101788128 0.253610433535857
-0.21604480613695 -0.151422871353414 0.254778201102071
-0.205532699189558 -0.14008231592243 0.258368016857973
-0.205647631490095 -0.139475453018718 0.258433544839256
-0.196992315666842 -0.135131981747963 0.259463038211979
-0.19521872022413 -0.125397250309256 0.259883325547253
-0.185329670452719 -0.117922361917714 0.260593771497255
-0.175965239024766 -0.105787333864492 0.261442954908109
-0.17192200901305 -0.107711095723266 0.261559678082458
-0.167442223071008 -0.0982377437266997 0.262093894565328
-0.160379576057664 -0.0901259373844331 0.2626618042089
-0.155969972018427 -0.0817070011000476 0.263079943084995
-0.143824776239377 -0.0766614344006041 0.2661449501361
-0.144107459440744 -0.0735889259572258 0.264180025845237
-0.142165011125579 -0.071749742626791 0.269514118374447
-0.132901111871289 -0.0602947696114843 0.269470822981599
-0.116757373853294 -0.0522086921170512 0.263348677047325
-0.106027943489535 -0.0367126307752249 0.262291440437602
-0.107189092294749 -0.0404037650395523 0.262499786079375
-0.0959354257108473 -0.0305154238704904 0.261657531405791
-0.092440442207454 -0.0234603995738205 0.261214804877918
-0.0800516738198492 -0.0130498374478429 0.260309201660928
-0.0674167282415343 0.00164768454774638 0.259200084226608
-0.0564960782868594 0.00817452307087284 0.256807820496123
-0.0525552052841383 0.0237482273950895 0.253333164694399
-0.0436427153782724 0.0284159461297629 0.251183366875876
-0.0307180153614303 0.0395421099230261 0.24639933391309
-0.0189702904578891 0.0593769313688271 0.238429153076308
-0.2226674876667 -0.15173615433142 0.253495951862981
-0.21363687443381 -0.135871705910289 0.257457530327354
-0.212744158137888 -0.136398252560976 0.257548832472958
-0.208901693802024 -0.128802338348078 0.259142367132173
-0.20682853519843 -0.128033655063081 0.259263451469406
-0.200148914176723 -0.119937287992964 0.259849650174947
-0.185600654711237 -0.110272925807986 0.260848337583013
-0.182788724810585 -0.106304837519413 0.26111464005529
-0.180384013869386 -0.0972550799520939 0.261446205304244
-0.168860731226995 -0.0947047946295276 0.26211229929991
-0.167992806458551 -0.0793962303225272 0.262415198720069
-0.165348072120329 -0.0856355068046142 0.262497208758951
-0.149292988046288 -0.0719260204717724 0.263501850547237
-0.141961102421109 -0.0658139510809647 0.265466184108477
-0.137705378419484 -0.0574644192577627 0.263641577300787
-0.133325598498317 -0.0451168392319279 0.263058830709188
-0.121330454638774 -0.0460937323931608 0.263108878069437
-0.115543377427154 -0.0347095143100259 0.262395466939955
-0.111949167179971 -0.0225919325929196 0.261675008667441
-0.0989511602442063 -0.0197848617754377 0.261241292921833
-0.0962429833007244 -0.0129596055873483 0.260820497104127
-0.0869685535967466 -0.00489592100971404 0.260179777438049
-0.0789763376548856 0.00972338580019076 0.259236200460355
-0.0646810429646639 0.0217379508698665 0.255447136561079
-0.0684663596445429 0.0145490046054966 0.257332940872068
-0.0450837598546623 0.0351941602612039 0.250123563069347
-0.0469106609791302 0.0385345516668116 0.249761375670827
-0.0402035753567547 0.0448752318953117 0.246918769565293
-0.226596754666973 -0.139019554766463 0.254584913077403
-0.231597584366354 -0.135813011751474 0.254110289156784
-0.225565948280708 -0.135093174321114 0.255340396026268
-0.219900669811852 -0.122623486349584 0.257938214238338
-0.212684980602518 -0.11865241341071 0.259266563990289
-0.208843103446198 -0.109434134730192 0.259672173358151
-0.191233483452257 -0.105620488799682 0.260688248640327
-0.186879022073882 -0.0994260534508253 0.261054678467735
-0.19058831274324 -0.0906860152347574 0.261046808662885
-0.183964158650649 -0.0916042516694599 0.26138057386588
-0.166706793170479 -0.077684345353818 0.262501079520798
-0.159794175334751 -0.0735708603652409 0.262917451587416
-0.154002601752022 -0.0586356915514852 0.263010978122288
-0.159193393756805 -0.0648838426811917 0.262876093141566
-0.145161945449385 -0.047792918784888 0.262941662398005
-0.140277339226844 -0.0449398257129879 0.262927633411127
-0.136456141304375 -0.0353373686927621 0.262479717701662
-0.122616131553921 -0.0257721531717501 0.261963773051136
-0.110522493009982 -0.0211420404040195 0.261566945903201
-0.107800416809784 -0.010558044270227 0.260946819428396
-0.104779344714279 -0.0029251902573809 0.26047639856716
-0.0946049896752049 0.00323298583559091 0.259927171540608
-0.0830664058261912 0.0115890268383386 0.259231646082188
-0.0774229995186385 0.0218597351305681 0.256979338138526
-0.0706418154304859 0.0287220863655681 0.254875155739737
-0.0572789811448185 0.039113859715359 0.251139565931715
-0.0417210783178267 0.055005376421794 0.244524862715476
-0.0239018246513246 0.0804262679671004 0.231409484140442
-0.0164669522107171 0.0776874627375569 0.229701176721202
-0.237746032040442 -0.130434805621288 0.253351601469772
-0.233401939655817 -0.125804968719581 0.254713999821335
-0.224406442234689 -0.122511954163336 0.25696793667848
-0.221440112256641 -0.118268592222402 0.257995743214658
-0.209584784776852 -0.111910652893154 0.259578584580449
-0.208698670486057 -0.10439233153848 0.259790401291422
-0.208663045266261 -0.104021520836204 0.259800420519274
-0.197140391036719 -0.0931644732676849 0.260648670685986
-0.186379161628026 -0.0882645101303915 0.261304098007034
-0.180691524457061 -0.0840230862739382 0.261659013117537
-0.176803347074249 -0.0692557976244021 0.26191866769611
-0.175574280742854 -0.065375303569849 0.261959477024705
-0.169067529543614 -0.0558856719263326 0.26215590238362
-0.15611113530085 -0.0498989955832403 0.262610282671919
-0.15519720730126 -0.0478238005793671 0.262579435144716
-0.146814052479052 -0.0375646437733397 0.26239374893761
-0.142527462449442 -0.026687916640063 0.261911841053823
-0.130267060800131 -0.0191917463147152 0.261608582491942
-0.131209884595502 -0.0135271231729134 0.261279651342892
-0.116640274095491 -0.00803881778648947 0.260911416257744
-0.102824059430122 0.000220349230077486 0.260266957188475
-0.0975669142716094 0.0149998516752765 0.259369077241889
-0.0906055190640679 0.015211788078034 0.259205173220429
-0.0847332856894908 0.0221699059312159 0.25757066538432
-0.0766508339396028 0.0327181806449199 0.254547258229878
-0.065516441503058 0.0422116271720934 0.251478307417137
-0.0587504189345506 0.0543026942143491 0.247808660769143
-0.0437791788015213 0.0739240617037577 0.239579839404489
-0.0172571979617036 0.0901249056292146 0.222887313366174
-0.2407996804155 -0.1243734851775 0.253233467114987
-0.24124207656213 -0.125643650736407 0.25302274536632
-0.230210677085798 -0.110321300527526 0.256803735078413
-0.230781645916171 -0.110299674986946 0.256681457287146
-0.2174216374482 -0.100555012713111 0.259412681596469
-0.211158873438311 -0.0917994113888766 0.259869608851135
-0.210490869063572 -0.0928893070467811 0.259899413212226
-0.201073358449717 -0.0842720916868386 0.260499003583962
-0.194526760582026 -0.0747537043016706 0.260942203024745
-0.18645043824482 -0.0663893927301263 0.261349052784546
-0.18289728162027 -0.0694343341063768 0.261573730698638
-0.181522488986594 -0.0606012817222257 0.261585771342466
-0.171587852655528 -0.0556487019906213 0.262017253537436
-0.165951727051384 -0.0519777647604234 0.262235365600146
-0.163422623521573 -0.035983672050673 0.261767591994365
-0.154268728539192 -0.0296833063828814 0.261800496547322
-0.144775268920015 -0.0251875512449445 0.26178309610535
-0.135061779728516 -0.0162061531991629 0.261403065177453
-0.129584906064604 -0.00128072031077696 0.260595936291277
-0.121512559321777 -0.00205747720866566 0.260607990239702
-0.121754666392847 0.00777693616810407 0.260050985443191
-0.111501403574734 0.0156821132052207 0.259525090663328
-0.0994357357065006 0.022443003441675 0.258836249307662
-0.0868113947152299 0.0329165250545056 0.255419785872554
-0.0811192211632191 0.0377439685328748 0.253856484918957
-0.0626512544251155 0.0638970147433913 0.245327847324344
-0.0607723374861307 0.0642928608536432 0.24496277180896
-0.0523539947561544 0.0758732005619782 0.240109282534018
-0.249562039973769 -0.122663775724953 0.251481105902653
-0.247381691023088 -0.121108240791351 0.252095674980977
-0.239330385004211 -0.107834734787362 0.25504363615385
-0.234391888903855 -0.101741587813738 0.256613799874557
-0.233009288270288 -0.100181570310941 0.256984566865318
-0.22043384800416 -0.0919920728921969 0.259341140339398
-0.210840904131912 -0.0865717140409871 0.259926784146352
-0.211503471684095 -0.0764809245673457 0.259964622822328
-0.2064886038983 -0.0788085276491963 0.260232167759335
-0.192479929696156 -0.0598139769955553 0.26095725247645
-0.184735390526374 -0.0516843790240847 0.261234141382747
-0.183540486802604 -0.0537375217796698 0.261342442598384
-0.178327329386461 -0.0437657098590344 0.261386138187061
-0.171732598263256 -0.0414171458816861 0.261604055098213
-0.16410583857309 -0.0352356115310234 0.261709740934052
-0.159819609133328 -0.0278548548510726 0.261523688803935
-0.154625071261072 -0.0160465567546641 0.261083046730763
-0.138495451008302 -0.00123329836295996 0.260526583438436
-0.143556471099869 -0.00658920440606994 0.260793058810124
-0.127750144357193 0.00263355093001332 0.260388096568294
-0.127013206609375 0.0142832898794438 0.259720616371853
-0.111929044851461 0.0220022705918255 0.259169162627579
-0.101755811121644 0.0349557956945933 0.256128657661345
-0.0997902276645256 0.0407506002201555 0.254715248233189
-0.0779129452666314 0.0553644396199424 0.249733814090787
-0.0801405575156151 0.0649419742438105 0.247255445664505
-0.059410579879693 0.0839961952816049 0.238391434610918
-0.0507789917035243 0.0942556448324604 0.231997706715644
-0.0306585752216535 0.109761990822078 0.216008257296507
-0.256934285573906 -0.113282264588714 0.250722586142027
-0.24412143795231 -0.108303897194672 0.253958956713697
-0.247511891242854 -0.101876487040818 0.253546351932796
-0.235119010285207 -0.0920940789487045 0.256740580660798
-0.234997380509284 -0.086084625230714 0.256953701725958
-0.227158288905094 -0.0842847422023617 0.258839324619557
-0.224988821123079 -0.078017628062037 0.25918685574146
-0.221567248623811 -0.0783637186751953 0.259378689002785
-0.212639318545189 -0.0634442210812286 0.259838902815181
-0.204113221842207 -0.0616302172225615 0.260309806703778
-0.194028287280581 -0.0530705546627611 0.260772483719134
-0.18817623159754 -0.0438595404252841 0.260880328788584
-0.184938459581031 -0.0403522344651292 0.260966439025101
-0.173264131321069 -0.0307444304329344 0.261162048067928
-0.166395600637246 -0.0170057444608676 0.260800951916642
-0.160063666242884 -0.0171014460781496 0.261019620379288
-0.15836077685507 -0.00969346792452334 0.260664715797983
-0.153771761753026 -0.000658703505522292 0.260286973087496
-0.140882046836218 0.00791127361544437 0.259989112291031
-0.142282261694666 0.0123230769965778 0.259727947831109
-0.130265261521149 0.0237308408819123 0.259169627228758
-0.114785405068559 0.0389725936035991 0.255591314704379
-0.113035499807246 0.0408736647321567 0.255093656621363
-0.110717842386892 0.0425111805332267 0.254640082363844
-0.093535027043334 0.0611641106337121 0.249756758171537
-0.0834281301990986 0.0763299879139743 0.244137924539906
-0.0785807228878421 0.0809420312022016 0.242023548978587
-0.259416857561093 -0.107731245931481 0.250586773787398
-0.258473378421758 -0.104145199549211 0.250917290656229
-0.247294090190038 -0.0932757254886374 0.253861580710404
-0.247243959361076 -0.0846104101552503 0.254139645589015
-0.237447984611406 -0.0845308221429106 0.256429288438205
-0.229582638294078 -0.0796818349934793 0.258414766738537
-0.234060960496141 -0.0692267787310094 0.257393911646555
-0.224066372266675 -0.066110325813406 0.259209533712304
-0.210880124666985 -0.0509776445887046 0.259834273458302
-0.205873625548788 -0.0480374869766029 0.260034882795295
-0.198041436762284 -0.038814913272045 0.260247322661432
-0.196375153029108 -0.0436208005846719 0.26044095854312
-0.197892810008959 -0.0377634795386855 0.260232131723581
-0.182885024239248 -0.0291874857034912 0.260670271097856
-0.175308516986933 -0.0183436729609802 0.260550816440889
-0.16918562110508 -0.00107892674708396 0.259971156931472
-0.168323642198055 0.00135581367891143 0.259861142578967
-0.160859690707874 0.0015984594455012 0.260011998809874
-0.149525808813312 0.013093335147247 0.259629992135399
-0.13623444588177 0.0199679256795222 0.259338791060809
-0.138709542125761 0.0348767447191039 0.256605761765556
-0.129504198006008 0.0410891644084572 0.255438225501157
-0.11308968174191 0.0591324467572495 0.250832201589388
-0.113086911260882 0.0581776820708442 0.251055038029374
-0.100245126781966 0.0755274287789771 0.245481417583527
-0.0827954193907448 0.0835593745291078 0.241735628227261
-0.075609892971027 0.0945340854030902 0.2371268773014
-0.261358781572841 -0.0931536134848409 0.250581463842401
-0.262282518485235 -0.0929781197848329 0.250371181149217
-0.252834982808389 -0.0821219948079036 0.252910725585227
-0.250093813389958 -0.0756506757038937 0.253749662508631
-0.245063341256931 -0.0747150598532444 0.254952953272179
-0.242795682593441 -0.0700456560671817 0.255379671178342
-0.235965640707038 -0.0625016263985099 0.256742478483092
-0.233724866842882 -0.0596326816580284 0.25717747422642
-0.225032244113087 -0.050444757971265 0.25892463193912
-0.215706858773713 -0.0460273056877808 0.259470123075855
-0.210207372626765 -0.0405587498764828 0.259641381631082
-0.204011594599745 -0.0255915217204518 0.259584197793201
-0.191766995724903 -0.023460520110361 0.260066601045385
-0.186163423588744 -0.0165582180668019 0.260080571470164
-0.186538214601033 -0.0109207199842571 0.259821497557218
-0.177415410400596 -0.000653226869324536 0.259672934783622
-0.172128998823877 0.000303549652047478 0.259813872830465
-0.167056924143047 0.0122541221871675 0.259311858113605
-0.157200434143249 0.0282615351903829 0.25745765279214
-0.14539298261766 0.038273200793178 0.255607306030545
-0.132250736404984 0.040724883693707 0.255438854055642
-0.132776265794562 0.0504995466378472 0.25314047951729
-0.123248683177355 0.0588219611788496 0.251216968858457
-0.110938342412441 0.0801859666712471 0.244396723429984
-0.105990564331763 0.0794589898215304 0.244421945767517
-0.0978769418838932 0.085168881367852 0.242109301686763
-0.0702153617304227 0.113881477075222 0.224234518047212
-0.276868327516422 -0.0958569677623003 0.245864026251369
-0.265467460061245 -0.0886963368191561 0.249759166773059
-0.263339563957648 -0.0753539289829203 0.250666122673967
-0.257318807956795 -0.0705437405202961 0.252004074524654
-0.253977909914178 -0.0657278393015961 0.252636084051336
-0.239499489891864 -0.0606618980247826 0.2558608329645
-0.239911554845531 -0.0507407505554713 0.25545965992043
-0.238570437756783 -0.0498800270444652 0.25574633086561
-0.225562532410383 -0.0383121869650131 0.257862833234707
-0.225987944993162 -0.0405683895317979 0.257973607109388
-0.21026290183604 -0.0322110141010421 0.259455353247282
-0.202658377592797 -0.0166492780995388 0.259333734251787
-0.201410661545209 -0.0113641863892703 0.259206071076327
-0.19803867459025 -0.010929688780873 0.259344233469776
-0.186878111427647 -0.00168879516723132 0.259389869300033
-0.18301302872647 0.00647177375019961 0.259153665900582
-0.179809208625784 0.017214732402761 0.257823595873882
-0.171107858238937 0.0213000355199317 0.257718925180307
-0.16427403771544 0.0333364784952279 0.255716006745931
-0.154571787929163 0.0427502342893595 0.254279849356432
-0.148846949343207 0.0448777318621451 0.253959088079631
-0.139632204023819 0.0566489612777702 0.251493951608061
-0.127586367459783 0.0665685385713193 0.249541607072236
-0.114512513591511 0.0792028204508018 0.244881785199957
-0.101777418146289 0.0947931748573592 0.238879429727711
-0.0999070222663583 0.0952900685816843 0.238615979992547
-0.272975131918187 -0.0819343926836747 0.247774695784801
-0.267265239488104 -0.0750625555854353 0.249758499460098
-0.264580196156865 -0.0698845720398615 0.2502883997577
-0.263069184500841 -0.0682763601244713 0.250591761454827
-0.257445200947289 -0.0566239786454127 0.251546689068449
-0.250007730404801 -0.0505907658083023 0.253097761297152
-0.240111033007225 -0.0514177959268355 0.25543389656918
-0.237019448661226 -0.0375260839377753 0.255299286917101
-0.231366606839648 -0.0393725121678206 0.256695588135182
-0.231133711108654 -0.0277060591221722 0.255694865087489
-0.221390702519218 -0.0285508168880693 0.257890799481397
-0.213381227986751 -0.0172037267714381 0.258218127843607
-0.213407496495891 -0.0162414058177872 0.258075259658758
-0.197664198630542 -0.00139231064472357 0.258770973900941
-0.197333950402201 0.0106004967833797 0.256577665209295
-0.184697026488405 0.0219326554079252 0.256272098527068
-0.176463067844957 0.0242646005800016 0.256591301609889
-0.173146277481685 0.037681748634117 0.253971021769184
-0.165971336131532 0.03823878877652 0.254496439774512
-0.163888960762319 0.0417083489045046 0.253929227504531
-0.156537484697898 0.0526847452176974 0.251899884171651
-0.145596550987492 0.0631935155351184 0.249782571519974
-0.136671108097355 0.0716227901504747 0.247595668706955
-0.114479852635471 0.0973962177060064 0.238549473906852
-0.0959045640788596 0.117799095325294 0.225152605079358
-0.103150428023302 0.111506059372514 0.230368490471195
-0.27879567922528 -0.0778583100172795 0.246011582903848
-0.273433769183577 -0.0724818376388285 0.247898987468935
-0.276450369866848 -0.062468113560299 0.246452528390701
-0.266585454423337 -0.0655838508444751 0.24968800705931
-0.259996984042441 -0.0487453499934866 0.250708711879609
-0.255520485499694 -0.0450727447941032 0.251641008533771
-0.248337136910954 -0.0411728329700018 0.253165526571425
-0.249430058964264 -0.0394260317572317 0.252770313766017
-0.240672078981325 -0.0267170796589295 0.253530457310238
-0.236811223326676 -0.0232311729184771 0.254056316536259
-0.225043124044605 -0.00873497675983726 0.254825201455445
-0.220890243192996 -0.0147300586249559 0.256460564743739
-0.211159119495196 -0.00189017682832229 0.256437908587059
-0.207858356831646 0.0126086928971184 0.254693666586602
-0.19354166560401 0.0229065432320769 0.254822157938519
-0.196918398382257 0.0200549174821882 0.254870840591453
-0.181099919008056 0.0326339460827306 0.254352489597383
-0.176635679636404 0.0491779183222045 0.251155310486563
-0.176170180664417 0.0418174420249642 0.252798693811733
-0.157302380557235 0.0619331798031635 0.249717017358019
-0.151509558180437 0.0622026300151716 0.249832168823868
