ply
format ascii 1.0
element vertex 852
property float x
property float y
property float z
end_header
0.189613237082047 -0.378653622270005 0.269043883602616
0.190722386247465 -0.371631876316532 0.270950060643242
0.178304793495937 -0.376446102826198 0.270097213686462
0.162515365955872 -0.381631329510683 0.26900054517568
0.153891576250722 -0.384022357446252 0.268361246410392
0.144380750874687 -0.38055542010316 0.268969410909457
0.128843271649091 -0.387029916782221 0.266212160903247
0.121194923984418 -0.388997463087409 0.265122680903201
0.105241826020506 -0.389115828713492 0.263883793967649
0.0983862328231244 -0.383177895504585 0.264805121233735
0.0809760596921874 -0.392781344675667 0.259664934311016
0.0837647966149827 -0.384574545691199 0.262494569295309
0.067362752099327 -0.387428208451662 0.259101716632445
0.0292920085715739 -0.399224870054742 0.241888480367599
0.0156689635561157 -0.394134294545385 0.23811294926082
-0.21556489576197 -0.427554379740983 0.0325027510952067
-0.220615731189703 -0.434738688767834 0.0325027510952067
0.27168899825723 -0.351384563944791 0.265519831646809
0.267760551235408 -0.359844126642968 0.264102953328908
0.259454049368384 -0.359686229937778 0.265666572929931
0.249288400731613 -0.354732218584568 0.268783078016287
0.247434831642046 -0.357026292478797 0.268543441582437
0.239075421211897 -0.363022656049105 0.268484940563559
0.221342379521792 -0.359576694191704 0.271310092767171
0.209392860928431 -0.358496413991135 0.272445540074064
0.20565583530325 -0.365710441182714 0.271286273265205
0.198166077731243 -0.361555226748033 0.272681171470695
0.189754590880638 -0.365274515399206 0.272329619501151
0.179501691178515 -0.368067357738672 0.271962450965276
0.174006897981256 -0.371666772929016 0.271316555986778
0.161451950225209 -0.36457029883707 0.273094871395445
0.152860900278827 -0.372396031257815 0.271440062595568
0.133726283015715 -0.368690393679123 0.271581726733828
0.131752941503245 -0.375068658064745 0.27004318159687
0.110071552478233 -0.374311612103217 0.268818999986985
0.106108896650785 -0.380737427651995 0.266482707268007
0.0917538830705577 -0.376530488813029 0.265857959953869
0.0799241091016169 -0.377724745644073 0.263893472244203
0.0601031720373383 -0.385506038701806 0.258529312867824
0.0527378940126111 -0.381808994275437 0.258458227463158
0.0307963609518775 -0.387418155580705 0.248239169859904
-0.21628139442677 -0.420694375016704 0.0325027510952064
-0.22524751719553 -0.420064196804842 0.0325027510952067
-0.237762163526299 -0.420455648045862 0.0325027510952067
-0.241885050331359 -0.418985207646813 0.0325027510952067
0.27757400557587 -0.342800888950479 0.266228591175528
0.268993074902864 -0.341528608072633 0.268504698224088
0.259191910313547 -0.35038246314173 0.268065469127972
0.252457355865755 -0.345843375431329 0.27044066130032
0.2446236789058 -0.347808031029152 0.271087608958639
0.232420643885458 -0.346918959293796 0.272761073931197
0.227203471051258 -0.352050464304194 0.27236864150134
0.221982692180619 -0.352794897467076 0.272620797397418
0.206379980985745 -0.354871079763783 0.273404186756106
0.200640961006601 -0.358511947321371 0.27311537527125
0.193429975382521 -0.351280933897693 0.275025511404411
0.180643560036055 -0.359478950226691 0.27377135664382
0.167317496186468 -0.359837221796774 0.273992954116358
0.166186887077488 -0.354905095230188 0.275048536062066
0.150291590196008 -0.363445751703712 0.273251972286951
0.138951832386841 -0.366852007680626 0.272147626682022
0.133915917951944 -0.361358842882204 0.273143194470123
0.114100220168833 -0.368291987086421 0.270853419921498
0.10227868769545 -0.36253159242259 0.270949926014966
0.0956450149247167 -0.366164681475266 0.269308839361965
0.0935312235617639 -0.365685135974197 0.269176936658493
0.0639668825045787 -0.367797335168505 0.264298915937595
0.0527868721482698 -0.373955010408943 0.260642921255561
0.0448408918193401 -0.373140669449011 0.259256965621613
0.0306657838138806 -0.378612878388158 0.252411288284967
-0.229166491584864 -0.406134079914165 0.0325027510952064
-0.245419952235659 -0.406230694949382 0.0325027510952067
-0.246572765029621 -0.41256999416439 0.0325027510952067
0.275760451665161 -0.331625766275568 0.269084265402269
0.268157969482135 -0.337084799273151 0.269780718039911
0.254790674461347 -0.337752331651136 0.271552435972774
0.253078699742653 -0.341696166813577 0.271083024877978
0.243722721098076 -0.338444446180359 0.272828619708658
0.238214525699735 -0.340563365093301 0.273155345981315
0.229442201043416 -0.34156212359868 0.274035457693944
0.225151427382711 -0.347199416514381 0.273499197443609
0.20542543955558 -0.346286152863162 0.275199100633235
0.204388956321062 -0.343164092516625 0.275904857995183
0.190645994741244 -0.349542464024033 0.275552497863773
0.186768196478233 -0.346377988956568 0.276433551821931
0.167473268860992 -0.348815279496541 0.276300320885805
0.155987162788058 -0.347069487783972 0.276804668987901
0.149007380569465 -0.35370349116196 0.275275141634035
0.143169505244372 -0.353257458836351 0.275173166307601
0.131813053740783 -0.354888770309832 0.274444738848496
0.120783217194239 -0.357208595162334 0.273509701443955
0.11704090346802 -0.354464205635232 0.273823038274172
0.0972569290146197 -0.358675088830256 0.271267417060843
0.0803016943836403 -0.354926490913972 0.270520470115447
0.0640165953833325 -0.361881303201949 0.265779412453541
0.0603215168984509 -0.358926877093156 0.265769706053164
0.0496380600438403 -0.363342339453328 0.262598367302386
0.0277503815951567 -0.363407793053312 0.257739177395533
0.0191655674023911 -0.364394739610225 0.25406333059313
-0.242199947603423 -0.402885924770019 0.0325027510952067
-0.244340341809341 -0.39917870891429 0.0325027510952067
0.278413820996001 -0.32645418183225 0.269457263933127
0.272623657902499 -0.325465323636383 0.270859211181118
0.263239583548074 -0.332435934895333 0.271410375556524
0.252404038443255 -0.330401942478246 0.273131016830686
0.241835107501218 -0.333991617124865 0.273840659208324
0.239827273116227 -0.335418397816889 0.273846026363373
0.227182959513746 -0.328163391825069 0.276627630907958
0.222545783901996 -0.333275945565721 0.276269307515243
0.209872449801121 -0.335202364082318 0.277079770564699
0.202900319487257 -0.339496461319926 0.276734935369341
0.190497598239496 -0.336556057031249 0.278131967978524
0.181723704717216 -0.338669308154238 0.278192052002821
0.174807873801254 -0.342261516119429 0.277574445330051
0.160857579613996 -0.343953096528221 0.277393559998186
0.156711963530263 -0.340618126416553 0.278138600428762
0.147542309213142 -0.338006797884783 0.278555204717928
0.133277305807467 -0.348351996126919 0.275843457862296
0.127026839670906 -0.345314549438835 0.276201167699826
0.117829063669029 -0.345470044652184 0.275656285581179
0.099878446803995 -0.343957491603105 0.274383683808173
0.0887107737431355 -0.352706886593563 0.271691033957574
0.071387634119249 -0.354996584927092 0.268898576262281
0.0543627679475015 -0.348180618106502 0.267205163507599
0.0531115227214662 -0.349054236260662 0.266747260576551
0.042943449022371 -0.352484163770969 0.26381422091207
0.00808219999281743 -0.358805297832988 0.251715405559878
0.00967127290917727 -0.356439169621814 0.253600122413587
-0.249606861463232 -0.386984891499194 0.0325027510952067
-0.25949450242084 -0.393454483384802 0.0325027510952071
0.281817572907504 -0.315276362485379 0.270702880953713
0.269068557652993 -0.314955345331762 0.272873515413293
0.266799804282576 -0.31861064037362 0.272757811080596
0.250395651428905 -0.323736495865098 0.274542834238382
0.253363105841979 -0.317916483213884 0.274994774621977
0.238130328115147 -0.325664306437262 0.2757553363358
0.231855010567117 -0.320700403015208 0.277391220018418
0.225786814136239 -0.325053316474792 0.277329308517204
0.21442769002861 -0.328248717735657 0.278075826022408
0.200982833307311 -0.330605269031661 0.27862033191188
0.200466703668044 -0.326881178198257 0.279391168954855
0.188778396625646 -0.324884702347037 0.279981213588085
0.175075338652309 -0.331478668519456 0.279803361238411
0.167190773445879 -0.333828901455691 0.27942314675137
0.152069506483147 -0.327538336749369 0.280060495543449
0.145406012242861 -0.338289478981663 0.278408146893619
0.140854233027109 -0.33651774196368 0.278578734988499
0.124891422542516 -0.335576077745504 0.278100334132509
0.111440119678858 -0.335516234270867 0.277050332695995
0.0966588897067801 -0.343233903344475 0.27423831167841
0.085201785293741 -0.344464665225559 0.272938298905874
0.0715458235011911 -0.344798103948164 0.271098160237143
0.0551128893022237 -0.342505066039649 0.268729422434848
0.0438731006589498 -0.347691494976777 0.265181572985959
0.0331336524406781 -0.347364003721134 0.26283042685671
0.0195839973825205 -0.34249058956111 0.26094078275438
0.0111847152148612 -0.344577363508222 0.258475549201755
-0.0127804583323492 -0.347964981838411 0.245442826933055
-0.271611677630601 -0.384101848731875 0.0325027510952067
-0.267786174660555 -0.380750167121904 0.0325027510952067
0.281018661290969 -0.306958997939632 0.271960826172001
0.270882260783011 -0.309032226434963 0.273371793612953
0.262769332791405 -0.313150502606438 0.274168612198927
0.256928505644994 -0.310482946994857 0.275468641627626
0.25344320805738 -0.30858513950014 0.276274712549002
0.238874754106579 -0.315020839720859 0.277511181019498
0.231646133823245 -0.310850231941606 0.279130324873689
0.224826146446794 -0.31426602378679 0.279317820047226
0.215826423836469 -0.319363993689694 0.279462428033938
0.203321974649772 -0.31322691519125 0.280308531795993
0.204511508808927 -0.313902360355516 0.280257499147348
0.187649249724842 -0.317323398778329 0.280360186461654
0.178289936886924 -0.31588130829889 0.28057675682988
0.170875162826134 -0.324042633384226 0.280184311379929
0.157978069428303 -0.322734558801058 0.280286866924955
0.149547464300324 -0.320297475490453 0.280390888751289
0.135620816503136 -0.319610987972999 0.28028380208977
0.134102989289452 -0.32902214594073 0.279805884611538
0.122254527420092 -0.323630724192939 0.279916671402832
0.102306947219984 -0.331734583744986 0.276909523534107
0.0972723663922706 -0.331590891544499 0.276465853461773
0.0751755251991895 -0.333205018218123 0.273523311051057
0.0613826690850231 -0.330391888736909 0.272127674530296
0.0491994533705743 -0.33212106936889 0.270085908935729
0.0483189647447582 -0.334158138717075 0.269418657552855
0.0252384649335913 -0.333192253865526 0.264115006704273
0.0045948633260432 -0.337084400734698 0.258010639269849
-0.0283066685139038 -0.341938154929582 0.23870726051217
-0.269862065047198 -0.365206421688386 0.0325027510952067
-0.263678322076441 -0.367632783372754 0.0325027510952064
0.278215063574301 -0.300063273749111 0.27336103286429
0.277540304614029 -0.30144349670242 0.273286990617565
0.266808756637497 -0.303487728359945 0.274801181803752
0.260727814381826 -0.302221229159221 0.275987064374769
0.250268425935596 -0.297518674714651 0.278302276589411
0.240337225570381 -0.299984083170905 0.279508685175777
0.227356165505147 -0.305037369391082 0.280000980205638
0.226979609298545 -0.301913175780094 0.280142776094354
0.2181557081057 -0.307774006268296 0.280141011894768
0.207255862432535 -0.308951232363164 0.280393725735682
0.198666590327624 -0.309016733492975 0.280583087558272
0.185020354276763 -0.309686794921562 0.280766422142504
0.172393667947107 -0.311072686270851 0.280822910108978
0.163704839247637 -0.307927303130825 0.28100425555181
0.150553042482858 -0.308558191499273 0.2809780563024
0.152826852756205 -0.31137480586221 0.280862609643072
0.130757966539096 -0.316591139696124 0.280383057177241
0.134817020912969 -0.312666414557009 0.280617007577458
0.114877468941729 -0.319325532781801 0.279944019792481
0.110316920590351 -0.31842462700739 0.279881592183852
0.0983539728284852 -0.321687360701443 0.278412906354578
0.0750932071888555 -0.31882173190104 0.275889483131805
0.0700735773397657 -0.319458476144428 0.275095004527408
0.04413681168585 -0.327989030388801 0.269844573441316
0.0411122098500012 -0.326064217925027 0.269433421068453
0.0266174716494039 -0.322413958021483 0.266440587299426
0.00169910861662105 -0.329886402274398 0.258453633262064
-0.00570630384939735 -0.335409153997878 0.253764077096854
-0.261567858419936 -0.362652921503729 0.0325027510952067
-0.26946533805682 -0.356661264797624 0.0325027510952067
0.276607375543305 -0.29374580215069 0.274400031360441
0.277763452132685 -0.289802593033667 0.274553013940717
0.266758568446424 -0.294501628989937 0.276024623177261
0.259377261430808 -0.293176201825088 0.277435445190327
0.249650643427088 -0.29337054843451 0.278973093628905
0.242109887055174 -0.290879458940998 0.279967076524632
0.238644259231294 -0.297856350662422 0.279864324525442
0.223851910444435 -0.300509737781405 0.280288501866347
0.213312468601818 -0.299860391338729 0.280608020636164
0.210062849900287 -0.29334382873395 0.280972106037845
0.195426136721564 -0.297111235585507 0.281202871290777
0.189718235270347 -0.302635967535916 0.281029061712553
0.175995327043592 -0.302097888647934 0.281271311280175
0.166723194476502 -0.306295370041133 0.281076341622122
0.163950321666004 -0.299982664860428 0.281397425642905
0.143633870436889 -0.307904693584002 0.280940208781996
0.134244795881736 -0.308945209909752 0.280794122543827
0.119726616130371 -0.310109983718806 0.280468827234461
0.119656836886407 -0.304540094757318 0.280718237198016
0.0985316191381471 -0.304984553666674 0.280155142210055
0.0909694351688153 -0.310977935813159 0.279310927730432
0.0810711890399999 -0.315287412415279 0.277268312544125
0.0746408655641445 -0.307297119839292 0.277623057283154
0.062548653208142 -0.314294929628148 0.274857566989372
0.0513653493381221 -0.317648920668068 0.272586699770682
0.0364051486752419 -0.31649089445481 0.270000179975396
0.019035806099076 -0.314567954816568 0.265964156280853
0.00876025967529056 -0.324053538180955 0.261456722411408
-0.0311550670426862 -0.326359058223405 0.242494686993347
-0.0338611245965863 -0.319659429160581 0.243273369059487
-0.285643515336704 -0.352723932297075 0.0325027510952067
0.279165223505659 -0.283673320710626 0.274864475430098
0.278919000871965 -0.284885574678526 0.27479709200772
0.272838662227928 -0.283569244553506 0.276053449176092
0.263922159723639 -0.280384289642318 0.278013069818722
0.253308466443884 -0.28624885463004 0.279384739953403
0.247507165575985 -0.287172850829791 0.279887731276584
0.233339946099736 -0.287961154073533 0.280394957380371
0.228281893411806 -0.283985677113564 0.280718383932775
0.223563879393198 -0.285536448521742 0.280844228265843
0.199950443874578 -0.284266518467641 0.281634135140941
0.192205552401967 -0.285587801075012 0.281793317715477
0.186054552904801 -0.287433984205432 0.281812975935804
0.17099328822433 -0.292159598302878 0.281764697047076
0.169234268325573 -0.294470850509688 0.281655249521684
0.161091855958018 -0.296207483149206 0.281592951845313
0.152607345830098 -0.298213444678712 0.281507285646611
0.137277963977981 -0.294175927280376 0.281550721217372
0.128734761364689 -0.2998269509901 0.281135689329239
0.122254296651848 -0.293774533784106 0.281262024144953
0.110317837815651 -0.303040266581192 0.280574851773584
0.0911873183758283 -0.301313557291635 0.280049134414994
0.0869223901540595 -0.29893290464658 0.279996813177168
0.0727222339493661 -0.303412014388395 0.277962852503004
0.0560913816126245 -0.305541411051148 0.27493568809385
0.042740124086592 -0.300731367261243 0.273222213954589
0.0279167228071096 -0.311810508677893 0.268713942430309
0.0144985974571961 -0.306479184490782 0.266138248422281
0.000839740278450057 -0.313386245076741 0.261093253069748
-0.0321779345235277 -0.312290802646112 0.246803995996118
-0.0342132801167255 -0.309447017592818 0.246625617343291
-0.279404874884916 -0.33549563562396 0.0325027510952067
0.283516695582444 -0.273104952278803 0.27495158657745
0.273678182136193 -0.269292451942736 0.277214866146817
0.271245457289851 -0.269482983506441 0.277666700211761
0.256799620541305 -0.274417474616255 0.279823478303684
0.25177821942475 -0.278750227651055 0.279951913196055
0.249232818952497 -0.27839395312285 0.280074575705027
0.233818352440511 -0.279864408164531 0.280647661262899
0.221602388833119 -0.276690374766895 0.281213881107624
0.215799080271013 -0.279396919872543 0.28134195680957
0.212561725764573 -0.283192538117056 0.281329628980788
0.196562544505046 -0.276008298013855 0.282075281826805
0.180355019568451 -0.280913367401949 0.282214363100755
0.175596950797225 -0.278310800062402 0.282413753842716
0.162319516685302 -0.287603133070167 0.282015958600044
0.158070185610669 -0.285719882498123 0.282121750586011
0.148177969805155 -0.285123844228692 0.282105863718962
0.146024858130413 -0.29014480089974 0.281837305477915
0.130532150040327 -0.291984600264595 0.281529678957114
0.118902043782579 -0.291293782638776 0.281298081982635
0.10828559271722 -0.29266112147599 0.280934436425741
0.0911196622354431 -0.288131834861291 0.28053627115884
0.0848306902845506 -0.294500242905604 0.280092368436291
0.0679792543340316 -0.291919435129091 0.278685032455017
0.0515561400694688 -0.299053205970142 0.27496612207073
0.0473541098883751 -0.295149978376107 0.274723160879817
0.0247314576772717 -0.301818941537138 0.269741939558795
0.02707685936679 -0.299155809159412 0.270698824359424
0.0120475945717543 -0.29738313014472 0.266987346873
-0.0104551343424076 -0.2998839123593 0.260147328500003
-0.0204416312348861 -0.304877850327041 0.25611979688546
-0.277394229063545 -0.331416910007032 0.0325027510952064
-0.292426576773808 -0.327854072666459 0.0325027510952067
0.283033857271166 -0.266428505292694 0.275629983575695
0.276083642147332 -0.267164078754043 0.276929068710422
0.269507820440347 -0.266960658877572 0.278226286820161
0.264866023180072 -0.264993674293349 0.279275305084877
0.253748702538328 -0.266572477801567 0.280137766810786
0.24791111642446 -0.263956157232979 0.28045964987726
0.228142982009327 -0.265610006384703 0.281312591551274
0.231355229705602 -0.266073258000793 0.28115748620356
0.216727186542987 -0.27172848745861 0.281563402464013
0.20700379116744 -0.270396641761075 0.28197414878977
0.201430261193064 -0.271887756469739 0.282113565708539
0.1913453605983 -0.267760322358791 0.282566716637873
0.174369085990316 -0.268499395836244 0.282901757323743
0.169525865457085 -0.27781426849833 0.282513453214757
0.154920931126012 -0.274049748260523 0.282709551203483
0.144284671872172 -0.279498753982234 0.282342973627941
0.13892380908379 -0.274656578200744 0.28250007071275
0.129968726753941 -0.273241777682841 0.28236152657884
0.11909825104396 -0.281221676907438 0.281739495650851
0.107381449053975 -0.283330828584416 0.281250993418902
0.0959308156058308 -0.284044256506086 0.280846744442574
0.0914239407790693 -0.277798687259196 0.280892239878455
0.0804253819170541 -0.278155971379578 0.28042631251683
0.0628408700140287 -0.280987594020853 0.279044220810016
0.0507588635001727 -0.28016049164594 0.277035329613245
0.0322999001423135 -0.291535062786545 0.272516506429224
0.0217043042571456 -0.286147489901963 0.270860894015363
0.0192019817501102 -0.291558608623198 0.269724265398096
-0.0115013373278463 -0.290377183103894 0.260901890567165
-0.0185129277164973 -0.287784921044491 0.258930151405824
-0.290167493258761 -0.319820671128259 0.0325027510952064
-0.289366162401291 -0.315848330240665 0.0325027510952067
0.284234741263619 -0.248826486324088 0.276344067979947
0.279910484683769 -0.258018652184443 0.276840980585691
0.264489799102654 -0.257675487260138 0.279849157010384
0.265753281126346 -0.252140673817368 0.279842996654347
0.248476649328278 -0.257417584189609 0.280581617839296
0.243739539196418 -0.257637611133739 0.280789986487242
0.237870092336589 -0.256470693549438 0.281080622271858
0.226865473533642 -0.258704785532831 0.281525826043237
0.216662862596649 -0.256577344062635 0.282033259095764
0.207018427035676 -0.26427298497782 0.282178347713478
0.200647630604164 -0.265598825796638 0.28237396199361
0.193108979684606 -0.260666764896573 0.282816064195409
0.178041628595397 -0.260484580492062 0.283226620347491
0.171941243769417 -0.262069819700812 0.283247168416041
0.15817103110991 -0.263773467796471 0.283209538445925
0.157846435713176 -0.261289344134144 0.283333647866833
0.136791892629441 -0.270390773467565 0.282644132947025
0.132064312897938 -0.265633004229802 0.282751727249393
0.116138780265927 -0.266705606104627 0.282157110906675
0.110412004282152 -0.266862306055064 0.281962363756063
0.0994233556606161 -0.266720614068475 0.281526682455347
0.0890145118669386 -0.268667322516336 0.281041788571849
0.0736559567749054 -0.272707290784153 0.280294414711724
0.0686069629139218 -0.27393566879246 0.280051446599918
0.0568901324283239 -0.273112128661776 0.278911387568792
0.038040341251857 -0.275406530062617 0.274962617883705
0.0283168439614618 -0.274393234973923 0.273090699528862
0.00950332587463753 -0.279360467692034 0.26826035009803
0.000621571191058402 -0.27499154197178 0.266159363526177
-0.02981532258482 -0.280229998484964 0.255093095401493
-0.29580073187017 -0.302978838365831 0.0325027510952067
-0.290036297563591 -0.30504810527165 0.0325027510952067
0.284522065967626 -0.242355291319285 0.27655512300176
0.270536785372395 -0.243932920624746 0.279347221408617
0.266050067518485 -0.24344499919165 0.279916671714209
0.255500698478574 -0.25018421253205 0.280369066637856
0.253851384725988 -0.244136649376365 0.280511926989324
0.244700966688966 -0.248880895660959 0.280915516350431
0.235890840162228 -0.250590321531695 0.281302349967465
0.229597197448678 -0.248850863984441 0.281624998901032
0.225380021060383 -0.25238359341362 0.281735255974861
0.210913595055483 -0.251715781072162 0.282401792045893
0.196644414070429 -0.250708225364827 0.283022617273477
0.189518610937263 -0.250587836404103 0.283295023609229
0.176427841450562 -0.251962433775061 0.283644536642244
0.170063076099793 -0.25530211904741 0.283600055615679
0.156091722463845 -0.256850457355175 0.283558853313809
0.155508965380358 -0.254402713941537 0.283681913727372
0.139533712179361 -0.262212268873992 0.283074604951746
0.130844276018382 -0.258698391398581 0.282939520046831
0.1170305183471 -0.259913057979623 0.282438701833956
0.115265247136931 -0.257593385237259 0.282447698129273
0.093644738154077 -0.257781129972865 0.281531251426616
0.0960780510918247 -0.264138187505936 0.281458490747591
0.0759389762641212 -0.26391613335643 0.280629288126247
0.0656903566892782 -0.264610939320362 0.280150268486318
0.0572031907779371 -0.260578859400445 0.279809871212335
0.0366205546080364 -0.262703846158268 0.275629950199114
0.0257020680460138 -0.263249269676811 0.273423244471444
-0.00295466008337941 -0.271865178120455 0.265384087952053
-0.0109390522935766 -0.266726510179348 0.263348540405023
-0.0177724834440281 -0.270922825262162 0.260782054773841
-0.287403833224586 -0.291985643963215 0.0325027510952067
-0.292144024021553 -0.295771744146023 0.0325027510952067
0.28273004052772 -0.23458089267668 0.277197018496657
0.278071685351096 -0.235213878004752 0.278163778914177
0.270282396118221 -0.235260101264211 0.279763585522866
0.255534214154434 -0.236324023463348 0.280508199724301
0.253315355710061 -0.236333449043372 0.280617654824059
0.245590217767692 -0.240833748831516 0.280953352319672
0.232894434168128 -0.235519868834865 0.281634153221981
0.228775441775433 -0.239040067979683 0.281801761466824
0.22336530052229 -0.239358327444605 0.282065641495329
0.203907799798632 -0.245699136771634 0.282852956717593
0.200518513298492 -0.239266382926026 0.283150639052939
0.190165560641037 -0.24444517539438 0.283476042952731
0.184761096440606 -0.246101862894669 0.283624199838578
0.164508821252816 -0.244327984339702 0.284211866160053
0.160569051411478 -0.248952981040709 0.283943918497934
0.153977666338969 -0.243376700697222 0.284216430105962
0.143439827987991 -0.244783364050034 0.283924611912439
0.132639749269645 -0.252961830468331 0.283211722417707
0.121415987441628 -0.244424925024905 0.283047973402909
0.115407822289522 -0.247804746017403 0.282706443580674
0.0981560732915455 -0.250959204609139 0.281904742576523
0.0936174829814669 -0.252600744382624 0.281670199032178
0.0813257603469739 -0.252485574662319 0.281086662001478
0.0670013057137664 -0.257278663119482 0.280328682068574
0.0525725956777267 -0.254945421936019 0.279296436195857
0.0336997695706001 -0.256540341257773 0.275457101230705
0.0189973067955668 -0.256858208008227 0.272526923694931
0.0198378908787744 -0.261291985801925 0.272397812563284
-0.00861977920901609 -0.264698344804303 0.264277537657635
-0.0149652362605089 -0.26314787132267 0.262416816757866
-0.0636902775100248 -0.260802301677348 0.2370609712226
-0.293378691864008 -0.282525505538676 0.0325027510952067
-0.303856944685761 -0.288583081020707 0.0325027510952067
0.283894447521788 -0.221660372400999 0.277051290294357
0.284040142304353 -0.222545522896456 0.277031827848171
0.268985190178294 -0.226943623475991 0.27990105254062
0.259616728079811 -0.228048793626545 0.280375745943045
0.24660849676532 -0.231020135419865 0.281002761106395
0.242355553951949 -0.22614576260407 0.281238669781115
0.231482744036934 -0.23222667103613 0.281737303417221
0.226287296006553 -0.233288303077789 0.281983032513676
0.216374396027689 -0.234767435297935 0.282457433697951
0.204710243749483 -0.230032957097129 0.283081414866952
0.200319408181773 -0.229737024235087 0.283301207899303
0.193482402285584 -0.233507819654789 0.283597349576873
0.184808932962038 -0.233801885822983 0.283981317860794
0.176571115028141 -0.232062032166146 0.284391529278957
0.158724949167501 -0.235077816876891 0.28466678453131
0.149416379722293 -0.239679781059586 0.28431319869875
0.140533848388771 -0.235196922171762 0.284131671976439
0.131121303161391 -0.238654205120497 0.283608165025221
0.12631191815525 -0.237011876725083 0.28345356587117
0.116513306632054 -0.243340497395634 0.282874262276896
0.0994931175646612 -0.240370013634608 0.282143477626044
0.0824910998096053 -0.246385440727059 0.281238651080641
0.0733461904432274 -0.245057707225346 0.280824152763743
0.0740755409656149 -0.24337707491552 0.280885470591616
0.0616331839221193 -0.247389193774432 0.280229473799109
0.0444727261677126 -0.24454106112527 0.278339590549473
0.0182199371954453 -0.249069971482518 0.272630777393353
0.00572067895997925 -0.252969895118251 0.269623511921652
-0.000206769153622326 -0.254876074737663 0.267720804277121
-0.0122728918608416 -0.247975617046247 0.264198229195844
-0.0337529726598976 -0.249342215805466 0.257395913048106
-0.297771346433258 -0.278007336230744 0.0325027510952064
-0.305783139106724 -0.278328649659189 0.0325027510952067
0.285091925098259 -0.220314891268119 0.276785526811412
0.283131009125123 -0.221260037645805 0.277205283879561
0.2700807083738 -0.21757409325474 0.279818127685426
0.263205780491944 -0.216993986006846 0.280162348034033
0.250736760871025 -0.215484892359346 0.280785302846417
0.247336857260591 -0.218951239430817 0.280966668155177
0.235936056646318 -0.218132092796802 0.281537917997113
0.224748482796766 -0.219440367069864 0.282104750421782
0.222178694612014 -0.224139961087056 0.282248003920849
0.204421668910115 -0.225041017318214 0.283141612262423
0.205399444710902 -0.221605439252209 0.28308480405554
0.193212464141838 -0.224625603604112 0.283699989334043
0.184387943600855 -0.222305987832135 0.284144166449984
0.176650087908229 -0.226332607573228 0.284504405211735
0.168665104443436 -0.222847856220137 0.289583990604514
0.1511342017025 -0.232172026784418 0.284654554934049
0.139244691240732 -0.224066592213446 0.284288769589204
0.134801735362518 -0.22611839981021 0.284050386178632
0.117281255970044 -0.230041332118492 0.2831539688251
0.107370493609849 -0.231695612325478 0.282655828858797
0.0979807529300877 -0.227852283548828 0.282201165330471
0.0823550420301638 -0.233881521340932 0.281397002009608
0.0731543807599788 -0.232877947820007 0.280937008814212
0.0671670106936633 -0.238444593089837 0.280619212491765
0.060818013606626 -0.232165369746363 0.280318365739124
0.0398000191580715 -0.238847945587572 0.277468881306756
0.0320707801660119 -0.236622090334944 0.275867741038
0.00395088663715371 -0.240105747133228 0.269492327310436
5.66334943208318e-005 -0.238576259303492 0.268332752937871
-0.0209569468413228 -0.238657912236006 0.261741911879378
-0.0331567563848896 -0.246550057875366 0.257622938457703
-0.0613918160832862 -0.248149535553087 0.239542338570462
-0.308742862521349 -0.264277318683697 0.0325027510952067
0.282403425164235 -0.209029992360949 0.277206629414054
0.277483460597551 -0.205885664694904 0.278192111650639
0.274051523048994 -0.207951334826655 0.278931808483439
0.26401737335575 -0.214284252238492 0.280113469544732
0.257863103890762 -0.214105595098688 0.280422617963256
0.244906638961534 -0.208379603550222 0.281057589251986
0.235109674052853 -0.210661728954962 0.281557336608762
0.218968900188492 -0.213802297717057 0.282378846927627
0.222764210776216 -0.211284973400074 0.282180400745218
0.210829947518917 -0.214790813801116 0.282791326175007
0.200732862619668 -0.211845531131449 0.283251563177482
0.193942352233272 -0.215658927984614 0.283636036014042
0.185191825554685 -0.216352657978162 0.284064829191906
0.172250104933658 -0.216630225181975 0.284682052264935
0.162042483727402 -0.213334124124761 0.289583990604514
0.155802083276481 -0.219476569400535 0.289583990604514
0.140986838452362 -0.222139815472502 0.284382149902316
0.124351859498289 -0.216724134455055 0.283522391167018
0.113535162576874 -0.223000165634198 0.282998248338432
0.10322020722337 -0.223073828338019 0.282478988520321
0.106409531164388 -0.223391002739044 0.28263853199857
0.0841225415377727 -0.223987822859872 0.281515295683145
0.0790012758372221 -0.22291018628004 0.281260794532675
0.065280222046096 -0.224656183350054 0.280565180475789
0.0551353527981736 -0.229130687445995 0.280041422087671
0.0395116842851425 -0.222561707613183 0.277628689830899
0.0227968379493445 -0.231772282526732 0.273995359617464
0.00983549795669111 -0.226095242872076 0.271353870523281
-0.00168766677834832 -0.229340310835998 0.268091477406608
-0.0277192642697565 -0.23110107695425 0.259586335258197
-0.0438097694036726 -0.232599921571966 0.251457354429972
-0.0630065442435664 -0.233606610206662 0.238668924873149
0.285489633993656 -0.199179738631652 0.276337160974333
0.2765369179976 -0.19659378195186 0.278109215305726
0.271383956460572 -0.202623987077284 0.279421670433004
0.260350183224152 -0.20139810577499 0.280239841197312
0.252587820016569 -0.201897975821638 0.280618387951361
0.250072925751125 -0.203518746873421 0.280764071446144
0.232940179533704 -0.199368943333958 0.281516618776389
0.227502788906737 -0.204924295046087 0.281863991721358
0.214268028895246 -0.208368752218101 0.282550350028818
0.209705000914275 -0.199982032401195 0.282635779082834
0.191264029409553 -0.202283743860295 0.283487899559145
0.188787131757209 -0.205350230212096 0.283676344608897
0.174108894386361 -0.205280164032725 0.284261950138862
0.167059457360281 -0.206200337201874 0.284487846163169
0.161267591489557 -0.207386347137994 0.284616063882048
0.150081583804229 -0.213103890324186 0.284668130470774
0.138726532360243 -0.209391431289289 0.284092820102728
0.132558124121383 -0.208841633756387 0.283799606924012
0.129710641050098 -0.215211978968685 0.283771458147927
0.102061384025347 -0.210086127081329 0.28235547560539
0.0996911180952134 -0.214589237610265 0.282284130586298
0.0849628842436829 -0.214677659053998 0.281558403846137
0.072776771537734 -0.218765863288472 0.280959877974968
0.0681461973931464 -0.21729667788533 0.280731229792008
0.0586961823959816 -0.215284865618895 0.280261680711602
0.0319160178421385 -0.217480438232431 0.276110042135
0.0169399806409121 -0.214198129623335 0.272912204350633
0.0189359283165927 -0.220717863876307 0.273368552137726
0.00237201006947635 -0.216130367356607 0.2696432071711
-0.0217104057992723 -0.218776529542993 0.2617052855874
-0.0453381054333558 -0.218700179332492 0.250740856191489
-0.29904265446602 -0.242816758803102 0.0325027510952064
-0.309817167912855 -0.246252985176343 0.0325027510952067
0.285382953280594 -0.19050131900404 0.275958345821025
0.280935170323304 -0.190285161048391 0.276824254149869
0.27221462654742 -0.192553458391283 0.27869894095636
0.268227852844593 -0.191155706281429 0.279395963391104
0.253821142805429 -0.193026894949072 0.280419392094777
0.247653324851257 -0.192150746020793 0.280700067405415
0.23755533149408 -0.190624199404302 0.281158136198733
0.224621242984469 -0.196954506494503 0.281875714945738
0.223262352422094 -0.19253438223177 0.2818707929061
0.205497472026045 -0.199162715489766 0.282805285470755
0.201761029909963 -0.192119443782021 0.282767435210805
0.182372351303927 -0.193266963742364 0.283532617258574
0.179764463038913 -0.197289563570681 0.283771505426558
0.175856663767765 -0.19575926661325 0.283805139451023
0.160774409929757 -0.196468924092055 0.28407029261503
0.160056540182634 -0.20213898546438 0.284353476194705
0.148793511728188 -0.203973631036006 0.284268609454578
0.129233197500459 -0.200076527408967 0.283442730329765
0.117262035925242 -0.206767502295033 0.283064753533997
0.111207674501122 -0.199966407039058 0.282639029973324
0.0942128935317246 -0.20150505232672 0.281881386814733
0.0954100931186724 -0.206333097202978 0.281989333686073
0.0793831953114341 -0.206085630848824 0.281196136183205
0.0691099031785212 -0.204245761725985 0.28067067194955
0.0600830317966716 -0.201423023692488 0.280196748986182
0.0440242142743684 -0.21121560576014 0.278556559987058
0.0281387704885288 -0.209331858251 0.275123694493031
0.0126215694922967 -0.209378484288184 0.271833938994172
-0.0103962107133673 -0.21105059182806 0.265457096624527
-0.0236654067363593 -0.216174496752893 0.261086565306748
-0.0302464425431932 -0.214819927678497 0.258924632445446
-0.302799942274399 -0.226670427848683 0.0325027510952067
-0.309299847905532 -0.235987656971346 0.0325027510952067
0.282774112378811 -0.185217643748866 0.27612729661448
0.27189313672626 -0.183137185379046 0.278143653612769
0.266856714536929 -0.177855430072827 0.278793094074718
0.259455884302351 -0.181926424176599 0.279975019203791
0.255238185898202 -0.179230429786157 0.280133834889365
0.242165250108122 -0.186009837276247 0.2808651364172
0.236690698024382 -0.181838099517336 0.281019877721814
0.226421862484632 -0.187865666916079 0.281616587341131
0.216487145694195 -0.185820676575162 0.281976454817499
0.215596074879254 -0.182504082246578 0.281922241872484
0.194556747917172 -0.18298898726438 0.282737380620905
0.187438976083091 -0.190522785379679 0.283259572603067
0.182861079032616 -0.186845416894096 0.283247221602295
0.170819031948065 -0.184814735617002 0.283410975147003
0.161655635172408 -0.188045940335627 0.283649068598285
0.14946381964562 -0.189118116384873 0.283605107781365
0.142376615308356 -0.194857966087588 0.283692275235323
0.123879208959516 -0.193229509035492 0.283012476614579
0.120153090374916 -0.187475630874584 0.282679993303363
0.105159170994546 -0.191000184595692 0.282164743236343
0.101746347540845 -0.194412121002963 0.282088164890788
0.0889377109605461 -0.191811832868276 0.281453341372311
0.0766387017103174 -0.19748266912951 0.280973633062089
0.0551731711295097 -0.19580574011326 0.279897645999304
0.0537881802089232 -0.199153205593376 0.279863209232349
0.0361542476463926 -0.199810531905828 0.276489248012597
0.0369411671166547 -0.202205392736146 0.276750781048042
0.0170844079431432 -0.202411139955075 0.272545927864417
0.0020061902994713 -0.203232503450223 0.268898957548815
-0.0143486862175461 -0.201921245352641 0.263791301213349
-0.0475469543202823 -0.204498714512518 0.249463819548583
-0.0473466914564972 -0.20793033035841 0.249548616913658
0.279892554202959 -0.174995526759991 0.275990309405738
0.274954438323908 -0.171121380956463 0.276682649062853
0.266150105142274 -0.170545153551968 0.278403856323557
0.259246503392294 -0.171793240820461 0.27979055793343
0.25322084679159 -0.17797138553922 0.280210278006313
0.242021799468143 -0.17392794570376 0.280578117837811
0.233060164825799 -0.176706664942441 0.281030365039879
0.229010306374077 -0.179789645001569 0.281285181039282
0.216672517381342 -0.173159948315104 0.281624881180844
0.208142632418913 -0.176123028675845 0.282023779458148
0.198486165229611 -0.180041770267539 0.282494762939797
0.188011280266383 -0.181387203109901 0.282877785447775
0.179374169479168 -0.181139967257374 0.283069675258232
0.166549205024656 -0.17543194610837 0.282991093982452
0.156057103841482 -0.182064543847217 0.283331478256938
0.146320184787758 -0.176046800543071 0.282930473925222
0.143864788087478 -0.1832878813719 0.283237471392732
0.12961016373042 -0.184142902331094 0.28289120941759
0.123424535328347 -0.186467008642017 0.282769332971898
0.108690660736179 -0.185022234856659 0.282166833908725
0.094988986610734 -0.179777701854948 0.281454165057766
0.091644623515938 -0.182292952143689 0.281360444787323
0.068188465239436 -0.183782437363692 0.280338883653658
0.0579769742533654 -0.183104029369169 0.27986423117943
0.0517918220447701 -0.188915287475278 0.279225124179058
0.0484195053811117 -0.186470062428419 0.278433652606237
0.0179884654502737 -0.18622544509433 0.27219265481253
0.0130807553775719 -0.188334564077807 0.271222710952013
-0.0122841657425994 -0.186452344244908 0.263577813811496
-0.0190692347146251 -0.189734878452961 0.261638675783727
-0.0384799681304646 -0.191807394833825 0.253962435261112
-0.295588931966763 -0.212236260539526 0.0325027510952067
0.285072777278128 -0.163564010933055 0.274072539359549
0.273754581281625 -0.162124169628715 0.276155300689857
0.265633629809769 -0.166197829812461 0.278036605380972
0.258785084960541 -0.168452500343793 0.279487712784432
0.250924794235292 -0.161738918585661 0.279868558997664
0.237123373494902 -0.163705320401307 0.28050119586125
0.234519477067844 -0.163374210930545 0.280601173151868
0.231087982410771 -0.164577204708857 0.280778179826346
0.216126684369808 -0.169744604238409 0.28151611511081
0.214356538639328 -0.170940771743589 0.28162045565088
0.192440418162198 -0.172003655167539 0.282365206773443
0.184572191288066 -0.1697074847539 0.282439398619733
0.182609806839685 -0.167185139183932 0.282370387439792
0.171999950184494 -0.166268916709047 0.282483324153359
0.157849213459914 -0.167244444180264 0.28259105845945
0.150088397978925 -0.173578282744381 0.282872420656964
0.132866631596771 -0.169086028488267 0.282351886600938
0.132504142783091 -0.167774652339291 0.282296419141079
0.115602581396083 -0.17056373613366 0.28193608553458
0.105946842227561 -0.177553458017189 0.281813977568901
0.0899680964541149 -0.17444365166072 0.281108998481564
0.0917232584247765 -0.170238963710242 0.281034473259034
0.0687338337892634 -0.173634628834126 0.280134569022392
0.0608441267658092 -0.176609863329735 0.279846754429842
0.056814469860169 -0.180592780481513 0.279616236520051
0.048355742496092 -0.173989462614739 0.277422516379919
0.0347388218945317 -0.176420192875963 0.274966079205081
-0.000315123977726185 -0.184144936927504 0.267248650560055
-0.0112101122266628 -0.182538646881296 0.26362930892065
-0.0145732314502869 -0.180808268590831 0.262415442696454
-0.0284674928710913 -0.177618434314976 0.257698504980198
-0.295272339201782 -0.199309246946105 0.0325027510952064
-0.306377226690268 -0.203405625699761 0.0325027510952067
0.28414904040104 -0.152732234643362 0.273268109188246
0.277651098624749 -0.157818341988983 0.274982939252953
0.266725292656798 -0.156591525547666 0.276744660834992
0.252975181131072 -0.151657447613864 0.278572930837454
0.25467950706375 -0.151641297943287 0.278274315235303
0.246525915121504 -0.158257542528369 0.279956793617497
0.241578806667042 -0.158562564432765 0.280172524517493
0.223471487242636 -0.15877548675461 0.280856881738563
0.214200501141544 -0.160875865655529 0.281246443865608
0.198966371160358 -0.156496769047445 0.281522125033588
0.199292049744372 -0.154872250461879 0.281441867830333
0.185421638241969 -0.155656502594191 0.281789552360407
0.177026321026947 -0.157080644296365 0.281978618683846
0.168756067898076 -0.162448363360228 0.282327643876565
0.158059431800091 -0.161481289158825 0.282301684284552
0.148197365832582 -0.162083463499718 0.282293040023247
0.143946292782867 -0.163800125233605 0.28230748642318
0.135091352079529 -0.163529350493875 0.282153758571211
0.117900938479884 -0.164072114055306 0.281728302436545
0.106847994401237 -0.159290720795741 0.281222675709335
0.094083220287041 -0.165986911028296 0.280981114047731
0.0823639513801009 -0.162076674711067 0.280409597872188
0.0749750901011675 -0.16450844267417 0.280209517072925
0.065076842301473 -0.171135399114945 0.279913701849654
0.0557284097319322 -0.164443297882479 0.277904718799859
0.0376274513776641 -0.170996865166807 0.27505860010987
0.0302202749359408 -0.16808323164352 0.273350847179182
0.0211051934791392 -0.169285813652166 0.271667917842408
-0.00881822297665861 -0.173521679468795 0.263721311738247
-0.0250960322787645 -0.166994687949218 0.257985195760585
-0.288017583715595 -0.18109480694015 0.0325027510952067
-0.289579460783622 -0.188152802823756 0.0325027510952067
-0.303274378311979 -0.182948206623706 0.0325027510952067
0.284562905511657 -0.144904815935818 0.272261280121721
0.27554261377798 -0.147665756387314 0.274177306869596
0.270717706838977 -0.146845334108183 0.274912332168045
0.260290913632751 -0.146226186294199 0.276646326931685
0.247083615871313 -0.148422099467527 0.27921873940272
0.247521012977788 -0.149554508998578 0.279281418872687
0.230398643984816 -0.146578598207321 0.280165371187317
0.218090633917824 -0.152523415558981 0.280801477338662
0.218136956159657 -0.145674403715186 0.280541861852364
0.204973116405223 -0.147170692439467 0.280968179628865
0.201786075168069 -0.147555709782754 0.281057261718059
0.181912733656379 -0.151833394013954 0.281669913435393
0.177186001662403 -0.154027182471111 0.281826239300638
0.164867150581134 -0.151197260838809 0.281804397573849
0.15628691839743 -0.151182153987375 0.281778180080721
0.151217790733198 -0.156142973824319 0.282012765057894
0.13403621418009 -0.155189994849788 0.281738461424969
0.121883729132103 -0.152728307010074 0.281364284971329
0.113713129120571 -0.152026736954857 0.281108936303314
0.112444551724557 -0.157904417494965 0.281319542076158
0.0997399319742946 -0.157909412328951 0.280923892010955
0.0849476035443033 -0.158050259624936 0.280372194742763
0.0736915335204296 -0.159506758273793 0.279997488438192
0.0591808552284921 -0.157855191435309 0.277932620119724
0.0451033491456563 -0.15913430016918 0.275428148965114
0.0341017039504047 -0.160538095465285 0.273452624308738
0.0316878630345212 -0.159267390896071 0.272868022302444
0.00356155999900265 -0.1628699726066 0.266413130514314
-0.0173623421150521 -0.162412506903816 0.260132166396313
-0.0204822989544487 -0.162043332110839 0.259099103400756
-0.0423639950321776 -0.160442392221731 0.246618322556482
-0.294071676106089 -0.17083920236908 0.0325027510952067
0.282832751553101 -0.13891116774967 0.271805738141076
0.272704382064352 -0.139517771458231 0.273642524537858
0.263075677077437 -0.140568151671917 0.275448464544316
0.254088275559163 -0.139622113280746 0.276891057138976
0.254841233360343 -0.133406316663097 0.275874382596647
0.24255822139908 -0.141644553340162 0.278859632103622
0.227637797998958 -0.138509793670737 0.279953787856725
0.221720439340091 -0.142494759045843 0.280302069473178
0.216340774340017 -0.135342248987233 0.280181135838015
0.206562330673928 -0.142291763390221 0.280713375271681
0.195741430917117 -0.140382037969606 0.28087143328783
0.186572970361736 -0.138843800157578 0.280981245874519
0.177864123022995 -0.140038433216969 0.281128690016344
0.164981667138057 -0.138868047666952 0.281184340048997
0.160109505817991 -0.13753319325699 0.2811027155419
0.150542368474375 -0.138402133830404 0.281118054568255
0.137961678319182 -0.138383880860463 0.280997743336885
0.125773657497008 -0.140879651001599 0.28092322921684
0.123377224768803 -0.147211808747545 0.28118003938804
0.09971703726953 -0.144603524375932 0.280411460802462
0.099902728003234 -0.144622307525054 0.280417382700139
0.0873572062968569 -0.141068359905631 0.279895198626073
0.0778356840374731 -0.148430638441179 0.279731579687792
0.0597411707049308 -0.14287255356934 0.276102749331428
0.0513393598294059 -0.151090451776744 0.27581206519317
0.0361686974795624 -0.153287801007324 0.273216438766526
0.0181322934732707 -0.144669888544877 0.268255398194639
0.00614244369096578 -0.152306492910564 0.265806548920334
0.00138389058589824 -0.145038884927376 0.2634828625963
-0.0415899397003566 -0.15655683698939 0.246530799316644
-0.295410728432117 -0.162725709048052 0.0325027510952067
-0.300541720883497 -0.160446022655678 0.0325027510952067
-0.306263069856418 -0.168430507113888 0.0325027510952067
0.277667658198885 -0.123764778550178 0.270792345659743
0.27483550903864 -0.126410972261966 0.271618432517613
0.262730723553582 -0.130197014691021 0.274199865232533
0.255592984619283 -0.124660075889435 0.274407074208358
0.248533694095958 -0.13234966023879 0.276583307733929
0.238051264236741 -0.133423042060512 0.278202456901512
0.236817159208948 -0.12614439468534 0.277238935297184
0.223895968135734 -0.132028200001958 0.279834855599258
0.216743426093228 -0.132857266990909 0.280060520732632
0.204496798790634 -0.126567304526508 0.280054081851462
0.197214267833228 -0.134408685758106 0.280570125154523
0.182618203838304 -0.133204993744029 0.280743014649599
0.176452394166119 -0.130579294353522 0.280676007540476
0.171056148388529 -0.130276127132441 0.280715852905996
0.156105589003377 -0.137366640561486 0.281082455210317
0.146017325389437 -0.135684953005055 0.280967902263793
0.136410716551442 -0.128981607124523 0.280523768171192
0.12709811866131 -0.131156170953554 0.280479621687257
0.11708068753332 -0.129921834748516 0.280261364284989
0.0987992529687532 -0.131205284999317 0.279826000527064
0.0990698879262016 -0.136630503782836 0.280060271471729
0.0825471944512352 -0.140868900509076 0.279418589007799
0.0778211381112034 -0.134345692986574 0.277778499998208
0.0640506534123277 -0.137571694188829 0.276079045568848
0.0581656794685751 -0.139599370336487 0.275397284101804
0.0330609084288153 -0.138587295499147 0.271071596688884
0.00966930670712916 -0.138282804127939 0.264845522300744
-0.00250582056728324 -0.136484101581684 0.261012673386239
-0.0325496281692915 -0.140441905182128 0.24865063369334
-0.0370321963494575 -0.145178941480391 0.247563479531722
-0.287134299356244 -0.157058867371463 0.0325027510952067
-0.299377304527326 -0.158415718328997 0.0325027510952067
0.279435877809787 -0.119929274377096 0.269808688284177
0.269969321216235 -0.118121389602741 0.271396783932803
0.267284384653968 -0.117761666741228 0.271712590350994
0.257712219997201 -0.118537184956326 0.273148339128934
0.245890759660096 -0.120298681091428 0.275040706616223
0.239799118370985 -0.116869770934626 0.275292267594984
0.231987951284255 -0.117839495391919 0.276510267510063
0.223440816433733 -0.124548678119956 0.278710877940595
0.221401128475039 -0.124059010084224 0.278810203148955
0.204457165103126 -0.119379492215463 0.279521277585668
0.192447511285624 -0.123375576359791 0.280157867318088
0.193882352064399 -0.120610226318164 0.280006760054209
0.177286878860744 -0.123797791495102 0.280332710558376
0.169749811059439 -0.119149476195376 0.280179770462669
0.15424017010743 -0.12016241636703 0.280211216159173
0.153379247943789 -0.127446164000285 0.280575174858123
0.136809844875411 -0.12688013255621 0.280429688802543
0.127189032878363 -0.12402942826648 0.280140494404491
