ply
format ascii 1.0
element vertex 850
property float x
property float y
property float z
end_header
-0.210302473378478 0.162248261518549 0.358139652985167
-0.211903037290865 0.156368549575981 0.356587247322071
-0.204005887871795 0.154733530606737 0.370573897554782
-0.20247368485596 0.157917481442224 0.372564723762704
-0.201209257361094 0.150289549028794 0.376281268152017
-0.197347428756625 0.145489883021638 0.381418753055012
-0.196957366261103 0.138612674805784 0.382866385589342
-0.187418198038925 0.13850068157902 0.393919905364686
-0.190645592764003 0.136338665420057 0.390498862387382
-0.182759074120114 0.133717334671489 0.400003715079509
-0.181245659141757 0.12974007652518 0.402331002879144
-0.174268194213464 0.121024676302657 0.410708558569608
-0.173941583929218 0.119132904302873 0.411178681191229
-0.169336640513016 0.119708356515527 0.416253274798004
-0.163696902858256 0.107759142140525 0.423189767593107
-0.1621318481957 0.103272583458564 0.424858016063179
-0.15897781945281 0.101126720731727 0.428124495412516
-0.154504053133042 0.102676505509328 0.432852500333066
-0.147978621630936 0.0953331034788041 0.439366302733692
-0.147270414725775 0.0938544048763487 0.439979364647718
-0.136002854502471 0.0854019639071341 0.446215560006528
-0.134079183659105 0.0813927641903589 0.446809252292147
-0.127645665504691 0.0770320558749986 0.449862298342976
-0.122543039078223 0.0658888230108032 0.45068122299453
-0.120872023082173 0.0661620537463389 0.451553741124708
-0.109965575512334 0.0602586880948556 0.455859550737971
-0.0998590687755397 0.0469255618372275 0.458247097401586
-0.0977354729140978 0.0417107438198594 0.458189348686552
-0.0919441602169754 0.0340752210930196 0.458731649863553
-0.088266090459005 0.0334190136384122 0.460478279610942
-0.0784175086296433 0.0249729151089605 0.462126728824859
-0.0743722496146937 0.0171758863662616 0.460904994889125
-0.064366956139348 0.00574950326395913 0.460881073939795
-0.0570874970864057 -0.00465495864145773 0.459446453766581
-0.0463501996099785 -0.0123416345836084 0.460521002986982
-0.0370131213422731 -0.022070660985945 0.459392852684418
-0.0330659651282264 -0.0201778763651127 0.461399437895931
-0.0209521950560507 -0.0311493806417734 0.46016740737665
-0.00525779532054618 -0.0580696330635636 0.45226860066144
0.0190301321108628 -0.0788410365917439 0.432332052223059
-0.237531260086608 0.200964550861623 0.296507746838467
-0.23297778725647 0.194891777997541 0.309878175032108
-0.231250081977084 0.194084644072563 0.31320195079155
-0.231210023527504 0.187399815942716 0.315405349442796
-0.229398723021208 0.184738448009031 0.31946894652177
-0.222655200980583 0.188297837277278 0.330301939681145
-0.22154859724616 0.188543889929965 0.332187447067094
-0.218544541732165 0.182918883981819 0.339313268149748
-0.217899275641488 0.182022892004368 0.340744282200147
-0.213735986016581 0.17835349199737 0.348880203368587
-0.212336002569211 0.171091530861856 0.352799191977382
-0.211388257764866 0.171561608974487 0.354340178513702
-0.20760561591758 0.168681132517114 0.361472637142826
-0.205622828808444 0.159803486715549 0.366732495235524
-0.196970200072969 0.159170281763176 0.379529794599849
-0.200500457341837 0.156028761195145 0.376033591801799
-0.192691051947875 0.162100808268228 0.383961878946431
-0.193017658957969 0.149345297711329 0.38586997418125
-0.184116967285661 0.149743227894706 0.396110871314178
-0.182260285892797 0.147950146660105 0.398518910798128
-0.181031663255669 0.14346314602858 0.400590526703753
-0.174265601780363 0.140307315195129 0.408876388131306
-0.174393777250211 0.127948797670876 0.410174438340516
-0.171560802851843 0.126533578229026 0.413397230251453
-0.163743291555397 0.125217518437927 0.422142787889102
-0.163921632449395 0.122892738083482 0.422077553488003
-0.160681930106341 0.113715789247137 0.426194050346469
-0.15594024029961 0.115348019759481 0.431360050611381
-0.151789802614915 0.10337592814705 0.435716031407529
-0.144084199766246 0.110272372380787 0.441363210079919
-0.14369454530254 0.10612839804218 0.441898907134939
-0.137181090772126 0.0985201736831113 0.447180388765046
-0.132601737791974 0.0982527864790767 0.449677700413695
-0.124969956149714 0.0814030006670068 0.451861762716102
-0.120398855628233 0.0865318064831573 0.455001688267227
-0.111376736937417 0.0759312689867439 0.457779126293046
-0.10968155168842 0.0622069872191826 0.456319805571073
-0.102584450777293 0.0612991511032734 0.459427401610466
-0.0954079194867931 0.0554231995558571 0.461730666106387
-0.0871758530252372 0.0444334028724416 0.46308877646486
-0.0820370942379617 0.0396694939607353 0.464358092371892
-0.0738598159688587 0.0358161000696631 0.466652395610226
-0.0638249443284258 0.030057414946382 0.469202417870401
-0.0606337723008397 0.0215450450179768 0.468517454103542
-0.0575366644288502 0.017460535161597 0.468237698368483
-0.0393348086744837 -0.00147403095882543 0.467068489736346
-0.0290694897301134 -0.0122898562227363 0.465814790525381
-0.0188659991287787 -0.0182819132218227 0.465850287069372
-0.0210125490284041 -0.0250166650500693 0.462671534599091
-0.00852085975768806 -0.0396902948250689 0.459275636966524
0.00578021601108222 -0.0522589463326686 0.454219129479543
-0.23079535395887 0.208627875277452 0.309370049578735
-0.229547814131193 0.203486592288203 0.313224122901373
-0.228181765083272 0.203364235227309 0.315687606024409
-0.226233925810985 0.197465274456853 0.321026247220227
-0.223771524135784 0.199280236937521 0.324817569714057
-0.21900841584567 0.196200232928526 0.334253549243292
-0.220110181862869 0.19132670921163 0.333852682411046
-0.216220612401198 0.194418643450481 0.339769608094169
-0.213975700453955 0.188650422739818 0.345593788742725
-0.208135433391723 0.183707196127315 0.357454611773276
-0.205002011154055 0.183622127003885 0.362887842550477
-0.204601356758044 0.181848521805396 0.363946497971271
-0.205535591548953 0.172757543985478 0.364208750500756
-0.196029686817172 0.175569654769816 0.377016530523123
-0.193827280715472 0.176021454844326 0.379531502484987
-0.193286734049389 0.170052717778775 0.381494473627901
-0.189164733352388 0.170113957764358 0.386375082102358
-0.185068629383033 0.158991474098084 0.393669944362462
-0.182990527050605 0.159856831628118 0.395949047243703
-0.180136090000356 0.154165105901053 0.400076342010008
-0.177274041824836 0.145508016271794 0.40464203961404
-0.174806866776533 0.142690230719482 0.407904901155389
-0.166824713258871 0.139036788236657 0.417669931643559
-0.168317371094687 0.138346141784697 0.416042906715683
-0.158405878807016 0.139629660064134 0.427240763731648
-0.157183970493457 0.126714162553872 0.42933248013678
-0.150566708303605 0.131396869634955 0.434511360904622
-0.152421069518427 0.124952016409429 0.433821840861419
-0.145745169866887 0.121284914204199 0.439489345627703
-0.139595752837244 0.115147259981429 0.44439998708214
-0.139354095008914 0.110981697332859 0.444827263948484
-0.133144662823649 0.107851873573881 0.449616603745284
-0.126345902737162 0.0959444613041348 0.452814466507817
-0.122575787190647 0.0900210056565094 0.45420620310078
-0.117522032946673 0.0861275195962922 0.456451310062055
-0.110111059953051 0.0818500346797882 0.459321060794651
-0.102817282289523 0.0751180013383432 0.46182139287889
-0.098293992974844 0.0727061678498295 0.463329529062282
-0.0895661327228269 0.0685315709562297 0.466633603244197
-0.0838043901458522 0.0600986385236158 0.467362395516895
-0.0789751346568332 0.0587249233819826 0.469123511218377
-0.0738025169908346 0.0389792315244752 0.467292880295685
-0.0631645894746576 0.036138026334643 0.470635300340246
-0.0544189809596342 0.0347278655107475 0.473157185869586
-0.0419458331595241 0.0200792990166825 0.473956637281558
-0.0409106235773511 0.0127578818415482 0.472431029152164
-0.0370380252906682 0.00591868039072035 0.470783712221312
-0.0196378518887857 -0.00619665435599931 0.470658451146145
-0.0174684410255548 -0.017560546957096 0.466417030677085
-0.00130196549821302 -0.0231227221800392 0.467280900899121
0.0586681883349035 -0.087353697147158 0.411932323986077
-0.231718042143003 0.219205689816346 0.303548612572972
-0.228978491420743 0.212159057103318 0.311468240151547
-0.226143612926354 0.208201795963167 0.317761835636132
-0.2226030069967 0.211710672287075 0.322926428600422
-0.219263367165091 0.202768319049645 0.331705998220902
-0.218924769303836 0.203587336339241 0.332045692003448
-0.216924599352819 0.199474402098784 0.336907508790332
-0.213611525442348 0.198716161016328 0.343029389804687
-0.209939684893429 0.198923845261515 0.349479899788843
-0.208198786053129 0.189450074168091 0.355591545133691
-0.207100927627609 0.188817798005253 0.357741697675191
-0.198959214896455 0.19268783408496 0.369407903867206
-0.201454219153874 0.188001081581928 0.36777318167863
-0.195900092016779 0.177293969044372 0.376788729215235
-0.191987685237523 0.174036857479815 0.382154990116869
-0.187122992523853 0.180265851449014 0.386552199810171
-0.182401587766964 0.172156321044239 0.393953077106243
-0.184696263275496 0.171283074368149 0.391421837336788
-0.17702475292802 0.163951761736994 0.402153198821242
-0.175466942518835 0.165670839808955 0.403622315860228
-0.174122393635212 0.156335727026546 0.406720028852894
-0.169463160089457 0.157631104140678 0.411923332224587
-0.166065643036881 0.154724627953974 0.416275494772853
-0.162181589958413 0.147164600486143 0.421864770292698
-0.156807342825896 0.13798333227263 0.428838962474086
-0.153596723714317 0.143463916613202 0.430705870518868
-0.150328868864438 0.138713108637059 0.433830499932616
-0.144058512049691 0.131265760177594 0.439628247531968
-0.139380460870267 0.122664869037065 0.444111754738882
-0.136560575280062 0.11775473689161 0.446494561205318
-0.132520564801853 0.115960025714498 0.449596230530775
-0.124721433286582 0.107911084825495 0.455341048813859
-0.122322396495697 0.106631688933509 0.456449143508197
-0.115438627422703 0.0949032374198823 0.45873998247754
-0.107226586055109 0.0921885580701217 0.462453110940243
-0.10111392526519 0.0883642185874619 0.464796803594306
-0.103721249937118 0.0904848006665665 0.463828261694218
-0.0925888522268697 0.0848494600532036 0.468176233997491
-0.086583930684112 0.0802784799143245 0.469992089294506
-0.0835634353017159 0.0724378776400262 0.469953728014819
-0.0693270712145734 0.0574177554841143 0.472676393072433
-0.068745163235479 0.0525643608141229 0.471833581320927
-0.0537267303349494 0.043895438073839 0.475320076308141
-0.0465845191560713 0.0364910972019186 0.475953269220846
-0.0451130563396097 0.031179161785477 0.475318737971895
-0.0391522322275788 0.0276701563666811 0.476268257430181
-0.0267057953833356 0.0152901850470062 0.476691583158952
-0.0250828951929417 0.0069346085851461 0.474767707312901
-0.0096760035264277 -0.00432041633090731 0.473358538811426
0.0024470735761759 -0.0122625861282439 0.470973656724619
0.0176468241109773 -0.0244216827315059 0.463339281208287
-0.225166318914526 0.22942379855083 0.310960043482179
-0.221222057818811 0.229797264718023 0.317960451350807
-0.222155155131518 0.218019928979575 0.321439933908226
-0.220165008519306 0.221113013973164 0.323695952191664
-0.212949861909044 0.219967745732161 0.337304967010032
-0.21413814251261 0.212736169201465 0.337622700194752
-0.209316271033288 0.211221843788046 0.346663557505601
-0.210859628120155 0.206379663303369 0.345468960241716
-0.202723583338389 0.210475548446644 0.358602263230327
-0.204546886725237 0.203616098935695 0.357554280722736
-0.197503790941035 0.199959818544048 0.369030774835395
-0.198687231087261 0.19249174076835 0.369793426462228
-0.194248390554328 0.193105112461421 0.374966940478643
-0.192555754974994 0.191274280351026 0.377545178378478
-0.184863599873384 0.186663231191871 0.387818793937421
-0.185410100585899 0.178934205762113 0.38888071961821
-0.183478780861557 0.178841452416791 0.391194358901848
-0.17792542851971 0.176779694276854 0.398244370646138
-0.172554221963045 0.176754279451159 0.404627376122322
-0.170263708183171 0.171292284351558 0.408555964829737
-0.166640822388036 0.167432121494285 0.413728664263929
-0.166317224786334 0.162745992008849 0.414822335949412
-0.164045196455465 0.158004603123913 0.418138078054681
-0.154777525299372 0.154690986809876 0.427849894626486
-0.150795149232438 0.148026083496611 0.432285754174846
-0.149483522476712 0.1466451111688 0.4335528291296
-0.141308704529185 0.147473897574871 0.439862281500848
-0.139847895287829 0.139562749891888 0.441945122962744
-0.132953280375312 0.131872291605896 0.448261004115376
-0.132563794017321 0.134809180215186 0.448218149661034
-0.123846792514724 0.123428498390382 0.455580984965418
-0.125102564480436 0.121866068844472 0.454743186344525
-0.116197307861519 0.11482054432134 0.460950601774136
-0.117406805742052 0.119383650771746 0.460595736946277
-0.108073465503649 0.105008129440609 0.46401640043332
-0.101854852119824 0.102770591327626 0.466949929192332
-0.0941638818494746 0.0992110771345861 0.46994524837419
-0.0840793969054534 0.085327672794149 0.471997520001625
-0.0838802509071853 0.086961633058443 0.472380285348211
-0.0814503262418023 0.0809845986154116 0.472470578624421
-0.0662134279962082 0.0654520796296631 0.475459668836077
-0.0588864647154496 0.0600020609748075 0.47687691376725
-0.0565383206166312 0.0592094374870702 0.477582289426728
-0.0512764202039421 0.054144754196932 0.478276122740701
-0.0417216569584494 0.0340758095303276 0.476967533533815
-0.0376605319566015 0.0397751438043628 0.479296735148933
-0.0200480892348506 0.0223914884197076 0.47966160654344
-0.00905125315221271 0.00777735967725611 0.478261696579668
-0.00766138925265965 0.00455657682156629 0.477390536089035
0.00658190340096781 -0.00236303937312593 0.474282986154011
0.0163866324302966 -0.0189925424315877 0.465789445801758
0.0351224121032865 -0.0317126048208727 0.456143280724053
-0.222191030541127 0.238329243454734 0.312451836784902
-0.222334977255191 0.229693139320897 0.315984654062209
-0.218502579286325 0.229455059922809 0.323050553500792
-0.213048988384259 0.230012774748496 0.332711609731926
-0.212376887521093 0.224935844902498 0.336162994494119
-0.207672749379974 0.224517126563032 0.344891716646225
-0.205192553525237 0.221332482718346 0.350796007972929
-0.206686188029454 0.211243819993084 0.351324400143114
-0.202287848047223 0.215727121907504 0.357700474495867
-0.196820056151359 0.21407375683492 0.365716651197168
-0.197082728403798 0.20583572766702 0.367815555254905
-0.195502025596497 0.202640942700945 0.370658760232561
-0.189401370114963 0.205406360417544 0.377205414359337
-0.186230759026129 0.197497442744824 0.383348455345224
-0.183242995350553 0.200396191513151 0.386101769265587
-0.181361684834878 0.191446613245207 0.39091792320875
-0.177274525415064 0.187360238846688 0.396675227984393
-0.17538512208047 0.188059229497589 0.398763848198763
-0.172202396974989 0.180701523878234 0.404171394622106
-0.164352755227152 0.183384415056269 0.41289763685448
-0.16184017360509 0.175892211844703 0.417539274364563
-0.158414869885323 0.169216500906572 0.42229422733368
-0.155634244620766 0.16877843157995 0.424640038988776
-0.151115931958169 0.159278462685722 0.430018344363134
-0.14835824053764 0.157208323109623 0.432636377769387
-0.144077880846556 0.161703634803068 0.435325887716202
-0.138286326311716 0.153902129770658 0.441439818063679
-0.134470270637562 0.149327787576982 0.44500271214178
-0.132259196999321 0.138808294171837 0.447982836884081
-0.127304151459146 0.144125010567497 0.451236510784612
-0.119168152512373 0.13934445810898 0.458101032255402
-0.117154750476223 0.134623633110704 0.459874735651398
-0.112250697141561 0.124783864208347 0.464096141248412
-0.108459263662504 0.123939573142146 0.466458439365943
-0.101447814024332 0.115996019836094 0.469083183333498
-0.0986373362668112 0.108187748699927 0.469473883959441
-0.0930057777889234 0.105041086136377 0.471567726311148
-0.0843802759431203 0.0990738776234881 0.474529863337208
-0.0785985412466827 0.0931308562103873 0.475885383314016
-0.068690535137794 0.0876791443040201 0.478906985171553
-0.0636306599346342 0.0832888328405439 0.480016520071436
-0.057605563805401 0.068504338761005 0.479045041567201
-0.0504379874727872 0.0630794254853059 0.480483473558582
-0.0400574033949179 0.0596843139639372 0.482747215256189
-0.0383185828086462 0.0512875595487941 0.481561789530671
-0.033300438700566 0.0428285473407635 0.480945038675304
-0.0230823063472633 0.0377736598505407 0.482344537949821
-0.011752473193266 0.025276472756488 0.481581343785799
0.0036712904198654 0.0130104591394747 0.479804710990249
0.00169604769233405 0.0102720662333148 0.479489341873306
0.0318664784793061 -0.0147814915138542 0.463933679562107
0.0520476311426125 -0.0424137475380749 0.446507287452075
-0.216121211478184 0.240211748844562 0.322650181956537
-0.215967592060939 0.243076337804866 0.321670659500313
-0.215386227672113 0.235115512203331 0.326224271921926
-0.20950504513765 0.239185030975125 0.335119103203273
-0.208614265769177 0.233901885511469 0.33905830426949
-0.202886679566738 0.233636918909672 0.349578501425015
-0.200527624612325 0.234130490840672 0.353646717926888
-0.202031474928712 0.227366720156541 0.353886746871971
-0.1974959094478 0.222778593989821 0.362267043274834
-0.194433775582245 0.222420957450993 0.366142369659356
-0.195092144627597 0.21643696603533 0.367107584943412
-0.187435856554831 0.210928128596383 0.377956697114567
-0.182820682912847 0.21345712998395 0.382781140775157
-0.183171376428749 0.203069757907909 0.385404155329896
-0.179864899692611 0.203632662619345 0.389226802801185
-0.177292430953457 0.202468352808518 0.392670697380873
-0.172232494093883 0.199720020038712 0.399579048614694
-0.168441820770361 0.194871446307469 0.405499951593299
-0.165021711655277 0.194184597228097 0.409712772743407
-0.165505998371965 0.189777189612842 0.410113334818442
-0.160460448000497 0.187484085807779 0.416484954481898
-0.153065560047542 0.184266496134991 0.423390269578503
-0.146988348672274 0.176793914826987 0.430176518814702
-0.149979318500018 0.171709397585929 0.428729421977469
-0.142762134110439 0.168991462466554 0.435099843066397
-0.137134851892164 0.169021277979916 0.439683826938797
-0.136838705595064 0.163348008232016 0.440936638315736
-0.130166302524541 0.152417582961487 0.448010035002561
-0.128401601032425 0.15133521274779 0.449521574985166
-0.123775375260986 0.152718107422947 0.452983835125066
-0.115697768725332 0.141438109332429 0.460548822384994
-0.11096784393565 0.136138671486611 0.464370683982921
-0.107765273160194 0.129804447659673 0.467121998334368
-0.103993457955546 0.131293430708322 0.469599572872505
-0.094050567701624 0.125983088802775 0.473320943343641
-0.0957976963708875 0.123126471934443 0.472670234992884
-0.087903425400829 0.115702996292016 0.475321175819774
-0.0818548137271373 0.112924048977015 0.477224222052371
-0.0703580336936163 0.0977790150667101 0.480224975057103
-0.0662582941680976 0.0920869589953077 0.480764904045447
-0.0618457662465844 0.0864191538287004 0.481333603582083
-0.0589984512135167 0.082039135512996 0.481473687166855
-0.0420654296700258 0.0758527531697164 0.485682207703438
-0.0396547719231812 0.0610705739292294 0.483157174539743
-0.0297561691971054 0.062042828978677 0.48601332530838
-0.0269864303594315 0.0497606935288668 0.483916716883338
-0.0124809535669439 0.0430587045886946 0.485297620815134
-0.00759032804443546 0.0362078150699618 0.484596181355665
0.000214439309074285 0.0235485099377977 0.482542005897345
0.020871944405227 0.0126061902371452 0.477347931844006
0.0316680367034966 -0.0125313308109921 0.464894778258095
0.0434898190381181 -0.0156859501615798 0.460003938438671
-0.212910153692262 0.247867237125645 0.325119405455128
-0.21396447801887 0.246613044884395 0.323755326150446
-0.207130286578299 0.25113883303466 0.334180772703418
-0.203947514648702 0.249505888937197 0.340679505342312
-0.204814022251631 0.244876661720121 0.341139410111027
-0.200621295260281 0.241685248313365 0.35015737583152
-0.199258151197228 0.237796502175348 0.354341964586155
-0.197006499247865 0.232732270761853 0.359199154614549
-0.19639213288691 0.226945379227387 0.362075508244507
-0.190578518890269 0.226524154712755 0.369297760642251
-0.186456353809323 0.227231179606938 0.374048642126499
-0.180790234206284 0.22632122270623 0.381271442491322
-0.17801492976955 0.22142496339371 0.386240562443434
-0.177085258380619 0.216437284519992 0.388824346442888
-0.175751311445681 0.214552461870253 0.390985826903169
-0.172498924102352 0.21119511002252 0.395892805120049
-0.164403299863762 0.210604389784362 0.405829596278532
-0.167065280768317 0.205064939851741 0.404243537574269
-0.160549031819567 0.201023859625882 0.413159435243062
-0.162633719576602 0.193637014500138 0.412669306933867
-0.154776960603436 0.193439567804792 0.419852132179987
-0.148721494858054 0.192962343768669 0.425010075168212
-0.146096316529788 0.190181098378067 0.427838718454613
-0.142719887400297 0.176246187568475 0.433841103278547
-0.137855408858178 0.181236540443351 0.436767534707554
-0.135576023515127 0.175442315634682 0.439810536157966
-0.132478665912267 0.170707827689519 0.443180516885283
-0.129440977180273 0.170059113582018 0.44577352378615
-0.125395833176121 0.163401164818709 0.450259333689842
-0.118341427270476 0.152468582350114 0.457272726918033
-0.115941824968452 0.151900601876788 0.459220946439981
-0.109494674102397 0.144028448667195 0.464992715013433
-0.104498674597887 0.142757866588654 0.467912239361953
-0.098268295417377 0.140517405770948 0.471262035054875
-0.0912728269812022 0.140784967516505 0.47443830930135
-0.0846568976658296 0.131559706205173 0.476804213722228
-0.0823602956845389 0.11950365979237 0.477263550785001
-0.0744123444824992 0.109670820733273 0.479434767010569
-0.0738764261274685 0.109565161038236 0.479597442150938
-0.059133434786802 0.103354341877704 0.483731765284851
-0.0563390019298074 0.0972762311165808 0.484284912419802
-0.0532903732033344 0.0899817373250907 0.484707525812886
-0.0443550737373211 0.0797598105542051 0.485890991988933
-0.0377482844198411 0.0846403853081903 0.488277846775131
-0.0332892613002717 0.0749217850498319 0.487981084381406
-0.0216054660414917 0.0610705376442533 0.487639325360614
-0.0076968283247758 0.0576677555165508 0.489203439546479
-0.000286822459821129 0.0473657811329572 0.487721168532246
0.00764452028551601 0.0289825339158296 0.482684123327345
0.0221820809923549 0.0163527423456922 0.478033929828884
0.045216209341718 0.00446377791986118 0.467746888406996
0.0455709989445321 -0.00043750425389904 0.465632277804818
-0.210880377911169 0.256501891975897 0.324789475399749
-0.210555854333121 0.254448863357909 0.326504186735758
-0.206197817212987 0.253255853330205 0.334944425514599
-0.205845014476888 0.252594041819372 0.33587603649171
-0.203068616271202 0.245265113960546 0.344139158126364
-0.197020460254943 0.246956389667696 0.353947877433629
-0.192507220011549 0.245115090102899 0.360111917452432
-0.19460462062301 0.243360334636989 0.358207967777752
-0.187500374015841 0.240060968524948 0.368058283182713
-0.187441586020773 0.237278877935369 0.369153524137617
-0.183302048472191 0.230086768667449 0.376832311153653
-0.181488666191949 0.226995251680445 0.380174367820823
-0.175401699927328 0.231147269124532 0.386046019117131
-0.176163223073839 0.226925047190142 0.386674010252116
-0.171101805897199 0.221441891167089 0.394573037167457
-0.1666082556167 0.221433511384608 0.399994853337529
-0.168094360242465 0.211676985936474 0.401063539847214
-0.156934604521459 0.212580003336249 0.412983894886983
-0.154236661717376 0.206735347011065 0.416883717091183
-0.150101781988983 0.203613605483661 0.421235011262542
-0.148642858866846 0.199701692265781 0.42352437897056
-0.145155577481367 0.197550285331698 0.426926733382249
-0.137803351340215 0.195086991508143 0.433622861361926
-0.138447337447823 0.185660961788564 0.435255672630158
-0.135841170008462 0.187478106506719 0.437010018851517
-0.126717296203619 0.177868388455947 0.446602761282643
-0.12575148083257 0.174438350308152 0.4480018494152
-0.121661983823985 0.1727554244118 0.451637006519985
-0.118393389932097 0.165735417813424 0.455554044068684
-0.111576983780635 0.168871328061258 0.460280020703596
-0.106896322232094 0.159977326482369 0.464199001566367
-0.106216688141273 0.156585063170282 0.465107653391771
-0.0971495689115356 0.155682397105085 0.469910222770786
-0.0919985065171793 0.141626907502677 0.474211231542236
-0.0904460087058187 0.140862717736806 0.47473065002632
-0.0831730209848124 0.135296240581839 0.477358931428373
-0.073485124009991 0.129419786864429 0.480493230881426
-0.0753708946926265 0.128697782267446 0.479850279713601
-0.0622517845862968 0.117757576564376 0.483520804465509
-0.0552348652340569 0.105715598482336 0.484967958087752
-0.054022569724347 0.111637372739937 0.485574625384482
-0.0459001449380068 0.10221932675199 0.487258802542615
-0.0409766303753587 0.0975799775375707 0.488337563246909
-0.0299337574667984 0.081631923573273 0.4898444187301
-0.0144145856570523 0.0712966482653634 0.491300994642152
-0.00822257188504618 0.0678905578583175 0.491400903454173
-0.00679381390918536 0.0584234791041194 0.489496140742295
0.0149299853858713 0.0467914732797862 0.485671924393712
0.0136695222655027 0.0423450477577271 0.484814378001657
0.0248435360921819 0.0289681054006958 0.480046052309493
0.0621170111694727 -0.00455908519353575 0.45755850008599
0.0521131351032748 0.00124804584947369 0.463754991540389
-0.203234164209025 0.270711204658379 0.330590017275538
-0.202600957470252 0.263703351804222 0.335785194935088
-0.197545845036739 0.267587994498893 0.343004971046553
-0.200692030850438 0.259310005891062 0.341890322813736
-0.197651418428208 0.26239092500732 0.345768832864719
-0.192363974834219 0.255450804563759 0.356482632330697
-0.189262555485853 0.257673410780109 0.359229191912974
-0.186419022524273 0.25301304155091 0.364606606551441
-0.185959685462655 0.251261502717591 0.365809539224215
-0.181926070212509 0.244696094137279 0.373128944770317
-0.179533043687855 0.243618525051803 0.376434529936691
-0.174557510666946 0.242014316280612 0.383073303785503
-0.175174392840117 0.233057157253368 0.385619526129851
-0.169488147519475 0.234119290726405 0.39214108639615
-0.167136371904242 0.2305042125142 0.396330298426564
-0.163940172915323 0.224137740832032 0.402419662496124
-0.156757211597293 0.221098588627086 0.410760373680866
-0.15879866197774 0.221779596281244 0.40885170073535
-0.149350463241245 0.215321319400965 0.418606409396863
-0.147230749273858 0.212669976966542 0.421129829239248
-0.145129687651295 0.208778868388659 0.42398288589063
-0.14110310346607 0.204832557418803 0.428472679040738
-0.138841820903568 0.196873187108322 0.432346005371388
-0.135502246183178 0.196533119867206 0.435208294402188
-0.130606555459247 0.191378948696397 0.44047592997441
-0.124205882159032 0.192981570907438 0.445442917724079
-0.124577909070278 0.190183345321307 0.445776870397355
-0.11730505292296 0.183346310850226 0.453302394633102
-0.11013871221753 0.181594778840085 0.458471729273274
-0.105789220916431 0.170987491750631 0.462969123167342
-0.103207578852929 0.165121975892499 0.465270178607076
-0.0996379191463017 0.163992787888811 0.467307755555874
-0.0929431667841729 0.159198041911655 0.471540894829187
-0.091706271842526 0.153213352495394 0.472901035142265
-0.0835957325428191 0.15491177531695 0.476682643501464
-0.079256847889337 0.147559975504787 0.478869819136767
-0.0740869160722715 0.134652094532094 0.480494220833957
-0.0651454046490278 0.133444865010493 0.483362650836883
-0.0597764434291821 0.131774905755689 0.484818351108684
-0.0511534600623666 0.122030956040499 0.486855251953431
-0.0429589545602632 0.106472857379883 0.488243939601923
-0.0396131431700224 0.0996259621963532 0.48874421647882
-0.0299401856965499 0.0967712864515426 0.49072566925217
-0.0290691192195768 0.0963616599704792 0.490901305837642
-0.0170256668559389 0.0849144262610582 0.492372506829245
-0.00730616808523756 0.0761818916841152 0.492966119734839
0.00580932196577515 0.0724309796257867 0.492451729907833
0.0132313476193139 0.0531137322279001 0.487282088248039
0.030952473050488 0.0438951775770782 0.481703931290959
0.0346135643871041 0.0359539479384984 0.479121658558422
0.049380314524777 0.0278136844020687 0.473301486486437
0.0821733128973993 -0.0117150870114776 0.446097068123775
-0.201141135321291 0.279361393299235 0.329574512490031
-0.199805837993811 0.270315274227407 0.337225509873165
-0.199985850075904 0.26783501862927 0.338302174660241
-0.19587847305432 0.270690295148059 0.344354766061735
-0.192989592469882 0.263080811031261 0.352255274299252
-0.189624139735533 0.264770361376417 0.355579316423628
-0.184676393057816 0.259126720247213 0.364143038130569
-0.182689842561881 0.260667413145693 0.365859318564532
-0.177647643670957 0.253426780313722 0.375117172135071
-0.176131566292105 0.253331030637539 0.376995407288699
-0.173004947657929 0.250067198034877 0.381997293316132
-0.170605013779243 0.24897642149825 0.385316135504736
-0.169251749058868 0.243391885372479 0.389016257271377
-0.165399225140904 0.239067139404517 0.395290984368361
-0.159629624187732 0.241131830783666 0.401544945541727
-0.159865819275943 0.231851766553776 0.404672770611115
-0.154005331265989 0.230030494706342 0.410381639565098
-0.147137520978013 0.226847926689089 0.417208929078999
-0.146759676536623 0.220191869445272 0.419431230577684
-0.144980072082437 0.217825068557119 0.421589005512747
-0.142558113108923 0.221238203743193 0.422677637483133
-0.137028199088901 0.215944057825692 0.428808734540181
-0.131482302783516 0.209904126086989 0.435161031448004
-0.128731310825166 0.206029173207885 0.438556852691829
-0.126293290025719 0.204596635948884 0.441008794414034
-0.117402340134985 0.203971011879723 0.448585113897695
-0.117011197364288 0.19492796325894 0.450992699212366
-0.113486797153517 0.194554334107521 0.453788255804977
-0.106771556579841 0.186930149790461 0.459200934637152
-0.101100370166279 0.180867392200617 0.463483388764851
-0.0965598758978575 0.173135632771335 0.467406750530618
-0.0933040825693321 0.175354497399941 0.468732740757348
-0.0841594985872257 0.166074095006502 0.474999368998509
-0.0828646592673267 0.160316211811417 0.476364601807655
-0.0764686424713314 0.15860689760174 0.479729334200981
-0.0774577273696458 0.157586268295677 0.479370239312029
-0.0669697009462542 0.147870809668274 0.483371928052122
-0.06198261137759 0.147071749089193 0.484929154618387
-0.0488755435567862 0.130443984837727 0.487947876787879
-0.0457994939653342 0.127393620840812 0.488643763540022
-0.0430008071761536 0.120186021509994 0.488986093153997
-0.029653744097456 0.117427632251955 0.491932583498723
-0.0284769115973463 0.111285748787194 0.491860988413909
-0.021112664965801 0.103001535673401 0.492718843032875
-0.0105439752748622 0.0900931380939982 0.493471425500271
-0.00236768786345479 0.0866636023884531 0.494170992120956
0.00200553072494523 0.0792259341806253 0.493433637763381
0.022247190768039 0.059585721186485 0.487166569860912
0.0219980788571137 0.0639671857091297 0.488164368319331
0.0501489970626186 0.0376379490080661 0.475081642570042
0.0555566660868369 0.0258039254791022 0.470969825481634
-0.197951950860481 0.284069239581462 0.332854791617067
-0.196200703905141 0.283695384226711 0.336342093949247
-0.191394386914557 0.277396192755792 0.347716949728475
-0.189171183910686 0.274377514094687 0.351783351269289
-0.188364427801967 0.274188072557722 0.352849108743752
-0.18702741718711 0.275534198510514 0.353864342732255
-0.179698767218969 0.266881765641817 0.366681569045808
-0.17972602967694 0.266849703703756 0.366662954980311
-0.172400202177331 0.26649571883501 0.37572258265216
-0.17334088371031 0.256973628272268 0.378887572214361
-0.17207651648208 0.259879493728869 0.379108941175197
-0.165768170569686 0.254840426136295 0.389052026581068
-0.164967923700454 0.255123158873057 0.389896267657166
-0.161976326984619 0.249320978234894 0.395678697438298
-0.153524925852174 0.242965820300978 0.406541375713832
-0.153864026122164 0.23970488975837 0.407325930257557
-0.148315339685289 0.236380976588265 0.41308885815544
-0.14638402377457 0.23483826872986 0.415221334095666
-0.143167072607443 0.232828990266731 0.418589463252201
-0.13700686290536 0.228989605723184 0.425036467427401
-0.132123168990694 0.224247345517432 0.430626026920051
-0.130107152576949 0.222590751643157 0.432785037729244
-0.125376112678821 0.223946642915432 0.436391054396601
-0.122593727300603 0.215189233719876 0.441173341470989
-0.121619502971373 0.206991964543932 0.444277061905542
-0.117470389624796 0.208925089831976 0.447232284097133
-0.113004387510848 0.199813626522315 0.452807469823199
-0.10173180472228 0.193681164112694 0.460442066625146
-0.10264125478757 0.194700928442494 0.459701803604559
-0.101570112451373 0.190614142485806 0.461252429766564
-0.0897926467819087 0.179935851178925 0.469757762295555
-0.0828477628772662 0.177052050881293 0.473880966776391
-0.0841924114775313 0.172218772195876 0.473975256316591
-0.0804548160471205 0.173725169258041 0.475668047642404
-0.0753902749493325 0.162805266303312 0.479733677818738
-0.0722612874788833 0.161479780809872 0.481441125919825
-0.0589578702111921 0.152772568696439 0.486207999397882
-0.0606809049367122 0.149590579115399 0.485483809349517
-0.0454274167787941 0.142860536325547 0.489697848641605
-0.0374480564400527 0.134708872125766 0.49128521573304
-0.0341540424742463 0.134473960234859 0.492010559144271
-0.0267439651997566 0.127443859124532 0.493210380481742
-0.0201668622519215 0.117025562264524 0.493808399612394
-0.0152588119497889 0.110353247708207 0.494216878154451
-0.00151747305764278 0.105639423880466 0.495398080541704
0.00727195716661166 0.090628170124909 0.493669694868447
0.00602497588633235 0.0870266936254578 0.493557585611931
0.0140432764247524 0.0819958086020129 0.492520971996735
0.0447927039776628 0.0578140260362527 0.480931018825255
0.0538235465291276 0.0413661185844889 0.474735196590897
0.0686473198671834 0.0330920289207347 0.468029299752709
0.0904036334677488 0.00999296888186718 0.450655667421125
0.114845078884929 -0.010458475873842 0.429633472182029
-0.194828808251387 0.291273427871586 0.334483567756767
-0.19335474961076 0.288740660640635 0.33878837520903
-0.189855500986137 0.287949444352137 0.344812173434472
-0.183081292939476 0.283718754797316 0.354955487172876
-0.181826428369153 0.280102369664168 0.358115940655809
-0.183065901553869 0.281196130676447 0.356115405340927
-0.173266462250314 0.275776908869001 0.370471484743431
-0.171252559974983 0.272890289181425 0.374223882994378
-0.17013765414903 0.269581637387726 0.377075096441562
-0.170316366820398 0.266095506810716 0.378435099849078
-0.167256898079852 0.264341122344362 0.382945445812254
-0.160500544893499 0.267447492422955 0.389747825948884
-0.158832373526089 0.259939801057421 0.395170773008404
-0.153839037054335 0.252740184434069 0.403069385961146
-0.149297856478548 0.257554857497439 0.40500803332341
-0.150725793454982 0.245585091892871 0.408038810202956
-0.145064109139063 0.248393403745266 0.411884570922175
-0.142689835809287 0.242686509955262 0.415756526070225
-0.135822597634052 0.243265680407784 0.421348903800312
-0.13467962527741 0.239385923285017 0.423584481558125
-0.131005681419696 0.229779971504109 0.429830293012366
-0.12531739569128 0.232510002158717 0.433724141273552
-0.123200595172567 0.230822302124061 0.436060380988524
-0.117271664958223 0.22247466399801 0.443625319102316
-0.116278002220942 0.221019069654342 0.444867481779962
-0.110588694574937 0.215841252390932 0.450055272980136
-0.100456818148622 0.212633972609796 0.456511043720161
-0.0995976282488843 0.208252723912583 0.458162114233751
-0.0996939651692739 0.201477135543884 0.45971369114089
-0.0887789994330673 0.199845825664848 0.466086309918983
-0.0869203998561186 0.194985651888711 0.468249024870313
-0.0810878747194803 0.191513094052255 0.472092606845687
-0.0789775728223199 0.18367650310032 0.474803787444856
-0.0774340450671199 0.176696948037462 0.476748677424196
-0.0629216737248353 0.169954913736364 0.48497778949955
-0.0654067304305068 0.170662351709036 0.483665048634621
-0.0525571359915876 0.16258665811811 0.488725922161803
-0.05420987675889 0.158153890927654 0.487981106244698
-0.0415583405503834 0.149976727323166 0.491168954022436
-0.0361481357182128 0.148620266415045 0.492466082948798
-0.029528108060693 0.145562620327776 0.49385304841082
-0.0264288788458806 0.129937068459226 0.493453501716183
-0.0129745250205581 0.126384837049008 0.495590659484235
-0.00755018378447905 0.119026256121615 0.495640782234157
-0.00120509335553514 0.110203649051745 0.495654480604681
0.00410037193532054 0.102752308919792 0.494711556446506
0.0163110437328637 0.0892391137564636 0.49276085943682
0.0304226665290925 0.0789198515157977 0.489593489251767
0.0404663039652865 0.0710424794792641 0.48507774241088
0.0644756660248891 0.0497791544758802 0.472826329315696
0.0788584187890702 0.0382402019064359 0.465318133874891
0.115854720569409 0.00149570652033608 0.433346335198715
-0.188663784575721 0.302636886686082 0.337788335870507
-0.18356454242171 0.300243273424573 0.345741237682269
-0.184293795489082 0.292717537691345 0.348961905683145
-0.183115802432948 0.294830757564196 0.34922618737967
-0.177520029679249 0.287373960234131 0.360004425466236
-0.17430945008895 0.291644262696714 0.36153531008773
-0.169827526033782 0.281443457738884 0.372085624190595
-0.169604216538702 0.282049024206577 0.372082947983805
-0.163852273729992 0.280947124652932 0.379568957402927
-0.160956646781482 0.27631511924619 0.385182085823253
-0.162422699979162 0.275797081644489 0.383635467261237
-0.158743047802039 0.26626888149972 0.392416047385974
-0.155266002574354 0.268152935424637 0.395787660869187
-0.150119523860354 0.260966667608111 0.403017807842412
-0.147057839564075 0.263194842656932 0.404712728977889
-0.142825074942983 0.260541874041803 0.409251286934727
-0.136774221366197 0.259599877966418 0.414647818618662
-0.136738746426971 0.248404063702948 0.418891295374645
-0.128648087602952 0.251331496844712 0.424576798902107
-0.128145425953502 0.241332004249366 0.428447872546975
-0.1215518632147 0.240274623869784 0.434346847705728
-0.12051226694838 0.23582875952443 0.43668114990607
-0.115778053512164 0.235392461112183 0.440810682668263
-0.111668038297177 0.23141572151596 0.445100153309625
-0.107887411187446 0.225175551066601 0.449043535989397
-0.102774435171564 0.219537564608561 0.453379461532088
-0.0991420280336373 0.221175104625932 0.454946324490584
-0.0914648269035749 0.217396209871818 0.460199764466461
-0.0894628373604162 0.207147907874765 0.463982174339872
-0.089878961989922 0.210135361464875 0.463023042116987
-0.0800942968864055 0.199900748162191 0.470836447877112
-0.0753832786215451 0.193761460410676 0.474706245335536
-0.0721557010062089 0.193787381130424 0.476437922592847
-0.0674224567188664 0.187469148355886 0.480178888959551
-0.0647934755057079 0.178902150162449 0.482933211087371
-0.0535669163704545 0.176402547564323 0.487051188961328
-0.0500155087860689 0.170045509764807 0.488571674858744
-0.0384711919866353 0.158605753652137 0.491571898804102
-0.035617946277822 0.1627470095273 0.491263653939222
-0.026080781393291 0.150525804540214 0.494293964757895
-0.0266849704789706 0.143715340816493 0.494366586508341
-0.0156002489442279 0.143951529394821 0.496433709329185
-0.00714562282001302 0.133538975233375 0.496703030738209
0.00171265805764416 0.122926570521209 0.496184641802756
0.00924620003318835 0.113597141074239 0.495056942150901
0.016344136195332 0.102853494052717 0.493571176562235
0.0317201515102116 0.0929135688606449 0.490107259451381
0.0521871756988251 0.0750893812681695 0.482302167161695
0.0439886593246007 0.0836802894571567 0.486804292504499
0.07707139095448 0.0511550924624508 0.468530756145015
0.0821348466957362 0.0453715515188129 0.465361401739911
0.12156069030185 0.00359285201986279 0.430928413416649
-0.186025062995381 0.307895893183627 0.338621223287975
-0.181600215757613 0.302619783947682 0.346806436654741
-0.181566761462229 0.303304356149066 0.346473987072215
-0.174235364528345 0.301729763234822 0.356134603476791
-0.171557200022869 0.294864197827826 0.363087560933426
-0.171267167809085 0.297014901264464 0.362265176019525
-0.16552146325988 0.292973799160239 0.371364245122867
-0.162074678431648 0.292035509777979 0.376013869124013
-0.162618119719751 0.288515593656566 0.377277240496344
-0.158735687432374 0.281942929904392 0.38533413999109
-0.154236695665492 0.282142515496924 0.390810607667204
-0.149461887021685 0.283389489311545 0.394750145848228
-0.14628665591029 0.280114223426533 0.398768337412731
-0.14284271785748 0.268830268669008 0.406062956574685
-0.141673443649324 0.264670003543736 0.408629064058273
-0.137923155336552 0.260946447718119 0.413176010336084
-0.133401118938074 0.261198888073475 0.416842827152432
-0.13055744519043 0.256825423777931 0.42088409261515
-0.126306755665848 0.25534421112117 0.424988900338624
-0.123823899105762 0.250117705002318 0.429056506578269
-0.120688477905099 0.247881163239332 0.432522346664003
-0.115848836821423 0.241511972638343 0.438742937818009
-0.110419720785054 0.243886518723451 0.442043423064363
-0.106468105991197 0.235046673776949 0.446871643734266
-0.102186046172812 0.23238536462605 0.450026940737624
-0.0990763853412194 0.230704135328739 0.452242860345956
-0.0945941444407271 0.225731549338849 0.456202149080515
-0.0908348187459175 0.219687025349822 0.459933273904517
-0.0873367560901528 0.2142371132044 0.463326886309316
-0.0777208561985072 0.216922342190495 0.467917253270607
-0.0755121875438913 0.207695891890685 0.471503678461409
-0.067251982880029 0.20486109298955 0.476705265979069
-0.0641668754514052 0.197055536214531 0.480073858713881
-0.0601649938559333 0.192207288112323 0.482549487216435
-0.0535033749014084 0.189611488032674 0.484219140442942
-0.0494267627897606 0.185043818885096 0.485869659681737
-0.0437365625918418 0.178777955078863 0.487898453312636
-0.0383666257549731 0.16542192745761 0.490560558324489
-0.0319894624699966 0.164581207425011 0.491388564451837
-0.0255117185519435 0.159371361120386 0.492972106446573
-0.0200222656141049 0.153980712392889 0.49445651118275
-0.0152692864868416 0.146668902944107 0.496060853400191
-0.00603390041305755 0.137632458026792 0.49707481804591
0.00898369150908516 0.135888064625316 0.496707846691939
0.0186965006924766 0.120413513825674 0.49426397373496
0.0235768203579313 0.113238617215635 0.493052144907013
0.0310666292193586 0.10663132548443 0.491014225478829
0.0473648677818362 0.0975109516516963 0.486641247319155
0.0701151638619175 0.0698226100569137 0.474848103358839
0.067159147742238 0.0708283959037401 0.476264283542059
0.115458443162429 0.0351430986029602 0.445430264027298
-0.177752875849501 0.318020182608808 0.343043687844073
-0.177243215667155 0.310421989942921 0.347791482738396
-0.171449112198415 0.314593368859667 0.35247850948542
-0.17335722051329 0.305165409299839 0.355319012588758
-0.166150478093439 0.308535183625529 0.362138660653598
-0.164808424392354 0.302417932640433 0.367079898358443
-0.161570738637779 0.304528022666209 0.369819163687905
-0.16142304042072 0.295901050169867 0.374692292662674
-0.156902379002139 0.296543324490169 0.379771106909888
-0.15546586840489 0.290839973383981 0.384600477436936
-0.149705642377875 0.290497902145757 0.391422562600292
-0.145875620846125 0.284432816944488 0.397200345031921
-0.144398887828414 0.280187610690824 0.40026759074663
-0.143167651323703 0.276661987931553 0.402793744970393
-0.133933988578363 0.277216825956332 0.410065902363226
-0.132610605599366 0.271119740431863 0.413702014849289
-0.127732281315028 0.274931647782295 0.41610357116622
-0.122805824255988 0.266503061628293 0.423629808125154
-0.120993526552616 0.259334695155999 0.427882883144864
-0.115457521988675 0.260323206075193 0.432111734415745
-0.116965685089272 0.257282516423022 0.432020849310933
-0.110584249324704 0.255486082732131 0.43801967519909
-0.11081281610723 0.245497401405238 0.441323981579989
-0.102153997043273 0.242587248952321 0.446982023228789
-0.100044898595642 0.234916546813978 0.450445350191674
-0.0911780286313295 0.240920482383879 0.453491506310473
-0.0895687148293376 0.233235165351811 0.456715057970605
-0.0848980096214117 0.226669001353597 0.46125644123587
-0.0752481730622986 0.226386881861453 0.466651364982449
-0.0738573314047811 0.220550178097318 0.469077933293368
-0.0721010002285599 0.209741488908895 0.472890167845639
-0.0646333112905312 0.209424874397403 0.47706080957953
-0.0597717580146458 0.204028437128437 0.479826153835662
-0.0555872357215967 0.197378643326079 0.482107226314155
-0.0482145306121027 0.192201927393451 0.484503804600266
-0.0413572815537039 0.188303378876072 0.486444204043061
-0.0414789784236676 0.184782553019209 0.487170983740872
-0.0363192962709532 0.175563520099881 0.489288432822968
-0.0191947239647365 0.16633917421135 0.492641185089276
-0.0170316919088778 0.168528573746861 0.492555650372879
-0.0133690549228056 0.16189736976251 0.493971023204659
-0.00388366229053003 0.152936628479978 0.495885717017629
0.00451846212298664 0.150962292797186 0.496095802237092
0.0167746987946339 0.140847125862694 0.49604041332469
0.0205653717415072 0.128968755465856 0.494639213645724
0.034944065290225 0.114682243337098 0.490730997427637
0.0461660361842566 0.102494416669666 0.487202051657906
0.0508204591045498 0.0997364516342259 0.485837795134184
0.0667316218432271 0.0931993024562157 0.480808148106497
0.0937430670684347 0.0699284443992974 0.464950360318566
0.123679334823355 0.032132111115349 0.439261617271882
-0.170732369537059 0.32819430541923 0.341000558929316
-0.170462281122947 0.319521516162441 0.348058401087168
-0.169707457744327 0.318241934670526 0.352583927386234
-0.167704460393808 0.315387750800106 0.356542696854223
-0.164410172570591 0.311030042606566 0.362870436329526
-0.158347037470041 0.307335938050746 0.372161800936239
-0.159180376905539 0.305015007102329 0.372424439307866
-0.155529855967449 0.307693120132154 0.375350255051818
-0.152462487836049 0.29977569054527 0.38334311171483
-0.148432174044204 0.300284432557907 0.387905799652814
-0.144659088056296 0.298085070459148 0.392176266674464
-0.145231138688571 0.291173042792633 0.394755510096688
-0.132559451498532 0.292330018232839 0.404526765667314
-0.133976046683862 0.28658240320664 0.405908132529167
-0.12865900352046 0.286936910688683 0.410065815183414
-0.130034655575152 0.282917392400854 0.410719521586099
-0.119819832905765 0.28103551474245 0.419835499580898
-0.122419963402007 0.270801901009219 0.422231829663111
-0.116834486152574 0.272059517654182 0.426209658225187
-0.114682487482017 0.261693534475222 0.432232056786091
-0.111078224478962 0.26369661667802 0.434464729110796
-0.104234306493958 0.262359904944732 0.439228307159342
-0.095757681511238 0.254008669546486 0.446623109739159
-0.0970846632661322 0.246540246057488 0.448408599648488
-0.0888335762340246 0.24923571399346 0.451973084988285
-0.0872195156107183 0.240170295837485 0.455886710484481
-0.0807616341299083 0.237564108849506 0.460260569728939
-0.0768347949925337 0.230677612213269 0.464490203319148
-0.0694158491732279 0.228413683207501 0.469252413731259
-0.0697358106928526 0.226132089822471 0.469761264055581
-0.0608183495572995 0.226265441811273 0.474015971438189
-0.055461841850965 0.221058723751111 0.476293811216135
-0.0539182478369651 0.213869818065137 0.478392914971639
-0.0524612528455524 0.203197162038455 0.481260518718666
-0.0458112373580664 0.208170265000622 0.481182290101081
