ply
format ascii 1.0
element vertex 845
property float x
property float y
property float z
end_header
0.13141560619242 -0.0574957188450233 0.202131356852584
0.131083630004368 -0.0621039920682377 0.203976161458458
0.126359652733292 -0.0673756013975159 0.21293136103903
0.124699708710444 -0.0652193380355101 0.214678677981225
0.121092724449055 -0.078029584071754 0.223088008652151
0.117431450783883 -0.0717750188340264 0.226546918734198
0.118106562721767 -0.0831313566880838 0.233062766951189
0.115519464874609 -0.0864855600860445 0.241329427365819
0.109288595441349 -0.0823800362485402 0.245768996656367
0.106041831118638 -0.0833290236888244 0.251350739010301
0.105405663785617 -0.0898048535420474 0.257060348779602
0.103073460144239 -0.0985304968850882 0.262071073806848
0.0955152642398934 -0.0990625673250257 0.269772774968654
0.0885706605614574 -0.104000132410745 0.274231051959577
0.0862428000055996 -0.113003770295267 0.275451763878842
0.0791051673439037 -0.118841550172186 0.278627863855545
0.0754031067685051 -0.119670671359884 0.280351172787624
0.0706844450647355 -0.128106033535805 0.282312289817068
0.0636643803422328 -0.139928116816019 0.288404413761403
0.0623807728514804 -0.143098260788126 0.2898585092332
0.0587688144212377 -0.151507619344284 0.293671108171486
0.0478310760186846 -0.149843296593489 0.296154015266825
0.0326306238111571 -0.167755463357719 0.294534620241195
0.0314121193783382 -0.169928781796556 0.293821986387394
0.0241363537551027 -0.183642565637794 0.289545117532512
0.0153439490142469 -0.189773655603476 0.287730245948953
-0.0205742340253266 -0.231466751638013 0.265037716634852
-0.0156907736228302 -0.223259583039944 0.271078564434858
-0.0339236812732472 -0.248017501381187 0.251505425237628
0.154668210238208 -0.0521073725726027 0.0638472408769456
0.157231512708015 -0.0465845785487574 0.0825106583661901
0.157705926216929 -0.0489350733628789 0.0915175620974107
0.157921161604954 -0.0536819443493403 0.0971941334551076
0.15779978679242 -0.0528313967054985 0.10558549262401
0.157637965519476 -0.0512051877659149 0.10770263670571
0.156084725654615 -0.049087742892828 0.127885551684609
0.155943341767019 -0.0490104266592381 0.128557475535915
0.153207295083697 -0.051829317653419 0.142966083105856
0.153092157502745 -0.0574693716146324 0.145727865416748
0.15129955523295 -0.0542576813878652 0.153184657049194
0.149538231145512 -0.0646241969092563 0.162555026469609
0.145803511522064 -0.0554028224905975 0.1702237992872
0.144807849566152 -0.0667088912401983 0.176370543573822
0.142725168236729 -0.0597520552984483 0.180360385208027
0.139642621817875 -0.066231336107459 0.188691922937565
0.137225274213 -0.0691312767158499 0.19407617892087
0.136789030915003 -0.0785663854613931 0.197387710970675
0.129206580537253 -0.0742477411828819 0.210754218751645
0.126189805456969 -0.080292794402562 0.21657374427599
0.124626733395271 -0.0847058971205061 0.223281240426103
0.12756962876271 -0.0872452299045997 0.220742286691784
0.119162976286339 -0.0849242902630064 0.233266225055596
0.117250130055629 -0.0863801305146265 0.238365978484356
0.113077366087309 -0.0895879101889621 0.248055663178595
0.113853362742253 -0.0972153787058468 0.250735529463215
0.110549464326104 -0.10102721519226 0.255229018736015
0.106679195891427 -0.100801252038474 0.259090966500395
0.100621349337704 -0.108062248713953 0.266293517422302
0.0948054025369093 -0.114113139180935 0.269861896026539
0.0905527254760592 -0.115805774430683 0.272763637161719
0.089794220266946 -0.123341571080528 0.272213380416762
0.0852063955083891 -0.131061551332121 0.273954468174272
0.0794343869094486 -0.142651775361438 0.276022651887374
0.0710294716851272 -0.143025027384678 0.28286486811055
0.0716706239005502 -0.151300004097907 0.282668995309202
0.062645926933883 -0.156042474798359 0.290787342857637
0.0495855590755379 -0.168638286224932 0.291621803401764
0.043576955932283 -0.176661205228485 0.290739799575558
0.0345718762677358 -0.179354598098333 0.290272250114498
0.0223433506844995 -0.20397609789338 0.281487397005735
0.0181862158909208 -0.212514480756692 0.277237675811943
0.00405142796771529 -0.218762299853444 0.274738648359343
0.151667279853772 -0.0702942017478968 0.0536743818507746
0.154721283628216 -0.0595618438798338 0.0662016472314703
0.154529876738696 -0.067950537252888 0.0672822992049406
0.156103238139968 -0.0646249531367962 0.0743413555949877
0.157631986180391 -0.0725984930992563 0.0930023266381417
0.158081042183849 -0.0622523524781551 0.106468195734036
0.157238500898334 -0.0563684209781245 0.115908693036935
0.156814556062905 -0.063106436255409 0.126513527818056
0.155991160838805 -0.0660737347064157 0.134555280346232
0.155602949746257 -0.0717599642405313 0.13855777083826
0.153512461118257 -0.065319447601214 0.146554913478564
0.152235133005558 -0.0709016560590862 0.154537859232323
0.149967884842595 -0.0749119460651494 0.164059375901294
0.145942984725222 -0.0745387088439831 0.175234119974033
0.146991104336585 -0.0796887589349857 0.17364229835113
0.145525890812359 -0.0846579935541925 0.179042133123774
0.143733362680853 -0.0830845177087661 0.183651791984439
0.142147892683728 -0.0904690258531018 0.190613913598512
0.134340533242267 -0.0835916129274219 0.203389551143207
0.135715636991978 -0.0916918271331912 0.207922886092752
0.134402814503399 -0.0955709967737827 0.215835925973101
0.126626930195878 -0.0916314389778128 0.227209288616513
0.12838100399045 -0.0962458685961128 0.228872581268032
0.123249098261713 -0.0942885042965675 0.236381135371308
0.119115372832002 -0.103426526970654 0.246463044715537
0.116869996803552 -0.100207997549817 0.248567005570334
0.112118113553466 -0.106896135138732 0.255390124901357
0.111231152736319 -0.1139385992477 0.258028577826139
0.104406777932546 -0.123459888199424 0.262205791926651
0.0967211122497199 -0.129719798680669 0.266757977252508
0.0929772201971935 -0.127449504454649 0.26952206098116
0.090379695900102 -0.144479068438086 0.26877881823049
0.0866637222794445 -0.146888240158092 0.270841993636938
0.0785805548157575 -0.147114640570839 0.276337384488977
0.0740647992497198 -0.148739868098586 0.280425022519421
0.0689808234424056 -0.15630426603684 0.285215180629182
0.059110475899986 -0.170588682348021 0.28825870521548
0.0591678239426959 -0.172377825294457 0.287722523544393
0.050384565902069 -0.182467863069619 0.289832952307122
0.0340238229527406 -0.210493463041808 0.276908489036776
0.0312000694528916 -0.201149687595094 0.282027060711703
0.0222504286847645 -0.21767771703163 0.274364115673548
0.153821270818271 -0.0829883300092977 0.067101224090193
0.157044996075684 -0.0779258649640953 0.085759556773316
0.157524975436423 -0.0802822135660001 0.092504231067061
0.158512014750842 -0.0758090517096567 0.106912644299535
0.158255609666776 -0.077045969683279 0.111733675568068
0.158140709494807 -0.0866742060170666 0.116509456792535
0.156587415113176 -0.0746263501807855 0.134559807856511
0.15644369928503 -0.0817744117338251 0.137091177416463
0.153457496236603 -0.0837660237328034 0.151969108655004
0.15294850479723 -0.0874042701329453 0.155354173450945
0.151987140864503 -0.0869145079132039 0.159852784572814
0.14955317798667 -0.0881451277190787 0.168673052134109
0.147461233818969 -0.0953470806907466 0.178186424651612
0.145647979724146 -0.0965786778257213 0.186395972000691
0.14462101601277 -0.0953709675869708 0.188435025330422
0.143786644285995 -0.0969021203415709 0.193534116339309
0.142675760720065 -0.101305066954132 0.201580422731115
0.13963366486429 -0.103013332142827 0.211440422316131
0.133262638027254 -0.101223702358423 0.225070651525726
0.134475045499004 -0.109327679125581 0.226835000438485
0.130547889239446 -0.115893456169324 0.234009448059585
0.124880628771836 -0.114339951695458 0.24133745924904
0.123595897053068 -0.120755240311524 0.244687545015371
0.120207554577673 -0.125872644632608 0.247942049178415
0.11087782033332 -0.123005080755 0.257567443930709
0.113214915734653 -0.126191175065525 0.254770860326822
0.10756754047558 -0.138244989400228 0.257550831426456
0.0983138197269032 -0.148363031474893 0.262597370842646
0.0905908449822687 -0.148273769584377 0.268147501869887
0.0861755362960574 -0.155337080947564 0.270049685485198
0.0792883448050698 -0.162473444113284 0.276152400160917
0.0796398055553863 -0.164255167881345 0.275844392825346
0.0797840615898257 -0.17225401718318 0.275406486669485
0.068281398379291 -0.178407991696441 0.283317434292975
0.0649087992846406 -0.179854467403384 0.283911889516008
0.0430621194134522 -0.205388877361378 0.278365760812898
0.0352127692126394 -0.21753592534331 0.273176424332483
0.0272399567172186 -0.221743955345729 0.272018490321697
0.00881934221976444 -0.237484708891385 0.262574304121038
-0.0155126443586111 -0.271478827194374 0.232054518474403
0.151290893544305 -0.0912922169501143 0.0573993012343419
0.152290325881279 -0.102101867147272 0.0650069582791351
0.153856741577697 -0.10251615482133 0.072521532913
0.15767028279865 -0.0932796968622334 0.0973723259383308
0.157853091244111 -0.101757505895574 0.102391688107744
0.158140062394623 -0.0943303757513117 0.118368004734603
0.157391186477986 -0.087825673746359 0.127897415793983
0.155933393189348 -0.0853895372564818 0.140476614763381
0.156105692658162 -0.0965452126146711 0.142519398825753
0.154557424803944 -0.0991177105893144 0.150629608657598
0.152261326742234 -0.0910388535877842 0.159595469861172
0.151430499979775 -0.0958765707347488 0.164837499326227
0.152587183256365 -0.105881867259296 0.172720571902667
0.148899297098623 -0.103280626837323 0.183884380383824
0.150066297170286 -0.105378957650477 0.182266692711681
0.145971037376507 -0.105378981702419 0.197292072268097
0.143843155426151 -0.108552302706315 0.206723098422062
0.14378977545842 -0.109334513663568 0.207745785391571
0.13918428955945 -0.117010485504531 0.219369778545235
0.137672810552512 -0.111475965713116 0.221201413290769
0.131304619757688 -0.116455607259926 0.233119485365333
0.130118898923211 -0.126535079784414 0.237249198561445
0.129890404110762 -0.127935686140585 0.237909815520795
0.119307853875428 -0.13479607664567 0.24717189428767
0.122469005937491 -0.134154963942106 0.244175884940368
0.115973195936659 -0.14263604690252 0.249126540077259
0.105105299900551 -0.146803320792808 0.257234983481324
0.0979447502959532 -0.153651955807046 0.261417306786439
0.0994007032835022 -0.160102992808497 0.258528771105656
0.0942451073126621 -0.169113715430339 0.260831114019571
0.0911293623948698 -0.166611969571243 0.264348010500843
0.078802533315652 -0.174912827583489 0.276106052127264
0.0766141635269806 -0.184034999667442 0.277034260820379
0.0774108427189728 -0.186041211070069 0.27587748013541
0.0687648934192359 -0.188360521503667 0.278984206706889
0.0555716300745179 -0.207847625635104 0.275379998658254
0.0498771643216456 -0.216184535754271 0.271902247849521
0.0268347220459466 -0.246339881104203 0.254876731270776
-0.0198512726482382 -0.293657230569156 0.209680046953573
0.152689053974905 -0.121870186881113 0.0709417599644235
0.157373552193226 -0.10974592850079 0.0978658976039404
0.157801379786639 -0.115102246597597 0.10005852676334
0.158724202154093 -0.114416929100772 0.110589394514469
0.158346890425749 -0.109440718857912 0.12834918767387
0.159236019654853 -0.11450729963446 0.129727689737355
0.157703432488775 -0.109645166319839 0.145566579795707
0.157749767933262 -0.113618323150178 0.152443189671009
0.155129128561013 -0.108586245173582 0.162320448724824
0.155378795028111 -0.115023403487088 0.172406778522306
0.153591183028397 -0.112170734658139 0.176741605604435
0.152729912582461 -0.118805440608657 0.188748540916154
0.150433597753712 -0.12071312615183 0.19573152775161
0.150557663494176 -0.12031130762525 0.195344010644831
0.14680627601051 -0.122045879225737 0.206013180205589
0.141488826761987 -0.117191936208154 0.215058432635746
0.140916991005127 -0.130512379810826 0.218707860034349
0.135963337699624 -0.131736289415133 0.228229366304374
0.130960277482443 -0.132278007126139 0.23588359786622
0.129627909761542 -0.134140620710577 0.237061635588841
0.123172747293276 -0.145995208231212 0.241582558200246
0.122969398423029 -0.146077777808085 0.241768640013825
0.114352269095306 -0.160091191292835 0.245923208977739
0.111891020996668 -0.161615063101802 0.247627243594092
0.102677950017342 -0.165568077191302 0.254432799207936
0.0967973469742807 -0.16823554629156 0.258741532111205
0.0929779164237631 -0.175797627414591 0.26134912072803
0.0953277963881311 -0.18512008826567 0.25752988590299
0.0843534525680132 -0.194236058432863 0.267343717144819
0.0826849320784911 -0.193325790822634 0.269218231360933
0.0716775679925618 -0.205684318603314 0.269899293053518
0.0609474206126066 -0.215007229933653 0.270020077396375
0.0581792437296092 -0.217783220218871 0.269721936709919
0.0446322455017451 -0.235817505878215 0.259237252639351
0.0156898152621838 -0.26328836858672 0.240478785587306
0.154670991091755 -0.11944832238185 0.0798915166838844
0.15524669097869 -0.125461590812024 0.0823858514950131
0.158618789176325 -0.127035934791809 0.100347327154833
0.160161696677536 -0.121169801604259 0.11932105638054
0.16050109727526 -0.12329403633128 0.128149601781186
0.160309048739668 -0.12124510574948 0.134481555323516
0.159031345357529 -0.120449716882773 0.154110103923148
0.159868971238845 -0.125973216541922 0.157136043502916
0.15834214429791 -0.122319336420559 0.16335427164077
0.156182479215941 -0.117489575691852 0.171612829419254
0.155960087908264 -0.125360747484041 0.180599989214515
0.15469689794066 -0.128396571575917 0.18448222626391
0.148924177609334 -0.127558853215504 0.20062897702837
0.15087611918675 -0.139010329680464 0.196405809885179
0.147722090851996 -0.145076439651868 0.205907863097474
0.144463326202892 -0.137670767477272 0.213466783580732
0.142392185362748 -0.137406856692671 0.21729567708708
0.140961225126569 -0.142317293781518 0.218918538467637
0.131541861646054 -0.152082642008202 0.228790360629601
0.125896178841852 -0.156056131237899 0.234717300191715
0.120490641077783 -0.165788592808863 0.236549434613367
0.118795332681131 -0.167945217100986 0.237521187059956
0.112764046891441 -0.177408075859903 0.240383229534189
0.1114554951271 -0.178892283629145 0.241268001513236
0.100890435507796 -0.185063547689983 0.251134022228668
0.096698942323202 -0.192807963238321 0.253866517898594
0.0921780436853259 -0.19556774337886 0.258550563149321
0.0877775494138379 -0.197104199529233 0.263330317807112
0.0841952862103577 -0.213570653185752 0.258962999342001
0.0784740856209376 -0.208824190081842 0.265141283548491
0.0665509960849852 -0.227252958407823 0.259186543974898
0.0506612742111761 -0.239287234927169 0.255534384902433
0.0068098680962948 -0.3015613326417 0.199624852945068
-0.0706835635020861 -0.380590527289053 0.115867287179089
-0.0673397101951307 -0.386892241063375 0.116404034658363
0.157259149780609 -0.132544505608206 0.0913237967860866
0.158007668772481 -0.131974511353811 0.0950480355839251
0.158111238499719 -0.137617810262006 0.0950756539315894
0.160960820063406 -0.128846362499149 0.119908053893026
0.161628051404857 -0.131537378698328 0.141548515584515
0.161597335550542 -0.130768040192679 0.148467982164061
0.161252958135318 -0.129434315750528 0.15177221675403
0.159500071187563 -0.127775591412749 0.163550520333843
0.158452274986604 -0.127221713181433 0.169197677448902
0.157976432816303 -0.141644983952176 0.170382607940567
0.157233335428346 -0.142708809844105 0.174121038093666
0.154684875913181 -0.147587362859442 0.186833795650367
0.152839073745785 -0.142327849135447 0.191388818001769
0.149850936053741 -0.141357190887773 0.199541778982155
0.147671167358849 -0.152010264878402 0.202747677241961
0.13866393525491 -0.15885265770003 0.216648299296586
0.139378922516496 -0.16001235663619 0.214621033861412
0.135927360935301 -0.155227392976052 0.222070281889214
0.128141031292792 -0.167203288548253 0.227228220114447
0.123315175873871 -0.177917907528208 0.228493767326198
0.120767697048525 -0.185584434620862 0.228395590905474
0.114268719535453 -0.194023133407891 0.232383071386045
0.10636176641015 -0.189225204759073 0.243135859833687
0.105999674009683 -0.20042718966427 0.240042824826317
0.100069805281032 -0.201359682187156 0.24702347576944
0.0943121513021059 -0.209093583405343 0.251303945440256
0.0937584479740557 -0.21047399160415 0.25148274142988
0.0853645619843259 -0.217429274051096 0.255757903962893
0.0744430215050496 -0.228390176410303 0.254287133226021
0.0595065406386914 -0.253469856909683 0.240439367175773
-0.0355106311064935 -0.365398274335732 0.121861535888732
-0.0454172982702229 -0.371841185085329 0.120731347941409
-0.051978923907013 -0.385804231254176 0.120286303506234
-0.0636225952835768 -0.39137381594637 0.117084746502982
0.159342905076804 -0.150166415965435 0.106583350064148
0.161398799088336 -0.14232740188428 0.11858066456667
0.159883025477898 -0.155744982520089 0.115526433492294
0.161832194623136 -0.149773706208034 0.12912962244694
0.161482185366725 -0.140857220697119 0.145526432608107
0.160828758992934 -0.155133872200024 0.1440558402983
0.160830013727077 -0.152092711680303 0.145976035074457
0.159999863745849 -0.155263496329433 0.160494246265721
0.157371317101754 -0.152970635560122 0.17332819067662
0.155898548098062 -0.157849004093922 0.179632467557933
0.152600690789875 -0.162659299463423 0.185599494495159
0.148123258305902 -0.157832983159744 0.198817658918871
0.14914512205387 -0.163204330987434 0.194573103043995
0.14327137530278 -0.167361955504592 0.203912690719618
0.140078322091283 -0.170212773745346 0.208735928887248
0.13381348013532 -0.174156044386018 0.215938439817796
0.130288834324457 -0.182894107035725 0.215571654048515
0.127843270643029 -0.182335176332883 0.219758804575544
0.120911000117903 -0.20268625473368 0.217963617328295
0.114009719180906 -0.200958504564633 0.229200652975908
0.115238030766815 -0.205310776400492 0.224939067649048
0.105752013899602 -0.213918044840164 0.234347059760508
0.101616485596614 -0.213658997199512 0.240615418129095
0.100920722367419 -0.222029402247136 0.237063440274803
0.0924929706267124 -0.220901827334901 0.249231372509105
0.0754370907437756 -0.253378137705716 0.232685129734738
0.072746400984942 -0.256096736849807 0.232115286715816
0.0455923721247339 -0.283698340235892 0.210332073083226
-0.0213425232523997 -0.370519082165673 0.122739923554584
-0.0374629248059841 -0.376984032235908 0.121614643845095
-0.0499753946811999 -0.392035259529521 0.120585670844795
-0.0602284952451056 -0.401627700650198 0.117540148644431
-0.066271026649953 -0.416280569210605 0.115663857858057
0.153644378861237 -0.167322155211016 0.0872380524043413
0.158922025820252 -0.164775056809627 0.110995884392527
0.159560532555246 -0.16779212224701 0.119750436247323
0.158839579238874 -0.172454468750755 0.114612357881008
0.160691477357217 -0.160187921588493 0.143662160851761
0.1600428766854 -0.166676720415915 0.151605366521424
0.157602273607201 -0.175900774208197 0.149250246903897
0.157197366439674 -0.171848874095901 0.161320248231743
0.155834928219718 -0.174811124059127 0.164804929625111
0.154499752670145 -0.170753707087655 0.172632219618755
0.15097842932499 -0.177606086891006 0.17824527695377
0.145241778022848 -0.184744652022432 0.187813629930715
0.142973187022259 -0.185355832359614 0.192385726412631
0.137577517804412 -0.182347197670316 0.204621133086645
0.137584297417829 -0.188537776334242 0.201130788302893
0.130316714117796 -0.206633416512283 0.199141764703841
0.125157334841572 -0.1985038828878 0.214002190684678
0.124722011343522 -0.206021896241095 0.210422819865753
0.120014462680312 -0.208886223697961 0.215810886407121
0.110352495351978 -0.231614225981779 0.216635640995513
0.107173704163571 -0.233273533130839 0.220535909941228
0.102337352400948 -0.226563601168116 0.232096402144342
0.0908434599470128 -0.245423140971668 0.229102189311278
0.0893514620565859 -0.237506278151837 0.237518412803271
0.0731685468998912 -0.265661632574086 0.221171480035719
-0.00227485362721882 -0.36055867644722 0.12291419110629
-0.0164387652722031 -0.372419476282845 0.122956029418639
-0.0264564698698596 -0.377891534088282 0.122873651841897
-0.0269773248054998 -0.392385187352161 0.123414835516101
-0.0369783698613276 -0.396236125635639 0.121963469007089
-0.0475878068441849 -0.403898385278921 0.121011551558922
-0.0506396682596535 -0.415435446274437 0.120883110934381
0.150952629263586 -0.190928654046855 0.0914243155859559
0.157270757282932 -0.180516522316646 0.113959917261776
0.153410005602172 -0.197553511846047 0.112609279665378
0.154585632811261 -0.192482377190564 0.125289257369191
0.155882528239248 -0.188441694892483 0.138570150473096
0.154238902855427 -0.189542540355725 0.14947998628253
0.153153720357061 -0.188112902098338 0.157932566411212
0.150831547868971 -0.194371500163644 0.159930555769632
0.147704720770418 -0.190168596789095 0.176461216825868
0.143533395990578 -0.195669179970966 0.180366390757482
0.141052894711124 -0.20811044572538 0.173320006436531
0.13701252277896 -0.208062247901933 0.18374018267349
0.13067452928045 -0.220415041478336 0.186763824589321
0.127707088381187 -0.229817225365918 0.184984152081431
0.124724845170445 -0.217555690812901 0.201622629458254
0.119756306159979 -0.227222700754778 0.202608614048404
0.12030083278627 -0.224074192270115 0.204434325462639
0.112493904617412 -0.23158750189145 0.212554326802321
0.10250886169373 -0.253815004341125 0.208853239447075
0.0981079715440657 -0.255925221387102 0.210212102082477
0.0746406042124447 -0.284337271673592 0.19330370235366
0.0806370364819711 -0.27287308218512 0.205052573047506
0.0681918519300936 -0.285558642579037 0.199827990801875
0.0062945791398643 -0.363795909935991 0.123229445960992
-0.0106461595790758 -0.376619708168137 0.123286370102739
-0.0145399352038667 -0.390128265528423 0.123691273670297
-0.0300366720556595 -0.393525500198321 0.123369300507309
-0.0286045491486062 -0.396695461755015 0.123532797553382
-0.036613705524138 -0.419255682185218 0.122358875678715
-0.0481066423187432 -0.417633158544513 0.121173114966619
-0.0645240691409714 -0.452687501443958 0.109522289895633
0.151437897059324 -0.200832027334423 0.106543607306215
0.151542863109721 -0.202724181104309 0.109515537632904
0.149904373118852 -0.208559908881149 0.119392656910476
0.15226441552171 -0.20084019193468 0.137166362038756
0.15226579852338 -0.199472889689515 0.144691423304808
0.143557446813412 -0.219687381386588 0.134101791933807
0.140526379175727 -0.218043925813391 0.158941050944924
0.140369934047163 -0.216362917997578 0.161682630846531
0.13852620881139 -0.216177082000528 0.168174244437538
0.136524392513886 -0.221177406052231 0.168029423905114
0.130464519808624 -0.23482606871023 0.170010016193748
0.128549909939829 -0.23189775351423 0.179788968487177
0.121285907244335 -0.239680366287445 0.187391286296373
0.114788354635218 -0.252686900432023 0.185006312198771
0.114589638561442 -0.242190145311976 0.198329646416999
0.109307181066751 -0.260722914205613 0.18690810532769
0.103831254855285 -0.255526246754966 0.20530803727697
0.0995794909441611 -0.268799983158017 0.197560948589003
0.0299237075752475 -0.354873897601277 0.122135264587721
0.0271079433395871 -0.362156249403304 0.122569442075796
0.0153178384893361 -0.369040093495704 0.123234200435692
0.00925723316150766 -0.373765828231674 0.123633903147104
0.0050924487930414 -0.377151370956963 0.123915318880117
-0.00944456957572085 -0.393935593048258 0.12398617722487
-0.0176864280452414 -0.399985668632797 0.123977830144485
-0.0249340039680541 -0.408746986839053 0.124102588974698
-0.0361362061565415 -0.422137729352017 0.122451985460382
-0.0410244287252234 -0.426902698395503 0.122032628728253
-0.0387279545067516 -0.432236407440885 0.122347597937277
0.142945408766823 -0.231937928897331 0.0935319697440745
0.141056496782114 -0.242369031061715 0.0889877099381409
0.136106344842027 -0.24176683113272 0.0986816012963773
0.13510353210229 -0.245505202660089 0.097167309792296
0.133441674823066 -0.247917396750347 0.105474694220446
0.131734821841303 -0.251794411232657 0.114906485804365
0.137818163265973 -0.228545892484815 0.154001374729402
0.134406539835401 -0.231701053881176 0.161108749807628
0.128864937538076 -0.253392124700633 0.141156656182031
0.129435716390438 -0.246563477692392 0.169334430523123
0.12849951858054 -0.249094127723906 0.167650109233459
0.0848235539088783 -0.308934029439056 0.114163012704563
0.075255387685285 -0.3166011254853 0.116217404898445
0.104952166433684 -0.278796724561105 0.17290874224429
0.103722164970204 -0.27875147957526 0.174670232504251
0.0576080186578074 -0.332439994366805 0.119100011587914
0.045371410224895 -0.349831733781545 0.120775531616846
0.0413083077920329 -0.35576636447444 0.121336529969825
0.035061247682504 -0.371052016642409 0.122378382002048
0.0255345755480475 -0.372431981574088 0.123115222030859
0.0183188344513073 -0.379138887311431 0.123643884547715
0.0146778471758971 -0.391579593452723 0.124353026603965
0.00486400419420112 -0.398098823286688 0.124944911077698
-0.0104702719904784 -0.408397280822394 0.124511396059764
-0.0132304731988839 -0.41092961107468 0.124528031229879
-0.0146954187020808 -0.428001860602226 0.125140642870675
-0.0329254880898501 -0.439944380612492 0.123158946947537
-0.0316513765999099 -0.438628448927579 0.123456045592414
0.139101333031737 -0.248268358282076 0.0720712580518496
0.139183151116157 -0.248022435798465 0.0868969202698308
0.134049598494321 -0.263452472072921 0.0872225089549343
0.131099766171196 -0.255085157947907 0.0997342510751915
0.129985536712015 -0.272918038253704 0.098116613792977
0.12750337157317 -0.270373858328835 0.10383084599558
0.11580416771253 -0.278692797724545 0.106059899088543
0.117276023488194 -0.278054051120857 0.105888747451917
0.106868785607125 -0.294467466004642 0.11028670871506
0.102580180804502 -0.298637314773511 0.111404016325239
0.0936264403065428 -0.309321462097731 0.113307367160718
0.0846765530559914 -0.309492150728482 0.114312560853344
0.0817329309211205 -0.323384426531828 0.115285385895484
0.0731353810779701 -0.323759061949992 0.117363538527441
0.0705106261808359 -0.338055671975291 0.118000968729149
0.0601826137401497 -0.348698820671046 0.119327172295291
0.0609963273069013 -0.358105312794799 0.119523177127534
0.0446996148260322 -0.356031966407478 0.121020180149757
0.0452578596966779 -0.375990330472477 0.121547697867071
0.0312317314679128 -0.38277473161055 0.123157645775304
0.0230423603417553 -0.385184233128432 0.123807574671647
0.020418222502833 -0.393988591753698 0.124310758957141
0.00370249632344406 -0.413202192502845 0.125715032809474
0.00337561123036677 -0.422602707005363 0.126183330682531
-0.0021373028865222 -0.423364873012491 0.125930804745896
-0.0146650193079429 -0.433838876115751 0.125365604209736
-0.02052007241087 -0.437055516575208 0.125318162674661
-0.0299334675718649 -0.459620627272432 0.124061427374702
-0.0327695116210252 -0.461833437872963 0.123410289944069
0.131188945046778 -0.27205080342663 0.0643523604262694
0.131664147000929 -0.270622478067882 0.0813934744571522
0.129568770049811 -0.276920600390985 0.0777192555361773
0.127406342341244 -0.283420258705997 0.0774810906136458
0.126133047244777 -0.286084443497994 0.0911679118851502
0.122556229859775 -0.296959635539817 0.0901029839020752
0.115538017554968 -0.29995319346495 0.106100768624301
0.119309788851237 -0.296321450667649 0.104663055127041
0.108675888650681 -0.31102461037409 0.108054601420369
0.10347390695961 -0.322645777625499 0.109057114931223
0.093190179830952 -0.31505130394252 0.11299837092818
0.0899158913209147 -0.334207177644003 0.11242444161509
0.0879200719227195 -0.34118597839182 0.112418363222182
0.0751128345218719 -0.348444411782309 0.115125349054502
0.0672833317187819 -0.362291087497002 0.117912842871915
0.0647099780907825 -0.3641295495958 0.118877790512366
0.0548336515597185 -0.365439298047082 0.1203255413284
0.0501193186251159 -0.380103631823222 0.12120284025099
0.0395235146779058 -0.385370656683942 0.122368686299154
0.0340806896373523 -0.400375501504471 0.123325511507512
0.0260616082308412 -0.402273043175213 0.124311868787218
0.0187715859689582 -0.421126535981767 0.125682254442387
0.0113069163168137 -0.413721148147141 0.125528504811362
-0.00390771398312797 -0.431845955010898 0.126110301179249
0.00333506654530978 -0.442471249884081 0.12715498568339
-0.00978430277134864 -0.448451066021444 0.126140810724784
-0.0273055474490692 -0.465755580343516 0.124753811705333
-0.0345237503382112 -0.472153405132789 0.123393916099535
0.116818771481921 -0.315243562069608 0.0562922747634884
0.117824522511142 -0.312220553247619 0.0631554487289966
0.116593109796296 -0.315921838548188 0.0656308109719887
0.11609765282207 -0.317411044883045 0.0750675466652216
0.118487826347028 -0.309299405824685 0.089011769903073
0.114780454850331 -0.319896686948054 0.0906025350619808
0.112710488567934 -0.318418854839465 0.104844432189965
0.108145331891684 -0.324965344419662 0.106265678865319
0.0987191013166284 -0.328524379117191 0.110614520331003
0.0982533447219811 -0.335242354098371 0.109924745985751
0.0865330779193977 -0.34906820046536 0.11219224052843
0.0786825261798563 -0.355931048451402 0.113674940692912
0.0737184338200047 -0.362916066748112 0.114418896740678
0.0688729096870517 -0.367592371659055 0.116344302590703
0.0654799802015707 -0.377397324759235 0.117567979331393
0.0513518873845002 -0.381782753734405 0.121133922464534
0.0475491587087237 -0.393442396547627 0.121836658732113
0.0352939157499221 -0.402370068467255 0.123267622798392
0.0304731448091942 -0.412059856581232 0.124010314850879
0.0245189712514696 -0.423663772704413 0.125027798913736
0.017113947914685 -0.431786146198773 0.126208464373652
0.013368533303419 -0.43330248753456 0.126427559361489
-0.000333977371451468 -0.448828191463209 0.12741756546655
0.00277261697787816 -0.451968592234837 0.127634576736559
-0.0147885090634873 -0.471019444397499 0.126789303169983
-0.017192890927889 -0.471477222099723 0.126736686746725
-0.020492314806686 -0.48615278634791 0.126589314149989
0.109409859757927 -0.337512697126139 0.0570677941089179
0.111202037704261 -0.332125906971388 0.0747321983559804
0.111858212100363 -0.329750151455313 0.0858655335617364
0.111010253265261 -0.330285078720809 0.0956765804660303
0.110748983855888 -0.329610349313159 0.102469724816332
0.103061162288916 -0.344679721318006 0.106006539629646
0.0972510456972768 -0.349669532716023 0.108310864418914
0.0900952577844911 -0.36046687573259 0.110459190962512
0.0833925064779154 -0.36982060740336 0.11146767128388
0.0751269111521884 -0.378252043308642 0.112940523537015
0.074698367067348 -0.383698451479698 0.112650317458136
0.0629721709237004 -0.393079993681137 0.117517100919777
0.0578017311266182 -0.398995975980436 0.119539154325352
0.0561643126192535 -0.412183080292908 0.119268626525018
0.0468321054768192 -0.405764934025637 0.122263814661747
0.0354980196849293 -0.422858153372351 0.123844399808691
0.0381265389827186 -0.422781832837551 0.123590992207591
0.023482758151857 -0.439003421267425 0.125531870291069
0.0214035665177876 -0.451308123288793 0.126102533721005
0.0135082228694094 -0.465060454409181 0.127482864618274
-0.000198679168429771 -0.466544159206457 0.128302931386176
-0.0038291425723264 -0.473744793955392 0.128172076657214
-0.0202390360263355 -0.488661077327517 0.126673290704641
0.100394848110823 -0.364609323376311 0.0656415384288649
0.0978470857039625 -0.372267190988174 0.0711745602012587
0.0968457981096545 -0.37527678396198 0.0755587965131008
0.0973640802068959 -0.370610255711149 0.101841708987725
0.095163559335317 -0.376547024088526 0.102309309291385
0.0905105943214774 -0.379553181135197 0.107411780684674
0.0851301793504407 -0.386409251522568 0.109214271296802
0.079716738841654 -0.387796013300453 0.111081635189586
0.0740354727526607 -0.408604871261318 0.110995316747753
0.0652988265762459 -0.409829789670726 0.113249266552014
0.0567937891304526 -0.414531386246508 0.118775393493331
0.0575071367305993 -0.424358946793861 0.117639457642486
0.044003481854941 -0.428627037866709 0.122641396520581
0.0422452727490315 -0.43873681886344 0.122858240968421
0.0305286095240611 -0.454949954398076 0.125253280308874
0.0246682882211329 -0.459581492951062 0.125948099407206
0.0180994573233229 -0.466076900516345 0.126895232197166
0.00953695088090826 -0.469299596427099 0.128113261216831
-0.000993152658314037 -0.482866663948185 0.128996277963817
0.00503071365918015 -0.49209783805504 0.129257736551889
-0.0104834666511608 -0.499294012007002 0.128536924470911
0.0956230734179604 -0.378951955473082 0.0620800831948184
0.0952292783329722 -0.380135594347304 0.0793230298485489
0.0899532227138012 -0.395993955133084 0.0700422824583831
0.0905539929443534 -0.393276850550828 0.0845058530468174
0.0899578328788179 -0.391657923821518 0.102658101286569
0.0888017244886047 -0.395465197829371 0.102414973334678
0.0829755337337902 -0.409600597872979 0.104777336117348
0.0745845649410933 -0.406519463007437 0.111009092143933
0.0728266659289872 -0.419692106889891 0.110489604865036
0.061773842905304 -0.425896659340201 0.113875895427654
0.0621165479631022 -0.438851620273399 0.111795462516009
0.0482135501061847 -0.440576065984947 0.120824449236082
0.0439044058501356 -0.452866790716175 0.121917074323655
0.036186772085333 -0.456331561171745 0.123987735171397
0.0343502385172772 -0.466353365100368 0.124226175669527
0.0267298285835836 -0.466252271426122 0.125945239777186
0.0191727791778974 -0.488462078239999 0.127313796281627
0.0156200146666082 -0.491287614300842 0.127827149405422
0.0858497220935177 -0.408327940598413 0.0776728306786668
0.0830715654501773 -0.415934178445622 0.0903924410001698
0.082407054104608 -0.415009526205595 0.102145816038002
0.0805786546886177 -0.418654618463488 0.10344893307635
0.0752241331070569 -0.426362151825359 0.108480856275171
0.0705746266129819 -0.432368547798393 0.11002637299448
0.0654159797612447 -0.439879928821297 0.110885994172062
0.0550999630300475 -0.450867179811167 0.115845707468995
0.0539440714440639 -0.458150056933412 0.11576158611735
0.0407937125939865 -0.469496026120239 0.122081299790074
0.0376850862743683 -0.471114517790817 0.123284161648296
0.0339136833733519 -0.486510490195017 0.123888753689015
0.0290486427608977 -0.495195206987478 0.124916453815733
0.0209927111046448 -0.497624118540991 0.126883199660327
0.0655072744637776 -0.46686456906668 0.101289984856325
0.0578228132453725 -0.467927978100552 0.111124515744469
0.0624064171564578 -0.465803956110047 0.108643842063926
0.0397003619353955 -0.486826358808564 0.121214294249166
-0.155518587639166 0.0256687527791829 0.0561579228040334
-0.153339692573097 0.0348427342759794 0.100299900366967
-0.15573611703389 0.016806307953571 0.116732789964463
-0.156917485454613 0.00303829492495615 0.120186060648658
-0.159190027118809 -0.0639161992460664 0.10940613600576
-0.161337063500249 -0.111230032617043 0.120795618617381
-0.148495147646804 0.0365925016801741 0.0295587808444974
-0.150561813456785 0.042700250268701 0.0522880165376863
-0.146700916628889 0.0547967156785089 0.0713302941592059
-0.15320399841346 0.0368740040012362 0.0667058702199325
-0.152239790923764 0.0427674746328923 0.0824367738405711
-0.15211655664628 0.0397808393788638 0.0928870354906363
-0.145226233271488 0.0526387522459776 0.111585098583856
-0.150711304869794 0.0397606241496769 0.110500617647207
-0.146309563478166 0.0414924050779618 0.127715805741114
-0.147204153196103 0.0407753781714369 0.125214890105592
-0.150686321776161 0.0271617388000631 0.130122466407912
-0.15126110591853 0.0206359627740661 0.135597378892708
-0.147136130751784 0.0255910786559165 0.146403722103554
-0.149477359055041 0.0200974457736884 0.144280614172175
-0.146545720731737 0.0130143370481376 0.157934118172072
-0.144966044255218 0.0119184000898555 0.162669489678593
-0.146326697032328 -0.00221305789888082 0.16248994314413
-0.15071629456833 -0.0190010485063079 0.152937715963551
-0.157064763771536 -0.0576670893328942 0.131415948179914
-0.154747154498011 -0.0507099329982912 0.13908237366544
-0.150511193373197 -0.0452504487574998 0.15525879086205
-0.151078244012066 -0.0535995755016446 0.157566718775362
-0.152608264210824 -0.0653849909041842 0.158672165960694
-0.156384602175491 -0.0852583395998639 0.15112201418706
-0.152887669484626 -0.080897327175241 0.165072694094926
-0.156881497475675 -0.101792139727271 0.157984751671969
-0.150107003811463 -0.0906904887056859 0.177985564000269
-0.159755722772798 -0.122717743709991 0.154530770366101
-0.156070986107571 -0.118708182502007 0.173524866836557
-0.150548236221548 -0.111159840899893 0.187853028166853
-0.15242409641478 -0.130971528118586 0.184045496797758
-0.153682908044047 -0.155091926420441 0.17312066802441
-0.134475231155814 0.0719314917054783 0.060943919226263
-0.135816194934438 0.0722665559981223 0.0751789427735953
-0.135102303316472 0.0726714830790844 0.08104797516387
-0.141656810768394 0.0633442741737915 0.0807992060851922
-0.13549810044294 0.0707726579738861 0.0921871091893392
-0.142109597060607 0.0609343685971864 0.0987453413447638
-0.136218545372956 0.0651968028045328 0.116047273060469
-0.141328810122807 0.0582277183745857 0.115769352219457
-0.142573176021968 0.0548788632681344 0.117299665772709
-0.141849332449569 0.049942683725525 0.13321789375254
-0.134773508287411 0.0576647466008164 0.141743733718925
-0.138834852290438 0.04747074505841 0.146433359361971
-0.140921953849859 0.0411271559447821 0.147671661313501
-0.140095980896568 0.0363504171544181 0.156021072131324
-0.136212754546882 0.0370854654019552 0.16536832803001
-0.136710321308083 0.0304172800981287 0.170272761901889
-0.134809093189115 0.0293624594188474 0.174708183312428
-0.133998815194903 0.0271953994015007 0.177732341992376
-0.137978536138788 0.015655545701128 0.178379323726103
-0.141968377749842 -0.0028530020511156 0.174776185656167
-0.137789823426598 -0.0078700140219597 0.183801840759928
-0.142062230996817 -0.0266348405137424 0.176503734352456
-0.142049534102413 -0.0417778113673627 0.177806750200814
-0.138120174922688 -0.0401697189635301 0.184997350255255
-0.142509222654155 -0.0506070396274317 0.180833031018569
-0.138231211510863 -0.0554680436765551 0.191388016855875
-0.146125147636944 -0.0767592405055891 0.183298856486386
-0.1406757054358 -0.0697050072339803 0.192669674917914
-0.144468464395754 -0.0833831854446092 0.19085331115135
-0.148306496119983 -0.101289339918037 0.189375933056353
-0.15044545153881 -0.109984272323214 0.187558215260778
-0.148909260196188 -0.127960861575898 0.192866279592132
-0.148650095425933 -0.133992235181283 0.192447915243883
-0.147595004778243 -0.130126407835298 0.195597190773628
-0.152919705306264 -0.172120642430258 0.17245597153
-0.127023267337847 0.0807245920424249 0.0702729962995135
-0.126003334655302 0.0812068994922465 0.0857010003749441
-0.131418581628411 0.0764035698519042 0.0833815755801519
-0.1252240090867 0.0809384591693672 0.101676114742143
-0.123875454504967 0.0821317176316722 0.102512207043332
-0.129987352032076 0.0730415858069773 0.116897386545774
-0.126972356923925 0.0739600471638029 0.126064787351906
-0.124663646332788 0.0742744114124622 0.134160365445114
-0.123121472947184 0.0725069156299548 0.141161710700542
-0.124904567304441 0.0677096637071714 0.145214952737688
-0.128140959560773 0.0614723653352141 0.150180201200727
-0.124068912182258 0.0602721862811782 0.161270530607756
-0.126624089861216 0.052893202042763 0.167367983420746
-0.130396187124145 0.0475638592947204 0.16745367194444
-0.124752808739168 0.0444325844782294 0.180051784717942
-0.125468735237055 0.0429830510216353 0.179724300132462
-0.13049429561632 0.0354957531212601 0.177984789171594
-0.124699554372148 0.0317260984861943 0.190938725314276
-0.125193538703472 0.0229136637757135 0.196523382711037
-0.126605925030371 0.0224666520546543 0.194378266278109
-0.12528685839943 0.0152011519073533 0.201126712485491
-0.130000223943059 5.89504184945184e-005 0.197222684156275
-0.128801532135755 -0.0115432911187143 0.201077345992281
-0.130203223514468 -0.013007085510417 0.198862744452749
-0.127199927359361 -0.0207948446199282 0.203326682342668
-0.135003685889078 -0.0467885088204741 0.194044098185056
-0.127212497786324 -0.043383230387099 0.206429566966914
-0.127848940393341 -0.05217943998573 0.208972526926849
-0.133009509799743 -0.0651652127046719 0.20596023035185
-0.137375744698176 -0.0824385864437676 0.20470054367804
-0.128379867888391 -0.0832275183277625 0.221095595354854
-0.134238374797185 -0.0912560458133743 0.215767793697372
-0.130380826350452 -0.0949576829939186 0.224224498419222
-0.139329782403948 -0.117266213736318 0.213199498113985
-0.138894322865255 -0.132400472211336 0.213258951754347
-0.137667319183052 -0.142176797079699 0.215899155798545
-0.136549253101672 -0.144419636694805 0.218316558434168
-0.141113689695629 -0.180640311534705 0.210157739649012
-0.135808396040064 -0.172861721337029 0.223436023301671
-0.118292324626437 0.088818062317571 0.0730144776531431
-0.118763565688204 0.0876390682930362 0.0897941394723049
-0.118248746865127 0.0878168416996053 0.0943098204120267
-0.119494245098722 0.0858610876706765 0.104036297634804
-0.116766790072012 0.0856391083697881 0.114310982531959
-0.118080513741804 0.0831670755995646 0.119477410712515
-0.115797447866464 0.0818554988235787 0.132587165504395
-0.114936694624624 0.0827949125998468 0.131783205039023
-0.117176996627337 0.0746650271388493 0.147908678702945
-0.119141826755371 0.0697211678690979 0.154662590692964
-0.114370780487604 0.0709066791729744 0.163101133614602
-0.112674655365055 0.0667102278570262 0.171081150049096
-0.119009699075094 0.0614981053173052 0.168169841585178
-0.114896722601096 0.0584113774918344 0.178021108095302
-0.122167420988209 0.050419233787491 0.176946039175849
-0.113085282522178 0.0509762245784543 0.191444210756916
-0.121025277618705 0.0428394836200597 0.187672885545056
-0.121889711638076 0.0344030357716129 0.193102007358806
-0.116544945244049 0.0288996105091924 0.204351375535914
-0.122849413441087 0.0218018627741092 0.200467049495209
-0.118946416977463 0.020835434291802 0.206101694380139
-0.119178059146882 0.0152934156258931 0.209014969444383
-0.11511212416738 0.00520430624190656 0.218047927877987
-0.119704634142662 -0.0033904702685191 0.212746522176531
-0.122140921154048 -0.0213859158483746 0.210283879453987
-0.125634584674918 -0.0396771717412846 0.207231622307637
-0.121662212131646 -0.0403957073456396 0.213148704434548
-0.12237309024279 -0.0535983700662793 0.217384248977918
-0.120223982716079 -0.0486634761656307 0.218498811674258
-0.12223610059781 -0.0605904568285357 0.220448187364933
-0.118704919576459 -0.0712645786902354 0.22989326465925
-0.118014371399224 -0.0693070072922678 0.230081542938369
-0.12351184871021 -0.0887731527745866 0.231555892896078
-0.121887302284832 -0.0947905961958874 0.237218786565565
-0.119646746477173 -0.095235031956316 0.240764792402152
-0.124333626069194 -0.113295282908148 0.235118170133023
-0.120254247538528 -0.130368983765158 0.242623864601958
-0.124172393712571 -0.138098948084254 0.23906027179308
-0.126519974559605 -0.158075020457308 0.23882432008956
-0.125884050154475 -0.1764910773115 0.234204524302086
-0.123302029594714 -0.165453881228679 0.241719440652047
-0.122831793829715 -0.201429170887154 0.225527548104216
-0.105713241580157 0.0963152945141019 0.0940778090541698
-0.11090807225461 0.0927957195356423 0.0989775706668526
-0.101784618767734 0.0968129063661749 0.108083475358584
-0.107863253214286 0.092820048335041 0.110139017677229
-0.104444234269779 0.0933849416639087 0.117619533065491
-0.103134732290365 0.0916281892478333 0.130439017430113
-0.110603676651307 0.0836611426823828 0.138713096616128
-0.107967441290912 0.0845878047257184 0.141641727200333
-0.102729258838113 0.0839195975912994 0.152440491058328
-0.109780488873599 0.077604404933277 0.153824611318262
-0.105592429510873 0.0759023470537572 0.164471521015933
-0.11046074454034 0.0699524457193988 0.169184092667496
-0.106115540147501 0.0710534681926887 0.171463023770361
-0.109210474974878 0.062805948606626 0.180762429940734
-0.109005597106181 0.0593415519701039 0.185029820307445
-0.103245961464532 0.0557437255407295 0.196183732299662
-0.113031418695341 0.046155456144633 0.195345624001938
-0.107021810699718 0.0428126476805824 0.204834828902877
-0.109180701749631 0.0411857372171529 0.203603500922151
-0.11349712714906 0.0293092670255884 0.207712356458574
-0.106014147639294 0.026742536378537 0.218286448661673
-0.108453894334206 0.0230334945773414 0.217952785848501
-0.104420993390222 0.0159574117596217 0.225796709339198
-0.108631891712677 0.00643701178237385 0.225925503844902
-0.105464027767061 -0.00245665221405479 0.230162510609046
-0.115285539668262 -0.0288498852756632 0.219819929563013
-0.106192582572435 -0.0205818253352362 0.23022419433633
-0.107991847921393 -0.0354502081308421 0.228597392030049
-0.112038977532898 -0.0513002066704286 0.230175033998622
-0.113211269995543 -0.0497164234472549 0.228307565681489
-0.113915634608316 -0.0616913684722931 0.235493782928798
-0.115775370394875 -0.0642146680269473 0.234473324250995
-0.11198751958837 -0.0750920110115635 0.239662414349604
-0.117796619885429 -0.0894473561538214 0.24058487078821
-0.116115379601025 -0.0903905259309086 0.243187901243376
-0.11763099950623 -0.111057450004383 0.243090672152199
-0.109448207174614 -0.109352599624177 0.251761852631732
-0.112664265435256 -0.123825329403798 0.251449179427427
-0.119599304163685 -0.149306394625178 0.248332987436842
-0.113427148892335 -0.141171805956076 0.255029538409484
-0.117137534320315 -0.166548177782 0.248200964122994
-0.111136199775226 -0.164170633214399 0.254283884214556
-0.113245209492626 -0.187772577675971 0.243971081162915
-0.0927956823916595 0.103016456770798 0.0904994694476975
-0.0976837538088425 0.0996692170634254 0.10333500267604
-0.0982916231462897 0.0985326811011978 0.107968429970683
-0.100797910673714 0.0963129846821391 0.113482508213121
-0.0931016581297001 0.0958896296151232 0.133422047305127
-0.0939714862889438 0.0944399359751383 0.136442915281511
-0.0936911908845694 0.0936525399867508 0.139092514635455
-0.0996676559206934 0.0877067974668629 0.14672082832066
-0.0979612684166996 0.0859722003056253 0.154071995034932
-0.0935469104431817 0.0866327718838041 0.158984794304373
-0.0955775139617203 0.0801495655675596 0.169304121230996
-0.098124496788944 0.0768401062223216 0.172280475119181
-0.092647827087386 0.0769694844188002 0.177919880510901
-0.100875695077333 0.0651963277102268 0.187486839249537
-0.101486907487117 0.0632128899184668 0.190771402963791
-0.0956370254751463 0.0606105433320941 0.198122639755411
-0.0982092844053241 0.0551048489581117 0.202352449074147
-0.101402799024748 0.0461813470389202 0.207875622969862
-0.102444622775324 0.0449148879682957 0.20848023178186
-0.0956135225211796 0.0416936503333762 0.218095394466445
-0.0989684610675929 0.0337251808675718 0.220718525545936
-0.0947383546083917 0.028797508223696 0.227668257198296
-0.0995802859484459 0.0188644132858343 0.228803273768302
-0.10201520462395 0.0123906307978265 0.229770472592456
-0.10131020765582 0.00976133894128038 0.231706255688728
-0.103759594075154 -0.00193577723674986 0.231912657154182
-0.0980142691263988 -0.0188517937481874 0.239132227551193
-0.0974800760773734 -0.0242866810989961 0.239490435546513
-0.103452694038542 -0.0408113156929827 0.235401909680472
-0.0970922146046066 -0.0394707572321582 0.241593001984203
-0.105515938402933 -0.0554528442438944 0.238774115492032
-0.0980353940015317 -0.0570043668361929 0.247367442803548
-0.107724793298809 -0.0729866170752207 0.243316547676289
-0.102757356835475 -0.0771203152841881 0.251338617879694
