ply
format ascii 1.0
element vertex 833
property float x
property float y
property float z
end_header
0.0995646990182552 -0.0450286117388538 0.176206155656293
0.0970737129105143 -0.0506777971983424 0.18448092701779
0.0949221757738032 -0.0341599696022239 0.184425108510445
0.0940417816791747 -0.0412573650974524 0.188814864068276
0.0872664277366292 -0.0389134875769065 0.200509577040773
0.0889324210943017 -0.0297501207215446 0.196155105037428
0.0827494408635923 -0.0228975089011987 0.204160738306914
0.0771256071244654 -0.0256193935661835 0.213229621877453
0.0743973137289877 -0.0248227067848799 0.21613017406306
0.0694151015109332 -0.0159251751995232 0.217900687824285
0.0607184813930761 -0.00725748386425682 0.221325433862579
0.058093262259172 -0.0042303500643446 0.222245169772815
0.0496679252992689 0.0055617198412871 0.22517561063652
0.0504391417001419 0.00523299752561023 0.224749689019118
0.0393237893947877 0.0207447667606826 0.227895311147153
0.0349352394962124 0.0208580818737707 0.230640393459252
0.027658700799715 0.0252164030717339 0.232905111355375
0.0238969918743584 0.0300668270597267 0.23292806083069
0.0158464080879358 0.0341956488579074 0.235664395210472
0.0104095273185158 0.0461790793901732 0.233564045244966
-0.000358839003823315 0.0555730998678899 0.235273298622516
-0.0142900001409537 0.0694886289617736 0.23345190168887
-0.0197646166709496 0.0725613820287742 0.234088852702532
-0.0155007587184894 0.0734029853442845 0.231741748405688
-0.034565921758734 0.0896502601317634 0.230582368870333
-0.0553115753577735 0.112818388182096 0.220807145111779
-0.0628877312924842 0.123342067020344 0.21585378347781
-0.0655970419152287 0.118979594147772 0.21953229053118
0.119674806545903 -0.0775683443035226 0.126449375288388
0.118875802310612 -0.0737498501375027 0.132797711250409
0.115714094652437 -0.0723537720834495 0.141121436728944
0.11121368294927 -0.0731646894227827 0.153999200067634
0.108691870741395 -0.0717910673998632 0.160542581284335
0.105093894027132 -0.0664650129463363 0.168639557662283
0.105799766147203 -0.0699832205892729 0.16796119753896
0.104098966455742 -0.0652629392873782 0.170978185532623
0.100063762458441 -0.0622135292363451 0.180921919308473
0.0954632104548034 -0.0543253197911775 0.189538111235747
0.0921677266908028 -0.0511179525946534 0.195515091250881
0.0922519359172599 -0.0514738302790822 0.195458458578501
0.084238292773554 -0.0513399840678195 0.207580299230316
0.0832304642251928 -0.0389990132550429 0.206645102274322
0.0799164147585431 -0.031375442074794 0.210147612223663
0.0772402457688788 -0.0368112422092986 0.215219991418643
0.070612340454526 -0.0298594043863232 0.219331595022232
0.0654089552479351 -0.0251299109300253 0.222628501878418
0.0618279477333596 -0.0148949069359043 0.222703058530945
0.0534782329395082 -0.0193452434717291 0.229539415198656
0.0473347968503754 -0.00615814047900862 0.229996258066262
0.0454739781235847 -0.00211449516146538 0.230120928911611
0.0360461631798703 0.000656895092418905 0.235631941034358
0.0305904232830273 0.0107100425493134 0.236058619642596
0.0306496389652369 0.0139906702643905 0.235538364182128
0.0133402838034777 0.02876956765661 0.237556451403859
0.0139278368504497 0.0351303032715472 0.236005203381013
0.00331690926991195 0.0360390988343616 0.238817481363996
0.000577740761845202 0.0426078193934926 0.238164682098393
-0.0180376266554526 0.0610780213957826 0.237743571815713
-0.0214515503084578 0.0575505294703096 0.239487372943416
-0.0342045097814013 0.0686453168188717 0.239116009203979
-0.0354351933834943 0.0751883939549855 0.237527762814296
-0.0529468653052068 0.0956712618449191 0.231650523984875
-0.0612303849787088 0.10874382836096 0.225184173342957
-0.0661690665324725 0.110955427610377 0.225072886425049
-0.0760853576594083 0.122483834999707 0.219902880961409
0.114485529509799 -0.0941523812882384 0.137783366494657
0.114466213595002 -0.0863374313826181 0.140713175572775
0.110722399831081 -0.0889828860978998 0.150204221374507
0.111780305677008 -0.0807644868365752 0.150271492243432
0.10718538901869 -0.0795768707934992 0.163552032807714
0.104690085976663 -0.0779304122063333 0.171132674160862
0.102882614964041 -0.0759248240226922 0.176922873293195
0.100728379363086 -0.0773446905904444 0.1820354460034
0.0960759052961295 -0.0746009656146813 0.194057872667923
0.0979430438656851 -0.0641013437543577 0.186652874981936
0.0938438949589541 -0.0628744263469206 0.195320440226514
0.0919219040030417 -0.0644074346996359 0.19854011010733
0.0844162023842165 -0.0583827193791139 0.208716201846189
0.0837375797840725 -0.0527877108956352 0.208628313829884
0.0777555069456788 -0.0512269595242088 0.216215097241046
0.071540492713026 -0.0442589121549994 0.220027993551218
0.0704912755224633 -0.0388990334833398 0.220275276397776
0.0611125386249976 -0.0354671083987961 0.226700272564946
0.0581413562954701 -0.0294604034035847 0.228269567464948
0.0552662025983983 -0.0248586939257215 0.229871924647842
0.0433993209108237 -0.0179223205937975 0.235745121225223
0.0409476841000785 -0.0119788679070538 0.235741744405768
0.0330766393128267 -0.00741609466317136 0.237717603684878
0.0318800197649971 0.000821520778928086 0.236985705887026
0.0196119756432169 0.00888790529741269 0.239934699986733
0.0108290176222491 0.0148769884899092 0.241292908927387
0.00981833123615629 0.0271175741167919 0.238915153464408
0.00202659866022826 0.0340323323036117 0.239620338058108
-0.0105206957844535 0.0426789404898794 0.241297596817127
-0.0125271906178049 0.0395335294025539 0.242551474253016
-0.0220865302214483 0.0513589182377206 0.241382023561405
-0.0345308613458202 0.0608184249350826 0.241407374392154
-0.0408975363537354 0.0693504264774578 0.240372887005258
-0.0501637439272211 0.0733782787290611 0.240633778329755
-0.0576074661157894 0.0935187867566491 0.234361536579589
-0.0659257873370303 0.0954573458232564 0.235352444750404
-0.086901998251614 0.123324388358176 0.220322833970103
-0.0939462999395676 0.116708843887286 0.225751740443758
0.112741072453148 -0.0942721122578462 0.14261533702382
0.110375332596183 -0.0952464058770676 0.148869420201762
0.109706963462304 -0.0909815180212824 0.152307049608972
0.108845222286542 -0.086484005357624 0.156370787554125
0.104241015184073 -0.0934474670722845 0.166677786827981
0.10110952285574 -0.0945042418998377 0.17504191569744
0.0997398846397148 -0.0890582698651185 0.180696284784395
0.0963515181770576 -0.0836324259909331 0.190620230116837
0.0951308796632702 -0.0820064219869143 0.19401251261868
0.0920998359127537 -0.0836686189669888 0.198275779810053
0.089350985498258 -0.0801250652279024 0.203150226145721
0.0845924170502778 -0.0748762306866721 0.21141171786459
0.0838171382545764 -0.066456304736253 0.211235724368327
0.0766092684351169 -0.0611292171513106 0.217978368006862
0.0715716390893356 -0.0641777862183673 0.221892982524351
0.0667647496428158 -0.0595637051719126 0.224915454135303
0.0638023344474662 -0.0452325848564876 0.22568966193298
0.0583226629501658 -0.0411388705034731 0.229245664197709
0.0536047206400008 -0.0464999638791087 0.233146248976252
0.05107182845863 -0.03339881076921 0.2337164576829
0.0428229663138313 -0.0235217202105547 0.236701720578101
0.0329960131146461 -0.0199373590520849 0.239457599119696
0.0278616485673125 -0.0173616171637762 0.240801289607509
0.0266489958435581 -0.0133098549475787 0.240647464044924
0.0112285304422021 0.000360711337355517 0.243818440724243
0.0132309934025126 0.00285454621143229 0.242868247891161
0.00444726053922836 0.0073670168264934 0.244634485408723
-0.00241862516908701 0.0123435033704217 0.245448132652078
-0.0143131766420108 0.0263982174648478 0.245744507255309
-0.020944388892849 0.0310999242093453 0.246551792399829
-0.0346289959155312 0.0419137965760395 0.246567364942226
-0.0299391088315124 0.0532336997995509 0.242559494912239
-0.0429475941470947 0.0506342206151036 0.245943280105829
-0.0508935127985607 0.0663576901258411 0.243048411431444
-0.0590185217386001 0.07480616144337 0.241373728067008
-0.0681284543726319 0.076876507597936 0.241936353445195
-0.0746503488568769 0.0922699690174322 0.237743531234004
-0.0973139351550601 0.106012023072798 0.233754469913758
-0.110154276252216 0.123329724080408 0.222522255266129
0.108312559819835 -0.111885653350991 0.148512127350349
0.10613054610264 -0.111012300717623 0.154932581321154
0.104806608278251 -0.106584923711758 0.160262421998207
0.102589579893476 -0.103459202423584 0.167609595042262
0.102354397456366 -0.10081232858247 0.169240988024705
0.0986229567400744 -0.1025167525034 0.179043738502609
0.0994349728711223 -0.0966041139309528 0.178949814272974
0.0969475004849673 -0.0897234719735619 0.18723890867119
0.0927813069815067 -0.0869414607337496 0.196589476830433
0.0906047371646479 -0.0925196008158719 0.198775819344301
0.0835558177872487 -0.0887541569566605 0.210213386563002
0.0831371910468592 -0.0854014138642307 0.211517168720982
0.0791970362597773 -0.0784583421245169 0.216922759537317
0.0784718764106897 -0.0712842920754873 0.217600028087156
0.0665499838297741 -0.0720450367243994 0.226252692463572
0.0626287484623974 -0.0643508378193099 0.22834587404363
0.0575373845554934 -0.0622671704811965 0.231812859808892
0.0535489560188752 -0.0489641698157954 0.233414515162941
0.0469097566359775 -0.0462863121029499 0.236751796424616
0.0374828778662462 -0.038400216448527 0.239725664986779
0.0376716684185553 -0.0418066691371555 0.239817723445447
0.0300074724825115 -0.0283085231392534 0.24159034498637
0.0223169632870106 -0.0246417286707226 0.243590809949226
0.0135574346172578 -0.0228525553561305 0.246084025765197
0.0121568476722605 -0.00420851196119442 0.244118281319556
0.00331802628229753 -0.00828402560078104 0.24739148730971
0.00208663643122947 0.00409416581015511 0.245935333548064
-0.0114160227449156 0.0101022088685149 0.248309696064277
-0.0205888321404688 0.0153913944933009 0.249543976894595
-0.0261783872938283 0.0224336424405639 0.249578699504721
-0.0311594409448332 0.0294422959921373 0.249186490173836
-0.0405401873930822 0.0397632070170697 0.248352679175775
-0.0494303646395868 0.0581237027501228 0.245271737989639
-0.0522861036689839 0.0589131753311062 0.245542533936765
-0.0649960322040238 0.068603182848074 0.244166524435063
-0.074270647004152 0.0796816921470873 0.241850130041629
-0.0867245582882504 0.0893304087371507 0.24011348870909
-0.0932877252749097 0.0869453439725637 0.241265337548092
-0.118254052770923 0.119711231834161 0.225894095312321
0.104113147200448 -0.12322208053777 0.156078458171864
0.103630576344689 -0.122376380815098 0.157738527634405
0.100082406172861 -0.120265354015545 0.168433053386859
0.0984290211516396 -0.116656950973379 0.174382376824045
0.0985605584696567 -0.111152989599234 0.176040108437525
0.0979572076614112 -0.104368805797325 0.180132700500349
0.0918117356416835 -0.105885959706525 0.194278330149095
0.0903508093349713 -0.109092670901362 0.195853065668121
0.0906513182203267 -0.097806024523796 0.197650122548589
0.0824976756359469 -0.0963081867133288 0.210309856604046
0.0810788623421649 -0.0992549491295268 0.211872630847823
0.0772869934672653 -0.0872424741721947 0.217465143083157
0.0694528255199189 -0.0860568823475412 0.223215993130904
0.0677335152633241 -0.0872995966248064 0.224335684607092
0.0664167356665797 -0.080153289425918 0.225960560298028
0.0601048653365745 -0.0787176867712027 0.230639452106975
0.0565866211928166 -0.0746601549021458 0.233545080608332
0.0513308693113963 -0.063281579288557 0.23597767131216
0.048406022608854 -0.0596997625475906 0.236847389649169
0.0357621140525772 -0.0482111389411126 0.240793591965841
0.0346364564827677 -0.041502854410728 0.240879559115462
0.0260279848414829 -0.0432031680079718 0.243949931664193
0.017854268572146 -0.0372046571260807 0.246413787802551
0.0116779034545609 -0.0293458802542652 0.247504739009161
0.00859852600670107 -0.0174608659692846 0.24693151142032
0.00115039176979144 -0.019488226055177 0.249427312501358
-0.00892025923782657 -0.00576184935118274 0.250381364718041
-0.0174683436840508 0.00318148975312421 0.250711403901052
-0.0226999744888908 0.010616522486157 0.250622943930683
-0.0279621908020118 0.0126765097244389 0.251310776179947
-0.0355337255415833 0.0202838250156858 0.251540194685514
-0.0540338499427081 0.0369571570166854 0.251077280613425
-0.0597940714044652 0.044338476463799 0.25049985822705
-0.0554722295829601 0.045217878102729 0.249740113352918
-0.0685734868641359 0.0587061028792418 0.247704633900728
-0.0796450864390177 0.0710491099098003 0.245292705535916
-0.0880922480683064 0.0777705535586786 0.244199076893949
-0.11068134549964 0.092507104097697 0.24010543263219
-0.11985028517383 0.112102433600474 0.23152164943199
-0.1292151312252 0.105786914458305 0.236120536833185
0.104804489136315 -0.130792421110303 0.151360244904278
0.0993758454153079 -0.13184981292611 0.166145044067219
0.0977539212634005 -0.128341098983974 0.171969744931462
0.0983015831087114 -0.122155618427869 0.172715135201583
0.0969070254919515 -0.122473150628719 0.176496293343998
0.0948439999488615 -0.116663383943569 0.183747957419393
0.0868684319356019 -0.119162247467706 0.199122576795195
0.0868614698578395 -0.113125232832047 0.200338017098236
0.0860952773933521 -0.110119662980021 0.202099413402016
0.0831250740980963 -0.103487749337901 0.207925811489854
0.076056594616896 -0.101850013911727 0.216966569422171
0.0730932394091644 -0.102271655176126 0.219059441673626
0.0679567821397109 -0.0959732954871942 0.223353118706307
0.0638207591005125 -0.0884684775641806 0.227041067679192
0.0587439151654157 -0.092224838348617 0.230339107449375
0.0547383956675295 -0.0868219752541468 0.233719434037367
0.0521883775983648 -0.0842633220307746 0.235699730935906
0.0414865062761147 -0.0730630460027873 0.23992412710179
0.0381499951232273 -0.0701046338556321 0.240968880611453
0.0315924735890433 -0.0597938130547724 0.242812363741381
0.025404796740973 -0.055478628711782 0.2446971247245
0.0180274005346276 -0.0432233134399716 0.246620412503269
0.0139389366004201 -0.050694946793138 0.248312853757055
0.00699232856192157 -0.0288296077807976 0.248895158854489
0.000837983150983149 -0.0298705468920445 0.250430950874633
-0.00569346373323494 -0.0179499984967371 0.250777715503395
-0.0121771119553059 -0.0218200519280681 0.252537148261283
-0.0206260816855424 -0.0131663583021103 0.253595524596037
-0.0285532548313292 -0.000744780446695167 0.253345310926311
-0.0308549724843485 0.00261469608090975 0.253293726419631
-0.0375557417697341 0.00804892339092655 0.253766589868769
-0.042740896764297 0.0220560189044405 0.25224232538406
-0.0620345451035385 0.0326449191852958 0.253029946008019
-0.0650295206781251 0.0388827184884622 0.252158702156841
-0.0737583212283294 0.0388641507610598 0.252949391831435
-0.0904700383071975 0.0602190797726695 0.249809241463199
-0.0952088267488796 0.0673873871341646 0.247976306453941
-0.105980913314115 0.083907346355002 0.242934759886716
-0.110658988463011 0.0824755598340816 0.243620471389355
-0.137931409110138 0.110882913527472 0.232172394767106
0.0992632999036171 -0.139799584616092 0.160025746828929
0.0972751235902724 -0.137231929623518 0.167974509688342
0.0945710550958446 -0.136322321691804 0.175999085670679
0.0923726193552243 -0.132718435158327 0.184613176034186
0.0915996141167663 -0.131146950808521 0.186983430572451
0.0887220943224032 -0.129353872482139 0.194278378644218
0.0867595560616984 -0.125690245941382 0.197984752902436
0.0835059543379333 -0.123509809255311 0.203352339018885
0.0811956446122803 -0.119873508554012 0.207580475448434
0.0767714367837228 -0.113971624576891 0.215303494836177
0.0743640487020043 -0.108144951519874 0.217588276035422
0.0652057205796908 -0.108111571534658 0.224182990507576
0.0612545990547819 -0.110686929375906 0.226782716164982
0.0583671633653393 -0.10281002766267 0.229607272209969
0.0555914973346769 -0.0913604920995134 0.232689907625656
0.0475241465089743 -0.0891244895136318 0.237126369652704
0.0437614509264807 -0.0842726250394751 0.238686733175209
0.0391818001812934 -0.0801146061866971 0.240504332794747
0.0360924360279062 -0.0742870310780234 0.241871531652454
0.0238997055090132 -0.0683765588796749 0.245765931473116
0.0240629930002704 -0.057488707344775 0.245233152308113
0.0144682917013843 -0.0519823418607793 0.248192775320667
0.0126547005864514 -0.0483196920761275 0.248637028404187
-0.00126025090664213 -0.0484296536787633 0.252069794752571
-0.00103922468414631 -0.0383440317906612 0.251603018855608
-0.00921471224428187 -0.0287895192715943 0.25252071031767
-0.0136695361033073 -0.0199730221183973 0.252695401137424
-0.020895478961384 -0.0171659957902747 0.254014589919007
-0.0353775973929464 -0.00332267934794086 0.254989897231971
-0.0423787404395681 -0.00216360650392737 0.256131775592521
-0.0541289417563324 0.0091939067341902 0.25627800817925
-0.0595069699918802 0.0129199427720155 0.256352866641882
-0.0641475818629578 0.0161848825378669 0.256408155603312
-0.0733716158809737 0.0255064410602403 0.255820802300907
-0.082668525695817 0.0369883537506755 0.254160510542389
-0.0910123167433902 0.0494592875490076 0.252199139496735
-0.0949010469949276 0.0531347154442003 0.251673477403579
-0.105014893733147 0.0624714919362579 0.249804382183085
-0.129568908801694 0.0754821513189909 0.246619889598442
-0.135062065027468 0.0937594726548023 0.240111505283668
-0.144106519507654 0.0923707556853886 0.240181695565485
0.0960938021198166 -0.145018477334804 0.162650634424657
0.0918950130746812 -0.146020142317323 0.172506412396773
0.0905622014650705 -0.146693359372444 0.175251621043008
0.0886980243148108 -0.142533885356866 0.183915928828036
0.0851392781798004 -0.145168433788674 0.189477735767349
0.0866748023081741 -0.138790171132029 0.19197169629106
0.0837279422292954 -0.138636405525439 0.196937445944848
0.0796029564689918 -0.130880053559604 0.207303311745703
0.0762610688179697 -0.124517031223493 0.214134444466749
0.0724628204426738 -0.128290991608479 0.216936464776971
0.0656511474306453 -0.123207234568652 0.222432017724764
0.0603737944732293 -0.115937655459065 0.226919129604314
0.0548512723275089 -0.11598189609496 0.230889679384593
0.057111879559401 -0.110712433126942 0.2297619517627
0.0523284585053208 -0.0980769889490241 0.234374383715455
0.0494327540523522 -0.0980671774901543 0.23603237248646
0.0426793165144214 -0.0907813190863789 0.238766586228929
0.0314525175368068 -0.0845167567111259 0.243035318914155
0.0296333477873832 -0.0858904780160369 0.243581984158969
0.0205826487158273 -0.0772170540197361 0.24698299343527
0.02236763875108 -0.0725378006646706 0.24645994388479
0.00893738135027584 -0.0665101571541813 0.250244588435045
0.000617352130796944 -0.0517697394358583 0.251734075571716
-0.00619787799455317 -0.0573497934472037 0.253496841302409
-0.00965428619041223 -0.0505923354095619 0.254096139668021
-0.00989664387871662 -0.0402347427470634 0.253700536521773
-0.0223417717575016 -0.0361819983194642 0.256043007139338
-0.0317194555230063 -0.021324442724257 0.256744346048886
-0.0424506444377834 -0.0211977019819131 0.258873977624625
-0.0398458928870974 -0.0151826649163819 0.257524995362756
-0.053542892607572 -0.000362172920343358 0.25795935179814
-0.059213309585387 0.000780205321484095 0.25857887203693
-0.0719354883298148 0.0148351421325606 0.257776822490445
-0.0738666898995883 0.0181682414941108 0.257430950218683
-0.0952599836679494 0.03284380638477 0.256197004263028
-0.0982963614169022 0.0346416227005384 0.256079492113454
-0.113989891989182 0.0575925420513639 0.251219414862781
-0.115995397894401 0.0499360279966884 0.253068729520672
-0.121239364232557 0.0600970757797462 0.250857487136781
-0.137666199012674 0.0806159016571023 0.244551177705026
-0.142669499848529 0.0899355043477642 0.241112087354332
-0.168543140450999 0.118138645619218 0.224049600417392
0.0908127034171881 -0.159286153906205 0.161012904671447
0.0881389096814877 -0.158554486475861 0.168766646622426
0.0844760944103198 -0.150504817799881 0.185990237973884
0.085219121824379 -0.152134722956697 0.182793652886137
0.0820732234664451 -0.148647864925513 0.193140165970076
0.0762976664995529 -0.145034393558213 0.20369021969608
0.0773834641750894 -0.142309343093145 0.203750901288449
0.0731150130193541 -0.139075765706287 0.211672944384108
0.0708407119334301 -0.134983675919584 0.216165115894028
0.0667572158527197 -0.134507347255491 0.219036180441551
0.0636435291658382 -0.132073711535044 0.221800561719115
0.0570788135465943 -0.124940149401316 0.22818516496795
0.0516596042551475 -0.119611064637003 0.232842947811495
0.053594500774511 -0.116861605169672 0.23171086289521
0.048768901350319 -0.114984556498655 0.235315426207094
0.0439998953254402 -0.111275828840353 0.23734190229956
0.036050817916825 -0.100497152200686 0.240663000896378
0.0311305510774795 -0.0975550847448657 0.242544601432145
0.0216658632380539 -0.0865112075077273 0.246213267334444
0.0205409622394043 -0.0884232532947117 0.246504624232534
0.00919255129118513 -0.0779828187215233 0.250295982988155
0.00612502989417641 -0.0716459949310255 0.251059094270571
-0.00146010076778769 -0.0705742475773145 0.252797151462385
-0.00862079494813003 -0.0605337913949422 0.254160423751063
-0.0117943881293327 -0.0534961129104848 0.254685075935802
-0.0162281750006285 -0.0550191276228256 0.255767106513845
-0.0247762513935223 -0.042136454629419 0.257109303898894
-0.0368557700708931 -0.0360477899259579 0.25910173683096
-0.0425586578233641 -0.0320190769914518 0.25931534512339
-0.0492831747488839 -0.0198104177114041 0.259287399799531
-0.055202987953794 -0.013912862887567 0.259350804953168
-0.0660507713343824 -0.000584641985665794 0.259253928579241
-0.0739851524284614 -0.00339480811316287 0.259658534150901
-0.0812458969628767 0.00859818779569308 0.25935008281693
-0.0970161876781801 0.0172089155960785 0.259240028093579
-0.103973312523931 0.0370751828412305 0.255701979194054
-0.111189014631086 0.0427771723621627 0.254592460918963
-0.124205376452017 0.0483920328329576 0.253681590318477
-0.128602352757713 0.0547030694065671 0.252287327675491
-0.138731425071338 0.0597050081462139 0.250808104465075
-0.163742116747308 0.0861912131960809 0.241455972926379
-0.167225917099954 0.0961754818278139 0.237753845231922
-0.181531006903093 0.106162900957724 0.230422418052455
0.0882969978355673 -0.163983687593323 0.162497367717261
0.0842743664544963 -0.160559522721856 0.176669296869754
0.0787400525682352 -0.164611837368492 0.185748431033852
0.0779124522658122 -0.157519369565232 0.194103498769276
0.0771140918690416 -0.16207224858117 0.19178451650467
0.071922330494912 -0.155177319515498 0.203936022540516
0.0701651427237543 -0.153921734031959 0.207153055975253
0.0694694247175345 -0.151782803971155 0.209387467940342
0.0634659946346378 -0.144649840634797 0.218425899785066
0.0563820824643436 -0.14172561682693 0.223989338144244
0.0603320196335404 -0.14247807408401 0.221131139137472
0.0528346544835038 -0.136971639715954 0.227689229098073
0.046888178898593 -0.133664291365807 0.232596240955763
0.0400716240188708 -0.121821907232206 0.23798823522401
0.0380974355411718 -0.121901525809582 0.238629516588553
0.0363477598649453 -0.115078385435877 0.239877193087104
0.0278179870344864 -0.112866836537488 0.243002676040619
0.0244331013333311 -0.101932650613651 0.244612457781
0.015003449499319 -0.102174927607389 0.247748254890467
0.0138560740323049 -0.097233983994831 0.24834815704027
0.00782620568778189 -0.0862392900261116 0.250361209005143
-0.00193371643179433 -0.077148171656432 0.252919436520661
-0.00573583642295044 -0.0728433286631643 0.253865212801758
-0.0158960015953198 -0.0725024641518515 0.256226963882808
-0.0238537730666567 -0.0620444137831549 0.257763504115323
-0.0243848991956773 -0.0621088423686432 0.257889493639999
-0.0404131631659851 -0.0444108860817577 0.259473526294659
-0.0397369298771612 -0.0451540216146069 0.259454018590572
-0.0468685815894068 -0.0387201661919142 0.259690528947886
-0.0606741033300011 -0.0301700848977955 0.260166784605613
-0.0662077304072634 -0.0212451137056185 0.260107004085847
-0.0761361632868211 -0.0139970949339896 0.260215661299681
-0.0874051915755927 -0.00239104870456511 0.260067054191143
-0.0914990649788023 0.00675914198339341 0.259672339865739
-0.0957842468705821 0.00881470176084954 0.259657483151206
-0.111101025402177 0.0227394825455546 0.259121078133291
-0.112424129854613 0.0229233571512868 0.259120527830105
-0.123458307069005 0.0360400760670968 0.256542601920591
-0.138154849843563 0.0436161872705938 0.254582298456044
-0.153326636170945 0.0589197095307151 0.250542821362204
-0.172756597645845 0.0820820427784816 0.242200978127656
-0.168698734697292 0.0759891281295457 0.244663693010731
-0.193261247752641 0.105175921110774 0.227825631834191
0.080301856460067 -0.174965241276953 0.171474191826629
0.0795129960818532 -0.172249229079414 0.176459192273211
0.0750995311827252 -0.173475303441836 0.185678901761269
0.0718961531457525 -0.169248519776139 0.195739268579098
0.0707606564274499 -0.164047330580298 0.200386818319494
0.0698810406779233 -0.160894272339458 0.203474432523051
0.0654311688278485 -0.165774955984606 0.206904720373994
0.0645804558430578 -0.160045193130096 0.211459257867668
0.0594035198792504 -0.151402728840959 0.219274541545413
0.0527994202695313 -0.153784273489089 0.223042199623698
0.04805105036908 -0.144991466152809 0.228669557308776
0.0491234710410775 -0.143955463990841 0.228238109676493
0.0467613785376586 -0.136708367736173 0.231835619499182
0.0396885017064236 -0.134406438016343 0.236392782665211
0.0371178489391181 -0.13127759175641 0.237670140560441
0.0232292057786522 -0.12481103061706 0.243133342250227
0.0216147730275281 -0.122523825032241 0.243929904902151
0.0162871266657503 -0.112909542563161 0.24682472021728
0.00628823076001579 -0.109472488920173 0.250006143088701
0.00583637270362404 -0.1014619677331 0.250357877068783
0.00223753903881624 -0.09312214136144 0.251454499669335
-0.0114153904201904 -0.0869664885118472 0.254831447077525
-0.012987577364912 -0.0826051512729966 0.255332588114442
-0.0141373232134154 -0.0800975593531525 0.255678114570009
-0.0308936743396146 -0.0704019543353497 0.25921742313817
-0.0291955896506274 -0.0690116777193669 0.259110533305654
-0.0385811270869721 -0.0518257925240585 0.259515278425482
-0.0548818486170133 -0.0411626153059476 0.260168401986962
-0.0583323089699182 -0.0436733721388985 0.260406171940604
-0.0629797484551621 -0.0395841838872567 0.260562567713724
-0.0759430994255532 -0.0296521382163898 0.260842984351328
-0.0853802951752326 -0.0186861507073771 0.260751395687305
-0.0971409090747241 -0.0124330857661001 0.260812311711956
-0.0997355961305872 -0.00363414363636875 0.260403314893066
-0.106691669567931 0.0121463054497076 0.259690023326543
-0.114443179639294 0.0102975750226601 0.259853060494976
-0.11595078835863 0.0138673230623246 0.259661496641584
-0.136409986868639 0.0319574473758844 0.257358054159323
-0.144438194313291 0.0364241154639566 0.256068385469556
-0.161859695266239 0.0574006793900233 0.250635194729794
-0.167251999389574 0.0585916999703386 0.249952805555797
-0.17779985783612 0.0702788643094671 0.245267049810794
-0.208730028946238 0.102161021697247 0.225550348568628
0.0774432844847306 -0.180514473641141 0.172932819792792
0.0759810737624708 -0.175844213799531 0.181480121514402
0.0744410372205642 -0.174551541215562 0.186158340486907
0.0672524204992047 -0.177025590250134 0.197748603358877
0.0695374352371489 -0.173815206358749 0.196399176306955
0.060518116910976 -0.174449638167958 0.208769279326119
0.0627620621380258 -0.164861013206706 0.21121008470731
0.0576621414361899 -0.165122689607419 0.216630961419341
0.0542047528929958 -0.162628548132881 0.219642667083198
0.0483610692991453 -0.15440344101691 0.225846923760991
0.0487649924182626 -0.151808404052198 0.226296937186641
0.0399723790066737 -0.151809939692151 0.232193579624992
0.0337353044107621 -0.143908836288201 0.23705915940124
0.0312040032295537 -0.141156077945979 0.238272055054455
0.027514416803643 -0.131770348123827 0.240775221601583
0.0167821002722178 -0.128815557972186 0.244622219305909
0.0103025867512545 -0.127240403261551 0.24683980154817
0.00941566427019574 -0.119675683110468 0.248089866362983
0.00914552635634189 -0.120244620715362 0.248100586257515
0.00168999059670675 -0.110631427046225 0.250930606739934
-0.00454619007406895 -0.10145280808197 0.252782313547724
-0.0104058453256613 -0.0932553405842475 0.254402424291322
-0.019382549782335 -0.0850978240705401 0.256749085901043
-0.0294685211848548 -0.0843908373902266 0.259086398476369
-0.0326941853907871 -0.0835928798125292 0.259275658161898
-0.0456207767167107 -0.0741959612555669 0.260080476095853
-0.0475663374802087 -0.0614627318227732 0.260097932793206
-0.0552077657324467 -0.0596849965732073 0.260518838927592
-0.061844093938762 -0.0462898468040785 0.260649507715247
-0.0721363259631894 -0.0436646729634437 0.261136905787828
-0.0796475866740538 -0.042484501223614 0.26145914386838
-0.0839898072274912 -0.0274560505761629 0.261101643148533
-0.099300851358965 -0.0126015805743067 0.260868606829439
-0.108195763668911 -0.00804948978852776 0.260822662126188
-0.117761740725873 -0.00540479525243067 0.260770134006123
-0.117786072845545 0.00631266583383404 0.260104500594501
-0.136055526928893 0.0193420979488363 0.259375690618427
-0.144985779839892 0.0239940808943094 0.258953758800344
-0.15547125465026 0.0379641398423446 0.255369674037414
-0.16702204565712 0.0508676918422319 0.251654055535823
-0.173316904450511 0.0463239722102252 0.25207534060856
-0.189917871389257 0.0770139408691811 0.241526951982392
-0.202452197217097 0.0735111734093006 0.240968948618139
0.0706606813413388 -0.187835782550233 0.182276524506984
0.071310620649085 -0.188206675460401 0.180465247299786
0.0649592867570111 -0.18902477894003 0.191951791718991
0.0663403386564866 -0.184049867064026 0.194926834773299
0.0609019665856269 -0.184071568916658 0.202204565184306
0.0609661268559478 -0.179129434022642 0.205398015223695
0.0538359120088323 -0.178098253748519 0.215592456709929
0.0499073591172757 -0.170379112780554 0.220371704282928
0.0453218496188412 -0.168451536915635 0.223982627462041
0.041683564796926 -0.168896795588863 0.226299072704739
0.0373474828350565 -0.162798183994435 0.230901449941558
0.0368127604147939 -0.153104949851318 0.233934106892079
0.0300183417384922 -0.15767652402123 0.236403147358901
0.027815560653669 -0.152379054187948 0.237855724204377
0.0218198996586592 -0.144259243200058 0.240947482522724
0.0169193145790424 -0.132968042773663 0.244044740239954
0.00688494141956885 -0.137022290071661 0.246642623272067
0.000154160694431035 -0.132230346629876 0.249318239744874
-0.0025956743130951 -0.116827351451284 0.251304662469207
-0.00528385268059247 -0.123708091399565 0.251269433802286
-0.0105275892988614 -0.114000046218921 0.253285223514984
-0.0164336902384072 -0.108973131641346 0.25502325597555
-0.0210352787090442 -0.103580965863391 0.256510380194254
-0.031330130934718 -0.0942940215113637 0.259118095818653
-0.0390043992049852 -0.0870577874393171 0.259608299923746
-0.0422782633849075 -0.0754178035246268 0.25988140574403
-0.0535858486013577 -0.0771854924954409 0.260510707238008
-0.0619546919057775 -0.0712440050833173 0.260988687051233
-0.0762456521081784 -0.0571084894405675 0.261649353928348
-0.0716974007142252 -0.0522917451537301 0.26130287933086
-0.0839833983974646 -0.0394717698533188 0.261551176567931
-0.0930847143942986 -0.0306162188247119 0.261562653639329
-0.103539694775849 -0.0227174517315313 0.261497212770267
-0.108700225934274 -0.0162078775249808 0.261265714108099
-0.122299122817775 -0.00853991702707036 0.260982222821283
-0.130067314338576 0.00294040816073776 0.260352472406063
-0.135641664039663 -0.000929286614308613 0.260530657409041
-0.147843030927692 0.00977897889363153 0.259830910709901
-0.152833723775551 0.0219617677188384 0.259101319693151
-0.161153172270822 0.0289807706920877 0.256944941987031
-0.181550998080662 0.0510004897565605 0.250315796027179
-0.194927132203649 0.0653197036745741 0.244603143409087
-0.211715160416842 0.0766268027546572 0.238672188534286
-0.232420392315569 0.0959902730520739 0.222032062326968
0.0614921945752796 -0.202402280013407 0.178676115663298
0.0663306486515459 -0.195148351779665 0.180202477040814
0.0592031102383994 -0.199242112853141 0.18791829283504
0.0614993221920064 -0.186219367090466 0.199480671858304
0.0554131902548144 -0.191382711446085 0.202057465224166
0.0549101769604394 -0.187849419033442 0.205956580790129
0.0476360329790258 -0.186915154037571 0.215391322749679
0.0508513957371537 -0.184661182099334 0.213847969432035
0.0444213662462145 -0.176369835086486 0.221903000674524
0.0392372375446191 -0.175692946686496 0.225187829730044
0.0356105020922415 -0.169009657572923 0.23023009708921
0.0304367789899921 -0.165974822746945 0.234520430243051
0.0248992064391645 -0.160625763152216 0.237690698952195
0.0210356197114255 -0.154435244039015 0.239814126718193
0.0115970024362115 -0.148773586672503 0.243663981279416
0.00650290744373412 -0.150310295682659 0.245049998725026
0.00356194821002713 -0.142046131625646 0.247028820933985
-0.00469942418332544 -0.137428375649786 0.249905790354284
-0.00681611862016456 -0.12741738278374 0.25126852590598
-0.00874328857893635 -0.128987348266745 0.251546336572315
-0.0241567139717018 -0.111438969099207 0.256481343878841
-0.0200909882852492 -0.109260602363691 0.255793073656788
-0.0309420366187442 -0.102802594571488 0.258735958993142
-0.0401430757297528 -0.10374198998112 0.259458134902408
-0.0504153689203217 -0.0924570759554053 0.260216308626108
-0.0478553308418018 -0.0876830564507232 0.260106554461736
-0.0594442271020879 -0.0802284684625301 0.260820830984148
-0.0642300780825168 -0.0733844402004381 0.261133992401482
-0.0798993778910708 -0.0657899814279054 0.261967548384267
-0.0811894332797056 -0.0581667481449513 0.26193433827262
-0.0994873003770316 -0.046582246028172 0.262504211729596
-0.104404951034082 -0.0405193010421227 0.262407901196498
-0.105786485099819 -0.0370103487774808 0.262296553028641
-0.116408026703139 -0.0204131890820625 0.261612821572345
-0.127995623597968 -0.0215448331495989 0.261759282991415
-0.133351274660834 -0.00618579665511416 0.260846479452362
-0.150594819053243 -0.000451428734473305 0.260345676683742
-0.159104614808804 0.00773633179273151 0.259725491099187
-0.172847932209296 0.0245299034745718 0.256859379496402
-0.178580417194066 0.0323916853560166 0.254632259189878
-0.186712445300547 0.0403676106246152 0.252164054829456
-0.201712085005451 0.0583896380448996 0.245884088491219
-0.212184753023076 0.0659710765723203 0.241833043025616
-0.226260314448886 0.0745356657751814 0.236339552846384
0.0610825054858819 -0.20355552917871 0.177613177123358
0.0569066719691781 -0.203824561261036 0.185557263195298
0.0568797879745497 -0.20359309052636 0.185953087086468
0.0483849875317784 -0.202627715466511 0.200116046804967
0.0487857815791313 -0.197315568594669 0.204574585290032
0.0494167647714956 -0.195331189817524 0.205656277622822
0.0431170642604039 -0.191844988500457 0.215815307107671
0.0431521519130939 -0.188078142509834 0.217459768038431
0.032330759811446 -0.184589292964037 0.225233945084884
0.0312320801633089 -0.183782744836317 0.226223142391479
0.0313699136553783 -0.174867364913259 0.230083702363818
0.0196184850058105 -0.174866315798123 0.236212203056954
0.016634959296176 -0.1710641719809 0.237886197985357
0.0128235151649576 -0.166420428341879 0.23997825119406
0.0058725722331078 -0.159004983474175 0.243529703680479
0.00267494411470357 -0.150256538839389 0.246175884250104
0.00147532076879159 -0.146253935492995 0.247135688917463
-0.00888211200197461 -0.142139277632087 0.250391273155953
-0.0163768389220844 -0.140452656432936 0.252060373190362
-0.0242240601193793 -0.127720709080186 0.255028666778013
-0.0272635044948591 -0.128764828212401 0.255595866877479
-0.0295412600870524 -0.126303534591478 0.256313256940623
-0.0425610380948651 -0.114761984109608 0.259344468494611
-0.0445722273511041 -0.107915503027029 0.259601122834815
-0.0534403059313608 -0.0978262562289625 0.26029197292895
-0.0547525229470602 -0.0932755990440354 0.260456633334802
-0.0748538938483511 -0.0809224193232739 0.26169125545294
-0.0798220038876962 -0.0814121438075306 0.261969892344358
-0.0810789935086205 -0.0729077084214146 0.262087823556535
-0.0885850293181653 -0.0716260880564023 0.262504747701982
-0.100107521085383 -0.0564392375713391 0.262876321538514
-0.108559509443366 -0.0452116374471905 0.262766210379203
-0.111313727859858 -0.0406518099945114 0.262617344839949
-0.123569630432748 -0.0411485692247732 0.262844632414088
-0.133635563125773 -0.0300059677728263 0.262197874420526
-0.140504246851159 -0.0189664532271847 0.261519198187471
-0.14503742586029 -0.0140818174405476 0.261189296136042
-0.153585321703942 -0.00409316250931228 0.260472917302712
-0.173558498087162 0.0130896999459903 0.259125017300932
-0.176091056884795 0.0154313341278412 0.258546697275292
-0.184629733941987 0.021983740703173 0.256272201302426
-0.208692952208231 0.0410134527376513 0.249267066993884
-0.23045960129754 0.0645333287163097 0.2382629295252
-0.235387555355853 0.0625663997572142 0.23774821534479
0.0569855062057415 -0.209052407412342 0.177342753937256
0.0505021955595462 -0.212416932142623 0.185192052755152
0.0501174066877445 -0.210375083445461 0.188969463220292
0.0464773396404995 -0.205254147620382 0.199985416060147
0.0425499411626617 -0.202873501659662 0.206965691010589
0.0421749113500909 -0.20131309569215 0.208873117560951
0.0366744967617102 -0.202179305934581 0.214739310600983
0.0366508947879854 -0.194348839401246 0.218432848740753
0.0325564301571377 -0.191530207265972 0.22203660104758
0.0249392537373095 -0.189899021180254 0.227144424172649
0.0258709735733291 -0.188123618145609 0.227392416560878
0.0178165094843032 -0.183204344450198 0.234181416835953
0.010082181241707 -0.174700367646042 0.238953577129009
0.00731485411740691 -0.169521415660764 0.240865937358053
0.00648357608848888 -0.162550167040099 0.242619218352503
-0.00634779061534196 -0.163041042917929 0.245965707305732
-0.0113101724647469 -0.155654419949506 0.248804076838915
-0.0162909417593349 -0.145317335415886 0.251346914138235
-0.0202433730233502 -0.145793012370675 0.252017165200847
-0.0298995570787154 -0.137202827045877 0.255052767355849
-0.0330137453814409 -0.138122601187626 0.255502740153394
-0.0439725653966595 -0.129455956114869 0.258792679294929
-0.0426782743872074 -0.120587452478219 0.25922290811817
-0.0516032229693395 -0.112243466255874 0.25987849126884
-0.0645328418539998 -0.0989988231455448 0.260853606748764
-0.0652132320876745 -0.103410290158557 0.260792878272895
-0.074150061722225 -0.0939234420907546 0.261474156534615
-0.0809734917437615 -0.0866266720694183 0.261996313794793
-0.0913761600829329 -0.0818896132659497 0.262622856523049
-0.0900719561720439 -0.0774943559426969 0.262581628542779
-0.10617223667771 -0.0680315449365412 0.26347354252761
-0.114017891550628 -0.0570407742358374 0.263494515191049
-0.122719886885068 -0.0451566369143292 0.263066024059531
-0.127693103438745 -0.0484679023164662 0.263291382196952
-0.142903376401299 -0.0348546802232475 0.262336027540078
-0.154674775108973 -0.0218719396203045 0.261390411435769
-0.159881159223724 -0.0171394234737112 0.261025634153306
-0.169229021843574 -0.0100265806306488 0.260384756510963
-0.179896868411911 0.00168788824100764 0.259479908221513
-0.192152177009192 0.0167481294917507 0.256171953674433
-0.196554444440584 0.0169400527213661 0.25550497773329
-0.202196805975071 0.0231860635586266 0.253529115143065
-0.219462518782702 0.0420056052196141 0.246808109684587
-0.245201305946436 0.0671512668270521 0.232993081065549
0.0441714060814407 -0.22205970985071 0.183124117922393
0.04249450499146 -0.222730892986534 0.185373049945275
0.0423824089366801 -0.214371416255216 0.196466250103817
0.0393045508053709 -0.217402366663808 0.197378648443231
0.0407052096226216 -0.20692332868133 0.205433789995538
0.0385819599333689 -0.210629574250837 0.204559574268614
0.0317265581679931 -0.203160989746476 0.217374598392047
0.0318335126675453 -0.206818908794328 0.215696468853804
0.0238201796910907 -0.195928164531347 0.225124494208998
0.0168451595607242 -0.195214120631175 0.229457170987815
0.0187649573476332 -0.191937293290537 0.229799618994354
0.0117379089461893 -0.188328624727598 0.235393471763526
0.0051568469309738 -0.180100869706554 0.239175239354272
0.00330205432180829 -0.177093914808023 0.240355943605446
-0.00763842098289235 -0.174823550814286 0.243896298212897
-0.0104610302830971 -0.166160642793091 0.246424821449504
-0.0180789686345776 -0.162822447955335 0.249142794618796
-0.023337375484138 -0.151331740601465 0.251801183636028
-0.0260498433927339 -0.153906981007118 0.251938770626829
-0.0288993642266334 -0.146238629431651 0.25357050654785
-0.0351846657881016 -0.135758250515193 0.256247298300098
-0.048801483035859 -0.131641063622181 0.259148675519988
-0.0512990930316517 -0.129606263658173 0.259333233972554
-0.0626832722576394 -0.115788043672172 0.260332980222573
-0.0635372475437112 -0.113034028591547 0.260467897023875
-0.0742775893570783 -0.107009992867525 0.261166430632853
-0.0872236136721662 -0.0950373909228435 0.262141971082889
-0.0937483354537895 -0.0899243504303684 0.262599598631529
-0.0977511021789637 -0.0879888387283808 0.262853996625762
-0.106740542956272 -0.0838047957165119 0.263421756000373
-0.114000170137701 -0.0786248469259299 0.269712409765644
-0.113253318725137 -0.0667666567930889 0.268329975074908
-0.117569353645468 -0.0652601600639849 0.270526280551559
-0.144505934756723 -0.0494083779189962 0.263038004325075
-0.150780461820152 -0.0395439836067328 0.26237055984924
-0.161894767239934 -0.0259111391446044 0.261362907457347
-0.161989454493195 -0.031020231682994 0.261591910781562
-0.168881630704704 -0.0147407498152952 0.260611226981774
-0.177296366165252 -0.0077880188850852 0.260001502335063
-0.199615643298447 0.00713749437397649 0.256897560500204
-0.201757553498589 0.0150537172715295 0.255111479029351
-0.22388723211779 0.0273241681863261 0.249646394958173
-0.229305711649498 0.0279698675924767 0.248539057055624
-0.25892212219222 0.0544515631603942 0.233860995575472
0.0419478885925576 -0.22604538228914 0.181508293609739
0.0370649195763582 -0.225530156672961 0.191724951419826
0.0363354531136395 -0.225158556803719 0.193688811433977
0.0310405797329531 -0.224921314769122 0.200404673921287
0.0327772152867044 -0.218522566070448 0.204254165766483
0.0283945314416878 -0.219501917352831 0.208659136136319
0.0263751527496163 -0.211841145495419 0.216620641592769
0.0196796344050859 -0.209694576594788 0.221425415684789
0.0182087510840307 -0.205630886253091 0.224068393538474
0.0153201121950452 -0.200223856005062 0.228121556522539
0.0089925241988575 -0.200754746149428 0.231531188539522
0.0023915652941027 -0.197611376461682 0.236148097456523
0.000841424553009154 -0.185131309878954 0.239304435351837
-0.00482676675599523 -0.184337661750657 0.241085140667886
-0.00964955307860114 -0.178972206529077 0.243583301555723
-0.0205630905888235 -0.177715651111898 0.246754732217759
-0.0252881782818675 -0.169531853766031 0.2495564517091
-0.0277285615272261 -0.161007473889749 0.25123446919168
-0.038341604657172 -0.152774777306354 0.254397593986153
-0.0421747408792423 -0.155044018597494 0.254788427624833
-0.0446157813798745 -0.148574440291607 0.256171987227234
-0.058973927238484 -0.14029489365491 0.259309278915273
-0.0584996195477419 -0.137979991440632 0.259368479022274
-0.0735973944604088 -0.122663989759361 0.260589337285192
-0.0691513296405674 -0.121079694108793 0.26044245356777
-0.0839595535853242 -0.11936208898194 0.261159016981403
-0.0877366768209904 -0.103191911290595 0.26191161837523
-0.0932185420916775 -0.0999635978208506 0.262273510363946
-0.0986238418454939 -0.0935613941441847 0.262742657472869
-0.114863601405124 -0.0912063756715917 0.263517475120605
-0.118976466195455 -0.0871704795869898 0.268661375420965
-0.125813815206934 -0.0783825588344123 0.27408373606892
-0.13361857768018 -0.0728868350420601 0.273735990353152
-0.151059401864585 -0.0586346889029154 0.26314476842788
-0.146874153901422 -0.0519864079570236 0.263072598816918
-0.171437004629195 -0.0392572701702495 0.261542137834093
-0.175401764085186 -0.031786301378454 0.261101202070931
-0.17541443794187 -0.0211751460556089 0.260675866023277
-0.188530518839721 -0.0124281417912264 0.259820527832935
-0.199530514512743 -0.00597506399138231 0.259103534492213
-0.217125819459246 0.00781907773831294 0.253931192178637
-0.223678392943222 0.0135646842702601 0.251883252108885
-0.243516032020576 0.030001359867798 0.244353993199825
-0.248826567090793 0.044798651605084 0.239712519933375
0.0352679740960859 -0.235378941290774 0.180575383046005
0.0330404995123779 -0.230001362189324 0.19287380843618
0.0271201108398567 -0.230808876476762 0.199131475588409
0.0297997856223195 -0.227156578911741 0.199829203412628
0.0267728887901662 -0.225937307378217 0.204636040596387
0.0259490002142844 -0.221131695487766 0.210108727178964
0.0191452858043047 -0.216527905427272 0.218713334066453
0.0144212388918635 -0.21986534975519 0.219463413419225
0.0141506359097748 -0.213730835183788 0.222826001112278
0.0116025031452496 -0.207719014581052 0.226950329342752
0.00550518133022538 -0.204668363533428 0.231810122065898
-0.00403751633083859 -0.205480236290587 0.235745985164447
-0.00972532020159107 -0.196897995292843 0.239418679908308
-0.0140588951276029 -0.187761477382239 0.242958825625666
-0.012523863588704 -0.18547486739531 0.243018487485248
-0.0192941586973296 -0.176423915680027 0.246680571568786
-0.0272091007771095 -0.174776409230704 0.249116495051431
-0.0392199715174634 -0.168405136559987 0.252065272900873
-0.0389584291730815 -0.164784072266389 0.252704312422949
-0.0533136987272015 -0.160111171410399 0.255635366777543
-0.0581646972457089 -0.152858854473696 0.257685789220715
-0.0617136872844972 -0.150366677224859 0.258660201181908
-0.0619694413998179 -0.139909263436833 0.259457519638281
-0.0779151505101101 -0.130003981718386 0.260464249171184
-0.0808174537575373 -0.127758646812882 0.260667603893185
-0.0891641525957386 -0.121311285560814 0.261251975939495
-0.10356083297289 -0.114213355103569 0.262077011773663
-0.102462963930601 -0.110471371786543 0.262208852729779
-0.112044384904962 -0.101146797524756 0.26296719747653
-0.124121649832346 -0.0946942771733036 0.263545424117098
-0.124641747881881 -0.0854393981044025 0.27188247761712
-0.130760787982386 -0.0851135028756342 0.272118394430906
-0.139781329591124 -0.0714805902789217 0.271377003834765
-0.159735144096236 -0.0633038750669093 0.262812754482136
-0.163084896587888 -0.0533227255464546 0.2624126438808
-0.171464163628677 -0.0434910303286993 0.261688618121389
-0.181852070711845 -0.0335476809222691 0.260869365275635
-0.18375910613153 -0.0329329034499594 0.260761204194296
-0.19736396954557 -0.0176104120034901 0.259608001170305
-0.207761617747126 -0.0215621085432398 0.259273101246807
-0.226598704927093 0.000101260730368078 0.253267785805671
-0.233837390146094 0.00965558969751593 0.250545630868244
-0.240140820029359 0.0134676429597177 0.2486426467347
-0.265153624627889 0.0365479023361233 0.236876852389468
0.0257030559432036 -0.244934769721437 0.176627432270086
0.0263213174417021 -0.241540132753793 0.182673451510737
0.0279519852888771 -0.234075296908858 0.194394678087841
0.0175311589408292 -0.238713450866476 0.198468264265854
0.0159656240903864 -0.233350383468825 0.206431398720698
0.0165428002495467 -0.228563649999679 0.211700876332098
0.0136671796011827 -0.225203986906386 0.216721972007829
0.0105966440067999 -0.220091004629038 0.22102364177547
0.00506596850915662 -0.218941256461247 0.224129967900707
