ply
format ascii 1.0
element vertex 841
property float x
property float y
property float z
end_header
-0.00275945277628305 -0.241337038295908 0.192753477779693
-0.00788646150543889 -0.23868123144544 0.193328220138033
-0.0111902544957289 -0.232463755177047 0.194603634395064
-0.0226995912956868 -0.221486214178285 0.196879662956683
-0.0212097548805923 -0.219558531005292 0.197261167731705
-0.0301775440759838 -0.217721889306187 0.197752888247827
-0.0198660847865472 -0.215849777142771 0.215079378814415
-0.026596372115695 -0.214444889040089 0.21894034191937
-0.0330955515869732 -0.212427402295818 0.224474169601366
-0.0302483646689304 -0.209064902125646 0.230112619862588
-0.036876621818017 -0.20894633749013 0.23547083899471
-0.0470500242709923 -0.204246502986108 0.242378415143324
-0.0478633054884254 -0.202491581447146 0.24639166679156
-0.0525639753976457 -0.200101060051513 0.249552165303607
-0.0458310200251909 -0.198639725099979 0.257650700478857
-0.0454111683882598 -0.194380357114373 0.268927842387031
-0.0563152173358102 -0.191137111649062 0.269994790481132
-0.0513833293114932 -0.188036694877569 0.281015757166117
-0.063882567662736 -0.184655435258941 0.28025225935094
-0.0685871159408877 -0.181794780920595 0.283803545832796
-0.0632244135299162 -0.177978401730549 0.295168873082781
-0.0767342291704544 -0.173405584178714 0.294840786549407
-0.086501641354082 -0.165800687753042 0.29911676968999
-0.0825446331248607 -0.163595457011325 0.305604549646917
-0.0961027895357676 -0.159112747914279 0.302095380682087
-0.0968126727747861 -0.152852112454627 0.311151113258511
-0.100063611967458 -0.148886831368092 0.314611165696581
-0.108395397356534 -0.144303043011395 0.314618346694126
-0.122718065044035 -0.138756463168017 0.30801248435342
-0.116137144469263 -0.138458000693245 0.315234285252712
-0.129326476680251 -0.125858686652166 0.320167784355056
-0.138884337794061 -0.120100298095566 0.318100076835463
-0.143010919606614 -0.111234282435613 0.325015172380406
-0.167162379304617 -0.0976421816720529 0.311326996165216
-0.1516969652751 -0.0991692691693909 0.329243650122341
-0.167611060753909 -0.0870715384425971 0.32356502021072
-0.17496480346762 -0.0804293268926082 0.320640680211759
-0.203843091723081 -0.0596018110097896 0.296821685252514
0.0129446775116437 -0.267488757539029 0.187275915317957
0.00693176616758031 -0.261984090341139 0.188443046427226
-0.00350444042139018 -0.25709651146741 0.189506000454664
-0.00449755042939995 -0.249259363888904 0.191128095212704
-0.0169923233186252 -0.243699293987771 0.192340559689582
-0.0204591588220672 -0.234051148968218 0.194331099183897
-0.0283402222981066 -0.226840053703954 0.195289611135897
-0.0326478697134105 -0.227318540737096 0.194368182314857
-0.0333178465841558 -0.217546072694169 0.198307670912075
-0.0374412468274805 -0.217268839069574 0.199194625224567
-0.0417067744559688 -0.214738070506932 0.213314093607829
-0.0455135177143584 -0.213972957107364 0.212939069517785
-0.0466105067942981 -0.210724837175687 0.223499346717793
-0.0513335939373289 -0.209047969185481 0.225597787478755
-0.0584466180346567 -0.205658521620545 0.231413690681947
-0.0582394632048461 -0.20253426365286 0.23962079545364
-0.0597746128346589 -0.200921737700924 0.242802674145785
-0.0654222634455795 -0.199592615634062 0.242612283994102
-0.0673362023156597 -0.193411742469895 0.256616261056698
-0.0783366594725325 -0.190887229617248 0.254559502444418
-0.0757426156300615 -0.186128503241857 0.268211414287668
-0.072677868956726 -0.18620759631482 0.270211532361178
-0.0897800105267479 -0.179857939218774 0.269292605795979
-0.0810241492504904 -0.176622556299363 0.285702714557738
-0.0827600474310148 -0.172510322799504 0.291575236209261
-0.0940690009323071 -0.16908732193769 0.288156736319615
-0.0982917896595517 -0.165284256556062 0.290806548585351
-0.107251855425977 -0.161081201059653 0.290359690147525
-0.105828975299818 -0.153002544510625 0.303781434409403
-0.120161767578473 -0.145849474805356 0.300216769734357
-0.126188100714991 -0.139184410576783 0.303806637089172
-0.141607337154705 -0.134820477726875 0.294050303162443
-0.147892562941738 -0.12588517780009 0.29803307652591
-0.150726407851627 -0.119036537280619 0.303738423554894
-0.158347807413569 -0.11249449585495 0.30285159319531
-0.17098955623939 -0.104807109395983 0.295599204872299
-0.186620328096982 -0.090877079419236 0.288091944416516
-0.204273716806079 -0.0742928010046693 0.276692246457981
0.00757711704050416 -0.272940810288496 0.186169256173829
0.00696579021192737 -0.267860596111845 0.187227021640961
-0.00863470693167833 -0.257732666466896 0.189401587465862
-0.0147423135890975 -0.255889749040601 0.189813749672898
-0.0240557571360204 -0.24795216558899 0.191500084748531
-0.0240585083210413 -0.239197641382637 0.193306265604505
-0.0358831071369286 -0.240389864089436 0.19107218741179
-0.0400276247653238 -0.227697590875931 0.192881635421586
-0.0516043331508295 -0.219972084556628 0.192287061148301
-0.0552321952227465 -0.216419044236437 0.192337128381672
-0.0610606094690702 -0.213156740756631 0.199907167032326
-0.0585330674338551 -0.21291012171275 0.20427086834623
-0.0569433955836364 -0.210941963376878 0.214398402786065
-0.0639476479909435 -0.209047102354431 0.215424687975058
-0.0605804227553372 -0.205265550394283 0.231059548070586
-0.0812244485371985 -0.201569407989118 0.222506174735734
-0.0758412479748772 -0.199600132545455 0.235575906607245
-0.0868139665096579 -0.194513318931099 0.237476162995002
-0.0799468068355076 -0.191526813902601 0.251432107408811
-0.0929600746046827 -0.189092816385038 0.244312674269285
-0.0834323811828275 -0.186345871777862 0.260340429654025
-0.0951196556227986 -0.180469059272281 0.262400941835581
-0.0909237715854164 -0.178862322831526 0.270393639709458
-0.103887917704358 -0.175676990222055 0.264343201796297
-0.109536664207874 -0.171675331565538 0.267686597721381
-0.111405391648691 -0.168310061357588 0.273463040669754
-0.117621430243614 -0.158547543333107 0.284162213396063
-0.130080231170203 -0.152893215818874 0.279635869939878
-0.129330944845361 -0.154213894608944 0.278466058696189
-0.145162683873915 -0.144522996940439 0.275843990752866
-0.148288760629168 -0.138112501434889 0.280551083248022
-0.168266551697783 -0.124670448665889 0.2724709443308
-0.166159657809487 -0.121980766648368 0.279063024326361
-0.17004625514773 -0.116175874350275 0.282101688294574
-0.180844626473663 -0.104787696085348 0.27917282690134
-0.184542757872394 -0.0973523586033564 0.282690608195833
-0.00756862805414814 -0.278323519492823 0.185140817656026
-0.0116147090092557 -0.26912907321635 0.187072400670656
-0.00807955725736654 -0.271662640553824 0.186525999163353
-0.0183149285385486 -0.258882881124182 0.189214915970604
-0.0242716572617153 -0.253127175885595 0.190433545467252
-0.0350536831540018 -0.24740874046808 0.189749239042984
-0.0441617405596309 -0.238982337529979 0.18975677630375
-0.04613413637541 -0.234140997223041 0.190371564437577
-0.0506092004776867 -0.226252191367492 0.191165445964963
-0.0696659978266993 -0.218423288896769 0.189165933397843
-0.0669903032275375 -0.222309507776731 0.188864704555708
-0.0773238489266283 -0.212333545738678 0.188977148951628
-0.0802485659993009 -0.208078945078114 0.204198229766755
-0.0765811888634129 -0.206708558858211 0.213473033001836
-0.0823411943633829 -0.203504956169089 0.217918829074892
-0.0889934395265188 -0.201177771632002 0.216992247420704
-0.0969580763262271 -0.198342672886362 0.21605408646535
-0.0907717523770611 -0.193809295757707 0.235224355867806
-0.106166385306742 -0.191586649448708 0.225233756881514
-0.0967877416941804 -0.18996345397388 0.238429884706565
-0.0995556687964115 -0.18543749211065 0.246470337099485
-0.108171639584558 -0.179408034540361 0.251400163323031
-0.104030874965816 -0.179953187667591 0.254413080938627
-0.120806589177493 -0.173922231109506 0.247781228446302
-0.12765497121371 -0.167546450227825 0.252359111649267
-0.131290799302734 -0.16278094978422 0.257852943585471
-0.147824932516407 -0.152513492588412 0.25590838749942
-0.153667832080446 -0.147987742683625 0.254330172245717
-0.154333455986568 -0.145361184077152 0.258738187956447
-0.169585232993769 -0.132983698990466 0.256368878840388
-0.176577583410481 -0.123477506476224 0.261935559445326
-0.184968863056584 -0.114002356573439 0.260277490873787
-0.197157310649726 -0.102194241490557 0.255321386643513
-0.00465881769748251 -0.278309547183255 0.185126709674101
-0.0196175866384054 -0.276717992159881 0.185544403923844
-0.01433373878103 -0.271464608297565 0.186603647397608
-0.0258248575203341 -0.268174566544961 0.187254093178581
-0.0436869228367711 -0.260237326559898 0.185353648252261
-0.044963094408345 -0.255068394584795 0.186198264290336
-0.0460774256769591 -0.24341324716434 0.188446316375948
-0.0554034176966914 -0.235739532208587 0.188252187188471
-0.0650977438597655 -0.230153620256608 0.1875876458089
-0.0723971512100719 -0.2327871747963 0.185565359352795
-0.0836753748383673 -0.221157202629155 0.18489127499862
-0.0845178243491217 -0.21810459587839 0.185231574179415
-0.0905802788544819 -0.212341194633229 0.184145869957495
-0.0984255663450554 -0.204411946653771 0.188337507832628
-0.0987179714204197 -0.202643028128625 0.19721484720532
-0.103133138568014 -0.198571391096652 0.206810971077147
-0.103674319718005 -0.197174591948279 0.210972678363412
-0.10980113573124 -0.194949535053986 0.21040592149775
-0.118052258154024 -0.189397979455103 0.217290241563227
-0.134255153687255 -0.180794966552017 0.21373868396373
-0.127564389456596 -0.179182579952193 0.226665815604851
-0.130188742323564 -0.177645698001786 0.22640892314405
-0.138459588760497 -0.170051950136603 0.231701720284902
-0.141466632264991 -0.166746395798213 0.234834652283302
-0.151344222747372 -0.157159549294572 0.239356157645036
-0.154738742040061 -0.152462263044448 0.242780746673452
-0.183105118024773 -0.136475009610346 0.218438609199779
-0.199952691438221 -0.120208546332212 0.209089894827902
-0.0157222940858226 -0.28992388320505 0.182781289615003
-0.0230209110844297 -0.283821856168117 0.184090177011672
-0.0232391917626732 -0.279085094303063 0.185074375593718
-0.0436254163588583 -0.267986108506525 0.183752665717282
-0.0406197232273999 -0.266004134960404 0.184772840330561
-0.0492412512539748 -0.259594090861855 0.184407421078158
-0.0610975829455973 -0.252347589948064 0.183629887219322
-0.0657033073082163 -0.245647882208049 0.184149504319589
-0.0707955400857455 -0.235507673939671 0.18530202482763
-0.0806575278697337 -0.232810174237713 0.183487498291482
-0.0973769220962756 -0.221894230100831 0.179435429818063
-0.101667787784851 -0.215411092695089 0.179191368093047
-0.113468668683853 -0.209159923948875 0.176024436463675
-0.120408475349147 -0.199502833601251 0.175633713584176
-0.133957206128786 -0.193537414965504 0.170916984778609
-0.127512538743707 -0.193619182001765 0.176739014643838
-0.128899024105077 -0.190525598512781 0.188606860006569
-0.135616003179331 -0.18520422579564 0.195069782657642
-0.157225492587522 -0.173679798318715 0.182305761415506
-0.149293783639511 -0.174702049763854 0.203967873717095
-0.132210754252672 -0.180265900262249 0.21776939281054
-0.153321420945155 -0.166704561388313 0.215407004879661
-0.160034731194083 -0.163173042370902 0.210015367033308
-0.174189287204837 -0.152176315220565 0.206148503496384
-0.164467870206605 -0.154020017129405 0.220864429776948
-0.029673898648696 -0.293850506359794 0.181019234558168
-0.0270936057712124 -0.287392273360104 0.182908230256263
-0.0439244456023365 -0.277830746972117 0.181596230923001
-0.0418779268828624 -0.280898324749621 0.181349998716405
-0.0468313941256458 -0.272850256204555 0.182078730213936
-0.0623960731033659 -0.260165953431082 0.181723208477826
-0.0704469028192941 -0.259545893771473 0.180285628317945
-0.0775658184745492 -0.253539038028318 0.18016899701504
-0.077440156597103 -0.240609516953177 0.182928208681836
-0.0991747864460267 -0.235892078965064 0.175484090391052
-0.107079733263028 -0.225765718657232 0.1747664130813
-0.111316023975126 -0.225556281345912 0.173153907369278
-0.131955154724442 -0.208439840655638 0.168424570016719
-0.132944613093427 -0.205241369433636 0.168652559783999
-0.135046404393932 -0.199032439592203 0.168995864371354
-0.151923851343752 -0.18553346117974 0.162993105140399
-0.159614325866171 -0.178204810138705 0.160869143455577
-0.16706966128915 -0.171898533085938 0.158598847444584
-0.176479297017797 -0.162369203432754 0.161147076391318
-0.201696169355123 -0.145217231827324 0.14194638926672
-0.20767383626711 -0.135453711602875 0.140953227722196
-0.0285376664472827 -0.298161945147155 0.180413408794808
-0.0406297540120976 -0.295011960001007 0.178631459293798
-0.0410828964154027 -0.288423401863392 0.179905310437628
-0.0536027809549395 -0.280741650885581 0.179050613258242
-0.0561255880094006 -0.276592274140426 0.179432510672913
-0.0773075421350613 -0.267245314233255 0.177237048776346
-0.075488998245539 -0.25909967259048 0.179397540742792
-0.0861417240560764 -0.25551174987185 0.176320633586227
-0.0957216348227157 -0.24873619687943 0.174010240747941
-0.096933108723473 -0.243721973836072 0.174632155710772
-0.115873647937719 -0.231646164334295 0.169932800179523
-0.123395991599009 -0.223808222113457 0.168826628056482
-0.129643563565846 -0.218306205382712 0.167250600911357
-0.149337725493527 -0.200888993606742 0.160678493441502
-0.148434228056266 -0.195576794508984 0.162487055260803
-0.166789879159757 -0.184773309567284 0.155040040942919
-0.183392566951718 -0.171685774680912 0.147506215153832
-0.197799172103071 -0.163810946861752 0.138833633565301
-0.207402057795484 -0.1479109945722 0.136532301096381
-0.21468991723606 -0.142499937604391 0.130480191490302
-0.226007050606428 -0.12904965672296 0.123093059379575
-0.0356893861472927 -0.30951531968027 0.176521426270855
-0.0415239571716793 -0.300209593041064 0.177333531664969
-0.0620098315523024 -0.287783555243913 0.175878011591715
-0.0619257804920872 -0.286515415336511 0.176164852230092
-0.0763066088889868 -0.278483703965799 0.175014447466135
-0.082208092824087 -0.272424575186288 0.174101559802769
-0.0922745199044871 -0.261750388140871 0.172423296036248
-0.0975100863659391 -0.258395793253982 0.171110767154131
-0.108993217175733 -0.25072628451167 0.168305670825728
-0.125901546764084 -0.240784621900594 0.16384834871582
-0.129899808409996 -0.234859779690296 0.16309230172048
-0.135395196398398 -0.224652037853109 0.162399745434615
-0.154057958399919 -0.212168896609383 0.154825728805748
-0.160917258085782 -0.200155790303922 0.154241318996012
-0.171917700702234 -0.198908018428421 0.148087629172715
-0.174134902255093 -0.19014121910684 0.148888214462163
-0.210577706608586 -0.168996864041725 0.125390144607611
-0.20541729626774 -0.169750683581092 0.130812000417736
-0.0552830050035942 -0.307195025845401 0.173036216822821
-0.0557371308013963 -0.304270828995859 0.173571828987458
-0.0636943233407268 -0.301826390169825 0.172479013217854
-0.0792618681670251 -0.283449921938084 0.172856962788526
-0.0769941977111153 -0.281181414439194 0.174279510456464
-0.0820740500062082 -0.27982955055446 0.172516893338958
-0.106345073149628 -0.262261362078819 0.166645945357345
-0.108045874806649 -0.255440549761909 0.167573115100348
-0.113522802886716 -0.249312347287815 0.166818620025911
-0.115001601162233 -0.247946352647984 0.166535971526316
-0.137928485139029 -0.233372082680859 0.15882765196152
-0.149975933189443 -0.220820177294829 0.154928592597418
-0.160902726901137 -0.216484092622562 0.149696509645157
-0.172732486376191 -0.204661254929401 0.145773905648055
-0.186911117033941 -0.193028073420241 0.137983322202816
-0.208544686513046 -0.177732341116353 0.1245292179132
-0.224949364935137 -0.164041541218578 0.110879105924903
-0.064950214767085 -0.311109587018677 0.170230224667067
-0.0619542925854499 -0.311735651686125 0.170704868152297
-0.0715274733739979 -0.295652645683272 0.172212241608501
-0.0902309195707525 -0.292836955659058 0.166197431294404
-0.0834191766557804 -0.287500800685972 0.170260402865863
-0.0912193345354484 -0.279645845206206 0.168845598918706
-0.11202848764355 -0.270615652585303 0.162398233276449
-0.115755213589415 -0.25794788509672 0.163881613910817
-0.128859949964053 -0.257124693645457 0.158222825319675
-0.143966672204627 -0.242904289548542 0.152731560113825
-0.142516422887391 -0.244635403586228 0.15311982789458
-0.15894122581593 -0.229843600267015 0.14739303146632
-0.169411779186572 -0.218186914304708 0.14435736131695
-0.196348181233315 -0.197345714862934 0.129071335604591
-0.198132824755256 -0.197144106599378 0.127662462806811
-0.210436806618929 -0.180540686837394 0.121273946496926
-0.0659360559128867 -0.320273215198829 0.167990821182542
-0.0791337707672973 -0.31321842268979 0.166266369122718
-0.0850649724450547 -0.307726150262045 0.165026903797136
-0.0905068698489956 -0.296044903634721 0.165368596055154
-0.103165855634204 -0.283947588399184 0.162989455918385
-0.115280874323899 -0.279861964006422 0.158980109349991
-0.121945845188457 -0.273591254224037 0.157714259331926
-0.132714019676773 -0.260741367482781 0.155030932772169
-0.151245988033047 -0.256032121523222 0.145064327717394
-0.16000748441314 -0.243446376101472 0.142999377922209
-0.158065898786888 -0.238873512215777 0.145422135969278
-0.170787802344775 -0.227792946966639 0.140566357347418
-0.183207666260203 -0.224032995669606 0.131395975743736
-0.203259748505566 -0.203601921301443 0.121289046260005
-0.0774678472388803 -0.322963747279167 0.164772485850487
-0.0825550277781535 -0.314670138408729 0.164522786176191
-0.101031068910641 -0.303957070137453 0.1592377327624
-0.104027455327748 -0.306648614679968 0.157394479335524
-0.113662949790546 -0.29675410670136 0.155642288259382
-0.123092256722698 -0.285850686014079 0.154351814859848
-0.135093374359812 -0.27492084489812 0.149944303407507
-0.13634236568804 -0.272047209401628 0.149954013557829
-0.146282958178182 -0.262070057744432 0.146537231093242
-0.167135219080883 -0.250692260532019 0.136773942077965
-0.176325373296599 -0.245888270385303 0.130590838865549
-0.194817801743139 -0.225463256886931 0.121336090148719
-0.214267938365443 -0.205777967706105 0.107755447202545
-0.218280881890359 -0.20222215309951 0.10436524023012
-0.0846436876616516 -0.329527995835003 0.16025697654956
-0.0998837470511024 -0.3172331929736 0.156659093367889
-0.109403096098378 -0.311343134448798 0.154062554406403
-0.110617759668702 -0.300824333941017 0.155955309188576
-0.125768562308656 -0.299926279670335 0.149617959928893
-0.126897690981706 -0.294886128437591 0.150149485242193
-0.143737438388826 -0.282740066019328 0.142667420241638
-0.158800808342106 -0.269800995666458 0.136718582314742
-0.183235150704466 -0.2568770374033 0.12141514568432
-0.186811022216496 -0.24915931150221 0.120595339549032
-0.207327783025003 -0.230390489180177 0.107067639011401
-0.207188955510815 -0.224457309364172 0.109294435656696
-0.101357190154042 -0.329891725967699 0.15307432906455
-0.114642736622556 -0.320549698790521 0.149676629951984
-0.116382329453526 -0.315789073071172 0.15007720248363
-0.129341028743244 -0.304200598726016 0.146257665204769
-0.126262598599112 -0.300939216773871 0.149063662918052
-0.149970945322799 -0.284678809674851 0.138324479418361
-0.169698021558812 -0.271406092285484 0.128854830345782
-0.165542674702924 -0.270690708200561 0.132320310571152
-0.176739513354632 -0.263191427737588 0.125173598557944
-0.106888295057993 -0.338205482326585 0.148866777660777
-0.107712496258772 -0.32708676399379 0.15103277672773
-0.121901565224545 -0.316854641331185 0.147507543054604
-0.131375659216044 -0.312807837250824 0.142836219592057
-0.15931798533884 -0.298082377013676 0.128886032360425
-0.162594222244687 -0.290362006077739 0.128885361192592
-0.190416152634608 -0.273264603255721 0.110174515862523
-0.194753036436865 -0.261676432618713 0.109993585121212
-0.210417894595785 -0.252747492637481 0.0954107131107468
-0.112261504085265 -0.342601450838167 0.145514345845335
-0.134008396480037 -0.323099687245281 0.138624661549674
-0.155449233872044 -0.316017677894442 0.126620185115257
-0.153517370723885 -0.308327582516949 0.129808707872284
-0.159609600949933 -0.30667891224716 0.126387335948126
-0.163795552594182 -0.293572861515485 0.127259025088032
-0.196168281174941 -0.27183031577736 0.105560898269479
-0.196054266985983 -0.270160261724064 0.106185416226098
-0.138311798241931 -0.33712099593388 0.132241266093594
-0.135824821846642 -0.337376709968956 0.133791718664658
-0.157243246666214 -0.317539137220416 0.125092809504901
-0.176054818166351 -0.306259101434632 0.113077869381459
-0.17727271245459 -0.301463629255072 0.113393273791224
-0.195968566481971 -0.288912040853955 0.100334712204068
-0.141125804115368 -0.341553664939109 0.129280361022094
-0.173041184477906 -0.322028498540616 0.111151911359509
-0.170493874574008 -0.317428258061442 0.114757065068853
-0.216848202473601 -0.291121061508135 0.0744852506157138
-0.155231050530808 -0.341751972648158 0.120012108644603
-0.162656119450816 -0.33914111165569 0.115737889897642
-0.195205789421351 -0.314393099860424 0.0926395235200457
-0.215685797312108 -0.29881600980325 0.0732819819914462
-0.167794464484707 -0.340570402555288 0.110718630125448
-0.201640319607533 -0.319028706877309 0.0834941381162411
0.0853879463434848 -0.49041462948654 0.122664691955808
0.113675358355709 -0.479666758203778 0.110702328403127
0.104011734867393 -0.4828942688539 0.115406490372009
0.1003160646476 -0.479995468723913 0.118221364658186
0.0849002027233095 -0.488545058266708 0.123274763871973
0.0893483683398706 -0.482119365293397 0.123470465061721
0.0820241035468067 -0.482286683721657 0.125702930993544
0.0722783271279885 -0.483903430782298 0.128331458840711
0.063961691356247 -0.487388153733144 0.130058088391916
0.0550414303860757 -0.492640428108561 0.131538445409145
0.0431904107363791 -0.49763332103681 0.133992170703975
0.0385453347366998 -0.494032679858006 0.136287828702447
0.0372899771198692 -0.495197826663096 0.136400010758293
0.0188715094420362 -0.492857712117842 0.138709036736956
0.00598023490533697 -0.496297822520535 0.138150607983253
-0.00812140898773095 -0.498388215566696 0.137915031240472
0.122625339469872 -0.471823952376682 0.107580794294951
0.114898489493967 -0.468219216851116 0.112902936762734
0.109995004660624 -0.470683127075067 0.115038759461879
0.10279785181995 -0.469534693373357 0.119280311328092
0.0953600465864241 -0.473902974855337 0.122373478443836
0.0837241734807583 -0.472366216675426 0.127609056769825
0.0865170425944726 -0.472141052418732 0.126797366839448
0.0745378187889836 -0.476762628271216 0.129381985050976
0.0639928734187871 -0.481413035187251 0.131514317562481
0.054994041508637 -0.476250494503878 0.135372092894049
0.0464207499852764 -0.485129826009804 0.135935080970856
0.0405697305249325 -0.484694621588587 0.137750173249333
0.0253633666793482 -0.483140566572355 0.140781683120221
0.0169173198152597 -0.485191605766403 0.140461321989514
0.0130450225603307 -0.488610627466892 0.139758338952809
-0.000501197253182053 -0.494921040311969 0.138566780870305
-0.016833284284122 -0.496730908817814 0.138431060729851
-0.0174243348388575 -0.493974583798512 0.139059242727296
-0.0325607748341391 -0.491891957165578 0.13752258732359
0.119798309060365 -0.465157786980468 0.110893772384917
0.11214533457008 -0.46651646076078 0.114818916240527
0.106202592901261 -0.463392684998417 0.118826471352442
0.098536532462948 -0.46843426991586 0.121889319615189
0.092322710996343 -0.466155250973111 0.125850385788405
0.0915660296266398 -0.469605185927863 0.125467014496125
0.081135892789221 -0.470326267685749 0.128912953246853
0.0726640004510967 -0.468819309460319 0.131817185970096
0.059325213410423 -0.472720666872823 0.13487707806696
0.0564995564944367 -0.472382199053297 0.135781910982608
0.052878170179226 -0.46817673391659 0.137772455199233
0.0442404195510626 -0.47042231794115 0.139815799790272
0.0318380690663076 -0.475630600546634 0.142312620906615
0.0248483418059512 -0.473554330746244 0.14294093976498
0.0122206954860674 -0.477081107981989 0.142358703089068
-0.00207410209084078 -0.475134472853683 0.143032055932342
-0.0107025538080935 -0.481412796253915 0.141766296482012
-0.0233628118868731 -0.485557319609201 0.141046004416993
-0.0230707452430104 -0.486366347277091 0.140859659615602
-0.0388896359877037 -0.483609200486075 0.137915784926063
-0.0681965811510303 -0.492315297725552 0.129069291047878
-0.0819417521935742 -0.488670960578701 0.124893083174992
0.12353029320809 -0.449492755446107 0.112524510439918
0.11689562372986 -0.451601860046135 0.11569611483642
0.10619380609321 -0.452510280956258 0.1214461476328
0.101565225931513 -0.453850126105563 0.123692225485461
0.0952156063790153 -0.459256468432073 0.125865942918622
0.0894721127257143 -0.455384623999101 0.129921123564893
0.0884862897201181 -0.456919255573538 0.129892113980918
0.0797464731966531 -0.461531102597508 0.131374640777268
0.0720773462202086 -0.464124599631978 0.133027371059595
0.0569401099282912 -0.46418394016789 0.137514332060028
0.048863812601121 -0.46635848477878 0.139389559570184
0.0452052772810023 -0.459331541231961 0.142126715437257
0.0349641258489145 -0.466946687905933 0.143343009838095
0.032137768473855 -0.46540263687159 0.14447268676952
0.0184171153148369 -0.462982078842249 0.145421507944312
0.00755574602266382 -0.468059489860528 0.144456163652821
-0.00600976684127412 -0.475729256275264 0.142963757238253
-0.0139530863675824 -0.467835024396389 0.144807574539835
-0.0288154102015577 -0.468935315701209 0.143488924170524
-0.0326650928379119 -0.477291858912704 0.140807517598978
-0.0649628161048191 -0.474671643056052 0.133826952247052
-0.0714761796101901 -0.477914505904594 0.131564375336172
-0.0902691505490121 -0.482640263069865 0.122459417946543
0.122376029425788 -0.445448437876171 0.114198189390034
0.115742040415144 -0.443841252486695 0.118314567149797
0.115357940721487 -0.441120662659809 0.119221154139342
0.108093802541379 -0.447581234931681 0.121637861553516
0.0992759782879303 -0.442424425276834 0.127644328032875
0.0892692029169865 -0.448717127709341 0.131574216132872
0.0818558941478895 -0.449513953232052 0.133656418162115
0.0760099250797903 -0.444380665285489 0.136637461371088
0.0653887126787994 -0.449485356402206 0.138560149399843
0.0659326776054394 -0.452143172211971 0.137755001077118
0.0574587659476469 -0.454109577152911 0.1397988516707
0.0442089183088133 -0.454174802169845 0.143529506560154
0.0405350453905729 -0.456938752416864 0.143958839895072
0.0273963824880178 -0.459823103235458 0.145990915171165
0.0190329404471179 -0.45554090989944 0.147051108452306
0.0149570815130299 -0.459016541448676 0.146343140478313
-0.00115067875111953 -0.45906725302715 0.146558135208542
-0.0217496492929617 -0.465517437939738 0.145427280976642
-0.0248680791552334 -0.466861714335967 0.144854170590729
-0.0490464620067926 -0.470294687718748 0.138551790094906
-0.062277684962827 -0.46796283168872 0.135977353381221
-0.0682703528620182 -0.46790364844776 0.134585363116685
-0.109776484694845 -0.477535123755798 0.114626875225898
0.126925349597261 -0.430676382738807 0.115412585128726
0.119360306933155 -0.433375586369078 0.118927557455218
0.109883455663983 -0.435854660658337 0.123455216797969
0.111488615186536 -0.436145290878873 0.122523813084903
0.103222051365598 -0.434665842401688 0.127316532891444
0.0940543587260233 -0.440114635761121 0.130990123440482
0.0827548117577555 -0.43667615513098 0.136496818721704
0.07731631174024 -0.438490265842889 0.137651828537498
0.0732803180173626 -0.438485302498202 0.138785863197126
0.0664750780679013 -0.437696664261577 0.140867938511461
0.0570227355763177 -0.440326629844459 0.142948541085241
0.0489162569830557 -0.441168819732201 0.145040707624307
0.0362693773024336 -0.443780753115925 0.148021983836769
0.0312943263112015 -0.443872195544902 0.1493986270756
0.0206343970021025 -0.450769174799067 0.148079168039446
0.0162888596009788 -0.444824209073383 0.149449024122167
-0.0035912767602896 -0.45506855189484 0.147472755782049
-0.0100862074508869 -0.446468618903478 0.14945730750696
-0.03041230948171 -0.451312268114795 0.147055266254681
-0.0401339405161867 -0.4520075695427 0.144677076309789
-0.055623938960163 -0.463384764241609 0.138596801668781
-0.062369177661442 -0.462757866180698 0.13719420097525
-0.0945619716379908 -0.466281431924359 0.124335305338419
-0.106996073048728 -0.464557592771981 0.118981262421244
0.130815305464422 -0.417220712509573 0.116540200086208
0.122670822331814 -0.42129667623028 0.119945064691384
0.112258301699997 -0.419255382803451 0.126140976464992
0.107563799133222 -0.422120044179874 0.12797261654618
0.0993468923239556 -0.422309298437465 0.132404615679424
0.0916120557047421 -0.424039541504365 0.13606363763184
0.0884225947326776 -0.426529029004822 0.13716186237828
0.0757700183768635 -0.427188171337363 0.140689913305367
0.067354911181091 -0.426682676189282 0.143201140924452
0.0625760480928072 -0.429930110563762 0.143782644731293
0.0540628929307407 -0.430979889453601 0.14595007807896
0.0505869796754154 -0.428883306881913 0.147438459059724
0.0377132212600975 -0.430540515822757 0.150560326545269
0.0386130476298293 -0.434927008602579 0.149373049250028
0.0191565523887718 -0.436018929883949 0.151369222603453
0.00212421863877567 -0.442868225739644 0.150078530413425
0.00791430081892996 -0.437831019558092 0.151106427759053
-0.0179783280608081 -0.445190057278671 0.149849604018735
-0.0267843173029213 -0.441818598231327 0.150002824953824
-0.0422760723113356 -0.443014706332065 0.146193438201559
-0.0510062279569336 -0.448470647095919 0.142979925232294
-0.0648906275347347 -0.450284110070604 0.139400372321734
-0.101604715385944 -0.458651998026566 0.122874602129332
-0.106124289331592 -0.454202954506626 0.121896727370193
-0.146283155392268 -0.461878289769397 0.0957990217916034
0.131650226656435 -0.406434994190266 0.118825723375475
0.127076201534557 -0.408271127548044 0.120853033765067
0.114886125156147 -0.408785021696029 0.127368823618934
0.108398614393239 -0.411578647755755 0.130135959178532
0.100166248171142 -0.41808488665233 0.13295206869348
0.0950531692771188 -0.416686894097439 0.135952143589858
0.0878941404952181 -0.414423365246806 0.140223084930654
0.0803172905546805 -0.418282893873351 0.141526187058957
0.0772192362345391 -0.416974420056268 0.142718906210418
0.0707013019744699 -0.415327488255336 0.144963970112498
0.0633179107459256 -0.425720006877066 0.144577948561464
0.0499402756264387 -0.4236051959245 0.148773399687824
0.0493452337216745 -0.422659000789929 0.149137130994871
0.03930995194881 -0.427474344911788 0.15079277456687
0.0223682601751171 -0.431269755908438 0.152363403464805
0.0199476040459857 -0.425975634598432 0.153541481697239
0.00427698391152445 -0.431803744808408 0.152457906876218
-0.0091915505805268 -0.436553071940635 0.151583029194435
-0.0251129898019315 -0.437073299739636 0.151310348025221
-0.0435507272319103 -0.43643802901744 0.147334383255299
-0.0555452904189048 -0.435645297197047 0.144831613748288
-0.0690918679276163 -0.436117266758355 0.141600130038014
-0.074666512380663 -0.436110596639358 0.140388880769599
-0.0948616973607277 -0.447730939140336 0.128545539341567
-0.134983964169734 -0.446590535995177 0.107094110414579
0.130774635228756 -0.396517616192237 0.121823213669529
0.12373503128202 -0.400665437712956 0.1246074071514
0.11681518411165 -0.401136205404954 0.128128707624905
0.11210589432639 -0.402821378339666 0.130208104704244
0.10322850230947 -0.404216526546987 0.134537702809224
0.0968507545517422 -0.409081666857459 0.136759719972979
0.0887160267553393 -0.404419765251723 0.142093431521032
0.0852550707966845 -0.40806559247324 0.142565050760181
0.0827173238222831 -0.406771215500071 0.143595237792847
0.0682160961110811 -0.409489096294285 0.146910945017781
0.0603113080178479 -0.414539188280515 0.147944074630111
0.0509994848388392 -0.415491183276035 0.15023845649478
0.0415478452852177 -0.41445571482711 0.152998868766228
0.036263100370051 -0.414125720007853 0.154488634022726
0.0274902580734968 -0.411848889551658 0.156560615663446
0.012795353709978 -0.414286571530395 0.156163630216498
0.00646685386625024 -0.413785364832442 0.156346126287818
-0.00775593813213474 -0.421674992502833 0.154797932505468
-0.00660348130598786 -0.421719942511049 0.154774760458633
-0.0246781780867268 -0.427648590284948 0.153488060541545
-0.0505344858252458 -0.430601478484998 0.147063767878358
-0.0530138046334957 -0.429305249944727 0.146796423186789
-0.087453139603877 -0.436529180966373 0.134549672463994
-0.0909644722887412 -0.435053717735671 0.133296974697207
-0.123847942075203 -0.436003578927593 0.117217799433825
0.129581561537534 -0.393127051403628 0.12328310152111
0.126916716952765 -0.390227826460489 0.12536289003548
0.124685423522821 -0.391963977383564 0.12611549731126
0.108868226927246 -0.391789152146009 0.134554434256712
0.106379164712522 -0.3903805392586 0.13623357388943
0.100090878241699 -0.400295406475284 0.13708325711522
0.0907537153434967 -0.402246716801774 0.141526570506538
0.0823316172276427 -0.394641882647307 0.146500686923515
0.0776628646417967 -0.397468362037334 0.147105125962343
0.062418434244384 -0.405482185723113 0.149363475204019
0.0627941256152694 -0.396911689880036 0.151269675026329
0.0533040866368529 -0.397803415132723 0.153635530137673
0.0431244934924917 -0.40298164839998 0.1551696805326
0.040922781888455 -0.408661120265338 0.154450727050092
0.0219091194477674 -0.409262398782545 0.157172796566175
0.0160348216303081 -0.40380102586757 0.158406315360555
0.00300676516578156 -0.41384867201647 0.156372633142392
-0.00445098415232188 -0.411044070009523 0.157053138883665
-0.0118052562394354 -0.412837463693358 0.156764608908636
-0.0244517897227793 -0.414388426543943 0.156465974812768
-0.0283111738734667 -0.416357004776433 0.155169778254629
-0.0520443955376876 -0.417724842899495 0.149569385610117
-0.0610916913843081 -0.415564607177916 0.148026487453573
-0.0885941665637939 -0.419078231830417 0.138043371096099
-0.110640055589428 -0.429734741039882 0.125585197640512
-0.146410359925146 -0.43226863116058 0.102972094602271
0.132607930481753 -0.377888307801966 0.125466834137439
0.12661282890129 -0.386895299686612 0.126368839342989
0.120806594623639 -0.380927354888864 0.130965456778477
0.111488552697628 -0.385790515436953 0.134682708013959
0.108434478743286 -0.382483387912357 0.1370926759511
0.100537875069232 -0.388603559586678 0.139709959180783
0.0913703507934931 -0.384087250182308 0.145376046204915
0.0836426049627036 -0.386791584437788 0.147984378876429
0.0788064388289591 -0.389562181011494 0.148647333532932
0.0756576589378641 -0.3885645881033 0.149735389156125
0.0704831406415807 -0.391605831036917 0.150426729490717
0.0599355120658385 -0.39542858597279 0.152392762898902
0.0490120019296219 -0.393773655060767 0.155616951213578
0.0428382962144062 -0.390616058851515 0.157874662682337
0.0377574378285826 -0.400434215432609 0.157090352362839
0.0153808849482986 -0.396141507134014 0.160060468273411
0.00644965137448053 -0.397465907395199 0.159864890090384
0.00688434168926013 -0.40464939118996 0.158315327867238
-0.0111229609132814 -0.405944795014928 0.158216744498178
-0.0292014051346664 -0.40333073917966 0.157740084698758
-0.036889651375075 -0.400905694755544 0.156597676645609
-0.0501479839300097 -0.406590954646167 0.152453329692228
-0.0644530438898055 -0.404421813114877 0.14981143443792
-0.0910572249234268 -0.415460544135019 0.137787574580701
-0.092794098050288 -0.411785369877183 0.137869962032553
0.137573812575091 -0.374905622034755 0.123584867064642
0.12717822346779 -0.376083439614261 0.128808439588022
0.121574608947513 -0.376213319688333 0.131752120891713
0.121019270318201 -0.378074806213897 0.131575375853458
0.111234591191905 -0.379888332474315 0.136260653969242
0.107010365150653 -0.371389307184731 0.140322560174798
0.095676038949217 -0.381793865178991 0.143712977848343
0.0862848750182255 -0.381877275819242 0.148418949439381
0.0835960305498651 -0.381448087036862 0.149249036241092
0.0725221141553577 -0.37723563672 0.153097614496264
0.0700239330511394 -0.381786058632635 0.152770931837537
0.0559491338900074 -0.379529751803911 0.156866290675209
0.0493066933470408 -0.384758336649996 0.157459770841296
0.0424652023167989 -0.38225354252052 0.159750087157559
0.03530927424126 -0.382692653717603 0.161494688218566
0.0277624732110618 -0.387950670959384 0.161698560478406
0.0118254901049024 -0.392697036260459 0.160836949719951
0.00452451531245177 -0.393034414741005 0.160837384519901
-0.0109705552172918 -0.394189776162773 0.160743803775776
-0.019216033661808 -0.390457571448305 0.161629077878869
-0.0426292629637121 -0.39238557698774 0.15722332308157
-0.052236081531735 -0.400618416034537 0.153313989565459
-0.0673566397329213 -0.403568330667772 0.149366239948468
-0.0674940959343036 -0.400420916576416 0.150029802475877
-0.0990649164546656 -0.40072170858611 0.137651924622978
-0.124751947682875 -0.411110467552052 0.122764289598833
0.137558345323725 -0.3579198926977 0.12789743441886
0.12854434048897 -0.365239212079353 0.130802304122072
0.123163514720184 -0.360303982044323 0.134713082595814
0.121784131261276 -0.369134608469445 0.133346813917105
0.112534649287515 -0.367652987886903 0.138368298240513
0.0995810571838447 -0.365096013001867 0.145654309882692
0.10243751926085 -0.369477412376044 0.143071784957991
0.0903012403434178 -0.372580302258554 0.14854114213915
0.0787331241406795 -0.3677931770176 0.153668088753996
0.0807210069249075 -0.369263000703526 0.152810251872556
0.0744496485605531 -0.366478283304749 0.155086247117138
0.0620311600203271 -0.370141459864645 0.157461133951046
0.0497791511453123 -0.37862526447126 0.158672892239817
0.0427584418640343 -0.37216198561447 0.161941042694852
0.037154989316432 -0.378711504453092 0.161932166002555
0.0209037930507069 -0.378747386743775 0.163757374344571
0.0180425668689917 -0.381171647334986 0.16326599411037
0.00506033580242514 -0.379210211927606 0.163800321663789
-0.00511602241516822 -0.376242113272693 0.164524229677822
-0.0185538750167076 -0.378863905995782 0.164085282986634
-0.0277153630587196 -0.379933842401029 0.163104550099876
-0.0465984154383609 -0.384906072180832 0.158005797101319
-0.0598355679875339 -0.386787009838848 0.154704362011529
-0.0725678931620629 -0.390019996051764 0.151215100056542
-0.105066369904052 -0.398354236856186 0.135521527831634
-0.116715678515687 -0.398554636865084 0.130265177447175
-0.141081311872 -0.396991540126625 0.115396084769859
0.139768258675387 -0.352771348250981 0.127609109857894
0.132770265922783 -0.352130011649322 0.131832487987565
0.128291680527871 -0.350482753490338 0.134558339860692
0.119919563527556 -0.354955148315809 0.137740469170988
0.11399271161622 -0.354556767886208 0.140896376547254
0.106607104992409 -0.355829746304618 0.144353352587219
0.101116748592272 -0.356060059186514 0.146993723194608
0.0904400578534744 -0.363064983424254 0.150654516041033
0.0792151829133965 -0.361130869243369 0.155090591823978
0.0798964208421808 -0.357075826218761 0.155855659965239
0.0685113681960729 -0.366581745206307 0.156604765844842
0.0647842398291165 -0.366110665998456 0.157682377926546
0.0564916284512927 -0.365025761966795 0.160068081625427
0.0419296042107363 -0.36775744868864 0.163076410450288
0.0368357545804984 -0.366516111891244 0.164593231163165
0.0296269813961614 -0.365666904246458 0.16646872723846
0.0144472927705623 -0.372606247919402 0.165124659356231
0.0072594505437908 -0.372952654880351 0.165115050093399
-0.00568768249578192 -0.374187888159489 0.164967392298717
-0.0185283580654549 -0.374150969079641 0.165090062078577
-0.0211236388459791 -0.371407960634555 0.165698195242778
-0.0449841369455506 -0.379906733292666 0.159434299209508
-0.0610940395028615 -0.374869737795888 0.157103420400955
-0.0642820130150723 -0.374235609449792 0.156563072464261
-0.105103803000878 -0.384188125826897 0.13887117955537
-0.110385034984327 -0.387111390046927 0.135866285625336
0.137747353185907 -0.343722625817913 0.131266596158045
0.135857786806359 -0.344041342109798 0.132290581903086
0.12476359025768 -0.340872101345558 0.138812352810882
0.121294321272596 -0.345131248215417 0.139521077475245
0.112324598145831 -0.350010702474936 0.142857712406338
0.10498129221981 -0.351390319332635 0.146148342422771
0.10207961696324 -0.34780480782318 0.148377014010083
0.0877379888610308 -0.351567632450372 0.154563551390555
0.0875541305453464 -0.351996626840168 0.154557284924529
0.0820840421490677 -0.353969013915695 0.156009139225277
0.0727732445095343 -0.35376318676164 0.158440018513888
0.0687254423999444 -0.355972041749912 0.15896976402808
0.0523248457845249 -0.350249601307068 0.164254665874952
0.0440336488542896 -0.353107941966111 0.165659965814703
0.0369501947104702 -0.356570541326241 0.166667876636824
0.0303186456009181 -0.353942433404377 0.16886079056247
0.0230745011490595 -0.357295537572244 0.168312453831539
0.00825690826316801 -0.3600929892769 0.167848383876965
-0.00759704213785248 -0.361937368540377 0.167596816390621
-0.0193256495666108 -0.36311069937144 0.167451465196342
-0.0201805779701532 -0.367571766617818 0.166507810916807
-0.0261894549313004 -0.359513620538436 0.1678831007304
-0.0651563465383654 -0.370938890676029 0.157095970040151
-0.0610067052139508 -0.371445359697698 0.157868880002368
-0.0915880288290033 -0.36754164943962 0.148640962665053
-0.110515224087923 -0.371048800213558 0.139566092565362
-0.141072194667699 -0.37429630841315 0.121128540843033
0.143747478824617 -0.329798813307829 0.13047020468839
0.136384186657736 -0.337589055051367 0.133654158697436
0.129337762625923 -0.335907709714368 0.137685238453377
0.125692221422278 -0.339329469142702 0.138703725720913
0.113776386030676 -0.331916555972339 0.146387144884387
0.10858056970149 -0.337184695914602 0.147648622678482
0.0977256146598563 -0.339929787058688 0.152377970245691
0.0956054554084081 -0.33435459765118 0.154758435921453
0.0841287952692122 -0.341879335702507 0.158265581342258
0.0838495715059635 -0.340418595772398 0.158672174891004
0.0728737230161013 -0.339106181644139 0.16170843391786
0.0680861433445633 -0.345043364120154 0.16153077063098
0.0603331399338459 -0.345732251666895 0.163302624912131
0.0486834524184718 -0.346710298975981 0.165978188965655
0.0471924418523058 -0.345524280099428 0.16662317629033
0.0345562538793774 -0.347250009327647 0.169274531993313
0.013095983878465 -0.351897600403179 0.169559305019197
0.00751727382127519 -0.34796133091559 0.170434865477282
0.00595905317684589 -0.349790465911323 0.17005994273012
-0.00442809582929531 -0.349792284863281 0.170139488359875
-0.0198990321686409 -0.356381435317015 0.168891568903534
-0.036595074502229 -0.351740741143658 0.16729585748609
-0.0505870939136793 -0.359205977983252 0.162756447703245
-0.0603394140430869 -0.357132382571437 0.161132639067375
-0.0950392368993196 -0.36434451986706 0.147894623957436
-0.112940773497011 -0.363352565571563 0.140403024124988
-0.116356240959126 -0.360588812621063 0.139571474233315
0.14464153094934 -0.327695884667372 0.130358495594977
0.134139692417837 -0.324632985528543 0.138056031816055
0.130575507147225 -0.329462732063585 0.138613164133217
0.126336653831065 -0.323656392837452 0.14220341106782
0.113381283563405 -0.326662753265498 0.147916291063977
0.108706700091323 -0.327964618188899 0.149922595007615
0.103862527665556 -0.326556002166356 0.152611387011633
0.0997556291091041 -0.326379037207018 0.154587941341959
0.0930061737671461 -0.325958469745428 0.157865362116468
0.0791408611578316 -0.332943562443284 0.161569645476538
0.0756673691478585 -0.330368884872387 0.16302877390899
0.0652498159164201 -0.33233083860311 0.165170457307931
0.0594819520973038 -0.329330790529939 0.167197917547111
0.0473905190284299 -0.335292179079183 0.168779680724841
0.0406353089814829 -0.330501036128665 0.17137143461529
0.0332501596400259 -0.339273571481907 0.171258339606651
0.0166952484232822 -0.334841323175068 0.173139490117273
0.0207945824148626 -0.340524410177222 0.171905812653521
0.00424501812455176 -0.338380030361896 0.172486760170079
-0.00424702386162506 -0.339306516000128 0.172356129732765
-0.0199074373590074 -0.338528394294773 0.172641233145195
-0.0331809473109688 -0.344509629805288 0.169567745341386
-0.0496808463339778 -0.345723330714589 0.165874228309994
-0.0625680192374243 -0.34906214767992 0.162473011606687
-0.0720362771713945 -0.350970803596641 0.159986480037741
-0.0950412561442884 -0.34591478096887 0.152173055054263
-0.1257548261737 -0.35305417955502 0.136511918199062
-0.153733014649864 -0.359032292731063 0.11660712968486
0.143601546156396 -0.310824200673917 0.13546875531316
0.136822499225564 -0.315729147351527 0.138841001440805
0.132300532054146 -0.31278827781633 0.141977491422557
0.120266413923697 -0.320954479838022 0.145922079758588
0.121583383742485 -0.31845702753689 0.145896906346904
0.108658417554797 -0.319851139224497 0.151851674299077
0.107317715727226 -0.314990117412117 0.153573029959573
0.101342690663853 -0.319008822068283 0.155490649366916
0.0894642795511322 -0.323636625474597 0.160055980280296
0.0803397400398583 -0.322121754506004 0.163768133234372
0.0791615538383931 -0.322864022785865 0.163890275835868
0.063145992456631 -0.323947495180253 0.167470841054783
0.0646060058224424 -0.325078022555448 0.166890699853014
0.0578731180094876 -0.326276752319855 0.168217490883469
0.0413839893728623 -0.328770421233504 0.171559830416639
0.0292653862559922 -0.322450629885174 0.175690921920581
0.0341708371784005 -0.328361582303487 0.173337333070429
0.0162579967498301 -0.325408104902294 0.175138245542177
-0.00460282301381369 -0.333541670184144 0.173578294521867
-0.00069523453098276 -0.328652106695833 0.174582505212722
-0.0134642717418395 -0.33120083117654 0.174141637682832
-0.0286753602797098 -0.329207797250044 0.173809843353355
-0.0526761559484131 -0.339672796517965 0.16655819429186
-0.0588498309835077 -0.337957073294718 0.165644885511392
-0.0675234475785532 -0.34274901503819 0.162806065520448
-0.0914261845294284 -0.338833855055214 0.155296068471181
-0.096472399743156 -0.3361230160937 0.153757638260796
0.14417171316581 -0.300485332751169 0.137640384344743
0.135513118596059 -0.302233439334538 0.143047220310388
0.138042729219567 -0.306344786476904 0.140336819883187
0.127780841941552 -0.304923539834505 0.146177438396142
0.122776743889212 -0.304907830671215 0.148541005290611
0.116647235544624 -0.306332244338668 0.151112700354359
0.108471839137318 -0.306596677480793 0.154963423095888
0.10102818210529 -0.307245414827726 0.158383536970386
0.0958637368884903 -0.307900805525339 0.160704400629678
0.0846452931511145 -0.308173530416862 0.165783636556505
0.0753063320115358 -0.311585730951307 0.167329987703343
0.0709387078886516 -0.316976966296061 0.167135644102815
0.0538959338051719 -0.317129726766836 0.171139473698885
0.0496775373062863 -0.31928627740441 0.171647363801009
0.037948146479613 -0.317436755258957 0.174826859602933
0.0418268930267858 -0.317369048359023 0.173944928619803
0.0255486601523176 -0.312241965272227 0.177855850919507
0.014519897706824 -0.317226180994616 0.176882935507019
0.0107657393475098 -0.322816928002585 0.17573521844137
-0.00311146413822712 -0.325028239908854 0.175367648045687
-0.0191187724755816 -0.3176042783866 0.177023861922964
-0.0220776748374764 -0.319784415385213 0.176586090823486
-0.028644052387674 -0.323019419817902 0.175053921338846
-0.0558157225250534 -0.324321205951937 0.169221132298743
-0.072842933693899 -0.322351109680644 0.166105634962552
-0.0902694499914714 -0.330880036634639 0.157564581248059
-0.119332810017674 -0.329341047218714 0.145619993914636
