ply
format ascii 1.0
element vertex 857
property float x
property float y
property float z
end_header
0.130215722201457 0.074643928637049 0.448155273492161
0.133952939508937 0.0836693052308179 0.44714776141619
0.131937494764492 0.100880946887356 0.450419704350545
0.130359920382908 0.109480435339809 0.451583518739816
0.133751533448405 0.123828015823954 0.448214899001225
0.139091077665416 0.139414840270242 0.442555793320587
0.138331637997505 0.155233454362057 0.441165484517576
0.142060066940002 0.185790501352484 0.432214140616115
0.135639090734278 0.194311725242808 0.43560551619775
0.144758944596728 0.223800457731185 0.420110580581647
0.134749880572267 0.2223358581228 0.428946556982911
0.136850263615194 0.276426978407829 0.408047639852213
0.12767109797012 -0.191705326940596 0.186048139488479
0.132773237628735 -0.187520081932177 0.192610291875565
0.131914376141738 -0.185480808234345 0.201869798631629
0.133499019761013 -0.185635118581898 0.197962537706272
0.131802234310608 -0.184250847603066 0.206598127787956
0.132275953628312 -0.180650652513062 0.216824489219717
0.133724187607182 -0.174467239502129 0.22852139688388
0.136317855587325 -0.172586066245778 0.229071337486451
0.134251213434017 -0.171913473121417 0.233451601384565
0.135961809821959 -0.164894332449761 0.246636323073296
0.134317417357047 -0.162607809853683 0.254007762484095
0.129712273008954 -0.16175724490108 0.262330111002095
0.133172838092125 -0.158782906724517 0.264094355760747
0.127707834548005 -0.158523002241028 0.272307590915186
0.132566679869586 -0.154059418584184 0.275422488915565
0.134108547060496 -0.147472044110819 0.283455805834574
0.136634124795286 -0.144688429027033 0.284946100471112
0.135120363590285 -0.139560168404715 0.294047577121659
0.133459222363897 -0.133746161371785 0.304309367066559
0.132288133386855 -0.132494257603672 0.307357359407174
0.130456309589611 -0.131258953227584 0.311061955723075
0.134386692256316 -0.125198941986214 0.315922364991053
0.133314968598564 -0.12003697491637 0.324617803539311
0.129909732631162 -0.119732501464882 0.328575288834005
0.131063875505965 -0.116747338891883 0.331775491342281
0.130645879041675 -0.112077646591104 0.337218208224217
0.131670304927393 -0.101676594616488 0.347299632342651
0.135878252044042 -0.0990507784268684 0.34559636867766
0.138678084444441 -0.0870785958364819 0.354647469524617
0.132829624843383 -0.0853109963000253 0.362410349546488
0.137004510400163 -0.076531396295118 0.366870335491737
0.132109975357233 -0.0764863591638603 0.371938483177109
0.132259407033438 -0.0764690473979043 0.371802363523946
0.141630126816088 -0.0624260449800363 0.376172311578171
0.134673204252406 -0.0631675721051383 0.382113565724992
0.140830628560676 -0.0535049355822253 0.383651004586903
0.142280550906296 -0.0441158707975837 0.388653880437051
0.140659320225956 -0.0371425913727235 0.394302547961349
0.143521878025208 -0.0272356184585073 0.397651101830178
0.143688908598418 -0.0223127634231774 0.400447012430578
0.137813097106192 -0.0207168293196193 0.406700437694265
0.143738819893843 -0.0106804307230422 0.407544243288872
0.136724068571883 -0.00193015458254147 0.419211993593374
0.14398920374405 0.0027549580757343 0.415652729603852
0.139351988951907 0.0132684333451621 0.422760868087102
0.139704057627422 0.0221994986278206 0.425629493777412
0.143923863021294 0.034087878472303 0.426308783263247
0.143592595369787 0.0335766802733616 0.426385211714746
0.138119985244882 0.0418989235468636 0.432802447799338
0.144721127652398 0.060665328002757 0.434098832969103
0.139164343904297 0.0655323181234769 0.439752342787946
0.141846310747362 0.0736378901441059 0.440020104638374
0.14677525497923 0.0780403701689718 0.437512775207341
0.144104545910542 0.0916475095040433 0.442457308567109
0.150098725965705 0.120532619547474 0.436165943118902
0.149059844359356 0.127203929233719 0.436189424279359
0.147752325154735 0.150467811023091 0.434331971380495
0.148297042536175 0.153267695203003 0.433388651239187
0.144408828887528 0.174484229256919 0.432777817879
0.147010893721433 0.180611887767389 0.429278935711969
0.14543303295501 0.206175626562219 0.424452515523394
0.152934880420701 0.260597440591918 0.400815969357037
0.154573485704893 0.269336189977999 0.396105183050069
0.149480427913053 0.272958980535654 0.398957729382104
0.141028365841771 -0.186711084423514 0.173920934821878
0.143945119672763 -0.183621303752862 0.181463340386714
0.142130457882704 -0.182274590455528 0.192021794114303
0.141773571644851 -0.179919816848119 0.20137426592262
0.137011647101002 -0.180813058251052 0.208160302151015
0.14368635858793 -0.176002488032207 0.211194137148466
0.139073470021563 -0.173794378298456 0.222539612028407
0.140600479231219 -0.170762452615586 0.227133494444979
0.137835867233451 -0.167752542156792 0.237675424198482
0.143741918119794 -0.162813487961017 0.240382047996334
0.145575120876555 -0.159414991613706 0.245361467642978
0.142918533399461 -0.155951977473378 0.256757857379517
0.146755663281564 -0.151009029355934 0.261133484131866
0.140683970437537 -0.154647476487563 0.262774928549544
0.144192180437796 -0.150093103275022 0.267978593285855
0.145533386488035 -0.143151075915624 0.277250221696527
0.146150962488405 -0.137343740833115 0.284475726727775
0.141169240223045 -0.137164080958562 0.291336566403209
0.138910624776594 -0.133817283098397 0.298586065566669
0.144212110481847 -0.130618369109765 0.296392726049541
0.140009834345596 -0.123446501030365 0.311955633833359
0.142444670970803 -0.123002914368729 0.309314521834953
0.146655743009586 -0.115946205681451 0.313511944043678
0.148597713634881 -0.110096775505053 0.319197877301642
0.141582318630999 -0.110924805416298 0.327351024084105
0.145411822717384 -0.101668932724186 0.333204264633247
0.141300470735307 -0.0947144304918526 0.344350622295161
0.146691232322533 -0.0934671958005083 0.340060328602351
0.148219226415315 -0.0858398236614769 0.346089187580784
0.151205119521975 -0.0794456502776021 0.349393500422346
0.149821688291517 -0.0743562532932416 0.355882487061778
0.145571346295024 -0.0720525288702084 0.362539203173796
0.144264983233878 -0.0659897643311654 0.369918592062364
0.150785286313557 -0.0566438829116252 0.372125546348949
0.151787048626985 -0.0503616508820358 0.376356594289541
0.144834170304141 -0.0477609695318426 0.384182587053483
0.151112636140329 -0.0375120663195187 0.384655688673046
0.152042314170775 -0.0312013444626141 0.387594615656979
0.147618493306255 -0.027139557792305 0.394014695923674
0.153215067227408 -0.0196669673919858 0.393539754732221
0.148519324099281 -0.014961584424819 0.400635821077225
0.153847445101102 -0.00180226702895366 0.40390769679523
0.148222450855983 0.00193147389890737 0.411375354422544
0.154383111087696 0.0153279225939868 0.413137204909888
0.152449133646397 0.0241843173707443 0.417252946909061
0.154050424587642 0.0219824430354651 0.415446954690901
0.154471640461625 0.039655552875469 0.420798089083003
0.152123348421766 0.0368324574993481 0.421439628670352
0.152814970790472 0.0524041288778284 0.425556480011663
0.157782713757274 0.0628900027620188 0.424489626599471
0.152942470145667 0.077441381707427 0.432560639038876
0.151610891415488 0.0796096792117782 0.43423576893065
0.149319522225194 0.0854941907402048 0.437758201864501
0.157283658943618 0.099901715637347 0.429877419181272
0.158130826518908 0.114532243691832 0.428976813245899
0.159842743420653 0.1336528384345 0.42598775444564
0.161272013062985 0.162128072165464 0.420749377209655
0.162365016043835 0.174095515027867 0.417313790341535
0.164606475337028 0.195003350894577 0.410024506096026
0.163329355958529 0.207920700806335 0.407911613070804
0.165079578681883 0.254622799768957 0.38998686401319
0.15743751374129 0.241122418285761 0.403851641487592
0.145347733495723 -0.184141745103855 0.174863875870869
0.152161212697515 -0.178617752166614 0.178311681917391
0.151688566400447 -0.176570275125822 0.189429301501282
0.153916737130724 -0.173985619694711 0.192092347083872
0.150759615992376 -0.174151213660912 0.201412696883065
0.153338894249951 -0.171058671560596 0.204126022430625
0.147002661640944 -0.171214362567358 0.217184644380094
0.151102812541396 -0.165331077397482 0.222555689576966
0.152029842895179 -0.163798224971299 0.224019161688741
0.149325731943041 -0.161078647837015 0.234941075696595
0.14690640139672 -0.156502240564625 0.249240395385763
0.154139063537478 -0.150728711992784 0.247590866425886
0.15319471174279 -0.149082911144991 0.252875521334273
0.154221885907895 -0.1452470082476 0.25919813991726
0.153438985849716 -0.141412534678694 0.268984979175651
0.149027594392063 -0.143982627537859 0.271424538214477
0.151731126029997 -0.137847657632105 0.276314732330461
0.152186170050807 -0.132111388081036 0.283659064976696
0.150556323869611 -0.127340191501868 0.292453528465368
0.158358907912806 -0.11903017779731 0.293600119489907
0.155871618422589 -0.11655232525053 0.300407555063772
0.150726022056608 -0.115286726060324 0.309034613194175
0.155874705804859 -0.108855886997847 0.311280549279849
0.150592370594396 -0.107193710268315 0.320649800276108
0.157378415122673 -0.0996234328322686 0.322330031509004
0.155265863263421 -0.0959149527751514 0.328822109825944
0.15114289900314 -0.0929807691640031 0.335976050115132
0.157587985176297 -0.0846572907930256 0.337651807804652
0.155171904973065 -0.0816060185652418 0.343170586229245
0.157894329701208 -0.070573648683861 0.350622779487539
0.152587087073587 -0.0762068531095294 0.351201099882733
0.155250689207283 -0.064449359748001 0.359485517650212
0.161285993879231 -0.0581870549966216 0.357876933496982
0.154459721111969 -0.0544037208515208 0.369756896855913
0.154740058430075 -0.0522942776597525 0.371405524793965
0.153968293035482 -0.0414821388897618 0.379704510202138
0.162378461862514 -0.0301396310901285 0.378910028721281
0.161630699283484 -0.0234972207745906 0.383676407549086
0.163365997512369 -0.0219385374936529 0.383098882013046
0.164440107800982 -0.011963476544843 0.387607522611797
0.160714923219221 -0.00684925550617519 0.394190116078166
0.158985268846242 -0.00100169071587716 0.399162926763896
0.162547264447335 0.0108703218298982 0.402403871194359
0.161125945508206 0.0190817683112126 0.408598806328582
0.159684543771731 0.0263751315578974 0.412824665020225
0.157589175538819 0.0292356779770585 0.415181526818158
0.157592287323387 0.0375910911600212 0.417906425903122
0.165078070978208 0.0462448822978216 0.414282377676881
0.161593657002114 0.0624754549560456 0.421416326880755
0.162417511250581 0.0696774012853625 0.422918705628652
0.162914989080134 0.0852849134100236 0.423640363977196
0.160084446063525 0.0927971761021312 0.42679094251534
0.170903779922867 0.123751032424727 0.414284464813196
0.1715888700252 0.126947120032271 0.413342365997629
0.165504317326374 0.134781983622126 0.419644040098499
0.167099621416304 0.148511602358426 0.415979126087648
0.165238782852137 0.159185575008888 0.416585908916643
0.170558848431286 0.203218265414199 0.400571594008717
0.16939772814871 0.202610452441131 0.402150168822711
0.175358582329323 0.246137526871945 0.380582072772648
0.170738808371472 0.284232975314143 0.369716411144658
0.157489223672432 -0.175946849553139 0.17022129023609
0.155246046642921 -0.17535714657442 0.18197499678727
0.162056032883992 -0.170492079848609 0.178701391687469
0.157238623769476 -0.170713888875613 0.19388459598584
0.163792209415227 -0.166218746600449 0.190082830440074
0.164878918830521 -0.16284674512367 0.199288185662386
0.165714289957098 -0.159393180384017 0.207127376055774
0.157701184357986 -0.162819635189592 0.215229226206603
0.157252668175674 -0.156573157673412 0.229283671489776
0.164205155539756 -0.15266121616683 0.224237870723519
0.161588957617257 -0.148591322262685 0.237894373827499
0.160727909907262 -0.146821378352403 0.243366304425452
0.159755758039359 -0.145173439994609 0.248786645969985
0.161776213871097 -0.139207687491861 0.257827148051111
0.163974782067607 -0.136310844634166 0.259891448797906
0.164140428165396 -0.133378287689015 0.265916178231353
0.157942572609898 -0.13027401667933 0.27850838847787
0.162083408433706 -0.127085918776364 0.277390880730055
0.164379696607597 -0.117804392027044 0.287330925887328
0.16766625454574 -0.11470121564568 0.28734873858982
0.164168437235565 -0.114536565941156 0.292229987127572
0.166893339853105 -0.105772398030043 0.300994706872673
0.166496702626844 -0.101532146894491 0.307367789937034
0.16367432464241 -0.101247436126457 0.311667702176092
0.164014473643559 -0.0978148425038165 0.316066808634491
0.166790329762826 -0.0881948373829444 0.323540649135274
0.162744453531916 -0.0842607705486947 0.332113368324571
0.163320074364458 -0.0799137216476859 0.335396563599883
0.16546460180983 -0.0738792647415457 0.338303921836377
0.163255767103863 -0.0710919149958006 0.343571086075899
0.165478944482213 -0.0630852417294391 0.34819185082995
0.170837997045495 -0.0533109492276062 0.350847262186234
0.164250102507016 -0.0562222009534915 0.356121680759635
0.162203180400362 -0.0474239254953681 0.366913631928344
0.172313911921468 -0.0350633338277891 0.366114125949822
0.164456982320625 -0.0312110411018303 0.376394554128298
0.164179366352052 -0.0356516674804999 0.373986990671363
0.172308333166851 -0.0191240274713392 0.375713416901679
0.170474844703148 -0.00772671101927383 0.383853466009003
0.166094755133605 -0.00828766578254131 0.387965543515761
0.168659053298986 5.21850124282123e-005 0.390015824263848
0.166785198144598 0.00691808470552627 0.395879022544067
0.174081411568585 0.0163723275465252 0.393921521774634
0.16841843072051 0.0207872171875731 0.402320533975502
0.173751450053003 0.0333427342388741 0.402841988505452
0.172717473908957 0.0427960401483259 0.407360941968115
0.174729250838871 0.0445986633329464 0.406249714338279
0.17811915757047 0.06170362263882 0.406835832360157
0.173468291961138 0.0754810925260914 0.412219214118466
0.176542360094434 0.0846648868516622 0.40933800341592
0.177827020213669 0.0969502269120545 0.408134121960091
0.171551968074793 0.102625580882025 0.414770227230917
0.180914987330007 0.116732888659516 0.403581113746035
0.180880518661984 0.14277499742308 0.400865030798722
0.175072920244342 0.141553749590076 0.407761606668131
0.180625217074376 0.180658859578539 0.394180185867438
0.179757780154172 0.189943101704566 0.393155052808728
0.178613965695255 0.199477824460305 0.39195375672866
0.177695850216287 0.229620121965228 0.38381903499088
0.182668637145655 0.281502276732005 0.356459305665534
0.171664364930365 -0.166189890687939 0.161606469378731
0.17365962843784 -0.164494883863798 0.16196012573796
0.172758335748337 -0.162361752351863 0.175916469928713
0.169306373959225 -0.165091624771892 0.176291313347623
0.166543415684681 -0.163481689182496 0.191669749288268
0.174152818330498 -0.155910088244335 0.196063903604917
0.168294270275722 -0.159819481636252 0.199422142131497
0.174436579465864 -0.150557264792041 0.209102375235546
0.170215388797531 -0.150686133718558 0.216904270359233
0.169356308650688 -0.147599837638985 0.22520141442981
0.167162354798604 -0.147208988681807 0.23023735610254
0.174968196250821 -0.138710752911173 0.233702905802109
0.170979377307921 -0.137245980896109 0.244489494255446
0.169842620685608 -0.134519345646752 0.252556749668627
0.171048761687023 -0.131771690133614 0.256194152117143
0.170123794422329 -0.126470482326538 0.267491720337254
0.175483302830393 -0.123824702360154 0.26330985686433
0.17140167178894 -0.122911630382811 0.270780934550019
0.170828783404337 -0.116713869376175 0.280301367045232
0.175574184358511 -0.109569721238115 0.281738042918968
0.169914204873987 -0.112448427942221 0.287434495671616
0.172803922716829 -0.0990717459391795 0.300045640311589
0.172620082298254 -0.0978156955235936 0.301989668776326
0.176051940707144 -0.0921204823093576 0.303921935191602
0.170642020552589 -0.0917380516045389 0.313419387793576
0.178830171654207 -0.0833541527167661 0.311306690962937
0.178197286671471 -0.0747679445031043 0.321871078670135
0.175677824527193 -0.0732425178025261 0.326361195175985
0.176177648182476 -0.0700246304508235 0.328701144259043
0.177190432141651 -0.061793792523432 0.335110924997542
0.181523577382114 -0.0545013840447709 0.336642257344716
0.180012994190905 -0.0477418201519751 0.344510874934541
0.179576295771044 -0.0435805806441914 0.348661043009991
0.179360563973604 -0.0394873418491506 0.352442600805178
0.178528259142159 -0.0337165536623051 0.358606423970498
0.182739865324547 -0.023452750556736 0.361891023493564
0.178074001387602 -0.0229378919510155 0.367788545500355
0.176762398153953 -0.0154124550757174 0.373265211354876
0.183009758202745 -0.00606178527643265 0.372150737416016
0.18541198534934 0.0064891496460963 0.37627639193558
0.17727154966242 0.00846022140571044 0.386321445299567
0.184705683615016 0.0186286907338678 0.382995540298143
0.178344744174784 0.025914045360057 0.393805312987298
0.183284281101466 0.031723653346164 0.391276191555915
0.181751055735498 0.0401301056965916 0.397380386590842
0.181430091005807 0.0499105929433689 0.402366742170196
0.187971109580097 0.0677974948711614 0.396696663087493
0.187100557579736 0.0674356606075034 0.397636868139409
0.184083867969755 0.0838021988784713 0.401403718472182
0.182186794005929 0.0859137319731175 0.403448548454583
0.181884418154605 0.094922432664293 0.403749644048191
0.18450860729413 0.112363943552004 0.39984452183985
0.185357859141371 0.13670568371431 0.396563777338862
0.184852776958112 0.15389584834817 0.394657914516171
0.188004285220837 0.172202060511963 0.387290735940363
0.194902359274599 0.205646138613258 0.370500751247681
0.187083685972658 0.198312699395588 0.382080716439913
0.19156125508505 0.256023120547684 0.357225483153311
0.184164673648707 -0.156855456475423 0.15163580081886
0.178919915364245 -0.160172750288849 0.160953758453169
0.183313299540276 -0.155049773535181 0.161188252205441
0.181000787619345 -0.155410846559765 0.172261753262379
0.17647903258447 -0.156436550375825 0.186768224955673
0.185660543872151 -0.147586369812059 0.182062386805397
0.183465396794352 -0.147415673248746 0.19268698939799
0.184182237385434 -0.143892742857089 0.200574832337505
0.178031042750126 -0.145464860719132 0.213071281503734
0.184970044663571 -0.137330652176453 0.211935254609437
0.179488107570713 -0.139291049834316 0.221932366592093
0.178175355653879 -0.135078022855369 0.233867560526048
0.181284372327895 -0.131127583989538 0.23398189876218
0.186651510190485 -0.123194393952639 0.23670003576913
0.185164050558736 -0.121257570547637 0.244751210354123
0.181010423975943 -0.119077414975112 0.26017693237985
0.183761700760334 -0.11663569763985 0.258453121922905
0.185431931499454 -0.11062930212385 0.263900847043875
0.180727638081735 -0.109143938579495 0.273690030721547
0.184873789541084 -0.102520027865963 0.275402191652888
0.180451171920417 -0.100445545283579 0.285489012672867
0.180615162376322 -0.0967888049783988 0.289981437836182
0.186184877554335 -0.0889938471958437 0.291390546735094
0.17980671755451 -0.0889879638791488 0.301978999639524
0.18927424643175 -0.0786312844558406 0.300443015703156
0.190140429999034 -0.074923330148863 0.304079087304297
0.180731694910546 -0.0747890616031494 0.318743113460604
0.188938814379049 -0.060784887155403 0.320872208091387
0.190950817819984 -0.0546216967987899 0.323278931076248
0.181883142654459 -0.0581706473902555 0.332815449622388
0.181912812146424 -0.0553334207870068 0.335387733897345
0.189088029785797 -0.0371412880998875 0.340796727890276
0.192618214182953 -0.029953439802876 0.342285727079686
0.184126514064168 -0.0305515629787614 0.353613340443835
0.192600918173027 -0.0245393978020383 0.34714574489031
0.193552310661112 -0.0118418097128372 0.356894656714968
0.184919530736963 -0.0160316800187438 0.364689041665291
0.193600639289713 -0.00475466498568584 0.361524300471341
0.187696027305003 0.0013386450667106 0.371179389379743
0.187274900754198 0.00382913665822057 0.37287053433706
0.19015311819022 0.0193544690579122 0.377183171740318
0.194055253193934 0.0250190127033405 0.375668249003417
0.194014673578525 0.0326520133034431 0.379690596457345
0.192606384464959 0.0447883295562554 0.385820269415556
0.194571269231859 0.0480698504771502 0.383509294872654
0.197392443823963 0.0586952867170692 0.381103076890364
0.197481578264393 0.0750862451158528 0.383579335117025
0.190134621432271 0.0837272429607152 0.395060766211572
0.199224032638002 0.108012859762518 0.382433946296105
0.201704560106492 0.116111251331559 0.378486860117696
0.202800505705318 0.139534163624957 0.374576309870499
0.196578578133455 0.150185937716221 0.381628061443096
0.194501126219692 0.143051654442649 0.385065282330481
0.203220467115816 0.19628980958818 0.362245386966367
0.202757466276026 0.209744846351729 0.358775268164548
0.199718766528281 0.214260731278874 0.362165912577138
0.185192863884141 -0.159058693327543 0.150225606920483
0.190324308906852 -0.147022016674955 0.150391931135356
0.191728241697856 -0.145659070538072 0.159615751469444
0.193215226144059 -0.143389656810081 0.162262422738332
0.191788820407277 -0.14264036283372 0.173371707219171
0.194067093021539 -0.1394495743691 0.17536952800892
0.195048262251435 -0.135566144652909 0.18593394323168
0.195585727753916 -0.131990646807575 0.190699521289816
0.188647753544036 -0.137504529798478 0.202194241919857
0.191855541493712 -0.131283889428562 0.206682331852577
0.195673093850532 -0.125477511300603 0.208769987683091
0.194935051089411 -0.121808578561024 0.2184697347728
0.193085409408686 -0.119510894871339 0.228239234790054
0.189387162676594 -0.12128437653866 0.233854097757125
0.191849552950805 -0.115538354872015 0.240094487728732
0.190257917890917 -0.112789847706425 0.250187261353882
0.195912458420256 -0.108179272127248 0.245753134946944
0.194697603409163 -0.104011588375601 0.257058601707417
0.195794536360666 -0.0970803992860122 0.264386173024677
0.198875872228245 -0.090363984075505 0.26762782289165
0.194733104477627 -0.0919642524634498 0.273146448641273
0.192438160745271 -0.0878354038420798 0.282602188221617
0.193278959461242 -0.0804377868838411 0.291133010311052
0.190925387579628 -0.0802215050377672 0.295528403916796
0.195273368611121 -0.0721404698429576 0.297401567550833
0.199597798061025 -0.063932218691335 0.299512355984758
0.194245060425194 -0.0646191467670602 0.309312956176022
0.201101291015688 -0.0551603603763439 0.308276536389919
0.198204874780706 -0.0510688234422582 0.316093741702158
0.192179913085854 -0.0514184982877853 0.324271800078585
0.201867034769943 -0.0348225129318211 0.325017174342221
0.196255583580065 -0.0321747809163828 0.335220653028015
0.195486017516238 -0.0335194206318627 0.335094601277034
0.195477551270235 -0.0296892450911076 0.338527565203691
0.203613238674877 -0.00872590864500741 0.343260753412448
0.197807511103058 -0.0126085794460362 0.349469815530681
0.202185882969515 -0.00367005060608824 0.349727439373046
0.198582070557885 0.00442142039242525 0.360360079117291
0.196777692071074 0.0082459948497596 0.364267553986759
0.205988742305964 0.0190692825167849 0.359146037822572
0.199420870965392 0.0243736701008593 0.369296928958027
0.200503179096052 0.0336842560404072 0.371740085089925
0.205270021245386 0.0492976996990457 0.367643314693258
0.204907789668625 0.0580065029838408 0.369710676318876
0.202757201517496 0.0629923693316382 0.373733277401791
0.20388842328029 0.0824304922817929 0.374110233142305
0.202187225433017 0.0901919479651647 0.37716764009008
0.213158394758418 0.114862405829646 0.359454499229103
0.202241581821715 0.10311392424277 0.37748287878209
0.206606347867391 0.136882867454078 0.368450781870901
0.210765256878131 0.156732094758044 0.358478696057048
0.211961051946334 0.184070615196184 0.350630325337848
0.211388354407876 0.201927942920863 0.345950665305114
0.215077256607343 0.231679612552616 0.328295123923617
0.215196998299105 0.272857295627135 0.307197539802183
0.200577263650521 -0.152896287729814 0.139611445921425
0.194842383616616 -0.153317475116466 0.144325607398047
0.203206775352853 -0.133667118004818 0.144811768132474
0.199347071766272 -0.136469735645198 0.161485978566906
0.198064413458125 -0.136790882734541 0.167048501821244
0.20201046805353 -0.133118601393398 0.162804837359991
0.202880161163082 -0.128515223243283 0.177650241648721
0.196719428437555 -0.132559699272111 0.189974710231103
0.204927966333494 -0.12094163651631 0.194132796380618
0.203873594088267 -0.121593866530393 0.195998506453561
0.203689069569148 -0.118542091198571 0.203142868695455
0.202980291410223 -0.114938228928723 0.212839505925806
0.202733084200332 -0.10996915865693 0.223778487950766
0.198642157461219 -0.113266587813377 0.227627215240896
0.204959568892613 -0.105738745002909 0.224977067829264
0.200504344265563 -0.10398118163841 0.243144648040553
0.205767986703085 -0.094198325994857 0.246805651967767
0.202134941616412 -0.0959965254470843 0.25412328012887
0.20347889581456 -0.0940248724517444 0.253868390061201
0.202828949310428 -0.0898068279455295 0.260391151264838
0.207142598828773 -0.0777895018434603 0.266612809459488
0.208912899867463 -0.0723899201628972 0.26974493533967
0.207543348613077 -0.0691519706417792 0.276588155507286
0.20649190036631 -0.0641716107960153 0.285380476983261
0.206359523024765 -0.0655720023046062 0.283765664692238
0.205312013948613 -0.0578905366572244 0.29617627076944
0.205676439737362 -0.0578186240471194 0.295542781741531
0.20207232584572 -0.0533546043459688 0.308711216462091
0.202608983656035 -0.0446962758756535 0.315313436161959
0.203576518571043 -0.0406887770778176 0.317389450519976
0.205425249587878 -0.0293742947753662 0.324328800732091
0.210713824067287 -0.0235747016740715 0.320298694371298
0.204457638754873 -0.0245120648927209 0.329625703141395
0.204998582982308 -0.0184256773792729 0.333441902896289
0.214191810614553 -0.000523934126616596 0.33305762103575
0.204891081554463 -0.00478673036085063 0.344463524726395
0.208581864091474 0.00228512938313274 0.344381214180649
0.209703187612075 0.00898261417498007 0.348113423738727
0.216669300224428 0.0237606869126345 0.343498871518356
0.207670146297396 0.0236501971115786 0.358969836211086
0.216950137097644 0.0524898988021408 0.350687309747992
0.209445426229913 0.0496487757148445 0.361426018814282
0.209790255116908 0.0596410474497421 0.362640958619882
0.217315542664105 0.0808328065770268 0.352571810092531
0.216932434406486 0.0822526629514802 0.353264540881647
0.220338514726365 0.108711142854933 0.348000054238509
0.218182790027636 0.11625960095977 0.350933043823257
0.217114111079135 0.124487190510179 0.351988940248608
0.217773267908942 0.135342873735055 0.349923791866066
0.224018260381157 0.190471304796672 0.327189636614873
0.229908601672591 0.21285415776797 0.309595899750341
0.223649240102297 0.207764540473424 0.322328424602029
0.210852322906602 -0.148054618881649 0.132313283000395
0.20664609706626 -0.135413457138129 0.141211542971967
0.206657050750332 -0.133111400952513 0.142092503207874
0.206634231233963 -0.129017144907551 0.15215812392885
0.209484340727453 -0.124860596147068 0.151452117286763
0.212049192689161 -0.120230730294219 0.155037769643296
0.206723505562956 -0.124524745781935 0.172152405066489
0.210154998915553 -0.119026301165155 0.173037375906416
0.216141906625321 -0.110230926427165 0.171407088824698
0.214793358837269 -0.109833687769086 0.181238281411567
0.20725970428124 -0.116806310272372 0.194787338133275
0.209852798920147 -0.108076170015159 0.203925595235249
0.207090651014438 -0.107252950270506 0.214798622199767
0.209011298812075 -0.0996891996827043 0.223801436841705
0.215039808647571 -0.094557991149299 0.214351199405509
0.213530655363176 -0.090139113276722 0.229699020817163
0.216079634244554 -0.0853470088449329 0.232066963551262
0.218035473490649 -0.0825240215491282 0.231912521411513
0.216619085901762 -0.0781378702525721 0.246868393619635
0.209286385699814 -0.0808042846475362 0.258583789146759
0.212906059671285 -0.0709472096824511 0.263523717984547
0.219058469858499 -0.0650459959163733 0.259032854413968
0.215410543749505 -0.0621918088599032 0.270172188051016
0.210498011521529 -0.0605377356024456 0.282233697070405
0.221148529177337 -0.048356164300279 0.274027652148681
0.221185074971603 -0.0437061722242652 0.279394408956364
0.212826206434728 -0.0491930749204773 0.292799737567394
0.219488663026256 -0.0346405659795752 0.295014468544306
0.216734037257429 -0.0385925181273276 0.296505968373148
0.213368220255071 -0.0345129389353234 0.307615450192429
0.218977883968354 -0.0164413329901279 0.312516112212244
0.223910426863973 -0.0100530773578622 0.309589514245593
0.219094237223051 -0.0100020951710841 0.317361149529926
0.220338072736037 -0.00395541244074134 0.320359205184961
0.223846067244799 0.00802804881748561 0.321385035975362
0.219176438223366 0.00750526805705342 0.331150349883515
0.21828050073353 0.0143465875223535 0.336157918867592
0.225355769625903 0.0342275022044004 0.32907375533162
0.222181759218683 0.0328565063644331 0.335268718709541
0.220439458874472 0.0393867589357061 0.341412200229525
0.226187426571145 0.0571774943904674 0.335007222738082
0.223273203665852 0.0709512047035911 0.342493265269494
0.230445214775844 0.0856336802607857 0.330577010236641
0.22155617971688 0.0870097053915337 0.346149545144995
0.230165751948133 0.115608484435886 0.33096328343739
0.229190012962224 0.126624015168687 0.331616407414585
0.232616345585734 0.145301587776402 0.323072192510065
0.231297208112065 0.168732802055074 0.320514566994283
0.23022166381552 0.173016237851672 0.321489138886134
0.236010435607369 0.209256018366007 0.297511808036473
0.216790166047263 -0.144462904592789 0.127315049059187
0.215754300819951 -0.135227874710233 0.131683051048369
0.225469499506684 -0.11549567631879 0.129019764317374
0.222421367313817 -0.115900432868268 0.132501604408777
0.223872499217958 -0.105548117646615 0.139957213526095
0.222464347782798 -0.106897633446568 0.143647903714668
0.225045923727911 -0.100398363518816 0.155986326612247
0.227441276483607 -0.0973767805750222 0.149720026691524
0.221044406801879 -0.102171394686402 0.173483265300335
0.21723865344694 -0.104442389696853 0.186730375655307
0.219141264191657 -0.0999647022263362 0.189510752321051
0.223236363041024 -0.094130787130693 0.187751743220909
0.227837019382628 -0.0817964705327897 0.196732527556978
0.223107240168555 -0.0881652803678051 0.201591672216458
0.218674399396357 -0.0904098438131117 0.211529857618932
0.226165565375145 -0.076786044913947 0.214781996209983
0.227788845405301 -0.0713149150001412 0.21922178172684
0.219983328867961 -0.0780817042994592 0.23552332898236
0.223344419423559 -0.0717455823270195 0.237986036906598
0.229254484995032 -0.0602965959180176 0.238620070704745
0.226025029517718 -0.0623458893143846 0.245925639065482
0.225437085647838 -0.0590183722955153 0.251238470201013
0.223855101664574 -0.0538747461437396 0.261064955421175
0.223527014838709 -0.0525088255864438 0.26345380714168
0.221437714710293 -0.0479856585973509 0.273768878861642
0.229282486867159 -0.0381240765818366 0.266637485553231
0.226862307417321 -0.0323193397519849 0.280155692841225
0.225154999714637 -0.0283125775555471 0.289576041166264
0.224886476109973 -0.0275116637064456 0.291282339881565
0.232667276562177 -0.0118867860056281 0.292119436030377
0.227594220031552 -0.0104077312525955 0.303384448142766
0.232175036608046 0.00555483331140708 0.302429598275293
0.235037780109045 0.0135755289012551 0.299919341376587
0.232567742099673 0.0152824267824222 0.305980245007986
0.233999977527111 0.0266711396312683 0.307950013551837
0.228309428140002 0.0261701253778292 0.319793752792223
0.231553836556873 0.0359836673740905 0.316629612666799
0.229806201427503 0.0432914203899506 0.323077200754687
0.230157147901919 0.0531189294042103 0.325029144818399
0.229561515019992 0.0606626331812328 0.32802946742421
0.23171687021054 0.0687661605668193 0.324640896625467
0.234162812841202 0.0896263934079377 0.322916642430536
0.233568770565959 0.0943016919346363 0.324471311187805
0.245801885035401 0.153224468870164 0.289596217306916
0.250125825511505 0.191661429233499 0.26667136352071
0.239328393721162 0.15596713891198 0.305417333876851
0.240006446168292 0.162722323641046 0.310052904095139
0.2288279576972 -0.130541506634998 0.119374821404753
0.228745236336908 -0.116820470371773 0.12447312642771
0.228504187587438 -0.117326961249606 0.124546888644178
0.235204293524445 -0.0987549677627184 0.124964787817201
0.235814302387332 -0.0947946957284441 0.126042113134763
0.232919723586065 -0.0927746895046236 0.130448157678565
0.231584598500283 -0.0911545038541454 0.142043944572776
0.228537442971035 -0.0956917082170062 0.147863962078949
0.235273086624937 -0.0819035198446762 0.151886534955095
0.23790618316181 -0.0766147513150411 0.15300388866149
0.237672056156039 -0.0731077859869862 0.167770783617164
0.234346498797765 -0.078024191897268 0.1738654256566
0.233106729984815 -0.0759090888144629 0.185910875542817
0.232796426860108 -0.0728018581287389 0.193888518166456
0.240079120015211 -0.0620431185161119 0.184506416275935
0.231624659217649 -0.0703588237205772 0.204269066456919
0.229665346317622 -0.0695700631107073 0.214621048399836
0.234251479382917 -0.0591901723596383 0.217923562473666
0.23904214288518 -0.0497874107489973 0.219498559715973
0.236860420351234 -0.0520724376622316 0.22390854394882
0.240005111700658 -0.0419275560664168 0.235141764890916
0.237671969033131 -0.0406992942038446 0.243391290821259
0.237104647156449 -0.0391525827797057 0.246565814874944
0.237082791345695 -0.0342549804513154 0.252779093156726
0.232316040336068 -0.0388984687613113 0.25834539110984
0.242145243262359 -0.0154878195789817 0.258151273449864
0.239405685802008 -0.0160003820899261 0.266524653271317
0.236436636914229 -0.0153602182591522 0.276711633895923
0.235357685053156 -0.0153916736665406 0.280167932330739
0.240308939932252 0.000701852568881116 0.278131919959655
0.243003815702918 0.0162821747176293 0.281741354497206
0.245332132702238 0.0179673691795205 0.275769270417771
0.245460231470837 0.0276628409745665 0.282853685075353
0.242677564144403 0.0337451295790914 0.291975079549872
0.240056120685586 0.0402012092252731 0.299450488283135
0.243784177383989 0.0523283279828695 0.293745496977699
0.246079709310825 0.0582750985329982 0.289881184556487
0.240834975640126 0.0669900513147886 0.30374855358725
0.251387624394491 0.103534092855796 0.281576382695134
0.25080710711988 0.119946427446326 0.282922261384602
0.256763816470911 0.147521761797298 0.262997864264961
0.257229247084697 0.155577956428089 0.260359662247957
0.24770149638131 0.163677871392949 0.282906535431851
0.241376277789138 -0.117047973468593 0.108508763345418
0.237774585076037 -0.111009509151336 0.11671124234583
0.238197434594989 -0.109387300832201 0.116866231710523
0.239820565159866 -0.0985619223696726 0.118844769429053
0.245770807923556 -0.0860099473350137 0.114368556059286
0.239353393219185 -0.0860527417954043 0.125453496977412
0.245269844410414 -0.0751467309530424 0.120272547150041
0.246853564737828 -0.0612492824369259 0.123976101885595
0.240596822012461 -0.0727929715840744 0.147035572904547
0.243114725526171 -0.06828024450089 0.145656984720132
0.241979445629158 -0.0660175787077853 0.162597873826663
0.249074556330022 -0.054010196568408 0.149547796880985
0.248498628536838 -0.0517162746396601 0.161899707089105
0.245004981353839 -0.0556729198298611 0.176301919839681
0.246752569051365 -0.0511014652760366 0.177584755688238
0.243319149001607 -0.0516830842806148 0.194485930123942
0.242604929986078 -0.0508356916584642 0.200025636425855
0.250014646562378 -0.0370132744322871 0.190078190721522
0.244955801416227 -0.0407252151990855 0.213188378846956
0.245436637411801 -0.0394913365157681 0.213055742727337
0.242424900544811 -0.039185750650253 0.230783141056285
0.246020134034145 -0.0299909960197515 0.230340885474638
0.24942011297086 -0.0208218703055108 0.2277530115505
0.252036790430509 -0.0107282030574441 0.230623839155671
0.245443719453264 -0.0210324363310192 0.242338116435179
0.243645012506622 -0.0167591542179585 0.252123710825533
0.24834416328149 -0.00613463075009327 0.246825671816292
0.249270029416919 0.00637258953224503 0.254517654842995
0.255655071964475 0.0297821108285956 0.248823567580468
0.255454195897159 0.0352451165563845 0.252585895034069
0.247200161077494 0.0186983075351274 0.270498344220346
0.254727005560518 0.047677154927483 0.261120586038846
0.254605815324339 0.0524442063842801 0.263726042110898
0.256265331489192 0.0705371631898024 0.265817070998888
0.251063033942357 0.0549420414032997 0.276839373716018
0.254085882763337 0.0703781825069443 0.273744071712346
0.257545839676791 0.0943176689069666 0.264876835141389
0.261568032912592 0.124853627943913 0.250664277568815
0.266905573871187 0.17394755308781 0.215390873762855
0.258757758425813 0.163631005752453 0.254073294247203
0.256399573117871 -0.102194367388708 0.0897167651409554
0.251156420397009 -0.0981530311548832 0.100198511597664
0.256660647991808 -0.088716982004835 0.0950120687940431
0.252562403911838 -0.0839199085587767 0.103901691218199
0.259163121461789 -0.0670260141075309 0.100054312742401
0.249577529524806 -0.0748803858205256 0.112941969023251
0.253780193246138 -0.0653333745740442 0.110096432464678
0.258237682808773 -0.0520889818905101 0.108524364177838
0.251965896762275 -0.0495627130224056 0.120548544859524
0.256211538996453 -0.0422533049628986 0.124296177854271
0.262529573791182 -0.0283525248225852 0.11096597808905
0.251480843136604 -0.0490721869395885 0.14440303703926
0.251321474500542 -0.045980810659781 0.156799424137741
0.260304197464162 -0.0246434407613391 0.150647127542888
0.26083866226197 -0.0231402340132875 0.151044011310841
0.262326338333978 -0.0166514840333692 0.159673937654898
0.259847527130961 -0.0189223040471351 0.17063685623945
0.259627602101045 -0.0180363002968677 0.174095081635787
0.255238433454643 -0.0216273879649826 0.193111950945252
0.263757224746562 -0.00130537949998778 0.178425488033107
0.259829166286362 -0.00829066067037353 0.191369258346677
0.262207252422006 0.00178582903228135 0.193759903525106
0.266457337234361 0.0185894844657113 0.190674939419222
0.26708963458527 0.0233491491562578 0.192568580752068
0.258977789658773 0.00765718322256414 0.224681938092642
0.26258531944558 0.0188751069752295 0.215630729990387
0.258390391494852 0.0138201576538268 0.2303828550837
0.259500185987378 0.0271864108961754 0.234036940243773
0.265119592071947 0.0497659259963566 0.22699133476768
0.270195807655937 0.0751412305081895 0.214812891617695
0.263761345705916 0.0609544898301132 0.235954842313364
0.263431535924667 0.0734212114664597 0.239682498112647
0.269711522803699 0.110526343716863 0.220179492981812
0.269139711448214 0.108757560766088 0.222688027690948
0.264533461171589 0.100695667990113 0.240203882496418
0.266022218847014 0.12323536130816 0.233165594770926
0.268670614681298 0.156121211024387 0.215871245685632
0.260764024285753 -0.0895542213368369 0.0877979023224837
0.26014287552629 -0.0888391579050876 0.0891401497890858
0.259462458494567 -0.0795583248026323 0.0942242946858106
0.259005377281029 -0.0788708106160857 0.0952806146139741
0.265582980568023 -0.0582926295137506 0.0907690047763291
0.271091607491795 -0.0411021326925862 0.0853444464428533
0.263747762225975 -0.0461334802084596 0.100287848158822
0.26508150445286 -0.0408004058406621 0.0994202693752253
0.263810776574925 -0.0353114881929992 0.104811782037413
0.270444207001524 -0.0229529498225513 0.0944854008140106
0.266048931139165 -0.0211143286280634 0.105454433782033
0.274836566023642 0.00607940970604277 0.0962421180527671
0.266062516788652 -0.0151232053542911 0.121981466063729
0.274950305184747 0.0208732319147748 0.101936516832417
0.272983900198567 0.0101636373685789 0.112079613172395
0.271980924641608 0.0106395380966213 0.128746688413025
0.277880659951811 0.0383525111032403 0.10801575140708
0.274950144070428 0.0267906854925525 0.14047379626328
0.269199410570889 0.00903930470847938 0.153743658401821
0.269894059905358 0.0167085967262365 0.164339171747963
0.279329715838065 0.0603207162983577 0.140587694844538
0.280809867444187 0.0703508635820177 0.133998516987984
0.279668365440583 0.0678045635777751 0.146090673640111
0.272082406457206 0.0449998836933544 0.186248794275348
0.272184267631163 0.0448163311580492 0.185325960460618
0.275812071301737 0.069380151480592 0.176272119934252
0.273942677849796 0.0713011780446118 0.191175127619635
0.278135297106013 0.102821535718806 0.170859186777133
0.27334953371954 0.0855312714464287 0.20452962208975
0.26848012488214 -0.0825046039670378 0.0738227848842376
0.269240401183111 -0.0757086454613233 0.074992494963665
0.277244085442468 -0.0584626589418564 0.0644921394773082
0.278440990672148 -0.0444008368361792 0.0675812428219741
0.274058558785213 -0.0474936024059629 0.0759074965086028
0.275933570766699 -0.0357612263617205 0.076568851480722
0.273584828210414 -0.0324374049862365 0.083281945923194
0.274451526479972 -0.0251375112009182 0.0844690681888694
0.275251686464646 -0.0170451966240449 0.0860016413936163
0.209971494461484 0.390834066005593 0.128177001684178
0.231877942991323 0.346732486845132 0.114577116115755
0.233168034870623 0.344747040552619 0.122544883541156
0.233448410899547 0.34344739403112 0.139751587731349
0.2295620860368 0.353759201152838 0.130433398640378
0.228288764203364 0.351747053846591 0.154361389617499
0.229410335503732 0.347175962759214 0.160253545192822
0.223169301893545 0.361734623688805 0.159206643137112
0.217697894438361 0.36716248057554 0.172354081582497
0.212724854479745 0.379868240469127 0.159701765455832
0.213810842818339 0.368346949604596 0.185990975935668
0.215488418752051 0.361652927949013 0.193389914166124
0.202372147793946 0.386020967194497 0.184308144510333
0.206281269904693 0.374245185290723 0.203838821050291
0.195801268709035 0.388939188909356 0.202508894653346
0.233036484190377 0.325444832899273 0.0546823007442218
0.242119669755725 0.316894221857312 0.104822901235532
0.241774068156061 0.318166032199464 0.108124489437895
0.24832661175703 0.302171598344941 0.136725975489825
0.236710109468904 0.331905452806028 0.111082590511846
0.243567726124178 0.317031581372405 0.140955194254971
0.244415689803104 0.313028421307153 0.153907877986006
0.23955065137898 0.326152006005263 0.152192400812611
0.233811277133886 0.339364112931891 0.153460574398317
0.235233387128347 0.330878101703835 0.169832226748913
0.23713365835595 0.325626685944857 0.172925689449272
0.236943570073724 0.317956828494803 0.195375282071303
0.233481406780207 0.326171866058712 0.200490261643687
0.222545312812191 0.34853790137913 0.192044041397282
0.22394665827955 0.341356183020785 0.201656300006359
0.219125627149905 0.344126725598555 0.215934180264453
0.214192481372763 0.358057895125216 0.20654026227297
0.202897410035982 0.381046367786762 0.197330848487046
0.210129420269575 0.358988297596701 0.220981005612307
0.204924068791381 0.361031899694787 0.237655880179471
0.200332793433042 0.375843514001956 0.223799412467221
0.199298517625971 0.371156010593642 0.23870722708209
0.19042326404622 0.381949623962532 0.246020587947968
0.177784290031642 0.4025843409429 0.235181727145689
0.177615420396058 0.394300667848048 0.252095188262385
0.246562834509589 0.293349030449728 0.0490909214259621
0.247057809723351 0.292847059440705 0.0520849242206721
0.236447226937043 0.315882383528394 0.0476131529165718
0.253306053484888 0.28528574659357 0.0940304710674759
0.244892298067705 0.305279140650294 0.0797692658775655
0.247655716672564 0.300758848806966 0.0995254438580804
0.245638562228189 0.307145599479553 0.102266675114609
0.250481553990172 0.29463956815827 0.126157552972701
0.257260959662878 0.276396045061197 0.142969999594913
0.251695864428751 0.292833621323611 0.146476623602973
0.249146149822833 0.300508156092404 0.145648452054099
0.252033308161423 0.286531599968785 0.168927966453685
0.252155501221248 0.282175671184737 0.178735342937081
0.248279015178713 0.294241469350461 0.174542818332071
0.242475374854189 0.312169843843976 0.169220160046504
0.243043303762287 0.304485683159705 0.183907566122054
0.240446731555408 0.309608405749918 0.190288198541131
0.240512454349065 0.302724705776698 0.206676057166187
0.238773295288165 0.305773326205066 0.21188705303656
0.237327342927939 0.301203450028373 0.224970570251749
0.231736260762195 0.311233054679946 0.230343662840605
0.228500948718652 0.314449499546441 0.23648954122247
0.22050170010747 0.33477784040953 0.230330125179403
0.214845082287432 0.346364557486077 0.228969013855025
0.214560410509393 0.33533181059304 0.253772903621418
0.212918611695847 0.340552684439249 0.249221412513396
0.207452070610174 0.346925312318008 0.255287926383211
0.203718224492852 0.359281665625338 0.246285816576108
0.194521509642956 0.372008738881455 0.252244679605252
0.192689176036039 0.358495997619493 0.272539187488355
0.181229534043551 0.387140337272886 0.256134416943477
0.176027104311653 0.394130666662213 0.255529586683518
0.171628607986595 0.39837813653625 0.257629658291208
0.166122163313363 0.399997669415406 0.266066760672377
0.14712188917972 0.426955827597195 0.251628478375276
0.16078635168132 0.39690471642867 0.28156528367135
0.256464278260209 0.264620872239722 0.0473358757726609
0.258271673400752 0.264425414671521 0.0636704184077289
0.25760109311924 0.267733688299928 0.0683630138108252
0.258120538444005 0.268134799181832 0.075451444503767
0.261816470246929 0.262921059270723 0.101226160405616
0.262397705463462 0.260163440113634 0.104032965265175
0.263987497602121 0.251145326544291 0.128103792694872
0.256935531773238 0.276489374753989 0.119589764703509
0.264280952756389 0.24819525552558 0.146829127742435
0.261183990557025 0.261123867837886 0.151480294811108
0.259316923635882 0.268821248088806 0.155360947449946
0.258872976707066 0.263740834889366 0.169524040617206
0.258642705277899 0.260379729555533 0.175705239207571
0.255713408154159 0.269228056806134 0.178721163656951
0.2542582923274 0.265322230474015 0.192574654550552
0.250909120615908 0.282029648747169 0.187183917452374
0.24770755639209 0.284412611851277 0.202173542242554
0.248882941693683 0.273031739312967 0.212390519588109
0.246555980671852 0.280355074132794 0.215322302008188
0.245374843129438 0.277209531977713 0.22558723419608
0.239533248321891 0.291333042779684 0.229791277839392
0.240867343312655 0.286707384528969 0.230911488721424
0.23584955712122 0.290169801047231 0.242452650353165
0.228936977040176 0.313550538961787 0.236207589761696
0.22664752882125 0.31519381295965 0.241494594503789
0.223172762323997 0.317284322489637 0.250328097469319
0.219715236455723 0.323474631627987 0.254468641525011
0.218122689413681 0.320910058055943 0.262501806446601
0.211066479209326 0.324794539420864 0.278882862138802
0.207697725037372 0.334668899171799 0.269650771220472
0.20890334158212 0.328317904592939 0.280308884650476
0.197898773940353 0.335095511931782 0.289909749385522
0.195438236824323 0.340434899048022 0.288642962450644
0.188604840554904 0.352813777529883 0.288099607423558
0.181757769218657 0.362969149235558 0.290285388716808
0.17504649339284 0.376205576854552 0.285639245821878
0.165122547340737 0.389418057732124 0.284677101412418
0.16827946675304 0.376272508983564 0.299028774472439
0.133931681752375 0.432819548598596 0.263394091857688
0.134183773107994 0.430386655455427 0.267768153082466
0.127047225572483 0.437612814404614 0.266489423191795
0.122107916262395 0.43495355569023 0.280832768804402
0.265562457719842 0.237118176820753 0.0585604340347176
0.267020081314586 0.235862749353082 0.0734213736502229
0.267473210547798 0.237068601176169 0.0844171350181303
0.265158619789806 0.245852886615053 0.0811495426913249
