ply
format ascii 1.0
element vertex 844
property float x
property float y
property float z
end_header
0.194952617322846 0.305317216973328 0.323801908871406
0.193255825676416 0.305248040492007 0.327097405715135
0.194662086578826 0.29468334325935 0.332211969514925
0.203402790686847 0.278621056395244 0.325767515676899
0.204062235644483 0.275324199417688 0.326413123153516
0.204739775754414 0.265172268164248 0.330981282306452
0.196094190796831 0.272093688173685 0.34315156655803
0.20248958303894 0.254792151818167 0.341005165702112
0.206053684042513 0.24555489913235 0.338589649043654
0.197826809546741 0.247367277025397 0.35280116136808
0.200238010829351 0.236774801320862 0.353010980317329
0.199754505872787 0.235468519082531 0.354463153194682
0.20848167591221 0.215026290895321 0.34693133723485
0.205180557868746 0.21237192868192 0.353636809904114
0.208805919525321 0.19856043545372 0.35160810311528
0.204373218795645 0.200796417629604 0.358761989952347
0.204820476314175 0.191307452596329 0.360994963919286
0.205014085439851 0.179681203652323 0.363680730120399
0.20775049193386 0.172009512156405 0.360535132489928
0.211214885806526 0.16187070197514 0.356640671205598
0.209986556486429 0.150520449309328 0.361107010358863
0.206913175404779 0.146004322614214 0.367128412147884
0.205084591942659 0.141669994985771 0.370569273788811
0.206753516312526 0.127463211278334 0.369040838297751
0.216660146740126 0.104867407004111 0.354488984755418
0.216481841917359 0.0962349470269477 0.354622877099142
0.213795774640673 0.0931427943223558 0.358798387727064
0.214438910646559 0.0681242871198463 0.356443702211908
0.211192487225507 0.0659335880991267 0.361504670857213
0.221233587391601 0.0421658729451556 0.340779732770454
0.21789330423622 0.0226233152666176 0.340482402099311
0.202018857778934 0.312570848816862 0.304986002141394
0.205763575688581 0.301743145708931 0.306204239600426
0.209441358813842 0.293809806175728 0.30536478516996
0.210164491567048 0.289952041170999 0.306668876750768
0.213240891283129 0.280236411358108 0.306452988041745
0.204750425377429 0.285238785131981 0.319477070927009
0.211518835479784 0.267400113674156 0.317187222785218
0.207903774476278 0.267673114596708 0.323681568248083
0.214392047610659 0.254467413579473 0.319527850272871
0.206082666564606 0.260273158971928 0.331398087840193
0.207680043404116 0.25253183710208 0.332570137147403
0.20966592354629 0.241359008556868 0.333871750435476
0.212586288988261 0.227774013059186 0.334535731636899
0.209052784516335 0.229656144266685 0.340127172631015
0.210817573786856 0.220235970505161 0.341060346359372
0.210418341679212 0.212013621351412 0.344455134279812
0.210168248181275 0.201349961567326 0.348300460691973
0.219521451919818 0.190034293825185 0.3353099247405
0.219619765019493 0.173575313920918 0.339697550722347
0.212609438479722 0.179131599631894 0.350666739049183
0.213001410865541 0.175125368261383 0.350816390540974
0.220205662148693 0.14990139235975 0.343572584223728
0.223921550468455 0.138893019827739 0.339332862587275
0.216518836100572 0.139655122601147 0.351637642494971
0.225597259349361 0.119255598563993 0.338275074154654
0.218795711383359 0.116784086502289 0.349862096884212
0.21698757865465 0.11395256724928 0.353135399494949
0.217987608740588 0.0959551466461916 0.352219570946591
0.220784400775489 0.0880485439993065 0.34744143329556
0.228932511671112 0.050885557837008 0.327307816682103
0.229776572065469 0.0404308029814838 0.322062469774608
0.225255233932729 0.040682802502446 0.331717563725059
0.216608753845111 0.297051043700898 0.289570400150933
0.219382944054522 0.290120864789578 0.28933712993333
0.213985996641738 0.293911265976234 0.296829089677416
0.215078979519173 0.284464311579298 0.300607283230473
0.220932150870505 0.270058298945706 0.298289713700509
0.213485346396687 0.273355282316626 0.310055026400625
0.222883644870982 0.260538878071447 0.300310739723225
0.217678036628534 0.254101959739435 0.313690218062248
0.222111993402948 0.245136465564376 0.309604699020203
0.223148685440249 0.237825400862891 0.310933765062216
0.225321826263361 0.232751039581707 0.309215847539384
0.220918583579096 0.223796940087827 0.321148046324977
0.225673924743631 0.217435782485131 0.315305102243949
0.220227980241946 0.214445174581728 0.326269474046498
0.228529471401775 0.198622374861241 0.3165831790251
0.220385991187296 0.203861346647225 0.329365036157536
0.22387228742673 0.190609857952312 0.327404512706593
0.221895459084645 0.187554055234338 0.331887699289081
0.2280658770289 0.16871260611808 0.326103621644327
0.227129615713117 0.160648736659762 0.329386663580059
0.231042238168679 0.13726505656724 0.327452014309141
0.232994405557387 0.130660168889707 0.324899769807081
0.235587364157172 0.115225421996613 0.319438236719515
0.234189365674827 0.106888273467344 0.32288783828779
0.230474807892082 0.103626044257877 0.331510226731318
0.234231275713571 0.0864704234785019 0.322188275346235
0.23829518117114 0.070687601463922 0.310150436343537
0.228267849487955 0.084526354916603 0.335287514519413
0.233737479121014 0.0501542226625698 0.316172402861944
0.238035939530106 0.0101349113085176 0.291944589915992
0.224041915769661 0.286909003726644 0.280852222268133
0.224382695681993 0.281729950098493 0.283991516345518
0.222386808235525 0.280261207247642 0.289594891257679
0.227010964828507 0.266017613679343 0.288767797763304
0.231812244714307 0.255971288647078 0.282661900911178
0.232499276137524 0.250538128018279 0.284947916410841
0.231593856724679 0.243754049989997 0.291219262818673
0.234284343197211 0.232587440176635 0.289879199880383
0.22844613162352 0.238815370534206 0.300876379396308
0.235089337181055 0.222020003682644 0.293468061552322
0.231517656308579 0.218752326899473 0.304111945710007
0.230722986269538 0.214760903411302 0.30730905518159
0.237428169195366 0.198638054426082 0.297623143182308
0.230967670378538 0.196456682061205 0.312946693680353
0.234492852881675 0.184883931418827 0.310349645209391
0.232140460181761 0.18505705159278 0.314501458505272
0.233125394809376 0.175190811320956 0.315900510550132
0.24138785100039 0.151677594635861 0.301005356921632
0.243471485580934 0.13512728236423 0.298761778912054
0.242039198433372 0.128941717687164 0.303497314191521
0.243289981500684 0.118503255884836 0.300946997056757
0.234479701435804 0.137799407021033 0.32094439293163
0.239746032682964 0.111067014995075 0.309526351140277
0.238596547050813 0.0953345353044477 0.312346354156841
0.241888884005827 0.0810449502990959 0.303926990331787
0.24593642646287 0.0529146090660499 0.288968968856053
0.240736578874346 0.0551160134524043 0.301345463160039
0.242742796116945 0.0341562663003874 0.291921246971282
0.23779892555374 0.267963143356764 0.25527249819684
0.235758086379278 0.263799326869375 0.264673085992773
0.235186126065916 0.260940319817639 0.268727509060223
0.239501140630773 0.249488707846145 0.26584806676207
0.2365601539931 0.247070674370369 0.275534199012647
0.237880493182991 0.2369850152642 0.277419464928157
0.239691134416929 0.233625282977868 0.274223495157486
0.244922851720837 0.211547421448656 0.272319318859764
0.24309398365006 0.212724028397067 0.276671336474465
0.242490095642784 0.208927550316426 0.280520680332172
0.241212983034618 0.198512831937717 0.287688739136309
0.242117342148614 0.193564145436725 0.28709830452198
0.248893694504938 0.171782129055485 0.277127629501769
0.245669621976997 0.173930040016886 0.284850129806847
0.249000463514605 0.154526380431132 0.281295808322886
0.24185412811646 0.166603957655591 0.30554084666565
0.244609333682584 0.151580939176787 0.292901504539022
0.24277023416466 0.14739169844253 0.298299635032075
0.253570273667754 0.105345573639443 0.276331535159887
0.254195417310006 0.100008590751709 0.274748495160144
0.25490152616329 0.0824490407941994 0.27280124391634
0.254098657544766 0.0812219094362985 0.274722774148468
0.251172382524837 0.0643053124050365 0.279652265645564
0.249550914129633 0.249627788592158 0.236644963826628
0.250655731717888 0.239617077045932 0.240371283378157
0.2480481476256 0.240091957364536 0.247340551351134
0.249330308003451 0.226994490453862 0.251292742887649
0.247404207924608 0.223463686662424 0.258625645361474
0.247934534566518 0.224592359531238 0.256516409115324
0.255885054827756 0.197136048568566 0.249500554803956
0.256924076223181 0.193708389262599 0.248003583283823
0.255484941270006 0.186899757429497 0.254266814599527
0.253143266113379 0.189699971487439 0.259426110742727
0.25931509313713 0.162131645847838 0.253147316534915
0.253346916981936 0.171727224080696 0.265405270175282
0.260564843722293 0.152348470245859 0.251007461045769
0.25448027503845 0.149847216759727 0.268331888539
0.254198468910426 0.149009623422342 0.269194625730136
0.254858550636574 0.139819797060976 0.269201512905032
0.257313297774252 0.119646308020678 0.26668114700968
0.26803537643779 0.0600455521768671 0.219840951484497
0.264928357931349 0.0659281063710325 0.232601410991251
0.265262216267288 0.21090054518474 0.198755508086955
0.262321011342591 0.213059300894415 0.210760422006853
0.262995025292623 0.205818443450565 0.213902952423596
0.25648978950948 0.214318062745832 0.237938132645758
0.258016791629789 0.211195337721225 0.233105199960425
0.26255308632064 0.189228560561564 0.227230805704531
0.260882136821202 0.187683394911934 0.235142369923632
0.262408202625014 0.182528963081736 0.230898692052928
0.261776936679185 0.169964701150452 0.239328759997777
0.272019083635106 0.125415908567729 0.209028240537503
0.270367402205413 0.13249424572966 0.214657899443766
0.269899365525222 0.123507503607316 0.217710967150489
0.272858836276341 0.104660377584369 0.208441262532871
0.266841620515636 0.111222342280586 0.231500145477837
0.272386638167496 0.0809931996640304 0.207819124369052
0.27084171602088 0.0661209052430472 0.210597596702864
0.271492797243234 0.192781309002996 0.185158853919698
0.278876391838832 0.150891946022346 0.151985056540081
0.283053228677114 0.120292742016696 0.129363576389484
0.268683188244128 0.185930155138751 0.20227872231258
0.273232751354668 0.162568542086952 0.193258403510907
0.277201691365267 0.13885915515263 0.179944520226847
-0.227642738927466 -0.402491620829377 0.0232642745575116
-0.222571331609251 -0.41304353895587 0.0277220770160353
-0.21838088666203 -0.411351570823901 0.0337727907229814
-0.220319132818766 -0.420412804048 0.0286661897877719
-0.211293569140131 -0.425407873096268 0.0392318645490587
-0.205130039787552 -0.428835022329397 0.0461656750674946
-0.232663639028843 -0.373831477967946 0.02434283777723
-0.229702503485056 -0.382629828357901 0.0259121189984619
-0.226209421898961 -0.380714946990824 0.0319132978356526
-0.22432515914933 -0.394550186159764 0.0301685599270877
-0.215545789257199 -0.396957370783836 0.0415616631653339
-0.215247181175898 -0.402832163924203 0.0400671521892171
-0.208098217709503 -0.409383740331196 0.0474732906901941
-0.205736585905457 -0.422008047865015 0.0471983515663283
-0.199277291503145 -0.424262488335327 0.0545399466922061
-0.193768743685305 -0.43040978364815 0.0592157801406719
-0.191656994090677 -0.435682248866507 0.0601987529465703
-0.189814612830453 -0.442412723261981 0.0604970068497775
-0.180949638143152 -0.452601168420581 0.0674072571553781
-0.178153441029388 -0.457278029200685 0.0691328216316934
-0.174069206439684 -0.455446122341961 0.0740866478527378
-0.16755342720697 -0.456174186469235 0.0798241987265512
-0.247817410527374 -0.339941971831114 0.0110639967944012
-0.243296673497388 -0.355620057978982 0.0134289759811691
-0.239607280411309 -0.366935779767871 0.0158183036788695
-0.234431597272433 -0.365536142915148 0.0244328554148056
-0.231369630785836 -0.372570673659684 0.0267521158216729
-0.225807193028397 -0.367566037074431 0.0365760865223093
-0.224759009355261 -0.3846882506324 0.0327954720259779
-0.219368394413359 -0.392163304599627 0.0379943468377933
-0.214637356429009 -0.385526686155807 0.0464522230340878
-0.21209403441695 -0.401439113171276 0.04469240808734
-0.208130249419589 -0.398440430915124 0.050923704951223
-0.200977333888313 -0.4036637345276 0.058393509305328
-0.200150079852237 -0.41585176492223 0.0558851071510806
-0.191994644344023 -0.408689391274809 0.067266239668216
-0.192684352375147 -0.418810548188742 0.0634808576993468
-0.184089205771594 -0.4333304776643 0.0692992398192231
-0.18072727730693 -0.435513954327545 0.0724486095647055
-0.176224764948863 -0.439946807087303 0.0760402371626693
-0.170850438329359 -0.450660059549948 0.0782240322440047
-0.165876706656444 -0.461394098966864 0.0799419433032085
-0.160213565939827 -0.461431639472372 0.0849077770809526
-0.15182933661771 -0.46530159785375 0.0912624364416105
-0.247910000659075 -0.325189392327552 0.0158966553360256
-0.244829747146452 -0.329656029459341 0.0194066129724217
-0.241690519125878 -0.329871740381161 0.024549116001843
-0.238884813451718 -0.348042973687942 0.0228398104334417
-0.23693953413075 -0.347128651053562 0.0262358618649632
-0.23103668009561 -0.343911083622268 0.0367546762656502
-0.224865904008678 -0.35430529778979 0.0420833806514137
-0.223631564720683 -0.363426838892805 0.0407918512116146
-0.217186322113228 -0.371174354403872 0.0472757487426411
-0.215063602055109 -0.371921760309111 0.0499526676531434
-0.205205542828894 -0.386017297697596 0.0587315074734843
-0.203076946536971 -0.380694293616574 0.0627584676901361
-0.201637625158247 -0.389764502362576 0.0617384424960546
-0.197299227784251 -0.401389406793207 0.0633064513904569
-0.189333465844782 -0.405331968331802 0.0713265967248638
-0.189096564753909 -0.413387755822433 0.0692198160603068
-0.182246304405884 -0.420009628211746 0.0751621799661431
-0.176871422307256 -0.431338400955104 0.0775790915133113
-0.171714040485942 -0.424385585524875 0.0840787586750109
-0.165066000114091 -0.428903771293327 0.0889185157806441
-0.162216493700048 -0.443113829605484 0.0878261888648834
-0.154734930803479 -0.450422815962247 0.0925994123999424
-0.149360619386797 -0.461801115018233 0.0937589256629245
-0.142046052717655 -0.464962831217243 0.097881794633947
-0.137765153085323 -0.474373807343501 0.0984515718470259
-0.256605936318626 -0.290835340862259 0.0123589564222215
-0.25370455845113 -0.29762196673708 0.0150895141650599
-0.249621854844557 -0.311988935296545 0.0173548778387125
-0.246778115803648 -0.309452791496366 0.0230390390311925
-0.242346009188012 -0.324899478878623 0.0252539281532353
-0.239410370126267 -0.314616468107972 0.0338476393654377
-0.232900674769535 -0.327043153206641 0.0395101443503066
-0.232530248699218 -0.330393498044339 0.0389631268703423
-0.226612632597539 -0.337769279461206 0.0450577751480423
-0.224732342737977 -0.340906191900038 0.0467393180303131
-0.215906333482176 -0.348251981722445 0.0567724838118927
-0.21666302763164 -0.35596774515518 0.0530534064800672
-0.212444522188218 -0.360592623276976 0.0573980536984913
-0.2049680639547 -0.359357556645936 0.067036839267975
-0.199496776494535 -0.37047762099767 0.0700246985705769
-0.198174033203724 -0.376008165355797 0.0698662144165064
-0.189650953278492 -0.379832439945557 0.0787040358549186
-0.190849070353915 -0.382460377436766 0.0764806215877908
-0.180100131892353 -0.394653473770201 0.0844390667696667
-0.177902888020354 -0.410032458787079 0.082297689875797
-0.171886962022173 -0.399996438829182 0.0904696168308774
-0.165177112065131 -0.424160275786367 0.0900909435263816
-0.166823738926554 -0.418429109483842 0.0901305098093028
-0.155571151477092 -0.43109952488393 0.0969737675588912
-0.151443810520451 -0.445404387765447 0.0963625066934772
-0.150445938493894 -0.448840846458305 0.0961923502732863
-0.14109941435353 -0.448128763874541 0.102619034552724
-0.13611342721932 -0.451131138277864 0.105222863418932
-0.126362379046753 -0.46545084102594 0.108255644911874
-0.119527408649967 -0.4685981433567 0.112061164342984
-0.259435835094071 -0.283348930157263 0.00997949239066627
-0.255018140167547 -0.280536060836529 0.0187233155846427
-0.25119318973875 -0.284880288825222 0.0238588656084951
-0.247333580569216 -0.293802824724557 0.0273993343023418
-0.24374440145241 -0.291791560223753 0.0344200915422929
-0.242076102282851 -0.307819383475578 0.0315995143034274
-0.238942059608524 -0.303697366584694 0.038360019703095
-0.230761275720946 -0.316095173771028 0.0461697598743898
-0.230203827146461 -0.321508312387685 0.0451472733770238
-0.224367009037088 -0.325654948524047 0.0521664454712969
-0.222627561098706 -0.325300584726105 0.0548249103538944
-0.219836097110598 -0.337032823187494 0.0549887597854379
-0.212692234453451 -0.349851253228923 0.0607447349543254
-0.209922801413427 -0.34836676881908 0.0646163709981928
-0.20534046771324 -0.356015311612606 0.0676347178845144
-0.200426059686312 -0.355896000073865 0.0734509747604897
-0.194801422210926 -0.357942393913324 0.0794312620152308
-0.18711008295405 -0.371464686745719 0.0842853805288084
-0.18577323976014 -0.380297375345926 0.0831200850108844
-0.177308085503031 -0.389248781076924 0.0884942175134025
-0.173524133909505 -0.392156755995772 0.0911473507276298
-0.171946797935798 -0.388793730554385 0.0935242992521854
-0.166993452173945 -0.400325678694787 0.0948512734879317
-0.162619876625887 -0.415393095950889 0.0947731554215992
-0.153055849045801 -0.417600298215135 0.10215178105148
-0.146609267083317 -0.418703771560817 0.106213059162683
-0.149034860519742 -0.428994397767341 0.10202150521224
-0.134817462759728 -0.439844918155722 0.108884308944337
-0.126173680115226 -0.446944803554503 0.112931546027989
-0.124805601004047 -0.462233390911861 0.110081543070203
-0.124878602376654 -0.461689439066882 0.110165311007183
-0.110537583509946 -0.481706408639313 0.113288708240543
-0.105157084292589 -0.483664855677035 0.115319048016485
-0.262835403630945 -0.256668338287562 0.012491360292025
-0.258905706001536 -0.265139951555513 0.0168087136452108
-0.254402760019353 -0.272135654555842 0.0226244145027705
-0.251849224413361 -0.270621002708814 0.0276781778578317
-0.247119604861683 -0.277052348408054 0.0338327268153598
-0.247074384898692 -0.27548025456965 0.0344806010520201
-0.242838708006698 -0.288615014690287 0.0371570243047363
-0.236154571548075 -0.29237492410613 0.0461241430301567
-0.234342206484023 -0.288986028850509 0.0498912802692245
-0.231403109545624 -0.30203717373741 0.0500203079628488
-0.223993400996634 -0.301250915712257 0.0611941374279928
-0.223760782668355 -0.312626513269049 0.0575788823587372
-0.216636975604339 -0.325265991690337 0.0635683451801169
-0.211820639954156 -0.316698932913361 0.0721810894060114
-0.213456101149017 -0.327899689932286 0.0667573152586839
-0.204665205483651 -0.337374817316693 0.0742010544289437
-0.202970800348046 -0.339417137517491 0.075568493751538
-0.197737882772436 -0.348581146131255 0.0789016158217106
-0.192926873485186 -0.35999308627756 0.0810001613286103
-0.190185858848007 -0.35209375873397 0.086737998521377
-0.183583773501193 -0.357960383031744 0.0915187541111752
-0.174670970620334 -0.37048220215077 0.0961195906531505
-0.169453588186901 -0.37177781901166 0.100531715365552
-0.165882625066539 -0.392006944074395 0.0981782276417753
-0.163331083554625 -0.392276250996188 0.100437166020815
-0.15081148362661 -0.401633451801844 0.107717464410467
-0.148939743653125 -0.403305160682958 0.108548604578964
-0.142676302870429 -0.403746873590222 0.112627582660589
-0.136355603852364 -0.41475945656851 0.114082397171782
-0.133777281286914 -0.427019914696305 0.112774587213906
-0.126998155722712 -0.425152986065268 0.117798519501099
-0.120003197445393 -0.442297133281678 0.118237929660504
-0.118753622925775 -0.452700597508095 0.116497825266064
-0.106388399138837 -0.46768489010265 0.118523967761494
-0.106509558236358 -0.461548114528092 0.119917711443346
-0.100311129287759 -0.471907222627884 0.120342286490193
-0.0889729205268461 -0.486604369922781 0.122123458869883
-0.0788964519293591 -0.491406298142904 0.125657863392904
-0.263120360818651 -0.241205023819479 0.0169363957844472
-0.261638189333446 -0.255349870470697 0.0150556408805003
-0.256649802611122 -0.250590693065391 0.0255273582643583
-0.255461627660466 -0.259475348620993 0.0247849906210552
-0.250101820444209 -0.265299578352588 0.0325089518179818
-0.244884810760206 -0.261487586962832 0.0434505033770233
-0.244343913632909 -0.26853763745593 0.0416158395155351
-0.238522255781327 -0.27178035072952 0.0494218526571689
-0.235434623776623 -0.276897948195129 0.0522730947632118
-0.235039874906675 -0.279549605052134 0.0519043563908558
-0.227513468533229 -0.295126591843239 0.0579883191894379
-0.225864224157489 -0.298526594762935 0.0593257876388163
-0.217528772912557 -0.304266418521383 0.0693043352788198
-0.21815630736934 -0.296082743935891 0.071235582081828
-0.211360125996669 -0.300819005925105 0.0778055973826924
-0.205712603381957 -0.310993769245703 0.08118176842054
-0.204183274741793 -0.321322606960504 0.0797722293953298
-0.199310283232566 -0.32769684979797 0.0835488996210344
-0.197602383416557 -0.327883214373055 0.0855105426191415
-0.186682729515922 -0.338474006735696 0.0941476427181381
-0.183459566456022 -0.349666435205227 0.09394858274691
-0.181793502678543 -0.349459138500934 0.0955198169417933
-0.171741118086148 -0.359098374966638 0.101957795567125
-0.170821067849409 -0.361065984500395 0.102243823979246
-0.167312590335697 -0.365335871456464 0.104237812220624
-0.160750756748771 -0.384631748105461 0.104920887608849
-0.151766224735624 -0.384751988196967 0.111330653160709
-0.149490866804601 -0.389378151078771 0.111687679172556
-0.143107814318519 -0.402500883425952 0.112652727886111
-0.136111891191571 -0.407185263988699 0.116153141101784
-0.134217269964994 -0.412498794761001 0.116082328557727
-0.124052186150228 -0.417900082323236 0.121522338802228
-0.112895672555219 -0.431015714961844 0.12425717720687
-0.115210646931037 -0.438547198833268 0.121434529149058
-0.100023413302137 -0.447704406145076 0.126201021125042
-0.100450828061951 -0.452400083210854 0.12490384149417
-0.0913833517272937 -0.470002950838568 0.124928862501797
-0.0878258860224902 -0.469702970800407 0.126648081756315
-0.0773173410061468 -0.48713247982507 0.127399279555875
-0.0687207592292008 -0.481760258836971 0.131338864358803
-0.263597545277341 -0.228842030765759 0.0210251083346521
-0.261817033599322 -0.229699876832946 0.0241752995887335
-0.256060231561308 -0.236849706104076 0.0324763411460213
-0.256210252798959 -0.235047349355793 0.0329466408658002
-0.253219402437664 -0.237306177085542 0.0377960692103425
-0.248461563409682 -0.240492243183479 0.0456825844818564
-0.246865913457575 -0.245760796884292 0.0463410104483434
-0.240689118837457 -0.259422600760128 0.0507460952688646
-0.238362621218275 -0.270018702995065 0.0503378530286371
-0.234940530043016 -0.261266799870279 0.0589691768042654
-0.229657372140001 -0.266582233041503 0.06515314178129
-0.228197981368953 -0.273096133392299 0.0649474809781918
-0.222935221803761 -0.273110626734426 0.0731105277810656
-0.214430031903809 -0.285799873118474 0.07919101966774
-0.210773153465948 -0.295943871344215 0.080159022165846
-0.211845436276274 -0.301772915381508 0.0768997178033596
-0.204783928528451 -0.298887690774162 0.0863646834727957
-0.201247796792789 -0.30845441662445 0.0873826266538036
-0.195331436756219 -0.316737990812706 0.0916959212294446
-0.190184497345843 -0.317699385937344 0.0969220059806588
-0.183154964585104 -0.332208614842283 0.0991023000051857
-0.182865213868845 -0.326330531051256 0.101037039632034
-0.17673015453268 -0.327900849830326 0.106153606909474
-0.171824081456565 -0.346099609151114 0.105513790977922
-0.164661774338342 -0.350838021009251 0.110695747740932
-0.161878154563522 -0.360076031944628 0.110643429381768
-0.154340512991842 -0.373197668419997 0.112626170297107
-0.15149918256149 -0.372263566244752 0.114742349628468
-0.140206859689171 -0.374397900405108 0.121675484894128
-0.134432071472885 -0.392548213881246 0.120963549670522
-0.126578128766691 -0.3998964482022 0.124367035720599
-0.130279727520515 -0.397115001953239 0.122591230908763
-0.121137715338519 -0.413502714474848 0.124579673477711
-0.117157358136299 -0.415864403509866 0.126021336544273
-0.109372358381803 -0.427347098322225 0.126723141243296
-0.0986457160431469 -0.446218851366377 0.12717725424854
-0.0935745431180011 -0.449213424754843 0.128783653199175
-0.0913141602298227 -0.452160820332874 0.129121039649795
-0.076161939241529 -0.461260324000934 0.133885134761092
-0.0698866975349535 -0.471067907931066 0.133489055973288
-0.0639627216469078 -0.479390165594599 0.132991950689909
-0.0552753922686948 -0.490529224347124 0.132504426770496
-0.0512851626597015 -0.49601430764427 0.132196918270963
-0.260332094729981 -0.214064742409115 0.0331750355385109
-0.262084566911183 -0.216473604528135 0.0288065482899184
-0.260450176226218 -0.218729352903081 0.0311259552540949
-0.253941831740922 -0.22702166453801 0.0406311786095826
-0.251992348600296 -0.22531480974811 0.0451116227115968
-0.247555165994195 -0.231012361425332 0.0508655432895331
-0.240304862349184 -0.235194715464909 0.06063795776184
-0.241224939985915 -0.236191563470139 0.0587507034469955
-0.238553837055983 -0.245519812692568 0.0593339339201586
-0.233339928253837 -0.253539700099903 0.0643845658396103
-0.228047643615143 -0.25525995498581 0.0721009026714636
-0.226871717235346 -0.259655832541682 0.0721041804301441
-0.222544474967671 -0.270319020172655 0.0746676296182519
-0.214061909386226 -0.265323705845 0.0866181262783304
-0.208574132359572 -0.274656498822854 0.0899972528012949
-0.205945171785004 -0.28281714503382 0.0904001860505963
-0.205783082459128 -0.283719919396676 0.0902899349257216
-0.194802385574531 -0.294378880068973 0.0997682199494897
-0.194751695080902 -0.295926126056091 0.0993491957223101
-0.188583392803705 -0.303872219226708 0.102515873735056
-0.184429862504298 -0.318538326879048 0.10185065188872
-0.178740271992259 -0.314780082511056 0.10810133663808
-0.170893692788548 -0.329985357101552 0.110854638966878
-0.169025712587001 -0.327701456520629 0.113191190160291
-0.163439609702186 -0.347723365157175 0.112675982091883
-0.161832582326333 -0.344822458481821 0.114946082734527
-0.152334194510199 -0.357675535307215 0.117875553406462
-0.149099781436344 -0.356721740562383 0.120256819912634
-0.136485331475217 -0.365280275347275 0.126441725413279
-0.129848146937965 -0.377655313579258 0.127707076696344
-0.12722258668164 -0.381248491947024 0.128536632438953
-0.121844118298851 -0.390049829292886 0.129871978738791
-0.112881440183119 -0.397751163548602 0.132167646762176
-0.107068310626957 -0.409753136685976 0.13196166889637
-0.0983834318171204 -0.408668334765689 0.136099080476101
-0.0958407898532654 -0.423569660624703 0.133752807490292
-0.0857294191154637 -0.426056894821771 0.137693140431965
-0.0792964739317937 -0.444323096684221 0.136434399507046
-0.0720838133853382 -0.453043770985347 0.13713983371847
-0.0641774030481308 -0.460765164936091 0.137225258373044
-0.0615862391822615 -0.462509860161494 0.137428565408001
-0.0497961971828412 -0.485308520724423 0.134972785587158
-0.0414048188743263 -0.482173780938177 0.137651287853101
-0.261851717615268 -0.195935717391907 0.0381410330844877
-0.260590375415919 -0.196693861529394 0.0404030925348765
-0.255156850213662 -0.204457353089745 0.0480823225926848
-0.252277595249723 -0.214165149681734 0.0495831088098749
-0.24681239669833 -0.212858597984065 0.0593448219576836
-0.247477282499989 -0.213965799916405 0.0578223247515036
-0.243327820108642 -0.226381185321238 0.0593963600626202
-0.237922827158783 -0.234368020313412 0.0648043962829765
-0.234613986870842 -0.232280632119073 0.0709771335386942
-0.230310980571198 -0.236476811447472 0.0761695763066187
-0.226197217594898 -0.243018086039941 0.0800959437811503
-0.221246733787361 -0.24241882290395 0.0862293854369372
-0.217449914351352 -0.257938571641109 0.0850945294477056
-0.214560894688656 -0.256526403881876 0.0890691418148132
-0.20997851740557 -0.252969665684288 0.0958552995116707
-0.205867471706233 -0.274461308570269 0.0933232378155752
-0.199001034673104 -0.273611628401354 0.101883414686782
-0.194373592200051 -0.289181166972849 0.1017001330732
-0.189542936628004 -0.293463129926657 0.104770521508112
-0.182044985044424 -0.29169673446539 0.111945795628536
-0.181519119201663 -0.297635325078226 0.110712632742455
-0.175845724933192 -0.310001639567076 0.112142171793334
-0.171498636804818 -0.309936147143171 0.116075291616528
-0.163203680268672 -0.317966865629672 0.121102293020196
-0.156688084512168 -0.331697047707631 0.121717708268734
-0.153818745031397 -0.340842737846017 0.121170849556043
-0.144447611090727 -0.334987817611736 0.128812477015651
-0.141090496612587 -0.351340656122721 0.126892762699494
-0.133604610852889 -0.353011639180489 0.131382648967265
-0.134887110622859 -0.361514651907016 0.128450711024501
-0.124494634099054 -0.365489536735513 0.134323371730195
-0.11760360317978 -0.376730511352051 0.135121744219914
-0.111230724189238 -0.394794343182306 0.133697562047066
-0.108421529307262 -0.397908396859285 0.134125338896558
-0.101107463843076 -0.405846600023833 0.135540516361651
-0.0871468393639094 -0.412645096082148 0.140194414931736
-0.0781478538573433 -0.425122908503943 0.141301901832289
-0.0711457646790222 -0.438486928508607 0.140601813310153
-0.0641703717129591 -0.445252963687647 0.140687469451277
-0.0633807822335587 -0.44850953978942 0.140141520675939
-0.0533728573459141 -0.453190962522316 0.141385689713226
-0.0464815488641727 -0.474572804614056 0.138183597541431
-0.0365324719897699 -0.482811223455319 0.138649465869207
-0.0238452170725892 -0.489101992757422 0.140198966398979
-0.015119347286331 -0.498595775600207 0.137984296484795
-0.263423344526902 -0.181711204309459 0.0412609510990046
-0.255606071289992 -0.193653114079701 0.0521135870268719
-0.254857850462398 -0.19619695087407 0.0524938979895215
-0.252770055819473 -0.194329385950383 0.0573735144376301
-0.249155960692776 -0.199726207155177 0.0609665263322869
-0.242043796459568 -0.206396992872479 0.0696574147053264
-0.236590790290114 -0.210274784764119 0.0768282171648742
-0.236395627889238 -0.213301308490392 0.0759002444546846
-0.232811711674143 -0.211841496383424 0.0823419296131518
-0.230736173342687 -0.226721685801611 0.0794881733788186
-0.228495284502697 -0.22644702169605 0.0832013710068539
-0.223320332143009 -0.238308795216754 0.0852515188391479
-0.214451776845949 -0.238299383236815 0.0958696781361085
-0.210477753155753 -0.245777397894172 0.0978896815438572
-0.207291475220016 -0.2527542919608 0.099150215637778
-0.204679291829235 -0.248581075835572 0.103803853145825
-0.199304392264643 -0.263384915588383 0.105054823244368
-0.192567142411445 -0.271744474873835 0.108758029126871
-0.188451949343227 -0.275071770686219 0.111336481449068
-0.18416379333022 -0.277949186320905 0.11420839347187
-0.180469627313279 -0.280965578991055 0.116513780365178
-0.170968018370145 -0.29187324719383 0.121748083020906
-0.169023471634044 -0.294511245216736 0.12272216839182
-0.168005194366758 -0.300847011685238 0.121813242188335
-0.158950242790076 -0.317038549649059 0.124114405504199
-0.152230308128823 -0.315906097336707 0.128710563828532
-0.13994926280897 -0.332130708037548 0.132492927654805
-0.136530981551482 -0.327978029146648 0.135812626826102
-0.130970549748611 -0.340335973427391 0.136229584599352
-0.125661799716167 -0.351385059952307 0.136983963402006
-0.123719415133744 -0.354728671085102 0.137432171680555
-0.114011706605887 -0.359868772211254 0.14074999226539
-0.110559908378655 -0.369412846255775 0.13992910169345
-0.101270551818746 -0.386730637173289 0.139961233745426
-0.0930083264937429 -0.38957274659301 0.142927782778427
-0.0822919325673879 -0.398356897841069 0.145583120567014
-0.0863683750948014 -0.399529074474415 0.143517319415617
-0.0726755717960467 -0.416804229526267 0.145166730917953
-0.0643374716295973 -0.431124676654571 0.143866758873293
-0.0530209062877501 -0.439198233267905 0.144587797005257
-0.0477715506458091 -0.446335184045513 0.144196007562911
-0.0407761997877052 -0.466800116980866 0.141230152602527
-0.034897078863723 -0.468236877622568 0.14225402391175
-0.0208790552063225 -0.474014337692354 0.143594632228312
-0.0128897086580424 -0.482834202821737 0.141483597708794
-0.260755556196513 -0.166600586206787 0.0534546931525285
-0.255600660657747 -0.173500395071099 0.0612707630975923
-0.25433718138919 -0.17038039452551 0.064608860966455
-0.249448894626247 -0.184131826111354 0.0668477700882028
-0.24833052903071 -0.187048168319888 0.0674547593289872
-0.240231662552098 -0.193624979492435 0.077847784924505
-0.23982484228061 -0.199135304045059 0.0762336001894101
-0.234299937399366 -0.200959735465331 0.0844214275683845
-0.230121001231716 -0.208893942334245 0.0879115434077628
-0.230629710833229 -0.205337495775343 0.0885550636162914
-0.226316282971912 -0.211756632732374 0.0913688808175654
-0.216983429580808 -0.212164893973627 0.10218376629186
-0.211357301475879 -0.232587298523971 0.101562226664627
-0.203897252098167 -0.236220369147298 0.109076717898528
-0.206532739122207 -0.23765306807026 0.105477360245377
-0.201692461034288 -0.244212754059381 0.108891431396112
-0.199891440189596 -0.246402114895425 0.11024921854953
-0.186809955358378 -0.252836845802173 0.11950890211722
-0.184633587552398 -0.26494960900779 0.117874747941796
-0.178023634502683 -0.265868151191555 0.123304200082291
-0.176190449734022 -0.272100052631226 0.12306332065494
-0.164033493125254 -0.285019954912191 0.129410012537594
-0.166113334239578 -0.28581440729283 0.127801629181772
-0.155611454763195 -0.297950092490651 0.131273172456828
-0.15531864676345 -0.298778714414769 0.13123592209014
-0.152588555638436 -0.305950908377846 0.131037638913198
-0.137710147575983 -0.312795617643486 0.138779438418254
-0.131678063498608 -0.321816347131043 0.140432932599964
-0.127948043035894 -0.328767252381771 0.141118688817479
-0.118985511021753 -0.341349092566811 0.142904700077667
-0.118104525423666 -0.34917824490108 0.14146682430249
-0.108992111446094 -0.345212655623047 0.1463183065465
-0.104862931025518 -0.3586690104183 0.144974946642081
-0.0978481354018574 -0.36711427653187 0.146039865018929
-0.0872830786439874 -0.380418811679059 0.147585173919569
-0.088556881725158 -0.385698899337099 0.14579031896484
-0.0721508198358557 -0.391136231411827 0.151060096484058
-0.05944681177478 -0.411277223088476 0.149340207648528
-0.0553584400548382 -0.417149988844905 0.14895643520982
-0.0560259840428446 -0.421484460713719 0.147850509093296
-0.0409725488759931 -0.432022994230126 0.148884642382259
-0.0287005093786566 -0.448519425795526 0.14806976164961
-0.0225549638711807 -0.451023271268168 0.148629622060432
-0.0253009080958733 -0.458816482704038 0.146549997823641
-0.00410973827464861 -0.49252197430542 0.139164756272626
-0.259399440097217 -0.160184202080248 0.059227934974304
-0.255766231237702 -0.157814976132892 0.0674784653692878
-0.250351038746947 -0.168546616251066 0.0718153763681133
-0.248197589584868 -0.177858108354017 0.0714599104831237
-0.24331956055395 -0.168866970485456 0.0830613848169616
-0.238904847017282 -0.172648116284712 0.0886457742479457
-0.237142205580296 -0.189028780033543 0.084742548905071
-0.234257410025429 -0.189198418552762 0.0893406775276658
-0.231796364255526 -0.188241753620417 0.0936942914875781
-0.223821494571225 -0.200806106268731 0.0983822755620448
-0.219465611715124 -0.197631724419048 0.104684123329686
-0.213535720456949 -0.206247945023739 0.108440696566695
-0.212845348763376 -0.2086769659224 0.108346547250484
-0.209377473355856 -0.221081425489722 0.107893342457058
-0.202519773378678 -0.220415441491058 0.116194194706664
-0.194944524772323 -0.222723634051827 0.122080418419974
-0.189639168290217 -0.241769628642965 0.120543646685399
-0.185197726608283 -0.24492049081388 0.12332734729921
-0.181851492769785 -0.256249173850447 0.122781928383918
-0.176377026156689 -0.2542281456756 0.128056721415745
-0.167641880133773 -0.265000870291323 0.132456294666999
-0.166096483092105 -0.264852209334491 0.133565748732744
-0.165234940684509 -0.268265882187082 0.133169085852711
-0.154414711600462 -0.281606919984132 0.136317482825913
-0.147401336347347 -0.289313277631965 0.138786198860513
-0.148587588523398 -0.290136129494241 0.137832392526938
-0.139790728190164 -0.306532977493043 0.139000314513572
-0.130645101059083 -0.31216064928257 0.143463167671108
-0.121633578540831 -0.317635503638093 0.147434556717098
-0.116927239237631 -0.332735725083916 0.145823384761051
-0.109934304647316 -0.344592112448942 0.146055973602885
-0.109419795524558 -0.338569959965167 0.147709739945506
-0.0978696921966712 -0.353654750819332 0.149155807438199
-0.0932069014768757 -0.3574879700568 0.15027707189772
-0.0871925163078255 -0.368439344210585 0.150328550709463
-0.0792631404098977 -0.372365245982658 0.152837354344459
-0.0759381437780239 -0.384439915806182 0.151630833299802
-0.0589718024908228 -0.396769669653415 0.152693039676713
-0.0558052553172478 -0.398448811802717 0.153013646380993
-0.0475857832665748 -0.414291195557982 0.151322794592964
-0.0380780264755997 -0.424154038295024 0.151268028193478
-0.0271118202710372 -0.43831468117584 0.150590057801357
-0.0196610258433231 -0.458774330378018 0.146882517691048
-0.005241044917665 -0.46475908933485 0.145362451525204
-0.00280770389493967 -0.466736339478817 0.144892975270685
0.0141531877584741 -0.48859172165443 0.139744237802764
-0.258958664358627 -0.137283680867633 0.0704543552555279
-0.25206297018487 -0.153503746349293 0.0752489453598234
-0.247604795348003 -0.15598585617836 0.081442708930217
-0.242494795342782 -0.15670774886549 0.0895211761681844
-0.244794845322132 -0.15321681071281 0.0872274725266025
-0.240652018110352 -0.163551697103509 0.0896428094913144
-0.233607678499368 -0.176477991830438 0.0957201650241221
-0.231438911956849 -0.165889637531927 0.102646440860471
-0.225242618616714 -0.179295891414101 0.104612991328279
-0.222160748392061 -0.178735532684009 0.108399389296672
-0.216994165866239 -0.187195991841546 0.111268812644007
-0.212805582199213 -0.190947597312281 0.114769035319047
-0.208196126446054 -0.19758866667959 0.117729032623523
-0.20475414310519 -0.206501617951016 0.118535699111522
-0.199991447198969 -0.207504882106467 0.122701137281903
-0.193612861215489 -0.218068004573924 0.124527953299311
-0.189323653272052 -0.229613050655533 0.124698988082936
-0.184662807501636 -0.22894820457392 0.128771312907956
-0.176571383237163 -0.239427210744052 0.132421578188075
-0.178326682318201 -0.244425971943278 0.129350099455651
-0.172103093328236 -0.24789252841501 0.133554007234779
-0.165202446071329 -0.254192489547328 0.137014182144709
-0.154246521009948 -0.260128720511616 0.142155228872745
-0.153880423380266 -0.2778951672374 0.137556632531905
-0.140854031870682 -0.273999083198564 0.146642001872491
-0.140709404082553 -0.285454520523821 0.1438831175791
-0.134302940131567 -0.29627241612426 0.145214363998157
-0.121767525041754 -0.29778956462306 0.15206719689644
-0.118701659836576 -0.304071291032828 0.151876288650384
-0.115500354874802 -0.313531368499978 0.150983632057374
-0.106118912134968 -0.327187947280817 0.151677613594347
-0.0957338320164779 -0.334891068828624 0.15434668719475
-0.0942222896052875 -0.347947010699315 0.152054446252811
-0.0881107275640971 -0.349594217866865 0.154308228386903
-0.0797500910634893 -0.352956861541296 0.157133844661278
-0.0709575049743117 -0.364834185774716 0.157192479729959
-0.0604916150258693 -0.382092594943097 0.155595707903313
-0.0575789497994041 -0.382102321396382 0.156228804279661
-0.0532216331586001 -0.393033912023221 0.154770310818293
-0.0438843047288642 -0.398430684084118 0.155617548382887
-0.0281867563388541 -0.421904809693381 0.153972796059715
-0.0202125095255405 -0.427168327928159 0.153749677823827
-0.0228450087530195 -0.432993929555999 0.152514951547295
-0.0109515457229926 -0.441078511657029 0.150620554299575
0.00551760651559147 -0.463998846442146 0.145378770755172
0.0136243139578798 -0.466476689204076 0.144719427754905
0.0294455746733374 -0.493622842416042 0.138362348893073
-0.252685294727672 -0.122248410379604 0.0874121628693954
-0.25187128697936 -0.129213517010709 0.0857944001982037
-0.246892286375936 -0.147211988044564 0.0863321700608325
-0.244316606534137 -0.146706131634469 0.0907728840538172
-0.23949224603853 -0.147814635862632 0.0982187353227015
-0.238875703086374 -0.145874208522553 0.100053164232707
-0.234543665043425 -0.152539828730417 0.104237848605301
-0.231446831180589 -0.15836780786205 0.10555961136099
-0.22375858576145 -0.164230625009056 0.112184521844033
-0.219315690732522 -0.168361025930056 0.115724506994219
-0.215221501200683 -0.178544421695842 0.116509027337879
-0.210678844024754 -0.183688796659942 0.119799336217729
-0.204014674378554 -0.190524805209929 0.124987393982195
-0.202497375981268 -0.19173243242083 0.125842701158172
-0.196858518069127 -0.193286362171943 0.129991175581073
-0.195305477192768 -0.201969418597996 0.128405107130037
-0.180703736745911 -0.216514122127763 0.1356699698046
-0.178907253845279 -0.215557859622705 0.137471353569754
-0.174861211797175 -0.232411128480106 0.135865000333496
-0.172615025320266 -0.226142753067561 0.139534740123513
-0.165642810053802 -0.242704027028779 0.139837957660629
-0.160477577205828 -0.243932429935745 0.142584319567253
-0.153176373480742 -0.247905523009147 0.145885555658996
-0.151243543448184 -0.263211845691197 0.143168631050816
-0.139121704885815 -0.265143051052215 0.150117021186842
-0.135384333777697 -0.281288140646592 0.14820688957449
-0.133554001455082 -0.281756177762009 0.149228473648771
-0.12387327040885 -0.298731881022469 0.15097877815255
-0.115821600460602 -0.297037395657472 0.154688288030917
-0.111413506054171 -0.311924226240132 0.153080713285217
-0.100960245496846 -0.314227665099585 0.156921120010611
-0.0949534386954675 -0.322636215100293 0.15744516923566
-0.0870471060873579 -0.330413580286224 0.159037934661457
-0.0860213157086272 -0.333337119918976 0.158820609317839
-0.077189205187192 -0.33928542649116 0.161244315159861
-0.0755141960451852 -0.351146908290541 0.159207694304711
-0.0545354061469015 -0.363588152077614 0.160960167642155
-0.048505161802334 -0.371489276400288 0.160520620697752
-0.0385061067070914 -0.381830647227417 0.160448372591566
-0.0400095875889233 -0.392329757819309 0.157806962798062
-0.0285297000986648 -0.398326447449864 0.158989289737657
-0.0244387632792532 -0.414573166595283 0.156428098913014
-0.000794623695491872 -0.431911367376913 0.152493537918719
0.00752551997796959 -0.444646742069958 0.149611136025614
0.0117480509599255 -0.460324675304301 0.146100197942359
0.0264988709869051 -0.467446756747097 0.144325093869594
0.0297992782354643 -0.476681635913811 0.142157359510811
-0.256134234522386 -0.119937360398229 0.0827330368911163
-0.247876940587632 -0.123623816193775 0.0947185769311358
-0.246055759087834 -0.12229240053479 0.098290226459882
-0.240941353116215 -0.128353555206206 0.104129857559622
-0.241900655458384 -0.129108975215618 0.102219954649255
-0.235062413657055 -0.129963444760447 0.112530381414008
-0.232523035349427 -0.145694709672551 0.109190428636792
-0.226033629190946 -0.149953056815574 0.11492604769503
-0.221210663964808 -0.149822411081616 0.120372177421547
-0.219099901705053 -0.156443421866053 0.120357572687261
-0.213663059211669 -0.158469586690588 0.125716429392867
-0.208316208578637 -0.171668997866425 0.126962301719427
-0.203973145747304 -0.180435238418223 0.128349223135642
-0.193884239409704 -0.186083175419201 0.134507439391277
-0.193769078213055 -0.186087670309945 0.134596865618613
-0.188404567903965 -0.196523274511044 0.135791037175339
-0.179633800596133 -0.203280735247914 0.140737700746587
-0.177025739036532 -0.211706231290322 0.140300073889867
-0.169072683061514 -0.209179703311916 0.147047326809914
-0.163640427494027 -0.221229683704141 0.146957641640009
-0.16405738370848 -0.227802468912142 0.144900437959421
-0.156236463961844 -0.2303166789009 0.148878153776354
-0.152228319370955 -0.24456203300055 0.147338389971266
-0.148180362890192 -0.250159405700757 0.148332755211821
-0.139058051550546 -0.255217182500007 0.152571674253094
-0.127983193132132 -0.26185853996643 0.157595897772766
-0.125502108011358 -0.268483660122486 0.157474826112291
-0.122615979393751 -0.278322706804447 0.156331223520053
-0.111055855510111 -0.287866221652821 0.158819362783207
-0.1044492755535 -0.296549906780004 0.159476085924904
-0.0985786966323029 -0.30039144060064 0.161049758200203
-0.0959078073255666 -0.311321982132065 0.159724821622512
-0.0853772688444839 -0.320494590362524 0.161973212397818
-0.0821555757938746 -0.317818531575362 0.163961049801397
-0.0668173932552835 -0.336257686371201 0.164354986403089
-0.060169019641764 -0.351887105761933 0.162312924343713
-0.0561225886125929 -0.344905386341904 0.164711256699531
-0.0457580277307969 -0.366724858695131 0.162144563432144
-0.0384902317243537 -0.372730271822269 0.162381926292127
-0.0292436194950804 -0.383212894859922 0.162163898825261
-0.0243450773537409 -0.385535689964703 0.162720415450932
-0.0041548193842475 -0.414346071294458 0.156347918918236
0.000763856096733824 -0.424301222502779 0.154128373526043
0.0107117168224701 -0.428143342980061 0.153178100666316
0.019833596306935 -0.454439215851853 0.147282415765088
0.0306264322679057 -0.446883704742921 0.148794300536222
0.0547138510696591 -0.476493196050361 0.135400954588736
-0.254319790430879 -0.101253673485176 0.0936948961592917
-0.247605010035153 -0.110083311843245 0.100986530991129
-0.243664237118335 -0.10936413153883 0.107806077856406
-0.239873890893938 -0.112742267859853 0.112613373707601
-0.23549680690004 -0.114571412695139 0.118173568710246
-0.229880173790956 -0.125429278512787 0.12017336548009
-0.226770430981422 -0.125693938451916 0.123570271489274
-0.220926367696088 -0.141209741227685 0.123970417741964
-0.222679110364055 -0.14139594807654 0.121922202067249
-0.214682375915737 -0.155025739854156 0.125811987229852
-0.214020259224047 -0.152079216445873 0.127611291409122
-0.2079504564503 -0.162536321401152 0.130651238949357
-0.202559399048347 -0.16698318269853 0.134003145427977
-0.194539665770232 -0.169020777371254 0.139651479987589
-0.189601955047633 -0.174321854349914 0.141764328095822
-0.183540819820147 -0.176490585700175 0.145821146049842
-0.183721649503479 -0.185195337212754 0.142772253826821
-0.17096245153361 -0.199985440423652 0.148527237993774
-0.16763670271355 -0.198017677722046 0.150983485223124
-0.161030921423969 -0.209588180884905 0.151545905260581
-0.158678032331336 -0.208169799024417 0.153290958330349
-0.148276384880416 -0.221631483120462 0.155711087651062
-0.149057958362445 -0.228269032641159 0.153652665926422
-0.141304637420054 -0.239632769290682 0.155225307408772
-0.137009873923571 -0.238799544423112 0.158021029252026
-0.126230202770864 -0.250926584835663 0.161309097985987
-0.121645342170845 -0.253663315192699 0.162525576858633
-0.118241282889526 -0.267588703272215 0.160605205903327
-0.112325360983187 -0.270373781059561 0.162331273740908
-0.100698865006776 -0.278624585761475 0.165224028735822
-0.0941624406733485 -0.292013935201362 0.164777188643229
-0.0911387083042037 -0.303401861520825 0.163468204627947
-0.0808082489318748 -0.305920974103074 0.16719603438284
-0.0663184573749927 -0.323497578886231 0.167214852791037
-0.0669823149789637 -0.32871189678288 0.165950533883624
-0.0635392607497176 -0.327142390550542 0.167005564914233
-0.0500132663847472 -0.341158477734479 0.16679107803508
-0.0467248766638042 -0.343205975513583 0.167032693542354
-0.0358984655708746 -0.357802097149083 0.166189542706103
-0.0340600344755268 -0.365703976524978 0.164857481060067
-0.00915324803398699 -0.387972434584782 0.16206302315765
