ply
format ascii 1.0
element vertex 831
property float x
property float y
property float z
end_header
-0.136740564353409 -0.0750041008887465 0.202822631348834
-0.1342560290494 -0.0736417180453042 0.20717419035808
-0.129915359308404 -0.0799109596043084 0.21714776475738
-0.124060851919863 -0.0770736095405582 0.224483334991448
-0.124269383574238 -0.0801578114948328 0.22560896911386
-0.11824695662195 -0.0803644800513187 0.234842589325025
-0.110881089044465 -0.0780851590620407 0.242633386533334
-0.108174313269036 -0.0756127454872747 0.244304890487539
-0.0992112793765127 -0.0729081182720749 0.252972362579194
-0.0994525865998844 -0.080988392346385 0.257314400339088
-0.0962068271588275 -0.0755253220546598 0.257444416097035
-0.0883898345585463 -0.0814727471388851 0.266420186512577
-0.0850310061634475 -0.0777669857844792 0.26825222187952
-0.0758237119188341 -0.082779003443718 0.274894714186058
-0.0727150391407624 -0.0826988990204149 0.276772171698784
-0.0657238716134177 -0.0781119088665627 0.279289948699177
-0.0605400555459502 -0.0815966921470247 0.283025134049649
-0.0526814536383327 -0.0802487689907227 0.287780376996371
-0.0474395096126768 -0.0820465303034242 0.292401848836893
-0.0369415234689509 -0.080239877723013 0.294926598029909
-0.0316826679563727 -0.0832446686263098 0.296992034577052
-0.0142213175892933 -0.0803127914404364 0.300341435344549
-0.00929792882563432 -0.0783483849529228 0.299128219256608
-0.00353241943131403 -0.082258141295026 0.29904608082579
0.0161619797246433 -0.0844824205808629 0.300341814117791
0.028136721492708 -0.0819618991877249 0.295520610746693
0.0444426401418486 -0.0864306777539845 0.29195353621221
0.0620591172776244 -0.0803753482628889 0.285761876863647
-0.156430981716558 -0.0685744223070545 0.141009226516267
-0.155192429186588 -0.0701798385598853 0.148419869859707
-0.15196038657806 -0.0681636671031514 0.161920904194109
-0.149698187724222 -0.0661229357611675 0.167619074761657
-0.146759842195229 -0.0655043233157276 0.175999748656117
-0.145474127996616 -0.0675537652591976 0.18078504257795
-0.140640278102321 -0.0634395197879159 0.190053311482976
-0.13688872211252 -0.07134525845036 0.200945682733726
-0.133382620819809 -0.0665375412846032 0.205816538532132
-0.129542923629354 -0.0640584661744186 0.211320808206224
-0.129562772260574 -0.0653974052981 0.211829770769733
-0.125745339433483 -0.0709623732205791 0.219590695780795
-0.12068432779578 -0.0656123772745746 0.224734630178203
-0.114372596227975 -0.0629026485152975 0.232180328292032
-0.114526833129086 -0.0719037450003387 0.235503597275357
-0.107971162311913 -0.066238190046963 0.243644387152633
-0.103808907125628 -0.0651535595059798 0.244404976551829
-0.0997566883477072 -0.0676574749500809 0.249730218112593
-0.0896813983010378 -0.0710224690390329 0.260616142890704
-0.0885333750387337 -0.0699855229150883 0.261006051231106
-0.0808620631696743 -0.070594810918767 0.267985411627544
-0.0772512057772583 -0.0717728192586237 0.27180000552858
-0.0725594863919667 -0.0688473948632671 0.273308623945353
-0.063994947321839 -0.0715068209424512 0.279029816173508
-0.0562731376645299 -0.0667555246708711 0.281922770975476
-0.048202505995898 -0.069890701529149 0.285779261569691
-0.0458754509403349 -0.0716240706074429 0.287175740707012
-0.0311366818171801 -0.0665191130173521 0.291906923391674
-0.0227536201329168 -0.0717834005424298 0.29629202128498
-0.0189227636089749 -0.0662267262449413 0.295377132731485
0.00150519230633395 -0.0676602048637311 0.296340099570314
-0.00188562716906125 -0.0682817865809284 0.296359563696686
0.00936508062542304 -0.0691275786724708 0.297606478893315
0.0245891478850793 -0.0747295086735521 0.294466289290048
0.061822205202073 -0.0731677272990603 0.283100716746929
0.0446984288418702 -0.074536922125207 0.290668968292088
-0.15557495056188 -0.0595293150099832 0.140271265837787
-0.154423458267002 -0.0605419163642235 0.146869843531208
-0.150856363150027 -0.0535983582900211 0.158220713373776
-0.148359571549891 -0.0532679875229132 0.16542902774486
-0.147155748656821 -0.0583351583073974 0.171396433831927
-0.144366383427914 -0.0574446207729076 0.179172403479592
-0.139714406359298 -0.053823329574357 0.187745906672888
-0.138559164328524 -0.0609299766826382 0.193094314325693
-0.133975657868463 -0.0577506265812752 0.20081385158088
-0.132505026737648 -0.0607181917431001 0.205026469664306
-0.125719780433482 -0.0546540982844744 0.213014158469136
-0.123170803982586 -0.0614467745714632 0.219457902433947
-0.121630786330715 -0.0624582595366939 0.222082862894972
-0.115694110123082 -0.0573684585388888 0.228515685595158
-0.108384556496003 -0.053738307052305 0.235036618880195
-0.107204121083679 -0.0600447784937769 0.238776075942297
-0.0997900512978456 -0.0626591600045462 0.247728754971347
-0.0979253554651916 -0.0586679431214766 0.248141836581245
-0.0890865800170833 -0.0605495780244468 0.256189515829439
-0.0829315138292392 -0.0549416543388991 0.258966188768518
-0.0832993126052556 -0.0609003003924504 0.260944419329749
-0.0704806587048536 -0.0593189542517856 0.269397015191431
-0.0683149747919401 -0.0546306565530653 0.268898688751625
-0.0600997191282436 -0.0547118407102141 0.273675278109105
-0.0556065302836746 -0.0576845000830628 0.277452769352133
-0.0508958441941058 -0.0579693800975066 0.280378634379455
-0.0427600235746884 -0.0552575105648194 0.282325754954402
-0.0247557268937601 -0.0547255468385284 0.289372290868471
-0.0218240697115114 -0.0592791588902624 0.291734185862092
-0.0207655426469548 -0.0604496891590525 0.292930110700558
-0.0048043811941674 -0.0635681730357872 0.295329092778256
0.0089141940641555 -0.0596209034275774 0.294009150800545
0.023943032939115 -0.0573813408963836 0.291624630412006
0.0391977800188907 -0.0617159375092281 0.288345178154267
0.102048739252919 -0.0572461856002119 0.242078346937221
-0.1533694855856 -0.0494429945388815 0.145084731905786
-0.152134035661168 -0.0510943256540026 0.152244893180748
-0.149468976990226 -0.0483726301256114 0.159822083588956
-0.147695066470963 -0.0467643941058745 0.164158571211147
-0.145246506782007 -0.0461634956914592 0.170876886179331
-0.140138415864041 -0.043543565499971 0.182519519570949
-0.137156301720202 -0.0463174898158574 0.189614976821329
-0.135118129855393 -0.0465694366696079 0.193722653638252
-0.131220171998444 -0.0500656789246207 0.202890232949036
-0.126664652560839 -0.043554082424538 0.207280271442081
-0.123450372353889 -0.0467201686698616 0.213120907298208
-0.120754337773822 -0.0507567393638411 0.218561997412783
-0.11547806903472 -0.0442762787283773 0.223477713180657
-0.115984668608074 -0.0524253931230138 0.226071620818459
-0.108892841737111 -0.0435505123205971 0.230636957003601
-0.102990692897922 -0.0460493645232441 0.237818720493613
-0.0954323311163058 -0.0514315525209228 0.247668335747023
-0.090970799710872 -0.0460369071358287 0.249178220604437
-0.0892388621488098 -0.0485298683814165 0.251489531844992
-0.081541740734698 -0.0451769091708134 0.256326749019687
-0.0724701052459502 -0.0470967418694142 0.263686666975433
-0.0662192265439304 -0.0487045983047206 0.267892727760051
-0.0658857406793208 -0.0498981305986459 0.268536121534946
-0.0585075276997237 -0.0468145661946058 0.271603501930255
-0.0511375610627286 -0.0479089532500281 0.276127509729433
-0.0424752007316556 -0.0502893074393297 0.280382026913344
-0.0286706893437945 -0.044765862880076 0.283671504694014
-0.0310026657393423 -0.0493994179824344 0.284515746123323
-0.0161263283183485 -0.0496659433608351 0.288699326846816
-0.0127051389250813 -0.0518962986908904 0.290390451382707
-0.0125634426907187 -0.0471022785149729 0.299789377271246
-0.00522345429943418 -0.0509316098133188 0.300903974978042
0.0167101561759076 -0.0547106411222187 0.291628913515351
0.0519482226657376 -0.0559561204656942 0.276563344034558
-0.154433477337665 -0.0370427939874162 0.137638347872675
-0.151153318800899 -0.040360295569162 0.152082269730463
-0.149283373001089 -0.0357971572971117 0.157106790277134
-0.144794763952445 -0.0347220822833222 0.168998060081918
-0.145442453720826 -0.040244337491702 0.167398986082313
-0.138668568406314 -0.0397020944873834 0.183718479252157
-0.137592365378476 -0.0371936098371408 0.184983751393603
-0.134958666190168 -0.0351409183648415 0.189822872046135
-0.131876123120294 -0.0421487230655354 0.19805627768667
-0.127894792674637 -0.0363971695867895 0.202703031034818
-0.12543030563126 -0.0399348146126921 0.207624968336277
-0.118010567427287 -0.0365783344692695 0.216753127940334
-0.114058890851557 -0.0389634912482328 0.223314774058571
-0.109539568444073 -0.0368783050815766 0.227507076973809
-0.103327756931071 -0.0345570675224067 0.233171220875464
-0.10353222013003 -0.039562431979211 0.234846464359021
-0.0960488004185536 -0.0347088035096267 0.24089308954495
-0.0883456829059532 -0.0346541159216152 0.247316178051641
-0.0822920044084882 -0.0342107760582399 0.252143676939675
-0.0793591446270021 -0.0425067294934804 0.257132271601646
-0.0704887672804654 -0.0365223576790605 0.261290750031272
-0.0670704198455199 -0.0354962913043479 0.263094169476174
-0.0641255416352095 -0.0391826902962638 0.265792591415583
-0.0577136436375899 -0.043219811258954 0.270766454004987
-0.0513373082967014 -0.0415217251631285 0.273845854363061
-0.0469906849549773 -0.0348354823272584 0.274918317803496
-0.0336647047495782 -0.0440895549017151 0.281514784130734
-0.0247624382145767 -0.0393265659427304 0.284343577159255
-0.0191505873622196 -0.0388404644890149 0.286120896049998
-0.0135785925491066 -0.041758055295696 0.291937293130392
-0.000128601787143728 -0.0391934405582093 0.297758742005516
0.00418265494051309 -0.0393017066333703 0.297787751812923
0.00728581416471814 -0.0410337338397017 0.298251847104128
0.0416865738029687 -0.0420703592440427 0.277412679390624
0.0775857208753344 -0.0383197058398809 0.256618455454982
-0.153805058494117 -0.0238334986078447 0.140911064183593
-0.150598537866208 -0.0313626813663436 0.153519289908621
-0.150257011909905 -0.0295381898298177 0.154386141808455
-0.146810378181588 -0.0317668954226811 0.163583461645194
-0.142911730541722 -0.0281361639694418 0.174144330408522
-0.141357706637894 -0.0290862549803752 0.177855300129108
-0.138134484344598 -0.0330683783375503 0.18390115167827
-0.136957706584533 -0.026221849537947 0.1859505438187
-0.132474257793618 -0.0308504708738359 0.194342902457957
-0.128261762069401 -0.0263865205863895 0.201902017396447
-0.1263194115165 -0.0319713009147589 0.204606510864808
-0.118279098650569 -0.0278268746187415 0.215631984133554
-0.115781859742259 -0.026249861298835 0.219176108242381
-0.113980711155492 -0.0282317601001061 0.221681090720114
-0.102056118971523 -0.0254002786526424 0.234500220824141
-0.100410184375939 -0.0272598540181958 0.236204015888723
-0.0948338554250957 -0.0281086077649281 0.24219613109261
-0.0943087296949063 -0.0253366478394473 0.242784971431727
-0.0872165592250406 -0.025045154341035 0.248508374849663
-0.0783354458727212 -0.0277615661103211 0.255648262332052
-0.076876305871879 -0.0254614654790841 0.257008161782761
-0.0695149762585769 -0.0244400391529745 0.262305168731204
-0.0620699480132989 -0.0247279963755548 0.266969567196857
-0.0559667450110263 -0.0247526588711386 0.270703032747277
-0.049537543535433 -0.0258713110703539 0.274524571141246
-0.038723122807916 -0.0248329895792263 0.279333913787871
-0.034693977501876 -0.0337456146275707 0.280636187004215
-0.0247972724431107 -0.0262680064411817 0.283432777121702
-0.0179501140024183 -0.0291383069795153 0.285367867075261
-0.00840350717234184 -0.0321174003403292 0.294777316742078
0.0038082623412316 -0.025569828512589 0.284723141460531
0.0147984723826994 -0.0262806043375445 0.284623068550005
0.0238582243266217 -0.0272867108084672 0.283550531457938
0.0581890997896732 -0.0310654389662519 0.268464355358122
-0.15202065758205 -0.0222582492698341 0.149168615559992
-0.150214128351559 -0.0197981206881627 0.154288022052831
-0.148402013908078 -0.0201359051914956 0.159201494623499
-0.147370021760399 -0.0194773134072638 0.162047619458814
-0.143351405000827 -0.0167049247467002 0.173134128846423
-0.139197497466274 -0.0168676538556695 0.181639482931787
-0.13777429166859 -0.0157282135616147 0.184371600250721
-0.132905987973421 -0.0158583985918649 0.193665423497381
-0.129044246475972 -0.0205674655842392 0.200790281756112
-0.127281394822752 -0.0199266292905023 0.203209301980184
-0.126235762646666 -0.0199748847468426 0.204646805944596
-0.117232856115438 -0.0200153977554305 0.217262984232788
-0.112448620211657 -0.0161881096521087 0.223718736537198
-0.107553060908292 -0.0219582192490134 0.228779442975211
-0.105739359024672 -0.016634396814653 0.230873122897396
-0.104070513163919 -0.0181929990212875 0.232613811099738
-0.0940768384160344 -0.0169837507143976 0.243273876714342
-0.0928685143231863 -0.0161788569776749 0.244303272181857
-0.0869525850619557 -0.0230334983782833 0.248793769283139
-0.0826801121910222 -0.0227910524062691 0.25235283374319
-0.0725476063128693 -0.0177679857123792 0.260659277279187
-0.0702043633953695 -0.0148856965783515 0.262047148936627
-0.0597660451563254 -0.0180293226449563 0.268374614047256
-0.0528960195267211 -0.0179253704050674 0.272652717462705
-0.0481472430047506 -0.0233990461197033 0.275237261266427
-0.0358798267391513 -0.0167034709710823 0.277960180797332
-0.0299945106956072 -0.016656227572148 0.279496744760319
-0.0265470034913097 -0.024548885157857 0.28255273373609
-0.0142576822049683 -0.0186889490744795 0.282406843344514
-0.00104934773600485 -0.0248309100782835 0.284446744921457
0.00472242193315452 -0.0211958079094053 0.283458354381748
0.0231974625157632 -0.0188185237618035 0.28097686782511
0.0256508029247738 -0.0239371048660968 0.282466449305083
0.0683657559156818 -0.0189247654057623 0.262462849123602
-0.152523557791262 -0.00690770679225164 0.144890652122885
-0.150441992318368 -0.00715610432449091 0.152170571294431
-0.148662095303934 -0.0133774167779953 0.158603868685322
-0.145519761328521 -0.0141430712107181 0.167222210751896
-0.143559090769222 -0.0110796060139765 0.172583053494547
-0.142712723390092 -0.0131612627995917 0.174949734537566
-0.13963459814286 -0.0109305978711305 0.180881273121574
-0.133269210744728 -0.00955801366523078 0.192815024237853
-0.128448190179966 -0.0114235892842384 0.201580262147515
-0.127981426591652 -0.00618951327845952 0.201580380229906
-0.122926988291121 -0.00542844429709116 0.208542531568352
-0.121080355276689 -0.00745453116346021 0.211434247141523
-0.116041191792964 -0.00479338472047392 0.218121575209108
-0.110698772690707 -0.00681043938642562 0.225092558007003
-0.106109599284914 -0.00991882066915223 0.230255242873081
-0.10438177323799 -0.00840339592981917 0.231920550472841
-0.0920831275134982 -0.00524125099833681 0.24435656890289
-0.0933729584604035 -0.00762921951982206 0.243457752992039
-0.0883300025047893 -0.00825435978622043 0.247534855567854
-0.0765222121687383 -0.00627544619933513 0.257083231917333
-0.072425983857624 -0.0067737914238918 0.260429653080597
-0.0632715132961469 -0.0107169588498456 0.266035580925274
-0.0566435421522874 -0.00712349367469078 0.267762574457552
-0.0553516275667638 -0.00523245990385999 0.267612539920028
-0.050687585239427 -0.00967752056555148 0.271244767392345
-0.0414782871390465 -0.00675226067906532 0.273825000291436
-0.0301957915780941 -0.0139168148384152 0.278298698765659
-0.0213444081747133 -0.00615994756844264 0.276347642893225
-0.00879141879359142 -0.00807763225556202 0.278048909027315
-0.00342794621888225 -0.013710585577656 0.28074373254198
0.0170582143691925 -0.012252822826775 0.279340948797966
0.0299826095759669 -0.00817881922417161 0.275949289712645
0.0474277850616475 -0.0115275960411199 0.272272972497237
0.0544796739495264 -0.00936395493797822 0.268377856498214
-0.152545510390762 -0.0013441712644962 0.142793253861901
-0.152190671108479 -0.000999853370899367 0.144363799600235
-0.148820036185552 -0.000635325816820425 0.155055034617978
-0.143091318841082 0.00104929011727863 0.170764209779931
-0.142765292857484 0.00419949749177202 0.170868228571779
-0.140714188767678 -0.0038655026099816 0.1773861118903
-0.135885288680605 -0.000287336198081445 0.185932846037184
-0.13534953245623 -0.00119714425098553 0.187143626823975
-0.1308165322429 0.00293767459291151 0.195084731530379
-0.123562191983051 -6.90629051513879e-005 0.206843454327563
-0.123309545792491 -0.00249954838713604 0.207564394180115
-0.120565295298744 -0.00476119520331082 0.211748524724024
-0.112380863098497 0.00395381818184669 0.222103685655853
-0.107340811524745 -0.00340302844792254 0.228281093550105
-0.103287351477802 -0.00362837205536994 0.23257983427139
-0.0993996642868429 -0.00325948206482954 0.236724142114382
-0.0944340573538631 0.00192993969365459 0.241611194692665
-0.0887083276201271 0.00335348041227085 0.245552049296941
-0.0878055740325061 0.00325906309051187 0.24618639893905
-0.0782984269175308 -0.00196244585503359 0.254591170306959
-0.0764855180703968 -0.000415371077607965 0.255156679063891
-0.0623519909373928 -7.75996746267233e-005 0.262701809226686
-0.0576355566040771 0.00162584308256166 0.264332726915765
-0.0518560379741114 -0.00262487001383303 0.268343896456275
-0.0383029503729432 0.00488741957817064 0.26880683043286
-0.0345146653324793 0.000493975650711797 0.272054174682863
-0.0209699638247861 0.000961945418288548 0.273355222744221
-0.0152556189725382 -0.00225409300867151 0.275113353188192
-0.00646273851670743 1.31636892458491e-005 0.274507886365904
0.0041505172241538 0.0040866084476793 0.272535918375003
0.00794447050800622 -0.000873217793745663 0.274821069363675
0.026151767373804 -0.00104838388041794 0.273495826459796
0.0427092787033079 -0.0020899730334852 0.271139923187188
0.0794205380135456 -0.00176990358203928 0.25202427118164
-0.151115735634496 0.0121491117663454 0.144785762918027
-0.150636772164764 0.00481194533967941 0.148526100528675
-0.146903514760885 0.0139826512936972 0.156675314351783
-0.144289003509075 0.0124058498025871 0.16445147424582
-0.143246190044458 0.00568018232505719 0.169129965915965
-0.140636754296288 0.0134695884186801 0.174052031561224
-0.1363730411667 0.0133609254860174 0.182312970189047
-0.132280281504793 0.0141498678347236 0.190050177686451
-0.129906234464672 0.010690982599904 0.195339929888711
-0.12568754045068 0.0129998984813208 0.2018825515566
-0.12008033361528 0.0134401436408424 0.208916878655416
-0.114106084457096 0.0140408443689373 0.216335314981782
-0.113653745090442 0.00581481949206769 0.220035314040057
-0.108228983518384 0.00699580652145058 0.226309846229119
-0.104929105343304 0.00585292857775936 0.229963973501832
-0.100544170859122 0.00480656749940333 0.234777829575381
-0.0908539945201041 0.0134821670161454 0.239358024550502
-0.0847250866487589 0.0117450169360547 0.244752529959536
-0.078632873499948 0.0060441340924059 0.251060272042554
-0.0796912219037158 0.00578030766330548 0.250492383182041
-0.0659297543367355 0.0100084009768668 0.257000082533846
-0.0590831010499645 0.0145867452475883 0.257837396404129
-0.0529654053394129 0.00623463815534619 0.263967674975139
-0.0502024579602034 0.00602236188982376 0.264826888372901
-0.0409785108720684 0.00583205533135637 0.267557135581052
-0.030562957880035 0.0114030864752234 0.266707736810351
-0.0215618586660538 0.00629046362403341 0.270955000804119
-0.00336122444417071 0.0130975100625654 0.268287165430618
-0.00779948953789715 0.010223239514028 0.26986714887366
0.0160151639110256 0.00623599403005412 0.271584824395596
0.0254492992028865 0.00825831299248365 0.26959793784858
0.0483700486577087 0.0128229916488406 0.261572934346743
0.0548173042683766 0.0127063387883088 0.259673111990126
0.0876787059627436 0.0070017909893251 0.243027389348971
-0.151225137557392 0.0189379347495231 0.137836486187421
-0.150287033516391 0.0141728748791043 0.147090544871271
-0.146319620470212 0.0169750409946768 0.156258008321104
-0.141626028005788 0.0216538816041955 0.165519262216896
-0.140772257918619 0.0181516436870769 0.170953091651451
-0.135901127545924 0.0206098500956177 0.178788881082867
-0.134960792929722 0.0227244606544307 0.17906366543389
-0.131885453243153 0.0195057838446377 0.187043600762953
-0.128057246814304 0.0201608041867589 0.193525376182621
-0.124184159059736 0.0223868659994974 0.198392500384204
-0.119336153060529 0.0182040964352959 0.207121216781322
-0.116410125525978 0.0218132508222846 0.208798562629122
-0.110920734622874 0.0179061941276364 0.217982490043464
-0.105983533030418 0.0168996824343777 0.223884956792349
-0.102010640077406 0.0172606817366437 0.227403435380584
-0.0926437358078604 0.0191042246558664 0.234628859607716
-0.0910622826595897 0.0196484440765795 0.235396064762323
-0.082067818906746 0.018063716487319 0.243437378266817
-0.0816397448960449 0.0158194016446934 0.244332710828036
-0.0707724771220305 0.0221938261821554 0.247691002133923
-0.0635720800676501 0.0150603805953646 0.255736272893029
-0.0596873738228402 0.0150818665565779 0.257285469051115
-0.0509278635550775 0.0177283193794617 0.258568344150705
-0.0430704913390543 0.0167701132812122 0.26134401141644
-0.0339904598938971 0.0151176423940495 0.26388659716734
-0.0235821907052188 0.0197446117510548 0.262674086826503
-0.017671923287855 0.0157997802111248 0.265789428488146
-0.00876895026460838 0.0177261288137108 0.265266269417985
0.0052960046879921 0.0237510324323673 0.261274838944561
0.00952220440449041 0.0178849294738354 0.264913057696256
0.0443149010094192 0.0221821770434113 0.257467436188089
0.0576883239813485 0.0246582672982194 0.251347151418481
0.0572320311119122 0.0154694185904348 0.257461052415195
-0.149250591055996 0.0261721356648058 0.137668755564863
-0.144911882551196 0.0267382204623996 0.151778673065846
-0.141684521603964 0.030915585834259 0.156872295108597
-0.143531497378733 0.0239776500055537 0.158142722208278
-0.137893385894083 0.0329098814491719 0.164908101893043
-0.135095125855851 0.0268371308412215 0.175939682749455
-0.132656272640878 0.0332536846593898 0.175893225024986
-0.129600455923436 0.0255766337434641 0.186860576225037
-0.123868035674026 0.0330537711846098 0.191422576293301
-0.117603550152638 0.0330421809121096 0.199835898407535
-0.118137244470009 0.0298869710392004 0.20177555165065
-0.109887423859032 0.028606766940145 0.21231416656128
-0.107334232867346 0.0317112735142025 0.212812169454696
-0.104258138476537 0.0294877390956844 0.217893011540572
-0.0964757319287509 0.0297362567893739 0.225700728005359
-0.0908068893433251 0.0268375084998759 0.231981470890895
-0.0914577231824895 0.0244604743883119 0.232697509517928
-0.0768117880789684 0.0305570134797331 0.239396390757606
-0.0695020952133321 0.0305054798080763 0.243637932384321
-0.0638349003050789 0.030211613803628 0.245544453599569
-0.0619973822373293 0.0266233858341126 0.249128120465295
-0.0480016774320384 0.031725457388519 0.250172033430912
-0.0473296934866179 0.0299143318173955 0.251794939513274
-0.039064983313992 0.0299928228670152 0.25403590338806
-0.0239346290534028 0.0301128756003678 0.256186682576583
-0.0260741163927309 0.0270258209571913 0.257863295837793
-0.00828807245737971 0.0318057274989137 0.256250088655171
0.00487412496182466 0.0329696337884865 0.255386882222654
0.00472075575057971 0.0289411885962163 0.257971518049603
0.0209014810768706 0.0303740884918901 0.256676858243529
0.0559563546553466 0.0322211397790925 0.246766079462338
0.0518115209616151 0.0300714916673469 0.249746921358281
0.0794877449397677 0.0299546530071363 0.238097395942885
-0.146551950081027 0.0346913159106853 0.138853870787722
-0.143644189634841 0.0363193752906258 0.146816707996452
-0.142639678043429 0.0373005372020363 0.148530645592213
-0.137250376767016 0.0426696667145472 0.154794434836528
-0.136488174419321 0.0389407733657328 0.161832121585834
-0.134476276601771 0.0354689478802107 0.171061598216747
-0.131388911907719 0.0363133930343522 0.175597937930381
-0.124203450878877 0.0398499616060835 0.183989115579801
-0.12336708812863 0.0354051389120933 0.189563430701677
-0.120530885657233 0.0388920302099282 0.191101926548334
-0.112791786191785 0.0419394519808181 0.199209716983283
-0.109104931328496 0.0427833820755316 0.202309965331102
-0.103363739031215 0.03889204472019 0.211824351987096
-0.101106028488321 0.039977109856405 0.213883066821719
-0.0996809176872411 0.0354193060299552 0.218855166772362
-0.0880755879816476 0.0387646217327274 0.225262224809119
-0.0834712510191018 0.0350988425757549 0.231330569274658
-0.0789695456897226 0.0400011673892056 0.231430406211457
-0.0651439162361371 0.0424644243219597 0.236694232443247
-0.061385336051258 0.0433216014869933 0.237300557931756
-0.0591541814289166 0.0368194017548834 0.243051606533132
-0.0539095832160235 0.0344927500822168 0.246349028669959
-0.0379679590283833 0.0344919177962859 0.250802330017174
-0.0309678125388716 0.0422401473038072 0.245838355063367
-0.0283354660782171 0.0403010804641472 0.247936766838931
-0.0107082813964772 0.0372338441872224 0.252747456905147
0.00348592713231821 0.0447877006395194 0.246288634712855
0.0206553855681088 0.0410133329794914 0.248656092673457
0.0277840187295516 0.0386332772131831 0.249848859710437
0.0391164912421258 0.0382681049545777 0.247813508171697
0.0538239428553626 0.0375995859998929 0.243338744644893
0.0739008749504903 0.0401072567079177 0.232602531047497
-0.141439411727656 0.0485145982655821 0.137917909856215
-0.139901135109398 0.0459431926853831 0.145082305530746
-0.136565842342209 0.0510609962900995 0.146850054731138
-0.133717610141278 0.0492790622506582 0.15658139825206
-0.131229700646639 0.0485408288288691 0.163734353725774
-0.129944559362113 0.0453016662912819 0.170310689205315
-0.124907362990837 0.0498760537932538 0.173059984402188
-0.124416685812541 0.0464216932192785 0.178078213659494
-0.118336416061747 0.0451602326932544 0.188740878324468
-0.114065833789708 0.0452786088273161 0.194646697642681
-0.111562294064867 0.0515911504815121 0.19249544081863
-0.109309145106945 0.0486360770396177 0.198131904846847
-0.103208251477126 0.0473617414496836 0.20494028242979
-0.0962466551819926 0.0513604222433381 0.207572976877
-0.0887837255172819 0.0502147852601526 0.216857658485889
-0.0826346693706313 0.048660923574244 0.220991540234663
-0.0798930730834001 0.0451033528112836 0.22595429018838
-0.0715322456613778 0.0476710113158386 0.228167188514652
-0.0673282851075217 0.0470911822048127 0.231208966889988
-0.0584011282051085 0.0450855784901697 0.23674106418228
-0.04826807691887 0.0486593308768029 0.23677158699904
-0.0427045815102969 0.0444727277808096 0.241622792568727
-0.0285787546089248 0.0503417320509259 0.239535374861773
-0.0167566713606259 0.0532734765394853 0.238567389936492
-0.0147459113236654 0.0545465441561879 0.237730390137655
0.00319866314450133 0.0488446680382147 0.242798468732043
0.0081350978231558 0.0464435105921545 0.244629359712315
0.0130689330794967 0.0477582969499209 0.243242166794648
0.0431190385443297 0.0534600463867969 0.235035773366051
0.0655566953256469 0.0540247282242016 0.224028563754367
0.0671161577472436 0.0501778848855108 0.227159634071002
-0.136309732703745 0.0615069875372625 0.127982019860775
-0.134844184981127 0.0568025953275678 0.142633685596017
-0.13566811483605 0.0528810692503571 0.145922931199766
-0.130805769904467 0.0604562849264801 0.146597294687547
-0.127374945908869 0.0573405556929206 0.16013534923238
-0.128060046280167 0.0580353483283037 0.157634356594038
-0.122453031881284 0.0539663416966589 0.173386466880321
-0.11887509885463 0.0612814217326879 0.168642281542258
-0.114133466990873 0.0611376221045477 0.175483921359145
-0.112779411068734 0.0580472245393798 0.181466147281501
-0.104991093984482 0.0580297522867867 0.192337034860563
-0.0985858669925605 0.0574191786826137 0.200032064615021
-0.0982601513994578 0.0559988825961475 0.201562341855687
-0.0910205737252971 0.0560989615837311 0.207275103509783
-0.0851438068577715 0.0540280696700754 0.213983705954171
-0.0741341367923289 0.0597803928695983 0.215326939164533
-0.0705807991038948 0.0589080880585582 0.21774154513659
-0.0628975967159171 0.0603680121094276 0.222658665724027
-0.0599168374700261 0.0563150748784177 0.224818464839937
-0.0482219408109429 0.0616867789487586 0.223848963658153
-0.0331729172023002 0.0623690900796057 0.227228220263627
-0.0278919058731487 0.0602220760346178 0.230721245002251
-0.0315190595644484 0.0581675338422319 0.232308394984283
-0.0109142273056398 0.0547870491879683 0.237615506302589
-0.00423653398217474 0.0589433238027742 0.23418452250827
0.0101657935163538 0.0584283808576258 0.234177064557428
0.0135926086255333 0.0638855229448353 0.228354047667603
0.0305665969579741 0.0574511994864349 0.23368242125453
0.0290521492190512 0.0555427052222787 0.235515686638969
0.0604996940028698 0.0589857935704625 0.22147227284534
-0.136466759163235 0.0625462481206416 0.123563743014129
-0.131468341556105 0.0678252212657627 0.126262130758656
-0.125474182134338 0.0719313376329299 0.136819256469803
-0.129085088034582 0.0621403713361856 0.146857654717884
-0.122465862667865 0.0700242906859292 0.146709161905888
-0.120365250913152 0.0674483062035029 0.155572657355701
-0.113359883856351 0.0719088219002019 0.161959622382718
-0.112792257323012 0.0664872968502545 0.171152222371545
-0.108331046560258 0.0698482517191533 0.171480279417138
-0.0995687358611727 0.0706864034017316 0.179851617554371
-0.0993880835318996 0.0655810960646249 0.188173768435967
-0.0930995186069257 0.065005645752688 0.194615422722448
-0.0895260103225484 0.0657686769050027 0.196829987336041
-0.083289331855224 0.0642161812283868 0.204121504721494
-0.0713453602304839 0.0721608314270407 0.200689470055234
-0.068285864274938 0.0725812079803725 0.201869730508228
-0.0696607868588734 0.0663547209758112 0.20966651682347
-0.0527034951569915 0.0727812867066492 0.210159942429692
-0.0497770870691369 0.0682463113846905 0.216199568867007
-0.0397826129392582 0.0658627629973574 0.221567241461854
-0.0368518232337363 0.0675301709320692 0.220535716139261
-0.0195248885349243 0.0742657106848863 0.216382375462496
-0.0127006007476799 0.0680553556237699 0.224046232337335
-0.00910816638688513 0.0655566570840455 0.227076110143336
0.0196436412891624 0.0745865583658888 0.215486748645504
0.0202723758708746 0.0674706911174621 0.22355361206206
0.032949986306045 0.066617459671441 0.223018946947797
0.0493742476775544 0.0745721695031591 0.209739715158255
-0.12083769455268 0.0810755297739627 0.118221036269191
-0.126112045796053 0.0728008997568542 0.132611383624176
-0.120066240943074 0.079850606197829 0.125851300103642
-0.117763676407997 0.0755159578785319 0.144710316634006
-0.11914255665797 0.0755285871080629 0.14236037172747
-0.116693839257185 0.0723699138545227 0.155138885496742
-0.105615243455019 0.0810431577920134 0.153935417420638
-0.101629038094626 0.0783652122167643 0.165605815321088
-0.105081665394664 0.0762163319646105 0.164587849498253
-0.0967029266518545 0.0750288227031444 0.176777617416341
-0.0879217947660696 0.0793682393594965 0.177977041166267
-0.0853971919994718 0.0785846594557409 0.181792653898281
-0.0749067305703435 0.0828540939428589 0.182755121293211
-0.0763368392473732 0.0773101024878169 0.190715970114981
-0.0678199303552634 0.0763629955922914 0.196921822971094
-0.0589431298805005 0.0757381989554008 0.202890173530405
-0.0539606131353239 0.0805052019564179 0.198270291507507
-0.047688189868164 0.0761003162537145 0.207275905561462
-0.0441872428785052 0.0750459173704689 0.210232411757698
-0.0276194099885587 0.0770702884967245 0.211731017678622
-0.00893271408709795 0.0846385027706502 0.203870285486599
-0.00787945215279506 0.0833360824145354 0.205964496735157
-0.00538592159943345 0.0817593457074532 0.208581531665667
0.0136435399117022 0.0767036981876595 0.21360006397046
0.0310108511988209 0.0848632906392072 0.19990480094026
0.0314860207184303 0.078395995480719 0.209809506388098
-0.118698715239664 0.0859766724562975 0.106324344103723
-0.114332297230523 0.0869493536562561 0.11755308964943
-0.116883297421024 0.0819308160913049 0.128508976326852
-0.110173856334031 0.0870595428104416 0.131455063180072
-0.110978038294457 0.0833626573074449 0.138666798574338
-0.106611565573535 0.083262909524807 0.147137401601641
-0.0988072212679858 0.0897452616138924 0.142564458595129
-0.0992987224303669 0.0835451678021075 0.158694672031825
-0.0984441025673501 0.0826704338813179 0.162008106194996
-0.0890347459003345 0.0846964254243184 0.167262028820151
-0.0756548176784017 0.0922008603720819 0.16428734768644
-0.0764453130467556 0.0891581413089257 0.169428245795287
-0.0763017715451999 0.0836046270383653 0.180147624782031
-0.0614783169155007 0.0922936813546694 0.17490104698922
-0.066337475814445 0.0839512897633399 0.187308654335273
-0.0464766605065978 0.0930600946798763 0.182299492920672
-0.0429252597914023 0.0922602403849138 0.185361466828036
-0.0221387732581155 0.0936773784124353 0.188758914666176
-0.0190411752040361 0.0943619711121029 0.188084933087456
-0.017028725579289 0.0894809375698374 0.195803532578989
-0.00625044391482833 0.0892676835254804 0.19685793748775
0.00821984303532467 0.0946662541449045 0.187978095927662
0.01585116935997 0.0896608749064168 0.195014812629017
0.0566490354908039 0.0939893812540131 0.175218823492071
-0.111130199126674 0.0926075909070381 0.10054013598926
-0.106023940122105 0.0947770440817453 0.106081763154991
-0.105957587132505 0.0921000066417895 0.119401236708781
-0.0976735687812115 0.097332787290335 0.116236442856326
-0.0909882765967437 0.100126660138792 0.118758272556527
-0.0985860777166486 0.0923932802455099 0.135799736939536
-0.0914998276773764 0.0930244465443443 0.143843282538078
-0.083506073107102 0.0995622950997863 0.135675694900402
-0.0842446308317525 0.0936483596913383 0.151764918092541
-0.0776520133456262 0.0975623764813162 0.149296966183393
-0.0630122035749003 0.101119081457498 0.155262068338436
-0.0730217959889241 0.0945425672105286 0.162036393967561
-0.0449043332272352 0.103041328501285 0.162396419519405
-0.0491826669545227 0.10183134221592 0.162643897944886
-0.036136061438167 0.102407412077 0.167139777255305
-0.0275304844100015 0.102024694266022 0.171283679311756
-0.0234660670601613 0.098829818116305 0.179679090255706
-0.0157634326526617 0.102158873113699 0.173566973863355
-0.010372766362099 0.101859489574005 0.174794654451991
0.00808913027320245 0.104968921909101 0.167770275859461
0.0191298936772526 0.100932099802071 0.175049928125948
0.04920679133816 0.105284239561729 0.156044964824721
-0.0445643556038235 0.112055400676323 0.0336872788746302
-0.0827047899573607 0.108409167167993 0.0795411670665697
-0.0905454033138964 0.103452850224395 0.101617271884804
-0.00678643099662246 0.114026167588669 0.0331592134719973
-0.0826150689501709 0.106588991371009 0.105589852308243
-0.0746147245284908 0.107785326602635 0.117970586565138
-0.0724310733434547 0.107440062928288 0.12459806363279
-0.065641524629544 0.109456063336743 0.125742750119529
-0.0689621926041165 0.103019133748946 0.143449469325654
-0.0585149247054646 0.106257997421572 0.143361461711145
-0.0535765593836575 0.105513542102889 0.150512779861234
-0.0370701124286076 0.111662702888235 0.142607667328449
-0.0461238988472302 0.10545189861065 0.156775960012903
-0.0327180203923997 0.110973514095312 0.147611988472422
-0.0227114065715614 0.112034682170915 0.149416641499985
-0.0201294158151868 0.110607875924296 0.154624069076773
-0.0155518827091375 0.107075768684961 0.162835659490112
-0.0115227114494125 0.105904335065829 0.165825916991378
0.00340961086598917 0.10711862512972 0.163727016106599
0.0294229992764635 0.110394231922857 0.150286440389982
-0.0421712120269854 0.120466225552016 0.0314336051415101
-0.0309324701417831 0.118149456606422 0.0320543815095311
-0.0224968499020016 0.116969364807158 0.0323705861541388
-0.0125897071610328 0.120143288415054 0.0315201358865649
-0.00332290961471049 0.119336447676446 0.0317363282108952
0.00953867588723708 0.123680909149441 0.0305722332676592
0.0206265527844489 0.122962392362642 0.0307647592604294
0.0359438096811259 0.120442068670321 0.0314400779584516
-0.0334725125276413 0.116695546298573 0.128206873027653
-0.0233126018066369 0.117807161658235 0.129664498700146
-0.000952864146506479 0.120368625260088 0.125011517072206
0.0203847387825291 0.118552162766208 0.126515547973415
0.00893005313126798 0.116386050421626 0.136413645965054
0.121312993336732 -0.277145796507455 0.105645381361734
0.122521129114909 -0.279561986475443 0.105465332308969
0.101960868046788 -0.284520392387298 0.166604096776644
0.073982293449214 -0.303130676672426 0.147387401731806
0.0708908006880636 -0.300777882290037 0.157930625016934
0.0721312129474745 -0.297992486201031 0.165202690098882
0.0951557126243862 -0.288308159051342 0.155369085202137
0.0935591586088619 -0.285357602026683 0.160186266476621
0.0907342042867603 -0.28406448044316 0.178737841501249
0.0927578001741743 -0.285904643962209 0.176050836981256
0.121316446105768 -0.263131621565992 0.159983150293708
0.0528765115284984 -0.304827168891258 0.164669872563752
0.0556306938073955 -0.301143055653394 0.173027900682061
0.0648942450990622 -0.298780650648798 0.170465686288147
0.0671265206446167 -0.296550988889607 0.184177668563917
0.080266641364587 -0.290529694791294 0.174276626262314
0.0775271849080657 -0.288084533770296 0.182496547995197
0.0855168990395459 -0.281071720991611 0.18444597769359
0.0885194585342351 -0.276363226219764 0.193437360646358
0.0879329612358902 -0.272840491980332 0.196960229818838
0.100260441021376 -0.271898894744138 0.191953625130138
0.1172860995948 -0.251725692078784 0.182765295940654
0.119384343879075 -0.249625334498791 0.188342035820396
0.0473840727743453 -0.303275960232101 0.17521681213944
0.049283107867343 -0.299451554493749 0.181578504221865
0.0472963067717865 -0.296605492508363 0.187921536698903
0.054652558790296 -0.292301346927229 0.195925414711561
0.0646617808111413 -0.288602453348943 0.191633523288967
0.0585224287788633 -0.286723286640371 0.201812847385506
0.0670029663985783 -0.282385699282051 0.202269936698398
0.0755491733924483 -0.277772013503389 0.203709296788136
0.0811229298904814 -0.275356953539062 0.201447835366571
0.0841734068871561 -0.265687865467201 0.210734389527083
0.0877393876919836 -0.259815711892839 0.214859749730819
0.0985581602722278 -0.254823473147143 0.211257971388758
0.0275696611915473 -0.301741978143195 0.186941657308797
0.0317100218130202 -0.301823986900087 0.185958668390658
0.0321798125630368 -0.29784447780941 0.193090249032135
0.0400454332843208 -0.291906793508014 0.200961869682448
0.0524482602168281 -0.289639465333365 0.197346575878459
0.0448134113076958 -0.286704985884241 0.206822851679972
0.0512019959328938 -0.28171516614031 0.210415646581693
0.0545914821760695 -0.276582723286503 0.215504174282977
0.0606826293005366 -0.274565507158383 0.215659390620558
0.066946817675176 -0.266615824320162 0.223920194193967
0.0690649786580792 -0.266113229143542 0.223720526377228
0.0780293974729057 -0.260161499894466 0.223622724912658
0.0874945923654796 -0.250590579907363 0.226788513273179
0.0888466956256135 -0.249440831665831 0.226880246714296
0.113013184325594 -0.225549487518024 0.216488978546792
0.022935112162153 -0.300328313339301 0.190442297162388
0.0174139149943953 -0.300964884703266 0.199329165459166
0.0194515480400957 -0.291330770413045 0.206953038733376
0.0263691685206643 -0.290563842021584 0.206906579472336
0.0287607737431888 -0.285861159650291 0.212646440864674
0.0382404922491268 -0.282611085814409 0.214943261712494
0.0406859280270453 -0.280637614952347 0.216399781790239
0.0430244594741711 -0.277614248717408 0.219247590543234
0.0489787458610528 -0.270509253008461 0.226120675823458
0.0489236229473456 -0.268675542124429 0.228654987273229
0.0650239996502098 -0.261835585953622 0.23052523531185
0.0587874600145541 -0.258106639032075 0.235995595118157
0.0733489779840623 -0.253679482506331 0.233869463384329
0.0849505444683989 -0.248093893283582 0.230807269573864
0.086807388240308 -0.244937757397759 0.23235182227123
0.0876726171012469 -0.234370509620434 0.241640856992551
0.00225237540444751 -0.300332549957537 0.194831038307271
0.0129772550190963 -0.29535567883119 0.20147789394173
0.0154822324440291 -0.296071698720316 0.203942929034662
0.0154067313414981 -0.286935827562417 0.213226208196004
0.0260747994964568 -0.284176110345647 0.215235462202809
0.0215581330945901 -0.280247639284987 0.221027106600932
0.0239444655502665 -0.276701946462261 0.22534972531539
0.0364739919187146 -0.274738626949641 0.22579805870068
0.0342435116503085 -0.267620368571231 0.234379656337279
0.0394940913688996 -0.263541155993427 0.236679419918517
0.0521415221250599 -0.259930121961745 0.236257774398976
0.0448852448706947 -0.256397889941905 0.241822121867202
0.0529240947750278 -0.251710569590682 0.24409051311338
0.0617606520456271 -0.248885991065604 0.244390051167023
0.0684751054211407 -0.245811264451651 0.24434340003792
0.0811731000206052 -0.238336227974612 0.242406191951204
0.0760766357853976 -0.234434991687733 0.249520084805558
0.113844624674238 -0.20798233830791 0.225537601774372
-0.00235683997770432 -0.295465491761028 0.203725307248097
-0.0019319478360842 -0.293800232697114 0.206578159595872
0.000392779230396008 -0.28652220477748 0.21600703083766
0.00212658689471754 -0.286202319319555 0.216160023255092
0.00694516417184862 -0.282617918861592 0.220061171309733
0.0120657614536276 -0.276633287168911 0.227102729344658
0.025175400923174 -0.276369783647346 0.225613653398419
0.0206123436835389 -0.268651554086839 0.234795259890394
0.0225459288307162 -0.263417519204817 0.239644681583684
0.0376993005590228 -0.260550232812047 0.24006659120819
0.0312481067155938 -0.26009808196459 0.242015832052527
0.0451507212416097 -0.253993659221633 0.244029230329386
0.0433769638863597 -0.251542025618716 0.246996253276342
0.0541842810928696 -0.2455257794996 0.249931562402946
0.06448703615137 -0.240571949451453 0.251671643941556
0.0618900048595955 -0.237459345844028 0.254569825930585
0.0690061009428729 -0.227214078073664 0.257916057011251
0.0700205875871407 -0.224104356885135 0.259389578701198
0.0868360110740154 -0.217461247745227 0.254968288474469
0.100720509521038 -0.202482396770112 0.245809419922886
-0.0203910589840773 -0.295055516667247 0.208734159648609
-0.0133962127046542 -0.287201451834232 0.212834207904914
-0.00894985104417312 -0.282629934569302 0.219606686763703
-0.00808358320371635 -0.281473006364002 0.221269643829715
0.00119155467467561 -0.278372577633532 0.226397201512775
0.00582424631324122 -0.276379912911829 0.228309207478358
0.00354577055166054 -0.270661577137787 0.234693367580497
0.0121316965954915 -0.264610066406237 0.239589840753256
0.0196442228252742 -0.260344837622384 0.242931053999685
0.0275888649861425 -0.259207402356925 0.243249182730821
0.0273046510479861 -0.256071484017961 0.246336498399936
0.0317455544428201 -0.247323741160785 0.253819181609298
0.0280310168980259 -0.247057084843219 0.254273332225702
0.0437793931773575 -0.240924765871441 0.255818385830822
0.0487713347948014 -0.240653152589235 0.254967102140716
0.0565390185763271 -0.233727589211995 0.25835910558104
0.0583839615045717 -0.231130883571946 0.259924152758696
0.0685441697152412 -0.220124710462571 0.262739569333476
0.0764550820122145 -0.213153732995203 0.263283839758858
0.100718550102185 -0.193659768079117 0.248675415824687
0.0958503316662524 -0.197518006673154 0.253444060433553
0.119981546424053 -0.166655650755567 0.236743954192586
-0.0269011675747902 -0.288014879312587 0.209126746965515
-0.0174892736383276 -0.281681921033698 0.219148855045618
-0.0164066514500152 -0.27814629698908 0.223922945804345
-0.0111633545274861 -0.279896223974633 0.222697534625852
-0.00826930307994331 -0.272429402762077 0.232285085034553
-0.00893883893685316 -0.269137522456722 0.235343258026908
-0.00668559812250444 -0.266438687849703 0.238293132227998
-0.000539123030726748 -0.262894700875934 0.242597714729811
0.0135265926418911 -0.258444614747703 0.245394080175803
0.0118809290072562 -0.256313129558161 0.247637219796824
0.0183836110326502 -0.253904937381867 0.249338578972011
0.0177254620183518 -0.24463307200131 0.256790392841592
0.029924514818019 -0.244551508323916 0.255951846947629
0.0326475128698727 -0.238397833084697 0.259922994279988
0.0369336181705279 -0.230964253932456 0.264263219618049
0.0414349010094302 -0.224766632637511 0.267892177133966
0.0503395538555654 -0.222379223251561 0.267943754153477
0.0486233166474119 -0.217114246987464 0.27159810762802
0.0583751158507438 -0.210322160947861 0.27314885252359
0.0715345058429443 -0.203672912752586 0.270857591656959
0.0854057734822286 -0.18884626622203 0.267154754892871
0.0857052664037086 -0.185338054501673 0.267429786668644
0.115101171574789 -0.165367397619696 0.242865328828265
0.138481806941027 -0.140862414523418 0.222774823131194
-0.0293662849498004 -0.28547001078537 0.21192446183158
-0.0324465676961264 -0.278438726565099 0.220388632388658
-0.0298988372650412 -0.278959985179921 0.220217661826611
-0.0230358911666836 -0.273863520215692 0.228142977317922
-0.0218539681001232 -0.272238757395484 0.230322414996379
-0.0185365905537853 -0.265025929498151 0.237778936025702
-0.0129895031715877 -0.262671034077534 0.240918552215662
-0.0041022237670931 -0.261009518469914 0.243919372277175
-0.0017722429700246 -0.255987220594967 0.249114527105185
0.0047116141878104 -0.250001400547842 0.253949628137556
0.0114724074323749 -0.248595467467306 0.254437876647643
0.0153451375746675 -0.245258140013024 0.256525609840682
0.00917672121655673 -0.240645559196586 0.260289920012335
0.0164172745714347 -0.232086267032182 0.265913376729872
0.030586939470051 -0.233436255059155 0.263847734222457
0.0341290019075268 -0.225309588838892 0.268896778617902
0.0339729275899286 -0.215161165695579 0.274547017007551
0.0486107073251098 -0.214909969269556 0.272718187443584
0.048167908239574 -0.210018693449155 0.27529578316682
0.0488169867560832 -0.201948159836612 0.279517425273176
0.0649192345707446 -0.198280444394802 0.275922285774808
0.0718048752070345 -0.188514980612851 0.277713403372093
0.0864400979257719 -0.17310179085129 0.268426171084679
0.109267416846155 -0.159917850901826 0.250253449483724
0.12005592257213 -0.144364926113749 0.244900253985107
-0.0479609843104398 -0.275457278085475 0.219515748681427
-0.0353309860435053 -0.275463157375582 0.22365942747198
-0.034378813571992 -0.272588022445031 0.227555802507973
-0.0276389247169713 -0.270234108554313 0.231335327736811
-0.0273740425003059 -0.264339742206447 0.237042442867718
-0.0220800690624531 -0.262591682042153 0.239558826146373
-0.0267108193573078 -0.259037756870496 0.24224312480988
-0.0168320191904527 -0.25232616660041 0.250254366659321
-0.0131711326314845 -0.248072022613636 0.254147845341685
-0.00367767321965311 -0.244449272144923 0.257965618210254
-0.00273213084098513 -0.243570527579845 0.258715495029483
0.00265564010374924 -0.237120905724471 0.263304256098843
0.00715021045224599 -0.234770031882831 0.264640141473513
0.00845126566577804 -0.225459290521214 0.271070694754189
0.0180560929166932 -0.226969518695059 0.269499906387225
0.0225534150718427 -0.221814650292162 0.27221382541899
0.0273078903296622 -0.218630648839081 0.273634893387058
0.0278794957875976 -0.20806380257017 0.278962401722602
0.0363547871095686 -0.209040579939448 0.277334121124619
0.041003475793045 -0.203074584897875 0.27984194402952
0.0520709062474974 -0.193033883786742 0.28341770053031
0.0679875925839051 -0.182124748072796 0.282191416923184
0.0671504918076681 -0.177313750933917 0.283961482132356
0.0931355251628277 -0.159885664195861 0.263865087107968
0.108184281550375 -0.140186981570839 0.256474723156475
-0.0547501826898927 -0.270706528134186 0.223854899903707
