ply
format ascii 1.0
element vertex 851
property float x
property float y
property float z
end_header
0.0588339592375496 -0.209696935340803 0.280218896738927
0.0502779263725026 -0.212433312599975 0.279824487290043
0.0399801160039208 -0.22113384960198 0.277743716136265
0.0400295748637944 -0.230824867115831 0.277635073737484
0.0241884979940174 -0.240106446477628 0.274106165823798
0.0065651659140114 -0.258701492338169 0.269661442159397
-0.000864268914206608 -0.278202153508405 0.265367265581669
-0.00960472803877498 -0.280024567660902 0.262495527946002
-0.0345554825243647 -0.307516353374081 0.246895752763249
0.262324040811619 0.010385537390968 0.185111801976291
0.261876523180114 0.00963388421407119 0.187370371491478
0.262437355652472 0.00600795539683803 0.194824092476436
0.253643575212769 0.0069951720404878 0.201868809617978
0.255071022453871 0.00248269802194077 0.209494984103445
0.252028600054328 0.000748648730634397 0.216085156879019
0.248439755295954 -0.00132535112091889 0.22119883845356
0.243712084457976 -0.0031744520959729 0.227466991737514
0.239751045686694 -0.00698864252867652 0.234597074637658
0.243701494914765 -0.0104172532465052 0.23725363890746
0.240427968650901 -0.0114642065532127 0.238627452990229
0.237536910189448 -0.0176856580302792 0.243145179452943
0.234299622486962 -0.0253772284163166 0.248676622788641
0.227323283838932 -0.0319864203966953 0.254099644781519
0.225603307189956 -0.0346006860590422 0.256062873142995
0.216500638597127 -0.0404049354359161 0.259118182751529
0.214698982244861 -0.0450461412510531 0.260749224069845
0.202384403138979 -0.0546371576450579 0.264766416296066
0.20033456574903 -0.0592207974699333 0.26639758931802
0.198729962410501 -0.0612979009393362 0.267187623765247
0.190316525602627 -0.0683754018730906 0.269785618998083
0.189449358144535 -0.0766032266214584 0.271759627545792
0.183771929706689 -0.0855036803314762 0.273838666369411
0.167904721948761 -0.0922590698395761 0.27580584632178
0.168344346026134 -0.098986547097903 0.277217995673634
0.156064263543374 -0.102333122725684 0.277813718499721
0.153860909134565 -0.116208261719505 0.280011120634606
0.147814061749901 -0.119793266481938 0.280173574700526
0.143945712209144 -0.126795599631901 0.280514449862312
0.135421124210357 -0.131697766013563 0.280637834060756
0.121451011665693 -0.143907374147922 0.280983583088541
0.124440218113021 -0.152120476710638 0.281409596168179
0.112828193388058 -0.158376393536862 0.281349884173155
0.104928663657064 -0.166360605370683 0.28140155035178
0.100256957425021 -0.17546717112501 0.281530220112153
0.0881263640036127 -0.183131070830448 0.281221080269356
0.0767622726089963 -0.197564173524132 0.280980554680808
0.077390387517344 -0.198308419460019 0.281019078214903
0.0657784345352095 -0.209439021378505 0.280558893271225
0.0577701888246356 -0.217250808020822 0.280209252469309
0.0491355107570408 -0.224734948646979 0.27960518148704
0.0509301900336759 -0.229939128882157 0.279827422644734
0.0297705114931367 -0.246199821124206 0.275162145082044
0.0184537277143453 -0.258888262599554 0.272285932380619
0.00356431215680434 -0.281277570338946 0.266314573919973
0.00111537328698138 -0.28331964127431 0.265372325364437
-0.0122447576544588 -0.309952848740785 0.258015270374123
0.268960563177085 0.0045039086270698 0.191153370776791
0.268098538707061 0.00597716220940345 0.189070341541337
0.265943146788054 0.00255206895021887 0.198186142665132
0.268055132541994 -0.00175455293098776 0.204694291996141
0.259294367284924 -0.000289557191364145 0.210742370296538
0.257018994782775 -0.00408444818087553 0.218910221637309
0.258641995715651 -0.00957475654579851 0.224933994466751
0.250105655722093 -0.00999524948559427 0.232136209494723
0.250573634203311 -0.0117535462812595 0.234253611631024
0.252423307095196 -0.0188714760614065 0.239410651403847
0.248846242330265 -0.0248509642870057 0.244038281654945
0.245538272955633 -0.0290491512248534 0.247503944873181
0.234859484134676 -0.0324701202422321 0.252808363831381
0.233637926047116 -0.0351622299050866 0.254751206882981
0.225385077334438 -0.0362519786088857 0.257111356572364
0.226707386645694 -0.0460392132628828 0.26000659957465
0.216851645126741 -0.0540182074106395 0.263478073364725
0.214111397867152 -0.058615598698782 0.265165642593409
0.205581314763729 -0.0687620459033863 0.269076950013273
0.201843558467318 -0.0658184061185507 0.268409815957454
0.195830157040002 -0.0775605793277544 0.271747825258588
0.189513936464813 -0.0817639797799083 0.272852091020677
0.187529924499805 -0.0924556153105958 0.275173585399793
0.182484682388312 -0.09330221522635 0.275536145852648
0.172159247177632 -0.102047218395654 0.277738727591354
0.173180301010186 -0.106733825126912 0.278692564106468
0.168312013942526 -0.110991817532214 0.279766309256027
0.15358632783864 -0.131375666349186 0.280773519039639
0.147327525999097 -0.138167006158928 0.281096684755512
0.144882703941512 -0.135082239219711 0.280934207739613
0.13239465439269 -0.146830592547312 0.281312882544478
0.130417741025934 -0.155071854492741 0.281675284253258
0.124833008644989 -0.169600267973613 0.282151150244585
0.119513663324902 -0.166286786890949 0.281865492448654
0.104122278769235 -0.181245994225344 0.281868773259781
0.0983747258906719 -0.189531687496617 0.281826435264008
0.0936471477168896 -0.192792513726008 0.281687306281764
0.0897945037171546 -0.206828221433678 0.281717299841782
0.0734430316760623 -0.217725371238008 0.280996490827227
0.0714571231998143 -0.21785424078441 0.280896178963731
0.0589109100523243 -0.229817612678354 0.280229367370731
0.0501559417672888 -0.238890811435458 0.279643846642203
0.0358087356826796 -0.265760730453466 0.275256802391801
0.0344678610090885 -0.260687111116817 0.275336534629456
0.0218205741348438 -0.281841274591163 0.271215322373244
0.00421919164414071 -0.300289508030493 0.264329942813106
-0.000356923537544219 -0.299655975699532 0.263116846213437
0.278725055251084 7.87810479086687e-005 0.190038799856544
0.276531537030148 -0.00207119482217927 0.196624414819414
0.272911103825682 -0.00317170174253538 0.20256124257095
0.274791549550738 -0.00782314172302188 0.210002062024004
0.266311940139411 -0.00326440111590527 0.209527428645205
0.267761830411008 -0.00974832940484229 0.219140814085253
0.267189554078686 -0.0170973430643948 0.228925240110731
0.259376521213865 -0.0160499634827587 0.233497295822026
0.263080166447994 -0.0196773915030206 0.23574554976703
0.255959219991124 -0.0262451317574963 0.242606996820586
0.251696414530052 -0.0253495597260486 0.2434422782245
0.249990081725994 -0.0351191505919272 0.249645635890643
0.246540892991525 -0.0355690259398313 0.250978529024217
0.246077902618363 -0.0400342490694684 0.253715335748558
0.235355919481026 -0.0445566343496906 0.258376511715757
0.237043518733587 -0.0460802185004036 0.258557587280194
0.225190344594882 -0.0636734402498299 0.265228664663162
0.224927586903549 -0.063178576824376 0.265120927781597
0.214280552149189 -0.0744611730427158 0.269691965413933
0.210616010638373 -0.0816570861670986 0.271652778440938
0.204372178424927 -0.0813279472150713 0.272134072728011
0.204774098182918 -0.0848649321532202 0.272792769455081
0.198600981239207 -0.0931015664373602 0.27484033018178
0.190546296211617 -0.102243049845922 0.27704573602834
0.179639425742434 -0.104136988903461 0.277890815165786
0.170838548494382 -0.113741167413707 0.279901689035311
0.169322652732479 -0.122193468146108 0.280334399255431
0.168884892737207 -0.127454137111892 0.280598578876154
0.15396392643641 -0.147636794422407 0.281592887836188
0.152811463398885 -0.150026584410071 0.281709721051228
0.145960174110432 -0.152086615997324 0.281779740736841
0.141306929525976 -0.162331280920197 0.282195329054601
0.127594501524669 -0.16778456802215 0.282151641184548
0.118005630866619 -0.177237734553784 0.282257008902276
0.118496739089718 -0.191808863440634 0.282762531929229
0.108288655103333 -0.197609350819615 0.282454565929548
0.0952274913350431 -0.210321212196234 0.282020703564359
0.0898701185945572 -0.212822951370033 0.281781725356826
0.0848437444851808 -0.230544354641671 0.281532133045439
0.0765106132117583 -0.232943681227855 0.281105697029677
0.0650809480817898 -0.244642712290499 0.280437108251187
0.0555851048814354 -0.253710100627384 0.279841465718561
0.0451742919827925 -0.264143930110171 0.277227889193206
0.0363102360432711 -0.28229370614869 0.274086115577512
0.0354019524997924 -0.277808423176296 0.274248861235924
0.0141098164298704 -0.305940745576339 0.266122997237641
0.00956223816290572 -0.313860038442903 0.2634620485112
-0.00295241579453725 -0.33035334001511 0.257064752282977
0.287383797703673 -0.00563320495430722 0.192653190213566
0.288428538289338 -0.00871683788331036 0.197793417614519
0.281987235318162 -0.0092818149595842 0.205549068232643
0.277446020709381 -0.00870235757827436 0.209046707591608
0.278388858167839 -0.0110279382460269 0.212764150579441
0.276037125110334 -0.0147065837856705 0.220053236273213
0.272602396801342 -0.017992747304999 0.226270706945461
0.270331689724931 -0.022740280033348 0.234450716057359
0.266619004581654 -0.027192034324572 0.239720881248827
0.263205823767702 -0.0247457024459928 0.239384017552185
0.258296400495715 -0.0322247552759299 0.245370331696226
0.253798098172511 -0.0421385363852088 0.252538659996933
0.249918249659724 -0.0426995404544933 0.254069890048892
0.246877167556013 -0.0434141666773843 0.255429726914643
0.239483505489716 -0.0559071299515608 0.26104370305105
0.235167423809932 -0.0579443875054653 0.262311795186545
0.234343085713907 -0.0608904896669878 0.263271636907508
0.232356443593408 -0.0740369461234284 0.267273486388913
0.225290350293308 -0.0751157839323466 0.26847928659933
0.21618032947041 -0.083498399468274 0.271527526146209
0.214870719098991 -0.092235592951039 0.273355952508718
0.202700083313831 -0.0999584792901313 0.275934919748089
0.20764259586511 -0.0965994779007436 0.27484390629079
0.195130195916291 -0.107625456218646 0.277952382700548
0.189083524049172 -0.116386682055922 0.27984697775721
0.183378444779239 -0.121744813219996 0.28016947326664
0.179045493284271 -0.123744931776583 0.280312237232716
0.17369099143958 -0.141794960954663 0.28125780386185
0.163852787964038 -0.148467574939849 0.281664032121098
0.161860932284992 -0.150773744464896 0.281774167157298
0.149379802333451 -0.155793780153204 0.281989740615114
0.143349103220824 -0.170321674517802 0.282609643260835
0.132189985631922 -0.174093862773188 0.282542505635917
0.127641370507475 -0.190574609410824 0.283065246330789
0.122291832564267 -0.192416602802772 0.282925596371856
0.120520975818406 -0.202702004290689 0.283119670845058
0.111421195912145 -0.207686151508162 0.282792945718304
0.0999419580037727 -0.223480567441872 0.282312822552254
0.0903925560125495 -0.236136735166648 0.281777051701678
0.0861056809123887 -0.242704138207939 0.281469016895162
0.0794796434204437 -0.244191798311643 0.281129938363498
0.0689482037538473 -0.252943110051324 0.280489978213045
0.0553722760677437 -0.271378092720404 0.278747908560449
0.0477485646107914 -0.278956364505404 0.276636434102291
0.0442751842168966 -0.289369040270872 0.274850131551377
0.0255351545535291 -0.304425337192197 0.269466901481666
0.0012141618416497 -0.325315520520241 0.259115473339475
0.00527712610079022 -0.333518810078903 0.258824995208132
0.292870243557025 -0.0100649809507533 0.195946902319887
0.294882666983811 -0.0108775283773219 0.195516794493242
0.28977056215504 -0.0132440768117581 0.205537099727711
0.287233314018503 -0.014663067751873 0.211002902249535
0.285341820773676 -0.019052489141677 0.219562063249034
0.287922939315415 -0.0232273769343073 0.223090819907042
0.277346710912261 -0.0235090720813602 0.230103621729158
0.277472527516344 -0.0263075799673512 0.233952952460522
0.277785512468315 -0.0274445982471547 0.235314166324151
0.269995813561927 -0.0295394986153137 0.240011322078591
0.269490686551992 -0.0409008100856605 0.24685922330797
0.262360662865117 -0.0401476830420884 0.24871919248882
0.260389616763291 -0.0448034098770952 0.252038192713394
0.250946141227384 -0.0529124109273947 0.258380721353871
0.251042987595365 -0.0572652098242786 0.259635527532018
0.245098270482784 -0.0626632306591406 0.262138342220498
0.242035324570201 -0.0720826061155366 0.265364547887346
0.236298964860003 -0.0798462964885108 0.26842919700066
0.229057282009299 -0.0805782940611709 0.269558396953269
0.228895292370626 -0.0895942708584658 0.27161173402589
0.223053190479524 -0.0939613038731879 0.272979134002094
0.217782474069091 -0.105080534284432 0.275610826388399
0.204587634045142 -0.106215282502872 0.276997271140562
0.206823104963246 -0.110492664990531 0.277640912122704
0.19649759963898 -0.120327175207748 0.279954191020423
0.196832972284432 -0.131327117755474 0.280440392242759
0.183634361391154 -0.132637608720442 0.28070467952941
0.183458561095798 -0.141737004738828 0.281155726228382
0.166909489059695 -0.15577686745567 0.282017011703195
0.160436499594744 -0.161581757632929 0.282313792485844
0.158177600270532 -0.168279425145666 0.282644112285281
0.149363733427827 -0.177949519115593 0.283069791572956
0.143250697356474 -0.182620935840155 0.283195835739215
0.134248880173314 -0.192765980539107 0.283379990328367
0.12701820022398 -0.203609766498975 0.283432413122871
0.118564412256759 -0.210742652797248 0.283176304766604
0.115023310643589 -0.223446567727575 0.283071806433856
0.0981169521642082 -0.233929031462908 0.282179826267121
0.0994888934582371 -0.241183098541296 0.282130414936095
0.0876509460664092 -0.243088239119952 0.2815365300331
0.0839095830020096 -0.258940401183242 0.281095812558502
0.0765197883558158 -0.259072949958842 0.280753590736962
0.0719858885739161 -0.276676853335708 0.28011669528484
0.0509405199453277 -0.289917669470583 0.275947794417227
0.0455090635047046 -0.301983660943337 0.273545434233933
0.0266298246139292 -0.321269412725843 0.266653661009835
0.0191654621104411 -0.332761176461188 0.26265959897601
0.00724310689371889 -0.346132079334278 0.257175101012023
0.300646960595144 -0.0121058024227573 0.18977346058101
0.297797879985479 -0.0161999189266696 0.202772621671402
0.299654195330244 -0.0176013942934206 0.202725169711527
0.293671611017592 -0.0195613282899007 0.214258730135623
0.297963156048326 -0.0219491813362517 0.214410140022844
0.292922642126334 -0.0271678285378628 0.224808248097554
0.289465920929728 -0.0288987639089304 0.229119962880172
0.286784714422767 -0.036283043581821 0.238556033957789
0.285723066064372 -0.0364933051935203 0.239022673612128
0.280760745899844 -0.044937707386917 0.245594063868609
0.270460814352108 -0.0479043186524771 0.250666565101182
0.274821242022853 -0.0521059605159149 0.251730240181987
0.263087494935266 -0.0529325047932909 0.255920541355977
0.261658918951362 -0.0599842352558845 0.258771691030368
0.2578890373921 -0.0673629509110453 0.261512886905614
0.254115135455973 -0.0713171779846493 0.26325562015433
0.249938706967633 -0.0783864598130147 0.265969999617696
0.242780022923799 -0.0779138589409982 0.26694956375509
0.23709393812215 -0.0827570212051672 0.269158286646935
0.231052281447448 -0.0908930226837048 0.271677931883577
0.228961601153398 -0.104250561741246 0.274411494762346
0.224351854732405 -0.109608736653814 0.275840994764473
0.212681425126186 -0.113212600592496 0.277603279337947
0.208222813204401 -0.126831831155391 0.27998201364015
0.19897495016385 -0.127547644314862 0.280222486361051
0.201818943173691 -0.130187568061839 0.280276913846746
0.185838002382716 -0.141604806466166 0.281125029568881
0.188327667573829 -0.148824203559344 0.281417400612111
0.181767162339861 -0.16573859633586 0.282324439812001
0.17072699574304 -0.171362107935565 0.282747718626967
0.171943432434313 -0.170440289479808 0.282689849823343
0.160958806101798 -0.182760298807553 0.28338103137865
0.148833458385683 -0.192237831777319 0.283744170379705
0.145558616002466 -0.202932084379942 0.284117811738722
0.139000925826278 -0.212944075060288 0.28418194559701
0.133463027885407 -0.22106423705988 0.284006748285759
0.118744828959499 -0.222004908736885 0.283263347970092
0.106428710651632 -0.238336905954854 0.282505925865991
0.107930215702087 -0.244756961258833 0.282475877199211
0.0925821798072504 -0.258586188255489 0.281465186587256
0.0942701065270788 -0.264697099691236 0.28136823597605
0.0721723858780086 -0.283637534585128 0.279934256055773
0.0775691534919317 -0.285132587166449 0.280117240693896
0.057601741562599 -0.299238490362811 0.275993433559888
0.0542735562931143 -0.310553747724779 0.273987342940488
0.0461015925633015 -0.321394071039177 0.271199356222159
0.0289428815520397 -0.333009946305407 0.265084454562428
0.308801357602052 -0.0205249703481288 0.1942486043134
0.306497887809536 -0.0215111627436757 0.199948319330894
0.303532455575404 -0.0237694021356772 0.209254296441499
0.30620564800692 -0.02468196409434 0.20674106115648
0.300072817887137 -0.0302627979110292 0.222562105383673
0.302322961562319 -0.0359231574077311 0.226815264814525
0.291974292176606 -0.0329083214528845 0.232490433241437
0.296271337858326 -0.0388087633118673 0.236563215867959
0.294322511586202 -0.0417553156551131 0.239065814301407
0.285555456234414 -0.0516537246509648 0.247770728715235
0.278528229883696 -0.047910458328264 0.248064295479153
0.277153918496505 -0.0546561229305203 0.252477212628923
0.272437762916312 -0.0582599311438297 0.256109086533605
0.271135150052293 -0.0664550306072952 0.259111304592324
0.263651813818715 -0.0706198422770725 0.261563532142736
0.255763999251329 -0.0812531948391815 0.265722851738516
0.255925208077086 -0.082589839646375 0.26601540831074
0.246855195629326 -0.089608072267406 0.269500955310249
0.249097366029758 -0.0930540893658683 0.26989612248378
0.242265205562801 -0.0977824515755439 0.271774011526877
0.241148818387625 -0.107597437179374 0.273562637599884
0.234303728687352 -0.108244335895575 0.274596143233906
0.220301504239287 -0.118893979399076 0.277950213709401
0.217636046308963 -0.130624294061626 0.279940179282973
0.213061508047096 -0.134918189106483 0.280235978415089
0.202519691720845 -0.141579559041091 0.280772481603114
0.20370460532693 -0.148558242630287 0.281059040725296
0.189933087421116 -0.158572781953008 0.28181881914226
0.1806383149787 -0.165725772383996 0.282358342849758
0.182430411353612 -0.169629240064888 0.282484137843802
0.166527344996967 -0.183071560876787 0.283368503783556
0.163784806787972 -0.184382299168934 0.283459272400733
0.160130285966231 -0.191186631246649 0.283802580273431
0.151517104064595 -0.209937815251771 0.284594784598732
0.150132979778569 -0.21859335878957 0.284810518588515
0.134404324544858 -0.229120003647789 0.283983980673913
0.125194186463733 -0.235199401252695 0.283449208640858
0.120077274016036 -0.24559350366807 0.282960523198908
0.11840476573608 -0.251993708063243 0.282716294499476
0.0985787855065884 -0.262771630992556 0.281599544840463
0.100058411919498 -0.274558194473843 0.281335084384912
0.0939632118481096 -0.278214815111325 0.280999022594399
0.0836175374551181 -0.295624377470954 0.280010612546562
0.0663899955173547 -0.303609851467947 0.276969234672709
0.0534231065888114 -0.319532058929594 0.272706725749811
0.0496983911738429 -0.318423082991256 0.272199314611191
0.0331858973091552 -0.35124483645097 0.261905389388184
0.000350633460172088 -0.377188110180122 0.239215071842047
0.317104475712216 -0.0269845483974019 0.1941115072561
0.317515376980378 -0.0290054258319601 0.196885451485121
0.314772158574343 -0.0334561481541289 0.208517407976822
0.312841091874306 -0.0351286843601006 0.214251314358488
0.311012073887907 -0.0353612848174736 0.216994616167956
0.305717442061806 -0.0393504461865331 0.22724766118815
0.305120904802293 -0.0436392097769178 0.232875861642061
0.302834089845262 -0.0493709593365393 0.238832930591541
0.292757869486103 -0.0492721968850567 0.243382395983199
0.290369811408517 -0.0543591431521821 0.246902266634973
0.290485867909958 -0.0561018034511193 0.247687341469024
0.282921964065427 -0.0614152140534213 0.253647259909008
0.282456799187327 -0.0681888706630938 0.257089715265488
0.276781251638509 -0.0702331836901441 0.258867533023085
0.27245183667076 -0.0809431052944752 0.262367030339237
0.264981941732278 -0.0894700714489149 0.265904010189264
0.264330440173623 -0.0894833898525778 0.266035317239646
0.257865390008673 -0.097541512363795 0.269261024717303
0.258834028739234 -0.103455097505985 0.270480141509534
0.245449579287779 -0.111780073753122 0.273678995346309
0.245248802591436 -0.115850473412119 0.274385307217406
0.235091129946533 -0.12236668641299 0.276846048298411
0.230393701322244 -0.133635325771035 0.279296141773264
0.225684453003344 -0.131171818194399 0.279564426517606
0.222206646474286 -0.137928674078866 0.280113743843517
0.207929227862831 -0.151769645755484 0.281104490267129
0.204757463058392 -0.159984965675902 0.281529058195091
0.20135351943737 -0.171884607417629 0.282091400500874
0.189943291369211 -0.175093311973405 0.28256014973745
0.186433564138286 -0.180771469293256 0.282894095784344
0.176407735587953 -0.191454259274066 0.283599484784823
0.168959548055626 -0.199683384593685 0.284150445225174
0.164619178483331 -0.207862724219737 0.284611331262192
0.154119459713539 -0.209417615371909 0.284649201982132
0.155991444582476 -0.226067720654201 0.289583990604514
0.139942984363451 -0.232205912124019 0.284150219964762
0.131672344918173 -0.243552673420606 0.283529120219409
0.127398213014894 -0.251512858660154 0.283092593847113
0.116224387987059 -0.257340595879974 0.282507609252141
0.107512538862481 -0.278439003701001 0.281436926150667
0.0973838973132227 -0.277864331863381 0.281124110903193
0.0899744572959724 -0.291326335324532 0.280379894997691
0.0891067789183312 -0.296659467309623 0.280153278340986
0.0761598865887212 -0.308373491284472 0.277665683674173
0.0582626520155664 -0.331209379188809 0.271569395536792
0.056675590817896 -0.330401866981821 0.271489535831278
0.0405276945859671 -0.351615487075115 0.263477270011422
0.0328674117397678 -0.37047370096985 0.257191339258137
0.321853229327772 -0.0300809180634265 0.192126007063234
0.320605648622559 -0.0365695415156827 0.204918413416819
0.319833442910616 -0.0363159115568128 0.205661186531431
0.319407674954131 -0.0406373898794384 0.213567739532952
0.315221735254609 -0.0419346134491033 0.220250126297129
0.310496665574368 -0.0423060772096888 0.225667684417126
0.312324810800244 -0.0495296186389302 0.231854641438432
0.30502290071808 -0.0487734038604909 0.237527036143459
0.300965465126695 -0.0573729939229226 0.243578074768439
0.304227339792002 -0.0618258009411334 0.244223255360547
0.294933993490441 -0.0647799423532592 0.249853720451265
0.294656228569852 -0.0693810919634899 0.252189677440558
0.292688488127546 -0.0748300919151773 0.255694201132022
0.278469526232902 -0.0763008755002564 0.259950280020343
0.280916780091904 -0.0834504135535789 0.261122444522411
0.279065575379893 -0.0889940912788321 0.262879631445869
0.266857273000778 -0.102974088031224 0.268811197818265
0.264505219867466 -0.102145306743538 0.269072530356144
0.260014637839077 -0.109811580948787 0.271381110334448
0.253490000770441 -0.111507287834896 0.27254628367114
0.250991199658084 -0.120736069052478 0.274424023956925
0.242034826649028 -0.126848667723953 0.276626038649443
0.243857316338598 -0.134652942095097 0.27758999116509
0.227701377531179 -0.138765731897371 0.279961302531139
0.228039932744072 -0.144518610636771 0.280166729821454
0.222681430421853 -0.157339267660281 0.280829219910805
0.215346938065199 -0.160000020909851 0.281175056525717
0.202733757831225 -0.17974823406829 0.282341480002733
0.201592940745658 -0.180600379122762 0.282411786190181
0.19496278016421 -0.190237844181921 0.282996915650763
0.190490951503244 -0.201441607215193 0.283497048792989
0.178768974848564 -0.207345866144334 0.28416898210775
0.173611402546593 -0.218414254872272 0.284650352958038
0.168170434579453 -0.217218531618443 0.285969917277135
0.161497540846856 -0.234460765245519 0.284730678052535
0.147725091200848 -0.235298931319505 0.284419443330145
0.137648011904356 -0.254803426161395 0.283356245361016
0.135875318163902 -0.254625790954014 0.283298709905366
0.13036679401841 -0.273182372623749 0.282373195854262
0.112305001712358 -0.280372679456197 0.281523244991097
0.108042663296719 -0.286812411862457 0.281143554194531
0.105736898546555 -0.301496655400532 0.280530244167883
0.0961893700622053 -0.3051001272487 0.280073579394271
0.079143233728539 -0.331102754621638 0.274410581653655
0.0732726624887459 -0.33451420858985 0.273047568953122
0.0639217802073734 -0.349537161567464 0.268755258450973
0.0493680110797101 -0.362537552014679 0.262740507570156
0.327317012928026 -0.0386488430670106 0.198252734022129
0.328019776093693 -0.0422942611288959 0.203314804393815
0.323396744712652 -0.0410322357924997 0.208192501172022
0.327498607615505 -0.0496636112532287 0.21635135058928
0.324258817232416 -0.0507392669516816 0.221026963590473
0.321752561235784 -0.0521278746681625 0.225295383993548
0.312829088728512 -0.0520310536242937 0.23389594788718
0.31293521315215 -0.0615973709803264 0.240069549787938
0.310556950594083 -0.0656528476247483 0.243139552234098
0.308286401876545 -0.0698584239591136 0.246232301569546
0.302012022079007 -0.0696180637686938 0.248990449018585
0.293714224862238 -0.0772161378163708 0.256378697015292
0.296918415084039 -0.0780851201382932 0.25535305619307
0.29573245797118 -0.0823203428927258 0.257497032336634
0.284947602912816 -0.0899473696906346 0.261778729099849
0.276559098413493 -0.0991169150933516 0.265890535913956
0.271544965173108 -0.102425999791017 0.267756704983987
0.269148805006798 -0.108406626860667 0.269678558618675
0.271932141994876 -0.117851058959759 0.27104299636667
0.267622451575971 -0.120346317592387 0.272068610387729
0.257255790352569 -0.122263771723858 0.273803282241872
0.250932791144947 -0.138037627088418 0.277137550681679
0.2459533704795 -0.142269557510632 0.278486805571498
0.239712319122568 -0.147565575637191 0.279890708446239
0.234118333864463 -0.155098883000231 0.28036186076905
0.22644889999853 -0.158798240936373 0.280758045949483
0.2262413326046 -0.173092623017382 0.281216346702214
0.217297200573444 -0.179122837004625 0.281757617070392
0.211043451276367 -0.188435502230317 0.282276756879834
0.196712248497186 -0.198542395168859 0.283156310528881
0.19508275670281 -0.208970632357313 0.283475950668658
0.182480269573304 -0.214383083636835 0.284163199388537
0.175698971384992 -0.21932739534868 0.284565093370511
0.168242870678617 -0.229190084340967 0.284811791209871
0.166050335866865 -0.234200831773797 0.284671249795281
0.155415878980096 -0.239386040199847 0.284426698454222
0.147565334664309 -0.249674719734627 0.283820998610129
0.133667375394016 -0.266457499356264 0.28275078790608
0.139727676712777 -0.27309139152451 0.282588759525005
0.127756013495251 -0.27525784689991 0.282220694360634
0.12081730526127 -0.291287383089769 0.28134163643996
0.114059451427333 -0.305509877129589 0.280548091671378
0.0964075148696372 -0.311891977856139 0.279828630049323
0.0964059162178095 -0.322103388583182 0.278153325108833
0.0751711098262649 -0.339965865336191 0.272394637773573
0.063255189531183 -0.363150001236072 0.265321965321927
0.0449700110233178 -0.380879041609443 0.25741808719282
0.0384342349679337 -0.399129505657313 0.245081485462108
0.336999687292792 -0.0475495465363837 0.198552012652196
0.333959425935145 -0.0489415243093563 0.205493582772662
0.332107019867723 -0.0481889910576663 0.207033210380632
0.332190792537574 -0.0505245893565953 0.210831241937057
0.329356953353186 -0.0552362068564118 0.220914936184629
0.324530728561748 -0.0593942017782077 0.230007212107466
0.320405301510911 -0.0579222001510795 0.232514820086294
0.323488438908759 -0.0622145008261564 0.233869158647782
0.319298347021317 -0.0714147076035934 0.241873936987444
0.312571362870214 -0.068707574419548 0.243684988841382
0.311756394259176 -0.078354339292227 0.248739417265379
0.312072934725931 -0.0826819238197968 0.250690147350892
0.302538659590007 -0.0853897332215117 0.256331527375951
0.297782660020553 -0.0870593343652353 0.258177122168022
0.292361951928182 -0.0927307994944955 0.260772892479116
0.281796860880983 -0.102746881548123 0.265581593802562
0.278450663035979 -0.107208802776762 0.267415935754616
0.278233311356626 -0.115957858527194 0.269384037954527
0.273102197246054 -0.119832835608017 0.271089693097688
0.269997284218053 -0.128148279007856 0.272678486927166
0.260361150505074 -0.13312313648804 0.274980878308319
0.256133648060796 -0.141860895948611 0.276818056026137
0.254752420612462 -0.142537001169307 0.277143410812758
0.250075015377136 -0.156911159968025 0.279680528125279
0.24310589353701 -0.160276515837687 0.280155844398832
0.231157379984155 -0.172074760932075 0.280982239673085
0.225425837559947 -0.175296230247627 0.281311350370374
0.226333757470602 -0.180477057839543 0.281416318894407
0.211846935954661 -0.195639534915972 0.282441951832204
0.210507966043726 -0.197050834261028 0.282537020513329
0.195709475990138 -0.210553628590614 0.283471025826915
0.185210110491191 -0.222811068521654 0.284104294154516
0.186036658981491 -0.235138035495636 0.283895900339876
0.174520715795889 -0.239004743993507 0.284242214600284
0.166356700377478 -0.247476278967548 0.284032332650386
0.166663077627633 -0.255122205869357 0.283662301260409
0.160613963079899 -0.261954107627176 0.283292599126011
0.144529232936555 -0.27783511677768 0.282427216302885
0.139359219490159 -0.280306603800061 0.282253460008668
0.131000714427626 -0.292771129401316 0.281504821902661
0.125166145448307 -0.306298205555085 0.280763470712808
0.111688617274049 -0.310936397559671 0.280250008200898
0.111654475907786 -0.319527107815154 0.279862128599055
0.0937502890517023 -0.335743107590893 0.275362776551851
0.0952053133586079 -0.337997788164529 0.275078476142752
0.0764985563226022 -0.367009757479586 0.266484839955151
0.0626699905585324 -0.388038213075474 0.258191225353985
0.344207603944209 -0.0508966306914955 0.193265080867534
0.345581608487697 -0.0572125098462606 0.201798576747746
0.340888316353947 -0.0582180929624715 0.210593231498853
0.337636335993489 -0.0593688728233769 0.217021773549854
0.335728985111982 -0.0631217759989985 0.222929303478818
0.331033583737456 -0.0623719978428471 0.226719458931053
0.332477053145029 -0.0717467939350262 0.234802273525426
0.329102042078677 -0.0673107829687171 0.233585333097171
0.326275646272276 -0.0733581596601678 0.239576489513991
0.318652355662987 -0.0811758401537443 0.24690534803663
0.316308626818008 -0.0835071993335284 0.249123590684188
0.315763171063294 -0.0899146576783994 0.252482707900707
0.307595912314185 -0.0960355391815978 0.258123421980415
0.307506447661987 -0.0976716375485597 0.258538632180258
0.296083315621968 -0.104149667739518 0.262687387437705
0.296823115435755 -0.109435162870489 0.263490391011793
0.287437670229279 -0.119730554377576 0.267750399204629
0.286062443444636 -0.126752110168046 0.269385897962925
0.280020774072985 -0.12767105521469 0.270876252142086
0.271112042942363 -0.139622304735501 0.273932452721666
0.266949197878388 -0.141638713561446 0.274910345134196
0.264264940899912 -0.147148576969318 0.2760720449988
0.262216465285714 -0.156824473956527 0.277556473264098
0.252670425969672 -0.160713652801755 0.279664758904783
0.245852095677233 -0.171435033457108 0.280348791355303
0.236209165539654 -0.176813852512414 0.280901363600862
0.235978089897106 -0.190776347307246 0.281235852269608
0.223923794699105 -0.191089911202385 0.281810274399576
0.215012712579945 -0.201490722594442 0.282406163761556
0.216388014037832 -0.210693466613234 0.282485836162685
0.20110213406247 -0.222152856718294 0.283302665863496
0.206020810150141 -0.228045591143365 0.283036895873462
0.193678945394722 -0.23121008732459 0.283614101952857
0.1838995623536 -0.248179151303701 0.283587191956659
0.186184857840003 -0.24877449019848 0.283481214555359
0.173477079443686 -0.261316412300762 0.283258918183093
0.163839665247481 -0.268358647442329 0.282965638261438
0.16059505183061 -0.276482241263828 0.282572363165382
0.150179795607562 -0.295833879249913 0.281599696218985
0.139720978702976 -0.299322088639026 0.281322485725946
0.130582551826862 -0.311236176226645 0.280644485829166
0.12156917949435 -0.324944591525446 0.279841984740644
0.111869905323631 -0.330722490577595 0.277991779724271
0.0992018879592113 -0.347487231724253 0.273632123492274
0.0903454453749854 -0.355179457722002 0.271348910341326
0.0713872086186152 -0.379716329504132 0.261979850710937
0.0710086881893454 -0.385518838568784 0.260227890385233
0.0554999942769909 -0.408538377690515 0.244950662430293
0.350957179875575 -0.0612750560020554 0.197242972852897
0.34641677064796 -0.0591131545824339 0.203207247764754
0.347065886700352 -0.0629946176340442 0.208028377151359
0.344503949062596 -0.0660613250588034 0.217215202382367
0.344243276590834 -0.0703480780412865 0.221236781357885
0.341746984479321 -0.0733007542331833 0.227068546103602
0.338724554724813 -0.0736042864594997 0.230628873948068
0.33812902324899 -0.0776184016642821 0.235265399477024
0.333250298737947 -0.0861527719200606 0.242076115711821
0.32643502392368 -0.0874938740966663 0.246354829092875
0.324023214474457 -0.0904396872142795 0.248727873188057
0.323424936616314 -0.0969920729132309 0.251339865235007
0.315952117236804 -0.0938789290686034 0.254316571098065
0.313769389011185 -0.106707935043376 0.25860028140585
0.303411775447129 -0.110028572197452 0.261934468418346
0.305785552518054 -0.113292589163165 0.261933422086023
0.293017378979109 -0.129592173708583 0.268149547938237
0.290818488365587 -0.131548002475858 0.26906392029577
0.287606317173639 -0.138331978663599 0.270903043476326
0.276023047069341 -0.148206129595694 0.274161990576024
0.273593362804546 -0.151685533345826 0.27498604225185
0.27635634315462 -0.149165119573658 0.274215846432956
0.262254414125407 -0.156783164719196 0.27754512723525
0.259525005413987 -0.169199443571155 0.279444550973491
0.253092120079256 -0.181914855845165 0.280278705624681
0.253145481146547 -0.181167012403333 0.280264346624306
0.236569119100205 -0.197221184616235 0.281309416782616
0.22964289420598 -0.204224399138316 0.281750748142385
0.224631433572849 -0.215347278064474 0.28209849616675
0.223618714944693 -0.215398208047098 0.28214960656027
0.218161219736033 -0.227283311843628 0.282445235129283
0.200943562800315 -0.240669971636235 0.283099848427361
0.19391798269085 -0.249068468149108 0.283180130390923
0.195823897041895 -0.246336492734949 0.28319969356989
0.188788070886219 -0.252549259380932 0.283256956132544
0.17356231830205 -0.271409467195769 0.282775492825364
0.167461932842919 -0.280661867386392 0.282345067075761
0.160861120476798 -0.291013390115394 0.281851144623531
0.157887654804496 -0.294042845443861 0.281709639484015
0.145396511525921 -0.306342754260255 0.281034803938519
0.134625047807366 -0.316525099894481 0.280425407597649
0.127611713853901 -0.326104289024145 0.279883659833117
0.117920326610324 -0.342063281989547 0.276332553141295
0.110837697527686 -0.353494989419617 0.273470856713072
0.101306609819715 -0.366701719044583 0.269875280023827
0.098166792124024 -0.369732877935151 0.268611721164328
0.0696640593628534 -0.398301981202904 0.255483547782019
0.357871856847146 -0.06571224969184 0.189978067149812
0.351086009241298 -0.0642491484603675 0.201699887583936
0.354162842655971 -0.0704769454854935 0.204840359816706
0.34994817206258 -0.0748061494809617 0.21752139908922
0.346656493837203 -0.0722465264901961 0.219675993508218
0.342614093186222 -0.0773266986047339 0.229375967661005
0.342517715579172 -0.0794460255786789 0.231321249305223
0.339015049794735 -0.0869389112243663 0.239116263437788
0.335369930259381 -0.0852703337142376 0.24058365472912
0.328695335346815 -0.0937719012899078 0.247272311601327
0.329608573124114 -0.095224269301723 0.247266202235838
0.32223476764281 -0.101654008454321 0.253625941661801
0.320527207187386 -0.102383135352401 0.254834597528521
0.315459461264024 -0.113461936793633 0.259304614008965
0.31160980413138 -0.119110959608141 0.261372986498134
0.306929549345149 -0.128546128200485 0.264335917528594
0.304995091960768 -0.126014281937735 0.264437517084181
0.296910962073403 -0.138462411585465 0.268792878524899
0.290538608728336 -0.146615848295036 0.271438623657214
0.28894363770301 -0.154207936347648 0.272576917644733
0.28125072727661 -0.160269351332001 0.274585634451744
0.279954495759585 -0.158261344815691 0.274632676890664
0.266955332333877 -0.166611929357102 0.277853963867153
0.263522472636656 -0.180254843919113 0.279610571352582
0.260326859110906 -0.176862737077843 0.279853457243002
0.250875285821781 -0.191663818888641 0.280538528830935
0.252440729180437 -0.198516946450028 0.280572013466867
0.239583616535604 -0.210010525794746 0.281330278882275
0.236227067963335 -0.210700992436806 0.281501226630696
0.225365675422131 -0.219604679175093 0.282074181234873
0.220944165709626 -0.23222154908272 0.282257672607343
0.21664857405646 -0.237610726410519 0.282415015472633
0.203302581436937 -0.257953351227648 0.282529601425117
0.204487093189584 -0.257751483756772 0.282491738470474
0.191134740414452 -0.269754253700301 0.282488722263964
0.189037895305557 -0.275249722150896 0.282315804764213
0.176733107620037 -0.282978062415741 0.282172900076259
0.17322506996788 -0.28900232751527 0.281940516921386
0.158395992905412 -0.314019274561352 0.280717740818898
0.158014068965341 -0.319509625183228 0.28044665087164
0.142294332831657 -0.322624418691369 0.280203172154949
0.136388916218967 -0.337447894807607 0.278201148154339
0.132328120949436 -0.34523396626386 0.276440371768666
0.118509770095418 -0.361063752412891 0.272626836856399
0.0996003864866125 -0.385755724443064 0.264224251642124
0.105676953854644 -0.381080321187362 0.266330013741684
0.0838260324997194 -0.409096938899691 0.253611089528779
0.361691508195639 -0.075216713552767 0.196393620681019
0.359566605800198 -0.071610751056616 0.195838449684282
0.35714052447644 -0.0771077053460411 0.207356162382501
0.358942262509881 -0.0804952502414675 0.208109305602196
0.352103489045977 -0.0858267367652764 0.224126213825835
0.352682181555138 -0.0856192750693132 0.223183475217465
0.350464299704 -0.0874830049321934 0.227713227240607
0.344965770118202 -0.0935571096873659 0.23800440665514
0.341510043293394 -0.101746357773908 0.242837950850379
0.338666120485354 -0.10162884603452 0.244425149772215
0.332774625673204 -0.103910436953912 0.248513950955847
0.331629851766304 -0.116136323225228 0.253403507853668
0.329292741948928 -0.11790297424102 0.255324941808112
0.323874516238232 -0.120469253416671 0.258163069875638
0.31714218445606 -0.125675693700886 0.260964359675002
0.318054245569259 -0.131362152692853 0.261700950896612
0.310989692981079 -0.138531087461295 0.264938292194784
0.306610950931899 -0.148419742613249 0.267755770305388
0.294984440398361 -0.147867479742075 0.270823415216878
0.28907495406603 -0.157074755061396 0.272771020138451
0.29513984033996 -0.166875929948257 0.272308472002623
0.278055093523727 -0.168348510876076 0.27584766997619
0.276309597503063 -0.183520085734738 0.277294902705137
0.274907046251555 -0.182639686847541 0.277514569967248
0.268164441080235 -0.190611400691632 0.279372735599462
0.264015660198865 -0.193415666366837 0.279938744912795
0.256014668298859 -0.20569131614299 0.280490664987662
0.251625224365101 -0.217011467268663 0.280745125299646
0.244295037580865 -0.228428322910045 0.281142891437507
0.234311659316967 -0.235834728369881 0.281560982858111
0.229915132474894 -0.233552785746423 0.281801230203636
0.21914466581096 -0.243315945267195 0.282220520864237
0.21610357194719 -0.256599563284506 0.28205794505239
0.211286855593524 -0.269380730958123 0.281846802517256
0.195927795278132 -0.278266167926384 0.28199794969141
0.192404089255385 -0.280355196999366 0.282007815807901
0.189595451193872 -0.292769747826918 0.281502245080901
0.177775730737544 -0.300866066201659 0.281302052544914
0.170413398143444 -0.314530192396445 0.280657279175029
0.15869220091029 -0.331283433097438 0.279860934112075
0.153312932618276 -0.338281023930596 0.278666775646692
0.145965509147057 -0.347664639291233 0.276453600786539
0.129279086636284 -0.366061873135921 0.271989504258955
0.123868704618074 -0.365706079982081 0.271882783714702
0.117041930826395 -0.372827862274836 0.270013985182429
0.0976090720622253 -0.401392217550356 0.259353741208767
0.0982032923318414 -0.405043270031877 0.258222067021837
0.363941298763903 -0.0778683222023688 0.195390512633702
0.365551810623003 -0.084446070860699 0.200434798780896
0.362832507125373 -0.0877713992409237 0.209688536290762
0.362138537124652 -0.090924975515523 0.214888369821481
0.361321515580002 -0.0888961647507289 0.213940165376369
0.357247320445923 -0.0949719917018818 0.225172879458242
0.354744646305973 -0.101503908211567 0.233220179318332
0.350409566339559 -0.0964467896352559 0.234738922579334
0.352252041204262 -0.107643003829465 0.238725122215003
0.344115021019588 -0.105719024086772 0.242725544661167
0.339320688535699 -0.113208989585459 0.248083969432037
0.338290275671083 -0.121627586087209 0.251586031818765
0.332863368833433 -0.120130581928597 0.254101669768316
0.327412111176021 -0.125728478060377 0.258087133361589
0.324563339484134 -0.134237481489121 0.260373590710649
0.319676852949952 -0.143359028182532 0.263339722134292
0.312507346862311 -0.145577602023974 0.265719008586762
0.315086509630933 -0.144900810127855 0.26489141957146
0.308548147544839 -0.161203728772779 0.2686201259371
0.299909525625552 -0.166430271704222 0.271317749512554
0.291496451219083 -0.17246360953185 0.273468720386905
0.287657159817267 -0.179476505160022 0.274777840189893
0.286821173939511 -0.189799260368165 0.275627610281368
0.285112553227424 -0.194354333614502 0.276265098782896
0.274237387269996 -0.194794482666061 0.27844597801402
0.265395356196468 -0.20850389708981 0.280026980257876
0.258991582284421 -0.216494308361131 0.280372920978583
0.251601042338679 -0.222250100763765 0.280761885012254
0.251170038159334 -0.225051597060532 0.280791884805002
0.244735832143172 -0.242155568231476 0.280982108907517
0.234384850521057 -0.251958588466337 0.28133931778619
0.226757673947964 -0.259267111976676 0.281518000959287
0.216365150342983 -0.271858081588018 0.281572704829505
0.208213066776605 -0.276541816616921 0.281723133885756
0.208960978996132 -0.2801688425352 0.281556593590245
0.19352490298671 -0.292678871282532 0.281444578486901
0.189513312418156 -0.304438553483197 0.280946197487428
0.185728605835933 -0.313700760865075 0.280563524533447
0.172826640371024 -0.327266388853495 0.280018775797439
0.169782743554685 -0.324709212371048 0.280154456518524
0.159361580618088 -0.339329418951565 0.278374321555239
0.146060484677404 -0.349017103570271 0.276169930193888
0.142473835500419 -0.374775236504586 0.27058564350233
0.137315689237687 -0.367133204331699 0.272032887691424
0.114467941402346 -0.399841087933415 0.26112245174852
0.107273991594778 -0.409255704460643 0.257547513594758
0.37165355846382 -0.0858506619722806 0.19058830153742
0.370065858458774 -0.0924905456213497 0.201776666717009
0.372012729499863 -0.0955476992232803 0.201847629974597
0.366743254694645 -0.0977153355525365 0.214513929499703
0.364825575090806 -0.0984545666971062 0.218144962958166
0.363952676862223 -0.105685704277315 0.225230713543759
0.360083102215905 -0.105715468838908 0.229885935806489
0.360548116525499 -0.109367548259323 0.231981104110946
0.351840260680423 -0.111112521494679 0.240168995676408
0.350514303442037 -0.117898410810814 0.243291779598421
0.350081904090265 -0.122596754056483 0.245175171041759
0.342815683150774 -0.119585383871878 0.248297360082268
0.341631912217013 -0.13608309465841 0.254718672214367
0.336837006833782 -0.134371217546965 0.256828111318454
0.330622195143481 -0.142154173987385 0.260053064215779
0.326282757741152 -0.141667711194195 0.261187753993567
0.321281565161212 -0.155485362636087 0.26426856170447
0.31252072930154 -0.159436306074406 0.267264376931618
0.309419317575074 -0.161029006111833 0.268346612349829
0.305074871791992 -0.168866435318181 0.270469274684366
0.30260131136881 -0.173789355953482 0.271343825205794
0.296029288955834 -0.1895670047817 0.273790266961518
0.288976559169905 -0.19806195292549 0.275567360684018
0.281219170326932 -0.198047890231056 0.277223994582318
0.284514993574051 -0.204131610361589 0.27665612080723
0.273162450865698 -0.214505931209228 0.279197309582798
0.266978233322229 -0.2212320542199 0.279985095112794
0.267543364362707 -0.232677772624792 0.279952314158158
0.257217004102762 -0.237871300135702 0.280409399190638
0.246130008813737 -0.247515220500879 0.280858832943147
0.238000412908498 -0.257213315323277 0.28105800832023
0.230516718464982 -0.267878356229021 0.281154544989745
0.230126637555634 -0.276334782049698 0.280904719633613
0.214112649159688 -0.282747726830098 0.281293435966921
0.209352452956204 -0.292675060496293 0.281019920642493
0.205338243125482 -0.298220017498707 0.280898083397103
0.194740525815338 -0.310697980184675 0.280564738953394
0.195630175149179 -0.310497081362005 0.280560295832896
0.191989919622453 -0.323076106543712 0.280016920384222
0.183152321218715 -0.334290144577488 0.279063123508006
0.168890325511032 -0.351501085155327 0.275723889010321
0.161839113350656 -0.354858627835361 0.275111567953709
0.146872491710704 -0.365421197973043 0.272717830485977
0.134697696777505 -0.386318634864274 0.266718118077314
0.123873548384832 -0.400955156826839 0.261471425224192
0.119155048786006 -0.413313279220328 0.257134385640469
0.376714474627434 -0.0937597045245024 0.190725896087394
0.376120851894309 -0.0951123341409694 0.193517703424268
0.373657857937434 -0.103841579702503 0.208939452993001
0.374449845024929 -0.106321091389889 0.210490136329116
0.369667095608487 -0.106019966970091 0.218235989056399
0.370487199287893 -0.108240084012028 0.219056532205948
0.365863362971176 -0.110791584906614 0.226650461189922
0.364470366357325 -0.113937995976757 0.230603301376417
0.357571740045819 -0.121484689382559 0.240489510302166
0.351908392576216 -0.123298264563232 0.244371057063687
0.353253775845843 -0.129505784881835 0.245759390902777
0.349439048979116 -0.1341945266902 0.249580647546414
0.34340407175411 -0.138074618642596 0.254394719371957
0.34511346361736 -0.144220768411296 0.254706937047125
0.337537599646782 -0.151374021730938 0.25896686379235
0.333110410940119 -0.155167704193995 0.260732733412513
0.327261852841733 -0.160479439361279 0.263083355903619
0.318962674088598 -0.171795686715736 0.266767949588815
0.318625002555955 -0.170577161575351 0.266730175093115
0.312435263913884 -0.178170759366998 0.269383625299951
0.310139860888298 -0.18972650380038 0.270860484824056
0.299266091753727 -0.194828271326615 0.273297213959969
0.299618241991201 -0.202876046666965 0.273402036142571
0.290251005455631 -0.208433986618367 0.275527180916838
0.287141144110647 -0.209322368716737 0.276211309735827
0.279599886700311 -0.22644027269221 0.278003850479291
0.274953161286027 -0.233632111298759 0.278878077658019
0.264920328425807 -0.241654283623411 0.279990639464095
0.2596351003647 -0.245686242700653 0.280210629501483
0.252907327893476 -0.250991611791833 0.280488906792291
0.248532005802252 -0.262946836411188 0.280454447713221
0.237842729202361 -0.268165216066151 0.280818158753417
0.235949218749376 -0.282079159543158 0.28049335360667
0.227481980843532 -0.286331563448382 0.280670074361812
0.215358342051071 -0.306524386194576 0.280271111624866
0.217977860910573 -0.305590385604146 0.280237752352273
0.206544586150077 -0.315147144536773 0.280152941988099
0.1924933695084 -0.330072485358294 0.279283744330731
