ply
format ascii 1.0
element vertex 867
property float x
property float y
property float z
end_header
0.0323079132155966 0.115503081126437 0.639666963791346
0.0706700826896377 0.11113562534896 0.624884610388531
0.0762266900689954 0.112550574459485 0.630222115382032
0.0757700071662928 0.115188712083517 0.639611623170413
0.112462636983695 0.110039110178038 0.620748309544415
0.115969219532204 0.113625158571003 0.634275687357519
0.11638446039539 0.117571092808582 0.640031010611997
0.136567721830717 0.119406683550234 0.640354142719656
0.165474724046007 0.112823825815922 0.631252880706816
0.167382899307251 0.113240686802565 0.632825373725296
0.17739708294469 0.121133483783613 0.640658123659557
0.192635097398682 0.118452791905605 0.640186222381744
0.197863122090815 0.11600101842526 0.639754619239371
0.223673554226881 0.11360770194332 0.634209837047614
0.230563512847538 0.115880841871867 0.63973346370502
0.245704793598012 0.117720101760238 0.640057241718701
0.261992736729558 0.114479157788542 0.637497163701902
0.277531191731462 0.121169511442528 0.640664465864872
0.297353241145234 0.117303574658978 0.639983917487393
0.317093167246702 0.116454502670175 0.639834449299811
0.329822334952101 0.125880726220874 0.641493814546154
0.340381234865662 0.125358517307933 0.641401886393082
0.357059807603145 0.123830850375085 0.641132960305904
0.369991359661721 0.127410674075649 0.641763142160259
0.386622382705973 0.128305744475615 0.641920707775667
0.404625927996403 0.125442592041579 0.641416686667058
-0.5 0.0962664593445328 0.495165655232834
-0.5 0.099627279747212 0.493891096075042
-0.495886989799621 0.0996302718309644 0.501257779637934
-0.494262321183369 0.099025012125487 0.503193984298126
-0.486739956254922 0.102715856433337 0.512158789726406
-0.481113630937493 0.102583646895736 0.518863983136557
-0.477384388295003 0.0998577694227406 0.5233083214534
-0.475161113055632 0.105001060258169 0.525957917707246
-0.4734238866101 0.103588858003714 0.528028263564859
-0.464533979281567 0.0983796127449818 0.535074765079958
-0.460152652722571 0.103879195564355 0.535847311163604
-0.453861027914129 0.101123713112008 0.536956694369827
-0.445857503090272 0.103252959067909 0.538367931737043
-0.435235007332121 0.105511581766846 0.540240964341666
-0.433749649925124 0.102280238236539 0.540502872928515
-0.425682606617243 0.103526153959396 0.541925310318238
-0.410372758126086 0.105961311560068 0.538089198229245
-0.281583990089501 0.108124558940093 0.430153459656642
-0.320616706498534 0.109778098887881 0.466969498621559
-0.320276983175506 0.109721478334043 0.48787516455016
-0.216462984661902 0.108144698533146 0.392544570284397
-0.331950943696972 0.111008826974731 0.505492074567168
-0.202215658902428 0.109141789894099 0.392544570284397
-0.371436248534969 0.108552811256199 0.560107554583323
-0.277462894672511 0.108124558940093 0.486546773374342
-0.233627261969438 0.108124558940093 0.454288911468139
-0.345503519174546 0.108124558940093 0.56884473016055
-0.374235966459245 0.109019430910245 0.601355276102258
-0.213580606460347 0.108124558940093 0.46981009958663
-0.195579744492275 0.108124558940093 0.454412544882415
-0.370390695307028 0.109618635270898 0.619162184008307
-0.198500957385815 0.108124558940093 0.485535456312622
-0.273101962978547 0.108124558940093 0.550947078881803
-0.331111564861613 0.109082272348454 0.617138902919551
-0.304477656060875 0.108124558940093 0.598405785851071
-0.196874716121732 0.108124558940093 0.513614353359805
-0.313490605874544 0.111580961311028 0.626564517392709
-0.312493843188338 0.1120073924148 0.628173111036705
-0.198443660662622 0.108124558940093 0.541469119433139
-0.28849664978041 0.112531252489007 0.630149228581269
-0.260049554193018 0.109655326440696 0.619300591319604
-0.26023809118558 0.109445190074639 0.618507909876291
-0.220966099361317 0.108124558940093 0.603482333804305
-0.219455158452134 0.108148580629927 0.613616808610323
-0.234271105362415 0.113644692475244 0.634349373619911
-0.208878339778175 0.109744839166489 0.619638253372148
-0.202557845003676 0.109460854610644 0.618567000014958
-0.194514105169996 0.110890360686886 0.623959417143903
-0.189258745264875 0.113290660162786 0.633013884434082
-0.188620363048926 0.115094932212299 0.639595114431969
-0.171785941913366 0.116824233743372 0.639899535693111
-0.160167745070025 0.114452298110146 0.637395842978424
-0.154229356659806 0.112632771508555 0.630532181063264
-0.14510938049845 0.118000652377756 0.640106629041423
-0.134924587332146 0.114703715666967 0.638344246320286
-0.113940033589836 0.112496304033451 0.630017395178458
-0.0946427372499745 0.113292300320389 0.633020071475957
-0.0843386721537205 0.113501398803799 0.63380883779344
-0.0895201450599562 0.115972435661533 0.639749587611963
-0.0767176137240757 0.116181005606948 0.639786303664472
-0.0670692820212491 0.116828761066491 0.639900332670035
-0.0409127260670308 0.113750311271487 0.634747791377949
-0.0338532709341958 0.11446102657703 0.637428768710688
-0.0236381359823432 0.122391850621663 0.64087964293363
-0.0207665518086724 0.120380158930328 0.640525510521959
0.00604681710891142 0.125281096970813 0.636865533083571
0.00762917837861129 0.11888952688319 0.640263103949401
0.0295070625673688 0.11872323121605 0.64023382973909
0.0417092716411947 0.122505724537794 0.640899688969869
0.0561671768566066 0.117935323974016 0.640095128817375
0.0670211553358732 0.119098203426304 0.640299838767063
0.0806547631910234 0.126975440516883 0.641686524898047
0.0965746104915283 0.126970320334138 0.641685623555823
0.106309943865356 0.12775642778775 0.641824007647967
0.114212840608377 0.127053098929905 0.641700195661419
0.133014967666233 0.12122566716001 0.640674351355649
0.147523137605147 0.121514902805084 0.64072526756561
0.162706521987884 0.13111563308604 0.642415352474168
0.167683402583595 0.125497684066326 0.641426384908429
0.177389981016377 0.127587611290448 0.641794289677973
0.2002954279864 0.128972758093333 0.642038126931931
0.213874770553178 0.123340234867287 0.641046593764884
0.235594206069348 0.124849949529575 0.641312359586055
0.246294047381144 0.126806858131306 0.641656848140407
0.268357703676209 0.125554026897864 0.641436303338226
0.2713632822673 0.128392999907746 0.641936067970644
0.29897492682548 0.133770870330707 0.642882772791636
0.295677870621898 0.131324124807028 0.642452054756274
0.318319838994741 0.134220646429084 0.642961950080639
0.343575565019392 0.135007759801904 0.643100511251904
0.350982547629562 0.134543520050467 0.643018787823072
0.368464467159552 0.133514957735791 0.642837722675455
0.375186957887912 0.133331591579794 0.642805443425448
0.394047985081291 0.140848130383253 0.644128633268779
0.409798912360032 0.137671516549714 0.64356943131817
-0.5 0.103978623011909 0.493372973996198
-0.5 0.10579206139409 0.495758075109665
-0.494272750018302 0.111683230057004 0.503181555696628
-0.493085267553912 0.112789974592497 0.504596742189708
-0.487861398425365 0.105480635451348 0.510822306990896
-0.483474273169499 0.111164937134926 0.516050679275735
-0.478909905877698 0.112242822852303 0.521490280393658
-0.476413928377836 0.10704379540242 0.524464870546152
-0.471194497149412 0.113057818817705 0.530685146463925
-0.468176847486922 0.11225717452032 0.534281441290389
-0.460583994578716 0.11360027829774 0.535771253956456
-0.447896132513143 0.109092204860392 0.538008466366125
-0.446100257757441 0.108863768042259 0.538325127539528
-0.437131353888029 0.112092309517722 0.539906587279085
-0.428173042238418 0.112045924304367 0.541486179324508
-0.425711469110567 0.107609022113375 0.541920221081934
-0.408501620707546 0.114741096697435 0.537008896536959
-0.379447285457252 0.109712509595506 0.520234368259077
-0.34576772954382 0.113969936062095 0.500087792525182
-0.339967206478446 0.113003182217866 0.492540338650402
-0.407504783093383 0.114564233682602 0.569945069757557
-0.385395754512239 0.110879395585744 0.563085418057063
-0.390901289167561 0.111796984694965 0.571727301890279
-0.410506801206578 0.11581212882692 0.606686686680737
-0.407316086197341 0.114532784199928 0.601685427873197
-0.410324161638383 0.115074399950943 0.614425212053446
-0.396432626717952 0.112718874286697 0.613521171647243
-0.410591150056773 0.116152835843807 0.633006270412194
-0.39589081835634 0.112628572893095 0.627311216820571
-0.382181308315264 0.111438996791108 0.626028995423517
-0.372304184188727 0.111880570976575 0.627694712163718
-0.372010633778586 0.114624431107859 0.638045167203589
-0.347997926104872 0.11053468007954 0.622617710220541
-0.35400264718739 0.116753207054479 0.639887032359356
-0.351904207372051 0.116332984397757 0.639813057573107
-0.332703132306891 0.118409308814084 0.640178567743544
-0.325825016990559 0.116457741567713 0.639835019466006
-0.313616499088288 0.113824727967488 0.635028507824606
-0.311805843226075 0.116661873901592 0.639870954334161
-0.303391620176709 0.116165118567716 0.63978350695584
-0.283677693496719 0.121350475408708 0.640696322240302
-0.279609230305039 0.114174265140005 0.636347040335665
-0.265795809913238 0.11697731178591 0.639926483110855
-0.25717271927219 0.115821343707988 0.639722989819606
-0.245511165167792 0.12077460071258 0.640594946917314
-0.234769084879954 0.118143291655133 0.640131738849011
-0.226104232190185 0.123140018493283 0.641011348251027
-0.214053639172763 0.119227983615952 0.640322684897881
-0.19853022714449 0.12317175650014 0.641016935318348
-0.192789769423504 0.117862267664199 0.640082268194996
-0.183634514044107 0.126082175444504 0.641529277087308
-0.169866158003149 0.124409294181821 0.641234787887723
-0.159101826413326 0.122676658327313 0.640929779661887
-0.145694548680051 0.124473311550046 0.641246057320855
-0.130776886266031 0.121432034922705 0.640710679742255
-0.123437550160456 0.128951449552468 0.642034375837765
-0.102448547560887 0.128356628118924 0.64192966518569
-0.0986897441081762 0.123664034874435 0.641103594585598
-0.0895828669363558 0.125799889367854 0.641479584259359
-0.0781162788933072 0.131457688924751 0.642475566998893
-0.0601911007633587 0.123147652720029 0.641012692158317
-0.0594424480803431 0.130077471081961 0.642232597424875
-0.0320820935813015 0.123608079670502 0.641093744392649
-0.0271268667791004 0.130559357757823 0.642317427367461
-0.0181487778813432 0.125098703472806 0.641356149513809
0.00537940684946451 0.127976941170322 0.634099288387351
0.0101737714605657 0.131203130682661 0.642430755299084
0.0221926018132437 0.135621108978603 0.643208483474525
0.0389058866755767 0.127162620808632 0.641719475577527
0.0500062018932292 0.136636576442187 0.643387243442267
0.0598157907382762 0.134286054290385 0.642973464292168
0.0769289559282743 0.128876829732589 0.642021239979579
0.0835264607692963 0.137274234997728 0.643499495017928
0.104858829428892 0.131111740748655 0.642414667278304
0.112488387596989 0.134241763190047 0.642965667414423
0.128646838680092 0.133632654776608 0.642858441723553
0.135152065828786 0.136899988537195 0.643433613748846
0.155153816976987 0.140327542797277 0.644036990529435
0.168082549815658 0.132951266535368 0.642738492099963
0.180487359832445 0.138757077335526 0.643760530312489
0.205897218597315 0.140748982446532 0.644111179551544
0.215974626077086 0.141148560905913 0.644181520192747
0.225717154480746 0.140534643389992 0.644073447921327
0.240424958863606 0.139035332175043 0.643809513493063
0.260119282630617 0.140928850252248 0.644142842962043
0.285878260772611 0.136640536504436 0.643387940560221
0.296682309237395 0.138512375372577 0.643717453683673
0.30308385663467 0.144803397382681 0.644071592076661
0.309812317068461 0.138534546001458 0.64372135653733
0.336754460130083 0.145546332867878 0.643940807853501
0.355560417374835 0.148971593266157 0.643337834877737
0.361461821498688 0.145671347614879 0.643918800617481
0.382742245672696 0.14924607380232 0.643289516114655
0.399554321260102 0.14336384811945 0.644325006183058
-0.5 0.115403402020997 0.495350762020113
-0.498493767884781 0.115831363525817 0.498151142489847
-0.491709124332113 0.116680057185683 0.506236765818211
-0.492561522417165 0.114701309188643 0.50522091733803
-0.489938976016376 0.113995661462556 0.508346346432915
-0.485410364691158 0.118686299486987 0.513743335249206
-0.480890503332218 0.120772181626114 0.51912989626175
-0.475356465227799 0.12009110212535 0.525725106054245
-0.471106556207537 0.114799179789686 0.530789950397341
-0.46666340566928 0.11444815559746 0.534699289754371
-0.462895202839664 0.116270655313196 0.535363725582015
-0.447605401913555 0.11775454980954 0.538059730014949
-0.446928594311463 0.120405921499495 0.538179069455947
-0.432973157165225 0.121742281524187 0.540639789552409
-0.432997125148156 0.122281994414781 0.540635563350346
-0.419254392723403 0.124304423769797 0.543058777865487
-0.398467739210705 0.118358070372671 0.531215832353742
-0.384153426660157 0.120142515145293 0.522951460149418
-0.411390512182412 0.119381668063886 0.553554387865005
-0.410818498438778 0.117071155285591 0.567739729789075
-0.410792729415503 0.116967067476122 0.574030165559769
-0.411658222815922 0.12046302117208 0.586427878403715
-0.412210253928502 0.122692818889049 0.590966560288342
-0.412057075369465 0.122074090716948 0.602163635109237
-0.412618771441953 0.124342927729075 0.606047116332037
-0.411076478755069 0.118113205103399 0.618748567057112
-0.412014679357583 0.121902842161663 0.623087027574874
-0.411388473599748 0.119373433696529 0.63006697087552
-0.411176689620047 0.123332715162277 0.64104527001767
-0.392588795937412 0.123429608248762 0.641062326797563
-0.386574805003437 0.121979301572574 0.64080701898717
-0.375667013196703 0.121360129551676 0.640698021727826
-0.360876580603889 0.123475459412652 0.641070398304403
-0.360054465130664 0.122352700167443 0.640872751000422
-0.356399483677143 0.123800946181005 0.641127696057702
-0.339823369311394 0.122178021583825 0.640842001085637
-0.324864802288909 0.124182846519728 0.641194924693458
-0.323387796282569 0.129443055746166 0.642120916776278
-0.310440904532132 0.122781908263179 0.640948307557477
-0.301991019613353 0.12559357111613 0.641443264588522
-0.288738580078784 0.121873439442699 0.640788383322709
-0.27994364772433 0.122621703893234 0.64092010564158
-0.271378073252032 0.130647101508159 0.642332873524568
-0.260289331942535 0.125600810823352 0.641444539045731
-0.246310881286575 0.12698015857188 0.64168735545086
-0.232022927670547 0.132492889770818 0.642657800774457
-0.224271203965039 0.131952122150532 0.642562605599992
-0.218153947155113 0.132353808952289 0.642633317387715
-0.198277907364259 0.132319225090551 0.642627229344297
-0.198555584346302 0.132684231806069 0.642691484075277
-0.174137104745382 0.129903509180907 0.642201973672824
-0.168151682842092 0.136030555075983 0.643280561186302
-0.158912377600331 0.133740763630465 0.642877472894832
-0.143561164438552 0.132684173370493 0.642691473788446
-0.126977523963008 0.132796503959848 0.642711248141885
-0.120324970961599 0.13826341290941 0.643673627048669
-0.108493591622346 0.13881494882628 0.643770717843051
-0.104218476753249 0.134328996845846 0.642981023775957
-0.0911738427816147 0.133870033114282 0.642900229122467
-0.081602757308593 0.137813293154052 0.643594389263281
-0.0604906801966351 0.137579423446396 0.643553219513489
-0.055347774582022 0.137070039979225 0.643463549114953
-0.0429965429662019 0.135361322087496 0.6431627513384
-0.0297916384811377 0.143027551812253 0.644384206816443
-0.0244386117227687 0.143216763515707 0.644350898533097
-0.00789686445036037 0.14375302946377 0.644256495820046
0.0120352608224427 0.13887805280233 0.643781826485256
0.0219479989603331 0.145184791772997 0.644004452506605
0.0317697695004257 0.140248209354613 0.644023024898669
0.0514634581253702 0.143327066817335 0.644331481057552
0.0602582479651891 0.147497554321326 0.643597320448353
0.0797384307918776 0.14701265258177 0.643682681154067
0.0911960293719429 0.143691942523609 0.644267249389062
0.100764510400725 0.149448790040919 0.643253830531835
0.116453624694534 0.148199465503146 0.643473758025409
0.135544676563177 0.141126967965383 0.644177719033684
0.148653070222954 0.150280850345934 0.643107357032073
0.15823613825526 0.145619434180058 0.643927939309035
0.168407736082122 0.142625430481625 0.644441504059472
0.181980402124564 0.146945865758127 0.643694438114156
0.202689525965156 0.14865208224944 0.643394080676928
0.207267589150595 0.14611137857572 0.643841338834424
0.231765342305763 0.149117870858347 0.643312084591687
0.240326531776225 0.149310139625453 0.64327823815166
0.268419226469811 0.147186555670108 0.643652067755237
0.284614602628277 0.151601719864177 0.642874834966185
0.278054731512345 0.15388625257026 0.642472672408061
0.30158481142246 0.154405268670608 0.642381306308522
0.31104122633857 0.15002559759973 0.643152290990387
0.339746588992346 0.160132791566407 0.64137304967321
0.361209557400931 0.156761729145572 0.641966481793115
0.372853609930794 0.152603189653958 0.642698539108625
0.382800590150491 0.157587746493917 0.641821072078042
0.398395853512261 0.156680909665012 0.641980709021712
-0.5 0.127279671933291 0.485416002176852
-0.497118375689578 0.121794218835039 0.499790271079707
-0.492535387387169 0.124383926300861 0.50525206385392
-0.490617802024182 0.123907033489723 0.507537353099365
-0.489281237509991 0.129130838443903 0.509130208660886
-0.482500201272137 0.123395297207325 0.517211532958861
-0.479839467875813 0.130006087719873 0.520382471542865
-0.475632219348988 0.126601242790044 0.525396475089645
-0.471441935114843 0.129893229372508 0.530390261379679
-0.465001780609778 0.129137239649076 0.534992279084183
-0.455294127159309 0.126756630671043 0.536704000306868
-0.45193682819044 0.128682922871642 0.537295982697384
-0.438138995185875 0.131440245350149 0.539728912931399
-0.437284627671863 0.132357034147501 0.53987956097556
-0.423976025121856 0.124845404434915 0.542226226680653
-0.416376957097843 0.127826123707898 0.541555724121856
-0.415809626132152 0.12535637498904 0.541228175436095
-0.393001464289488 0.129237152597529 0.528059877056512
-0.413771304302675 0.128998308708528 0.558274925858411
-0.414145158593654 0.130508403747573 0.566201608662277
-0.414704620845355 0.132768217774619 0.576809357767242
-0.414297081668375 0.131122060690902 0.585389838920039
-0.414413700580514 0.131593114908893 0.592718996302718
-0.413622396059951 0.128396829458361 0.608752571454173
-0.413990896410183 0.129885298533611 0.606423042941581
-0.413474883724553 0.127800988642148 0.626206889675806
-0.413673943282232 0.12860504214047 0.629502894826739
-0.412492524802301 0.129394504623718 0.64211236997651
-0.404547329719758 0.133472632146059 0.642830271800536
-0.396250976754187 0.131416060478803 0.642468238847158
-0.383723972813595 0.127243259234392 0.641733670933759
-0.382219064349572 0.127368929078268 0.641755793491146
-0.370346644901732 0.128229803898494 0.641907339415179
-0.359374913658578 0.134537631969748 0.643017751302299
-0.350968384830016 0.129997602185413 0.64221853753435
-0.341080548581429 0.133393909251075 0.642816413648825
-0.329512014122202 0.135180709582115 0.643130956833117
-0.312730006930397 0.137154273891753 0.64347837741032
-0.315487070228395 0.137966342353178 0.643621331603513
-0.29566485069469 0.133559133565328 0.64284549926126
-0.297069455227077 0.135780902197671 0.643236613012605
-0.281137180174561 0.13861490841461 0.643735503305098
-0.275142070107714 0.140225386687054 0.644019007262001
-0.253865710190696 0.135889682303107 0.643255762349079
-0.242959728058557 0.139495709651666 0.643890557018161
-0.232861011220677 0.135306481230094 0.643153097311805
-0.235589060475173 0.135243870835529 0.643142075558263
-0.215199560638579 0.140640009678684 0.644091996299333
-0.197389801873535 0.138597508033441 0.643732440192109
-0.190029521341318 0.136202124262433 0.643310763731766
-0.183632945268745 0.145426062061524 0.64396197997987
-0.164848809260721 0.139573716409669 0.643904289103181
-0.1578170532852 0.140098865379887 0.643996734815469
-0.149176705155149 0.142985963534718 0.644391527897047
-0.129958987630573 0.147931385331001 0.643520950086842
-0.133918460718612 0.146820337716737 0.64371653570904
-0.118285324843575 0.14898788973128 0.64333496609495
-0.0995479880081412 0.142988053615637 0.644391159965221
-0.0946123611439996 0.144947713466266 0.644046187088936
-0.0790361645195759 0.143894907206783 0.644231520070774
-0.0721035773659563 0.144978867937941 0.644040702745468
-0.0523168749373559 0.144972106711107 0.644041892972367
-0.0456308529577605 0.143028677409785 0.644384008669495
-0.0366430850528899 0.145631302145085 0.643925850106652
-0.012002110008185 0.151959977189046 0.642811768378496
0.00381345125834476 0.151025253983111 0.638153790368956
0.00469710328428257 0.152985863325239 0.642631174337633
0.0134661996536887 0.148046662052945 0.643500657104708
0.0277558692914626 0.153812682675976 0.642485623440368
0.0555029138786223 0.148267551321049 0.643461772394113
0.0611302712952348 0.152610431433405 0.642697264286628
0.0823919913907687 0.149637665159192 0.643220581499974
0.0907373953413377 0.159153480745107 0.641545444729776
0.101690675273805 0.157408374437331 0.641852648218292
0.125293469131058 0.157303306751245 0.641871144031156
0.12474072707793 0.152583425617177 0.64270201831274
0.139585968055131 0.155878765881638 0.642121916103163
0.159944036387161 0.159321307957443 0.641515900910659
0.178394409843579 0.163329630774444 0.640810287305924
0.191610539887742 0.158962006380926 0.6415791513254
0.205794801549645 0.165235278366686 0.640474822592049
0.211097210668804 0.165732026654813 0.640387376454043
0.223232484604806 0.163074802862579 0.640855146477624
0.248961953029544 0.164048192154131 0.6406837938301
0.26197710469004 0.158673143231247 0.641630001962345
0.285208436487604 0.169092925020501 0.639795733585134
0.298343482750408 0.163611244396315 0.640760712854976
0.314581868684882 0.169429780292268 0.639736434553235
0.32035345245343 0.165302663341175 0.640462960335209
0.331544929187697 0.163548628732295 0.640771735536137
0.366172869719233 0.169549996636959 0.639715272014139
0.371684658581063 0.165573857285332 0.640415220134319
-0.5 0.134546824457416 0.492516897181439
-0.499444649782452 0.129664784741031 0.497017925572166
-0.494226469808226 0.134887205370775 0.503236710303252
-0.491679195411884 0.13015665959696 0.506272433716415
-0.487657766300626 0.132651536430581 0.511064986307121
-0.482863583200048 0.132320230982704 0.516778471240789
-0.480370978695841 0.137016501806589 0.519749041613595
-0.476386281799331 0.137339127284434 0.524497818455408
-0.470503234190509 0.139005085614712 0.531508961578626
-0.464766925334939 0.132671865693906 0.535033690405699
-0.457072835892415 0.134295158123716 0.5363903659664
-0.454677499294849 0.135853668065237 0.536812728436429
-0.44911627647756 0.137586052621312 0.537793322064849
-0.439541502739131 0.136531162052035 0.539481613009113
-0.430031537968813 0.137353070766161 0.541158476383707
-0.421570223649329 0.138311471296219 0.542650434390486
-0.402330135964676 0.134390661263186 0.533445788159364
-0.416882553999708 0.141565458119635 0.556314386540685
-0.416338573037064 0.139368177058952 0.566707218876036
-0.41664848997064 0.140620012426907 0.569045596356079
-0.415812077502527 0.137241524205236 0.58287777403365
-0.414867185358075 0.133424858262924 0.589771125921737
-0.415336448921623 0.135320336251053 0.593286538058017
-0.41493618586729 0.133703569325418 0.610042493905982
-0.415914434584297 0.137654971168724 0.614924058282797
-0.416120616186284 0.138487792462521 0.621691229662183
-0.416481952876094 0.139947325643956 0.632868890383304
-0.414447956990148 0.137414788189393 0.643524237596996
-0.409832491671517 0.138344510797482 0.643687903287323
-0.401588431920035 0.141207056050774 0.644191817509582
-0.392253728741199 0.141964637104023 0.644325179896363
-0.384100415236672 0.140771625098723 0.644115165498825
-0.368962017965074 0.141134696839036 0.644179079602343
-0.358335065329108 0.137176324886598 0.643482259203946
-0.356971054253574 0.144781153045847 0.644075507905652
-0.336396775749565 0.140847496456564 0.64412852167415
-0.332672737620744 0.141973957836193 0.644326820691211
-0.313727161063474 0.146677462588717 0.643741687035097
-0.311173242295786 0.145214044772618 0.6439993028928
-0.303099622251609 0.139647976956147 0.643917361715912
-0.292760082033595 0.14569132320033 0.643915284172947
-0.274645005689481 0.148303044704952 0.643455524241031
-0.274678062195445 0.147188889752327 0.643651656870125
-0.255521876623629 0.145842511762047 0.643888669373966
-0.248903341526969 0.142854248115674 0.644414714700074
-0.24024109103864 0.142468128176154 0.644413813014647
-0.22622510336017 0.151939626352409 0.642815350881168
-0.215810942002576 0.147906017465205 0.643525415772878
-0.200009672394273 0.146537859983547 0.643766262275655
-0.190078550656924 0.14659439609378 0.643756309821634
-0.180235546569803 0.15207431990315 0.642791639816412
-0.16977304871286 0.148140812858506 0.643484083068052
-0.165905612529445 0.147292632214874 0.643633394345797
-0.143890155308655 0.151582206827178 0.642878269985021
-0.142725230981347 0.151461023871733 0.64289960268349
-0.117129580611499 0.152610533800968 0.642697246266136
-0.117153077469284 0.151735730594006 0.642851244103257
-0.109179565467856 0.15458217458316 0.642350164301164
-0.0962038146219253 0.157835463792248 0.641777464638269
-0.0730853473492851 0.160926609378268 0.641233308271804
-0.0578198701086927 0.154157369069199 0.642424945840403
-0.0488160595255895 0.157636220878898 0.641812538786915
-0.0424275838623931 0.161260395201204 0.641174549576838
-0.0230179982602582 0.155840097706661 0.642128723137322
0.00599147393421101 0.159822855928882 0.633247574268802
0.00712425334973715 0.164398447588502 0.634250732496984
0.016007077417694 0.161079920619599 0.641206319802417
0.0220451698365635 0.163031647292884 0.640862743459825
0.027505825219426 0.159192480057559 0.64153857940313
0.0471262431245263 0.159904685357394 0.641413204833298
0.0644309519739235 0.168186986748441 0.639955212349445
0.0776279146885332 0.168390214074793 0.639919436796209
0.0943915129577215 0.164446570894852 0.640613664383914
0.102420536806695 0.162600120912371 0.640938708121054
0.119839605218061 0.171097323445916 0.636557944769392
0.121621048069064 0.166108791032541 0.640321051938069
0.149100584666551 0.167838769988418 0.640016511425015
0.181570707609819 0.175073559323525 0.621558692362214
0.194917976188671 0.174480877870119 0.623794419565106
0.201646047086536 0.173005729968314 0.629359007883843
0.213905040401656 0.169151069980253 0.639785497913877
0.225632266713857 0.167438502512262 0.640086973358748
0.279304334753506 0.177545356967485 0.611803959483566
0.365030479954919 0.184656133174363 0.552759351489119
0.25966081514267 0.168225113210245 0.639948500676913
0.360746833739723 0.184656133174363 0.57629811823382
0.364052784812431 0.184656133174363 0.59219935266308
0.404310298358337 0.184656133174363 0.575498062246309
0.366229218114028 0.184656133174364 0.612641070992542
-0.5 0.142259753473328 0.490467082053188
-0.497296375559992 0.143253231077164 0.49957813909466
-0.494772629627338 0.145538002227762 0.502585822376695
-0.491596327675656 0.143092883777145 0.506371191638775
-0.488747103371475 0.143961165089838 0.50976676493939
-0.481115911679441 0.141146636999336 0.518861265054147
-0.479141850693426 0.146381728815607 0.521213859326231
-0.478603234269134 0.145830862394319 0.521855757384911
-0.473203496678378 0.142026266964134 0.52829091405776
-0.464730222635378 0.14306473447796 0.535040162081896
-0.458271187636986 0.142230268721426 0.536179064221453
-0.452993940410734 0.14029432232791 0.53710958529131
-0.44403524755293 0.142624641097642 0.538689244554022
-0.43494468732769 0.147890739651535 0.540292155591486
-0.428483925491182 0.142269682234862 0.541431362219195
-0.42473434036414 0.144652748308271 0.542092515243555
-0.419912439463951 0.142614921808034 0.542942746470561
-0.415651075043794 0.148736305163576 0.559690932994436
-0.415304535512418 0.150136068760756 0.563889245150411
-0.415343734412857 0.149977734172876 0.567333991237311
-0.416754670461073 0.144278595288472 0.579313209348171
-0.4166929692375 0.1445278226315 0.582773544121039
-0.416908179227007 0.143658533324552 0.597566426059852
-0.416685909227872 0.144556339852711 0.605120478758489
-0.415910799189841 0.147687211562325 0.615136522986912
-0.416427828446628 0.145598795474684 0.623320632698993
-0.415649301387704 0.148743469423358 0.635106368962414
-0.41591372333472 0.147675400178096 0.637727874461935
-0.409387043286069 0.146187348062927 0.643827965384688
-0.39916727363023 0.145380187993289 0.643970055518725
-0.394275710340656 0.145631942672429 0.643925737350063
-0.377587176710807 0.144506186878232 0.644123912157897
-0.369905415751062 0.151722956714522 0.642853492780212
-0.355062164451128 0.149143946086271 0.64330749438366
-0.352296219640297 0.14907558918359 0.64331952773594
-0.334123940006026 0.150799163425062 0.643016114690365
-0.327506851740599 0.147263866286313 0.643638458217015
-0.325459606560824 0.151451045393325 0.642901359266091
-0.315497659758254 0.148455764431343 0.64342863990023
-0.306791211052661 0.15562311490668 0.642166920164519
-0.282469159319381 0.154085042860114 0.64243767793795
-0.278004031190109 0.157811763636046 0.64178163674551
-0.265995672877949 0.154894992411084 0.642295096751652
-0.255420914091404 0.151809708917349 0.642838221172273
-0.241077551648462 0.159488469871879 0.641486474208668
-0.237659506072076 0.156912186636708 0.641939995689692
-0.227069773961969 0.161425509439164 0.641145483341917
-0.219950602450412 0.158862693289151 0.641596634116055
-0.202036206817065 0.157221345693609 0.641885572219693
-0.19060315825952 0.161823922659596 0.641075347826021
-0.182741570506062 0.160188321152181 0.641363274404855
-0.170379810644471 0.156504670219996 0.642011733706043
-0.161892301155401 0.161114407403423 0.641200248848315
-0.147169831764359 0.165381109020332 0.640449150983774
-0.131791427590864 0.159805075808368 0.641430739811434
-0.123891817168306 0.160885545888461 0.641240536970287
-0.115595608617056 0.165253160415523 0.640471674687672
-0.0930173536936701 0.166599919823439 0.640234595040169
-0.0789061551387441 0.168018071710474 0.639984947666253
-0.0735683291133824 0.164999529140634 0.640516323206846
-0.0674943622796784 0.162006641442533 0.641043182537704
-0.0514577294725298 0.165046979171475 0.640507970240073
-0.0353264249562793 0.169364093935666 0.639747997790274
-0.0146728851166246 0.168563204237923 0.639888984106103
-0.0137151659472146 0.167936814933409 0.639999251875269
0.0101563786312495 0.169074912692579 0.639798904423466
0.00917242775735592 0.170288966550039 0.639585185878874
0.0496802929857202 0.174949435266978 0.622026916107299
0.0471394367902236 0.168942329292461 0.639822244023382
0.0931504377713633 0.178187392473332 0.608574757158224
0.0923202229324815 0.175373988514742 0.620425406156803
0.116338595673724 0.177250739069604 0.61328577909052
0.143016666333552 0.17937102273067 0.602621532539749
0.136655946138152 0.178275772820712 0.608130236534867
0.23522515137436 0.184656133174363 0.550783767268182
0.220160304067137 0.184656133174363 0.571067669536645
0.194263213799685 0.184656133174363 0.607251089369048
0.276459359539415 0.184656133174364 0.554734537384557
0.189748209802528 0.184656133174363 0.620883682390549
0.294360464020919 0.184656133174363 0.568788541421697
0.211474719742128 0.185680805534656 0.63035269944335
0.237617941974952 0.188736757642422 0.63035269944335
0.244856965946835 0.189220302428923 0.63035269944335
0.264852623129689 0.186208580932241 0.63035269944335
0.278936905779286 0.190889355946444 0.63035269944335
0.293232876629603 0.190540262780605 0.63035269944335
0.307579337214425 0.184859406629504 0.63035269944335
0.33099366239693 0.192294400353255 0.63035269944335
0.345721763201566 0.191079143753937 0.63035269944335
0.353287410573112 0.186509742563436 0.63035269944335
0.37584345927174 0.187580999189444 0.63035269944335
0.382299843894419 0.188715498183716 0.63035269944335
0.41063403342242 0.195756236798699 0.63035269944335
-0.5 0.149783996908349 0.488928576539937
-0.495408192044789 0.152133365561961 0.501828388582379
-0.494820186760642 0.148583615242545 0.502529145992226
-0.493546302183384 0.152760804240612 0.504047302513723
-0.485407255339244 0.152578563809863 0.51374704083052
-0.481510898297405 0.152433370657511 0.518390538333163
-0.481076778012267 0.154608778706508 0.518907902742593
-0.476158690816381 0.154939404826421 0.524769050826982
-0.470746988240086 0.154988682230526 0.531218466814332
-0.463202799740854 0.147826846848233 0.535309487949153
-0.461555642510239 0.151175870964353 0.53559992621038
-0.448789000196793 0.152347028334546 0.537851029703294
-0.448547431095103 0.156011437877251 0.537893624853628
-0.442459145819266 0.15174602657877 0.538967153814008
-0.430849324876466 0.156608789578933 0.541014278487418
-0.419690134396509 0.155051389733315 0.5429819448519
-0.410506863905121 0.150892571952691 0.53816662423687
-0.394059452509295 0.158862198034953 0.528670706840017
-0.414806797070641 0.152146564212612 0.557608403871377
-0.414394340884283 0.153812582380305 0.575098868669602
-0.41465626910126 0.15275458596142 0.578509951670377
-0.413678548999784 0.156703852588652 0.583849653825837
-0.414995133823542 0.151385822920913 0.592395914479414
-0.414876139817151 0.151866470764374 0.60013035144956
-0.412973887702881 0.159550163449156 0.610649238272834
-0.414652511988244 0.15276976192131 0.620532660561674
-0.414084132571298 0.155065594705729 0.633576192338723
-0.41496558079826 0.15150519530193 0.63596929167306
-0.402595352479347 0.151823691904744 0.642835759647443
-0.396180194458596 0.153394330930329 0.642559268876819
-0.384988466408349 0.156042763182209 0.642093046490683
-0.381764635880562 0.158153957015814 0.641721398008453
-0.374872088814388 0.156759221018086 0.641966923316653
-0.356781486024038 0.1585093404094 0.64165883733935
-0.350394166839325 0.157246275324978 0.641881183679184
-0.339901905750103 0.163088397615476 0.640852753296476
-0.335948457430564 0.161744118411388 0.64108939633604
-0.314020449660115 0.163147599208158 0.640842331618601
-0.309734356144043 0.163579262781827 0.640766342806284
-0.296769994534587 0.159724386418067 0.641444944139316
-0.292481949607149 0.167058731173201 0.640153827211534
-0.278282266497142 0.165918122564247 0.640354616666102
-0.263581841433837 0.162813653613686 0.640901118439289
-0.254373826256508 0.167457521967278 0.640083625228662
-0.240815471492543 0.169948967402961 0.639645038349527
-0.235707669386684 0.168015718591654 0.639985361902514
-0.220225630114778 0.163167037754717 0.640838909712848
-0.214661951133574 0.165437654707139 0.64043919684392
-0.207164083396451 0.168042109921527 0.63998071604881
-0.18300197247486 0.171486849072854 0.63508856685084
-0.168459421660105 0.172833404137726 0.630009059517808
-0.161936103997961 0.171621646105054 0.634580082250848
-0.156018717394348 0.167601946187809 0.640058201204822
-0.126218807299131 0.17533145460037 0.620585853609411
-0.113618999708607 0.174270193219803 0.624589169259461
-0.12028244833593 0.169152568768007 0.639785234071596
-0.107708161585026 0.168943098290823 0.639822108651125
0.0178427893976809 0.184656133174363 0.550891006040861
-0.0644322061575365 0.175545647869419 0.619777868619268
-0.0733437798092358 0.170902454872998 0.637293032676999
-0.043866896707819 0.174303129100081 0.624464927741413
0.0343112488440459 0.184656133174363 0.568559483141942
0.11629322576729 0.184656133174363 0.51624563701106
0.0628050057439695 0.178799675638295 0.569746930487301
0.0393067287596974 0.184656133174363 0.595912387526516
0.0682833494406559 0.184656133174364 0.584758901904832
0.0735404316522316 0.180141603876827 0.591239129708739
0.0445064051983743 0.184656133174363 0.621382513855742
0.088274836753894 0.184656133174363 0.59897531373454
0.0689247441822109 0.18829353095868 0.63035269944335
0.141529487797967 0.184656133174363 0.583254207720179
0.0924198825461947 0.187280029726749 0.63035269944335
0.105717446009684 0.187525743553488 0.63035269944335
0.12109106541549 0.189298136270143 0.63035269944335
0.129555933030475 0.188874085786975 0.63035269944335
0.151547930322213 0.190094539977927 0.63035269944335
0.15230022224291 0.191461588191316 0.63035269944335
0.170386935771722 0.18680971564084 0.63035269944335
0.187490471532747 0.194512537135813 0.63035269944335
0.203084303166746 0.192669550631889 0.63035269944335
0.211818067071665 0.191447114622902 0.63035269944335
0.235721416939821 0.191766052937421 0.63035269944335
0.245487170591088 0.190143030300272 0.63035269944335
0.260112830314173 0.197712591613306 0.63035269944335
0.282812531993907 0.192378776522553 0.63035269944335
0.300896559965959 0.195180372936786 0.63035269944335
0.306746362308308 0.194638218086104 0.63035269944335
0.328225260160271 0.205248137603637 0.63035269944335
0.343756267130858 0.204008669423221 0.63035269944335
0.350905528057938 0.203165549443788 0.63035269944335
0.370976372196716 0.199769974159816 0.63035269944335
0.386655056286221 0.201498514727507 0.63035269944335
0.41263909276742 0.204285759338905 0.63035269944335
0.41067157469698 0.201021133057108 0.63035269944335
-0.5 0.156435817404187 0.49602313582235
-0.497797316892791 0.160119662948041 0.498981140461617
-0.494784440696118 0.158128717130065 0.502571746493044
-0.489560182577047 0.158420108264791 0.508797774875086
-0.484151091348624 0.158969093034389 0.515244078779228
-0.485487508429656 0.156662279166657 0.513651398921705
-0.4775935032062 0.162461977804201 0.523059108006717
-0.477151604223332 0.159032857459541 0.523585742707112
-0.471972178863585 0.160875711859186 0.529758341487165
-0.468122975954238 0.155912492601901 0.534345642883004
-0.45427598363908 0.165213810544748 0.536883526479718
-0.44931787699349 0.16082558630483 0.537757774454566
-0.441784046039636 0.163071146787532 0.539086192119827
-0.436699238857641 0.161961632724877 0.539982780817713
-0.430993228612669 0.164596756438221 0.5409889043761
-0.420839496681467 0.162573158901931 0.542779281270453
-0.384643800578935 0.166485546777027 0.523234577663428
-0.41281661449657 0.160185430970098 0.551578237737916
-0.411671189881953 0.164812099888631 0.555204272058953
-0.411442618165933 0.165735360695734 0.560892946298636
-0.410982030168585 0.167595795808077 0.573869794997791
-0.411644136044674 0.164921377397135 0.588589905842934
-0.41282434515996 0.16015420480334 0.595319791744211
-0.412905996510437 0.159824393691735 0.604719598485893
-0.412892762435771 0.159877849572757 0.611323738669036
-0.410875177094312 0.168027403258521 0.620163197108684
-0.412837954167182 0.160099234471883 0.633285511287795
-0.411992459539293 0.163514407906888 0.638411765707985
-0.40784812522482 0.162005267791018 0.64104342435136
-0.394521982634228 0.163660409399745 0.640752057989367
-0.385561513409692 0.161742108587289 0.641089750139686
-0.380273438551946 0.168836068081239 0.639840949940973
-0.372338650218458 0.168460062077758 0.639907140954929
-0.364540859337865 0.165360886098247 0.640452710968736
-0.343110186185266 0.168585249503177 0.639885103321097
-0.335250688488331 0.164826801022717 0.640546729767267
-0.325698583883786 0.169326917267508 0.639754542263868
-0.313971528546181 0.171415640393293 0.635357181940889
-0.283729050407501 0.176367234796848 0.616678658693532
-0.301134636335719 0.168493652042926 0.6399012278742
-0.28495337358523 0.172062723666533 0.632916238887573
-0.260441870927763 0.174523475895274 0.623633730272265
-0.234518780120936 0.176726259080148 0.615324338675487
-0.235106723661142 0.175102299677862 0.621450277307814
-0.215353591460303 0.177000653673987 0.614289260803136
-0.200982837133274 0.177915684563969 0.609941347953806
-0.185559843289142 0.179513950154128 0.601902660197043
-0.104608678702766 0.184656133174363 0.550163305703444
-0.0873480515225694 0.184656133174363 0.549130492306503
-0.140344694829274 0.179876255083571 0.600080399730159
-0.151230540070498 0.1763215550347 0.616850972988621
-0.0863492920047166 0.184656133174363 0.573313144913446
-0.118555191603749 0.178684517011662 0.606074403672252
-0.0588052905368713 0.184656133174363 0.569379022367483
-0.091266648097318 0.184656133174363 0.601981397286196
-0.071522053478657 0.184656133174363 0.596585282206442
-0.00487154574176683 0.184656133174363 0.555682885145501
-0.0870736342439292 0.187854681730861 0.63035269944335
-0.0700015256921236 0.187867370626657 0.63035269944335
-0.0685032290736341 0.188230406510716 0.63035269944335
-0.0549593808305207 0.188569774280009 0.63035269944335
-0.0360542466223115 0.186074118071119 0.63035269944335
-0.0274114664176217 0.187864742145903 0.63035269944335
-0.0098450068833555 0.186385833633691 0.63035269944335
-0.00155584562868853 0.186458834253898 0.63035269944335
0.0027539606225774 0.186333585486677 0.63035269944335
0.0330531609437375 0.190360643206628 0.63035269944335
0.0482536067610151 0.196305224929857 0.63035269944335
0.0536382243134997 0.197822996254189 0.63035269944335
0.0630540059900029 0.198594546751367 0.63035269944335
0.0777139261646573 0.190138984346133 0.63035269944335
0.0870445115860283 0.198516032718644 0.63035269944335
0.104037860475302 0.193155619428081 0.63035269944335
0.110170204605885 0.19576825849396 0.63035269944335
0.134328825779948 0.201162843884373 0.63035269944335
0.150105851063344 0.197444018459124 0.63035269944335
0.157655499873921 0.203756713424803 0.63035269944335
0.173322559046253 0.202843615607183 0.63035269944335
0.183401897501839 0.201274729942163 0.63035269944335
0.194320774079651 0.197292779196338 0.63035269944335
0.21864354652503 0.204835565623819 0.63035269944335
0.22242700108554 0.208412154242798 0.63035269944335
0.255238217995009 0.208215110951333 0.63035269944335
0.258336613377227 0.211475807369778 0.63035269944335
0.274269513453487 0.212287056586172 0.63035269944335
0.295739453019003 0.212637397652941 0.63035269944335
0.30196159640676 0.213606986096898 0.63035269944335
0.322643873948332 0.205789043653605 0.63035269944335
0.337747678118478 0.206251956888242 0.63035269944335
0.353489535676255 0.216587365215388 0.63035269944335
0.378187621054244 0.213220694877663 0.63035269944335
0.379388475559898 0.217366907264324 0.63035269944335
0.407362841963731 0.218142094016825 0.63035269944335
0.404925855849342 0.212995738063692 0.63035269944335
-0.5 0.163124044683703 0.490232159766454
-0.498868049731896 0.167142253361539 0.497705090753905
-0.495261956610096 0.168054905529882 0.50200266518704
-0.491591988626601 0.164603747526409 0.506376362716075
-0.485171036591504 0.167068769423212 0.514028555371778
-0.483277732755857 0.171932623970285 0.516284907019782
-0.47775041206714 0.164448925198507 0.52287211130798
-0.47269583136063 0.164046309870779 0.528895926024022
-0.470670770325126 0.171692835191835 0.531309299788307
-0.462845418502613 0.172475976654045 0.535372503903854
-0.461095122220962 0.166889113267967 0.535681128362542
-0.451216030913044 0.173708086703889 0.537423078705011
-0.446042228747274 0.172302589361119 0.538335359619684
-0.43736129323844 0.173019844833024 0.539866042767682
-0.427820221805447 0.171510619974118 0.541548391086185
-0.426570813685113 0.17079677068795 0.541768695447717
-0.401662896584013 0.173127420365584 0.533060557323324
-0.391907453463866 0.177065713545513 0.527428249611843
-0.291471927110484 0.179605881946754 0.447235701826011
-0.273169393389243 0.184656133174363 0.4417472930947
-0.29535462319065 0.184656133174363 0.466915588698808
-0.390276123423547 0.173634708019886 0.565921743200179
-0.267650299316197 0.184656133174363 0.458730697818327
-0.410570385340473 0.169258536688092 0.601513101914119
-0.41040820751554 0.169913615243519 0.614440133786223
-0.41065300896736 0.16892479829835 0.616682451649435
-0.287169973511149 0.184656133174363 0.511059416992715
-0.301090191386047 0.184656133174363 0.535666828703925
-0.266697091650078 0.184656133174363 0.520117618657926
-0.276648946050701 0.184656133174363 0.531271948647695
-0.261857216437404 0.184656133174363 0.53264913978496
-0.289537494579709 0.184656133174363 0.555010103044599
-0.33905690350377 0.175825151163187 0.618723519586436
-0.270096865843766 0.184656133174363 0.557911666861773
-0.331344594883378 0.175129135554545 0.621349046369731
-0.277438324332464 0.184656133174363 0.585099079032893
-0.247989216336379 0.184656133174363 0.576204161054633
-0.226074603939755 0.184656133174363 0.565161576829317
-0.270175900677508 0.179526132277371 0.601841388600156
-0.255440254549248 0.178543043164955 0.606785965058812
-0.213318666883751 0.184656133174363 0.577211840604733
-0.233903035327718 0.184656133174363 0.601256692493527
-0.255499497894394 0.18507959432107 0.63035269944335
-0.247625557165922 0.186492109939242 0.63035269944335
-0.206462068975882 0.184656133174363 0.606082164388876
-0.228914243393538 0.1895909096808 0.63035269944335
-0.165333537417014 0.184656133174363 0.585855026415147
-0.203800817072033 0.189317293219181 0.63035269944335
-0.184002369755098 0.186083949117406 0.63035269944335
-0.16207091612339 0.184656133174363 0.619881643111796
-0.167040267573023 0.187683059000344 0.63035269944335
-0.158682880737077 0.185156457825035 0.63035269944335
-0.14209470640629 0.185757877022965 0.63035269944335
-0.136457625770863 0.192488643884799 0.63035269944335
-0.128390656090052 0.190726725739178 0.63035269944335
-0.115746867704928 0.196305875928624 0.63035269944335
-0.0900460825687745 0.1984621233467 0.63035269944335
-0.0968298025859723 0.197461574092337 0.63035269944335
-0.0802517939743361 0.193403438967378 0.63035269944335
-0.0667039840967843 0.192161504536014 0.63035269944335
-0.0540968059642593 0.199710345072329 0.63035269944335
-0.0333776518050801 0.198418039402535 0.63035269944335
-0.0297657762900857 0.199054137526585 0.63035269944335
-0.0163049541495469 0.197540929937301 0.63035269944335
0.00449416039302952 0.19562917477624 0.63035269944335
0.0195154497519012 0.19719332525878 0.63035269944335
0.0267203298442386 0.198022480499622 0.63035269944335
0.0447610943565375 0.201057034337296 0.63035269944335
0.0521881453100691 0.200720703629403 0.63035269944335
0.0615855023242979 0.208322875758269 0.63035269944335
0.0772092793121475 0.206503887614926 0.63035269944335
0.0921292537057322 0.209398127134936 0.63035269944335
0.10899197153041 0.202218753276814 0.63035269944335
0.114548725727135 0.212100319433679 0.63035269944335
0.13707854270694 0.208320596102949 0.63035269944335
0.138774029751962 0.208681900909844 0.63035269944335
0.16170104202871 0.214857192332831 0.63035269944335
0.165921551840111 0.212264799236324 0.63035269944335
0.184744920313997 0.211507268369759 0.63035269944335
0.19925868857062 0.21378899725189 0.63035269944335
0.22236223979159 0.21525201945323 0.63035269944335
0.227074167765787 0.217953630464939 0.63035269944335
0.237918403226739 0.219515009231844 0.63035269944335
0.25926633934637 0.222440332071509 0.63035269944335
0.274434466273907 0.214190895953653 0.63035269944335
0.299962099936684 0.215836750933371 0.63035269944335
0.308078311715773 0.215105524354891 0.63035269944335
0.332024299437875 0.223738577331338 0.63035269944335
0.341317631226516 0.22556496052713 0.63035269944335
0.35457436072576 0.223932423990342 0.63035269944335
0.362243350373856 0.219419590935302 0.63035269944335
0.386971808864305 0.225104292563565 0.63035269944335
0.389930200274613 0.223033967204703 0.63035269944335
0.406146605103326 0.225130226998484 0.63035269944335
-0.5 0.171172601144083 0.489328250941184
-0.5 0.172248998727945 0.494766923671858
