ply
format ascii 1.0
element vertex 856
property float x
property float y
property float z
end_header
-0.418040666120579 0.21266037415868 0.63035269944335
-0.419044442788755 0.213870686709885 0.625877806832757
-0.410038068863975 0.205494284055958 0.63035269944335
-0.400320533505476 0.199116105546305 0.63035269944335
-0.392841374521838 0.186246143165552 0.63035269944335
-0.38213754674334 0.174991137466587 0.620312007160404
-0.387361620926544 0.172692014944161 0.630542411227116
-0.380848546638693 0.173186051771938 0.628678793648494
-0.375974789563272 0.163930238577583 0.640704558038009
-0.370101920918095 0.166839447973523 0.64019242919447
-0.370877245952644 0.157398934899281 0.641854309927384
-0.35912472770817 0.148341347377732 0.643448781548827
-0.357122546026287 0.143185587464734 0.644356386675323
-0.354850087233924 0.138411857452294 0.643699758798478
-0.339820896029917 0.127588261288048 0.641794404101679
-0.333228517215712 0.120083526431532 0.640473292191173
-0.132205259037641 -0.106103350466277 0.392544570284397
-0.124926825798354 -0.10901755481863 0.392544570284397
-0.123109531908058 -0.113750870478363 0.392544570284397
-0.118799834373747 -0.118419543311806 0.392544570284397
-0.102622784640178 -0.137174970723792 0.392544570284397
-0.100696129726607 -0.140053831236496 0.392544570284397
-0.0974772214416528 -0.154344831996114 0.392544570284398
-0.0808104226548859 -0.164230729827393 0.392544570284397
-0.0714759847257693 -0.171421767754564 0.392544570284397
-0.072315930647202 -0.172555730045328 0.392544570284397
-0.0591435461088305 -0.187372457526802 0.392211146300534
-0.0521832591103345 -0.203212620840344 0.386931091862686
-0.0336055744741189 -0.217550711314577 0.382151728371276
-0.432243425616204 0.235555992522572 0.465119429458545
-0.419150055376505 0.235555992522572 0.462455568159561
-0.423921498573335 0.235555992522572 0.472613046359681
-0.426058495625106 0.235555992522571 0.491608313885084
-0.428409095691637 0.235555992522572 0.493505045570492
-0.434066762930384 0.235555992522572 0.504703508823614
-0.424299661709265 0.235555992522572 0.511159051789811
-0.424893411270036 0.235555992522572 0.517802657269138
-0.424207157284551 0.235555992522571 0.526913418987995
-0.426861418933281 0.235555992522572 0.533486942634852
-0.428857791771601 0.230515157772089 0.54136543950678
-0.424471734857109 0.229340904846864 0.542138819679727
-0.419044442788755 0.232515180336094 0.553406917009842
-0.419044442788755 0.227483362204492 0.565285846020281
-0.419044442788755 0.232486353456372 0.56782009518286
-0.419044442788755 0.226686876694906 0.573802043254739
-0.419044442788755 0.227071545522916 0.581213167444302
-0.419044442788755 0.227530030424924 0.595873323309811
-0.419044442788755 0.226914146624122 0.597031393891921
-0.419044442788755 0.229779877015757 0.610551776388519
-0.419044442788755 0.227713563934414 0.623384221848556
-0.419044442788755 0.225356747418309 0.624005821905373
-0.416263376167572 0.227842969237719 0.63035269944335
-0.409145763403852 0.210957391235488 0.63035269944335
-0.398235873746496 0.20821268746395 0.63035269944335
-0.401306538448342 0.207660119559907 0.63035269944335
-0.388489315311727 0.194740284689501 0.63035269944335
-0.385794056021299 0.191173803513174 0.63035269944335
-0.374407042772043 0.175054676689791 0.621629921886369
-0.365382643562212 0.174251017562586 0.624661504133832
-0.373745844626364 0.170614971059515 0.638377486017832
-0.360254472274012 0.16700200187167 0.640163813674396
-0.362218824370183 0.160093287628334 0.641380003832696
-0.351533937040521 0.158644987663711 0.641634958387365
-0.352823105944643 0.148508126681479 0.643419422200519
-0.339316538234612 0.143181501835538 0.64435710589772
-0.33471220301921 0.130983923231845 0.642392166650759
-0.329305065043378 0.125606819701582 0.641445596831349
-0.315744549886254 0.116484448830023 0.639839720935546
-0.119118309786319 -0.10703858812009 0.392544570284397
-0.109072557917212 -0.10977565654166 0.392544570284397
-0.109267281326212 -0.126112549715854 0.392544570284397
-0.0932285498287723 -0.131292324775003 0.392544570284397
-0.0938152217865116 -0.134447148594826 0.392544570284397
-0.0847987530356882 -0.14516414763713 0.392544570284397
-0.0734855810959621 -0.152706976409408 0.392544570284397
-0.0607968362231584 -0.167214339743662 0.392544570284397
-0.0556544775043401 -0.175133688375467 0.392544570284397
-0.0526438805159202 -0.181518729910291 0.392544570284397
-0.0508254853308997 -0.184940807535405 0.392544570284398
-0.0316526385786677 -0.200248723335091 0.386608705711852
-0.0173050921542588 -0.222579446580105 0.380475483282766
-0.0124855073696222 -0.224689711080988 0.379772061782472
-0.416524895827474 0.235555992522572 0.458846391274679
-0.411075214558734 0.235555992522572 0.460030031627866
-0.414029184393194 0.235555992522572 0.467516072728732
-0.418631406205905 0.235555992522571 0.472749147058142
-0.416771006666431 0.235555992522572 0.491318258593858
-0.415374696478637 0.235555992522572 0.495392237156722
-0.422424116134763 0.235555992522572 0.504361317967898
-0.416220291468852 0.235555992522572 0.511673359759169
-0.416332327368656 0.235555992522572 0.519008911134997
-0.416689114348542 0.235555992522572 0.527735869641953
-0.412517777004004 0.235555992522572 0.53435926582297
-0.419044442788755 0.235186841207313 0.543652520988248
-0.412514205071769 0.235555992522572 0.552050242876631
-0.414684961102306 0.235555992522572 0.561306261023251
-0.414125812284127 0.235555992522572 0.565780701287599
-0.417020608704592 0.235555992522572 0.584112081061992
-0.413990029985083 0.235555992522572 0.587025848374311
-0.414296811366975 0.235555992522572 0.593622835655163
-0.419044442788755 0.235165537573053 0.603735418586237
-0.415037941605456 0.235555992522572 0.612504751649459
-0.412773648272185 0.235555992522572 0.619725610718314
-0.419044442788755 0.234142124418632 0.63035269944335
-0.410424086678776 0.229035159506286 0.63035269944335
-0.397863034537122 0.217335305459945 0.63035269944335
-0.392948515098751 0.215503001487432 0.63035269944335
-0.392531552578146 0.212607507419821 0.63035269944335
-0.380096785702272 0.204911462797773 0.63035269944335
-0.375642157864382 0.188834476147195 0.63035269944335
-0.374366035693387 0.188677845844794 0.63035269944335
-0.364165529418818 0.173323313139245 0.628161013024466
-0.356800808507281 0.173498142612748 0.627501517088611
-0.349389744233772 0.171683243470771 0.634347723189551
-0.35349155642267 0.164186932311808 0.640659370412314
-0.343632487505133 0.156650005778264 0.641986149252932
-0.340668222389111 0.154716720958118 0.64232647914481
-0.343048723576375 0.150573394263284 0.643055858443389
-0.332637622948524 0.145557892275886 0.643938772968605
-0.316732027378962 0.133659235256988 0.642863120874768
-0.310841584026288 0.124757649859145 0.641296111417895
-0.113598959697094 -0.0973978734571308 0.392544570284397
-0.109160100729505 -0.100556860882143 0.392544570284397
-0.100822981064951 -0.108003963623771 0.392544570284397
-0.0905242349819235 -0.121237113958994 0.392544570284397
-0.0889961645848478 -0.13075290414054 0.392544570284397
-0.0827247825017029 -0.139703634009055 0.392544570284397
-0.0730289542361346 -0.146472728004243 0.392544570284398
-0.0632073972329505 -0.160070199507665 0.392544570284397
-0.058260674486879 -0.16083627184269 0.392544570284397
-0.0442477274008705 -0.169754941897255 0.390807068652586
-0.0348643874350836 -0.184905105250206 0.38767928866399
-0.0164500324809615 -0.200192308872511 0.38154117034595
-0.010825103681878 -0.216737577769475 0.379666194079588
-0.407217543786354 0.235555992522571 0.445913345309603
-0.397840358145214 0.235555992522572 0.452190040407976
-0.400303968372696 0.235555992522571 0.455597842933985
-0.407907434741202 0.235555992522572 0.475666372136027
-0.40849303457496 0.235555992522571 0.475861011146346
-0.405787267375659 0.235555992522572 0.487964484480809
-0.401999096251577 0.235555992522572 0.491083163966284
-0.405986794478168 0.235555992522571 0.499630148520306
-0.403494884322129 0.235555992522572 0.515228582645075
-0.399280971928363 0.235555992522571 0.513859201811967
-0.405070841717865 0.235555992522572 0.530252363912907
-0.40079661652687 0.235555992522571 0.533913805123776
-0.406998002725841 0.235555992522572 0.549831478172249
-0.400717623604418 0.235555992522571 0.552534695836893
-0.402574239504588 0.235555992522572 0.557436537394172
-0.403791274828849 0.235555992522571 0.577276126812441
-0.407471384719045 0.235555992522571 0.582544173096461
-0.407784908446153 0.235555992522572 0.590620234948844
-0.409421608403852 0.235555992522572 0.596247971220702
-0.402217608631067 0.235555992522572 0.601462686486484
-0.410161158095692 0.235555992522572 0.617003264009381
-0.396677339171502 0.235555992522571 0.615534141531742
-0.402146043232933 0.235555992522572 0.627844863718349
-0.40027079614445 0.231978351980074 0.63035269944335
-0.388839618345696 0.2225639890653 0.63035269944335
-0.388283501664253 0.2185717844258 0.63035269944335
-0.374097355869744 0.202950488381734 0.63035269944335
-0.370386234061088 0.201984589726118 0.63035269944335
-0.365235404034616 0.196594396629402 0.63035269944335
-0.361233699133875 0.186049930015373 0.63035269944335
-0.348607531771577 0.173318176842925 0.628180388284714
-0.343820039330236 0.172796065728164 0.630149908362483
-0.342348903119605 0.166013865035041 0.640337762437281
-0.337948955868466 0.166648660008835 0.640226014958304
-0.331311451960741 0.153560707512706 0.642529980422422
-0.331163515614414 0.153644165644521 0.642515288693257
-0.320561237721497 0.149259302937499 0.643287187295797
-0.311699170477223 0.137324168348131 0.643508285141125
-0.308438299252686 0.13671141711154 0.64340041817816
-0.298243898307124 0.120884840979674 0.640614353296443
-0.0948759906761948 -0.101525085133838 0.392544570284397
-0.0983607474663974 -0.102633179423185 0.392544570284397
-0.089989023744829 -0.110679685139659 0.392544570284397
-0.0785745394677824 -0.119983726484584 0.392544570284397
-0.0693486003652431 -0.131197198772823 0.392544570284397
-0.0648083006382999 -0.140910757576826 0.392544570284397
-0.0591254102435602 -0.145049666380924 0.392544570284397
-0.0492220362095346 -0.153375900752007 0.392465171588807
-0.030443280603334 -0.169708526427732 0.38620558638674
-0.0160689291909521 -0.194042687627035 0.381414135915946
0.00669936722885622 -0.21074923411491 0.363901908103773
0.00685735167909038 -0.216805590756729 0.365178188945277
0.00763100611026909 -0.217921292566289 0.371428173212664
0.0172139626653404 -0.227316058579623 0.37889661261626
-0.390129321546772 0.235555992522571 0.428389531271821
-0.396638459706779 0.235555992522572 0.448165316708317
-0.392063723989681 0.235555992522572 0.45858716935491
-0.392540594260276 0.235555992522572 0.461010644331972
-0.396012445045811 0.235555992522572 0.472138245915369
-0.393481852815864 0.235555992522571 0.4746239692311
-0.393099474732416 0.235555992522572 0.479568742029706
-0.395374453796293 0.235555992522572 0.498971880911473
-0.389273373487819 0.235555992522571 0.496489305690701
-0.394396347443299 0.235555992522572 0.515509449369708
-0.392816800641913 0.235555992522571 0.522460219200608
-0.389771714777693 0.235555992522572 0.524798734118549
-0.390641893786358 0.235555992522572 0.532180702063688
-0.397837722260309 0.235555992522572 0.552826568159846
-0.397711204998574 0.235555992522571 0.560458328457275
-0.389107217645943 0.235555992522571 0.561156373654416
-0.394798788304308 0.235555992522572 0.575272000909357
-0.39240470151069 0.235555992522572 0.574994344212919
-0.392592548505816 0.235555992522572 0.587395050885693
-0.39211019732626 0.235555992522572 0.598000888873567
-0.390396802640129 0.235555992522572 0.599470060492855
-0.388654516829966 0.235555992522572 0.610424163246296
-0.391899430838619 0.235555992522572 0.624655612156473
-0.386185603438874 0.232884410738733 0.63035269944335
-0.388886350872311 0.233190790112733 0.63035269944335
-0.375602805698729 0.218770798788 0.63035269944335
-0.368236477060382 0.212801704303769 0.63035269944335
-0.3651606452828 0.207478326954814 0.63035269944335
-0.36103574540064 0.206138207636494 0.63035269944335
-0.35289532366422 0.193548019798685 0.63035269944335
-0.343913219252766 0.175362439094859 0.620468973155672
-0.335916537876638 0.17386646890047 0.626112107826235
-0.339106862322722 0.172525901692763 0.631169027620759
-0.331665385531795 0.167418851225848 0.640090432714612
-0.328022930358265 0.166189965252508 0.640306762262167
-0.318616682797485 0.15596490276069 0.642106752815048
-0.318009763116852 0.152557805841182 0.642706528344321
-0.309558211609597 0.146685964799488 0.643740190330399
-0.297198960375498 0.135186184587026 0.643131920637214
-0.29113507539042 0.128792061106805 0.64200631755483
-0.283779329448875 0.122863085324772 0.64096259773361
-0.276346883072339 0.118221483830445 0.64014550357436
-0.0731879749777018 -0.111283130953819 0.392544570284398
-0.0730938856247386 -0.11039247892706 0.392544570284397
-0.0618418899553774 -0.12954786626323 0.392544570284397
-0.0504521883118098 -0.137838245821379 0.392544570284397
-0.0400523992027958 -0.14276763150437 0.389408625919895
-0.042932703906592 -0.150388754783281 0.390368727487827
-0.0282659758721187 -0.162956425219219 0.385479818143002
0.00641028349326168 -0.192562892695931 0.361566538814065
0.00772934343472324 -0.197801595741787 0.372222593442121
0.0073173779186661 -0.206502782159521 0.368894520997501
0.0160897433480457 -0.208801821333083 0.381247233289969
0.0253409608963133 -0.219008430588312 0.381665821946697
0.0276071224250433 -0.226789308164998 0.379072196087802
-0.383745984911618 0.235555992522571 0.425363375215831
-0.380526949493809 0.235555992522572 0.433866426305645
-0.374252227156747 0.235555992522571 0.441334540901752
-0.378480268929801 0.235555992522571 0.446436362542353
-0.379895526336286 0.235555992522572 0.459646615034725
-0.380599785298515 0.235555992522571 0.469682347245903
-0.377421046838509 0.235555992522571 0.474609289397817
-0.377990190519112 0.235555992522572 0.488392707437841
-0.386571332642566 0.235555992522572 0.501501511565979
-0.378668953294224 0.235555992522572 0.497132056043914
-0.377286519686406 0.235555992522572 0.505467845253527
-0.385592157659396 0.235555992522571 0.52297950971426
-0.377142764936979 0.235555992522571 0.529529321168891
-0.375639106853165 0.235555992522572 0.531701541015607
-0.377241533049138 0.235555992522571 0.54697618606745
-0.37984872988701 0.235555992522571 0.553475958521181
-0.383071324690865 0.235555992522571 0.559390903695751
-0.378192266634239 0.235555992522572 0.568346237553054
-0.383952010702886 0.235555992522572 0.584973154002153
-0.382820195491677 0.235555992522572 0.585081042486987
-0.380818997555742 0.235555992522572 0.596059178048151
-0.386781801839133 0.235555992522571 0.609699535541629
-0.386760920003246 0.235555992522572 0.614891034431386
-0.384977950430414 0.235555992522572 0.628616540269534
-0.381858750666631 0.234307745776543 0.63035269944335
-0.377189514624756 0.231899505075864 0.63035269944335
-0.368750399050942 0.220859157619477 0.63035269944335
-0.357722415305678 0.215187088329305 0.63035269944335
-0.35510848776011 0.213101420301835 0.63035269944335
-0.344810771502831 0.203950797926235 0.63035269944335
-0.344204992854159 0.190569909261339 0.63035269944335
-0.337864783825541 0.191100613383265 0.63035269944335
-0.326921354061523 0.174509202961585 0.623687570975278
-0.323065633445426 0.17221968323413 0.632324152239655
-0.320094629542631 0.17027479380783 0.639587680807594
-0.3103636149153 0.15970650506667 0.641448091920918
-0.308218818310981 0.161440004980425 0.64114293158858
-0.306643172357238 0.151052270470605 0.642971558455015
-0.297206124967138 0.145337042359227 0.643977650751887
-0.285665646242481 0.132927833548606 0.642734367024461
-0.281811814131538 0.126833953893104 0.641661618000279
-0.277990559308977 0.122299997035539 0.640863473292868
-0.0685030715730738 -0.0961321147014857 0.392544570284397
-0.0628346594115266 -0.115705035122277 0.392544570284398
-0.0572760177690967 -0.11591587776217 0.392544570284398
-0.0458475278414168 -0.131227491934161 0.391340335466101
-0.0291822967045988 -0.138192362719888 0.385785258420496
-0.0162871919606047 -0.150221122925352 0.381486890172497
-0.0128326230607694 -0.16392933175651 0.380335367205886
0.00637080162563664 -0.186103246004797 0.361247583681695
0.0077805459015571 -0.194164176619139 0.372636233691905
0.0157103151914492 -0.192720853356307 0.38112075723777
0.0197155590214171 -0.194327601001186 0.382455838514426
0.0275940516700357 -0.2035169096639 0.385082002730633
0.0329058692587759 -0.210461342102406 0.384514851441999
-0.373826493218137 0.235555992522571 0.422574087128025
-0.367337885134396 0.235555992522571 0.422137290638332
-0.371964499737048 0.235555992522572 0.442785196925988
-0.366044434395562 0.235555992522571 0.440960621431936
-0.363711964633467 0.235555992522572 0.454714141948659
-0.372025979837777 0.235555992522572 0.467830553110165
-0.371014771064626 0.235555992522572 0.470703582138013
-0.371024514543879 0.235555992522571 0.481852929630501
-0.361530746317556 0.235555992522572 0.479818871324161
-0.368052452856893 0.235555992522571 0.492831809515451
-0.3662527583081 0.235555992522572 0.505080163867959
-0.368053032104535 0.235555992522572 0.509754266386138
-0.371975230557165 0.235555992522571 0.525828538527919
-0.367436327285596 0.235555992522571 0.532424764094081
-0.365050757150566 0.235555992522572 0.535961822399139
-0.362998892156979 0.235555992522571 0.542350000956777
-0.367083075539953 0.235555992522572 0.556459969129156
-0.3651476063617 0.235555992522572 0.563396615014498
-0.371652678237285 0.235555992522572 0.571462663372035
-0.367739369757761 0.235555992522572 0.578463832171824
-0.374797030422277 0.235555992522572 0.598421639651716
-0.374921543815624 0.235555992522571 0.601112750885968
-0.369953629784814 0.235555992522572 0.60741869919641
-0.371379414750764 0.235555992522572 0.614266478267984
-0.371352054797202 0.235555992522572 0.619779294025963
-0.36472768155265 0.235555992522572 0.628607607693638
-0.353774019724418 0.226872621906642 0.63035269944335
-0.353256580550515 0.222567609636585 0.63035269944335
-0.348427998988555 0.210665715111789 0.63035269944335
-0.338731110492799 0.20402896322387 0.63035269944335
-0.330845211183002 0.198029651632903 0.63035269944335
-0.333207345181932 0.196730842498594 0.63035269944335
-0.32335316821955 0.18539432349755 0.63035269944335
-0.311987560320446 0.17347861495056 0.627575179804578
-0.310557897550322 0.171103469245734 0.636534761435819
-0.309013780457799 0.167282594495011 0.640114418957089
-0.300489657619485 0.167804803899569 0.640022490717474
-0.300081969411529 0.159080143814462 0.641558354751837
-0.291284553956498 0.149972523639154 0.643161633977554
-0.288604393116298 0.149939213145331 0.643167497860951
-0.271170865547609 0.136604263673503 0.64338155519553
-0.269170467205756 0.130751687833073 0.642351284599997
-0.262998133411309 0.121635791513285 0.640746548465642
-0.0538519799098833 -0.103079442745829 0.392544570284397
-0.0396186798006766 -0.11670790167998 0.389264052785855
-0.042545102239996 -0.114197235415754 0.390239526932294
-0.0229179374066882 -0.134810083515794 0.383697138654525
-0.0121636224786247 -0.148742142463255 0.380112367011837
-0.0100329726131762 -0.149475033459927 0.379402150390021
0.00739521883059024 -0.169136205670045 0.369523360509404
0.00835672388370826 -0.169580557868657 0.377290900140565
0.0205199153885261 -0.181845388600386 0.382723957303463
0.0237460100447901 -0.193242700135143 0.383799322188883
0.0306834412687548 -0.19491540657858 0.386111799263538
0.042817743636425 -0.209441598013441 0.384854766138321
0.054966708746194 -0.217573335854132 0.38214418685809
-0.356701692497048 0.235555992522572 0.409554289173751
-0.361802116957001 0.235555992522571 0.420405877108976
-0.356535212065224 0.235555992522572 0.427134264887626
-0.361735403049008 0.235555992522572 0.436719016682987
-0.354834029731035 0.235555992522571 0.439320104843681
-0.35656328051256 0.235555992522572 0.460486507332252
-0.356912197362985 0.235555992522571 0.453290840256205
-0.354497405706921 0.235555992522571 0.472494086414306
-0.350046300420828 0.235555992522571 0.472770608392348
-0.356222789614379 0.235555992522571 0.483076986518533
-0.358581802570583 0.235555992522572 0.494851610278079
-0.360030988719424 0.235555992522571 0.51116008811209
-0.358805821723558 0.235555992522572 0.513341712774536
-0.356876944887167 0.235555992522572 0.517330923662637
-0.363363953696119 0.235555992522571 0.533335964378413
-0.360435588909819 0.235555992522572 0.54002032332452
-0.35832799005733 0.235555992522572 0.544991660641098
-0.350188083511831 0.235555992522571 0.551315156792202
-0.359855301835811 0.235555992522572 0.569905659781171
-0.351009005138861 0.235555992522572 0.573739410232353
-0.356492456362713 0.235555992522572 0.578755534290477
-0.35692595578099 0.235555992522572 0.593192783154335
-0.352142803587289 0.235555992522572 0.594459681712956
-0.35821486287013 0.235555992522572 0.610073269940101
-0.356413661229966 0.235555992522572 0.61303889539712
-0.361761604011395 0.235555992522571 0.62610381966949
-0.356856202162623 0.235053460480759 0.63035269944335
-0.345063330566579 0.224994058699583 0.63035269944335
-0.338177546740807 0.217431687402473 0.63035269944335
-0.333289167638338 0.212480735802929 0.63035269944335
-0.329879010409348 0.198736866450331 0.63035269944335
-0.323105486217368 0.198857980343359 0.63035269944335
-0.319534178720749 0.192205685356717 0.63035269944335
-0.299501787583631 0.175240766955459 0.620927947720051
-0.295687291428383 0.173935084014171 0.625853276247565
-0.298020383341589 0.172977697235226 0.629464753632387
-0.296293782921873 0.166859523167347 0.640188895215166
-0.290576182617897 0.157015538518977 0.641921801921991
-0.28370206278704 0.156227085289026 0.642060598957846
-0.271819221916217 0.144955255709463 0.644044859374165
-0.273306015014741 0.145998796113305 0.643861157526869
-0.264124745307207 0.131864599044108 0.642547198284404
-0.248380237843413 0.121812632598323 0.64077767906095
-0.251156231653043 0.124084493359721 0.641177610886428
-0.0389131140898571 -0.106646257069414 0.389028864215582
-0.0321629712339598 -0.117585504811103 0.386778816596949
0.00665012489875804 -0.151707960257842 0.363504102861537
0.00716198505917742 -0.154870654029071 0.367639176378597
0.00900820906588555 -0.149427313421555 0.378886721862582
0.0169645253216428 -0.162279661962038 0.381538827281168
0.0149057510471997 -0.158310377712917 0.380852569189687
0.0201491190779653 -0.17491035435015 0.382600358533275
0.0327482176911138 -0.177111189094553 0.386800058070992
0.0417202047825223 -0.192296934493801 0.389790720434794
0.0398986252035952 -0.192468276135801 0.389183527241819
0.053380370122105 -0.204539372790069 0.386488841212778
0.0672354833102587 -0.219349508718057 0.381552129236782
-0.349191717649632 0.235555992522572 0.406007114419246
-0.34580729160684 0.235555992522571 0.406075857454172
-0.349272082100495 0.235555992522571 0.426128887641347
-0.351575760106247 0.235555992522572 0.433646020783814
-0.348508974871848 0.235555992522571 0.441183210851969
-0.338908785711557 0.235555992522572 0.440374888463655
-0.34592554724764 0.235555992522572 0.457960771671399
-0.34594055773943 0.235555992522572 0.46224952446887
-0.338190041213492 0.235555992522571 0.465657059240914
-0.349958168143216 0.235555992522571 0.483791972999398
-0.344086848390442 0.235555992522571 0.483880732100494
-0.341355702034469 0.235555992522571 0.496838698213409
-0.344789020114941 0.235555992522571 0.509320108291768
-0.337547660542967 0.235555992522571 0.510845291498875
-0.348354606717653 0.235555992522572 0.527399933220888
-0.346099599641111 0.235555992522571 0.535161129825354
-0.350204018008885 0.235555992522571 0.549105015317653
-0.348900506230486 0.235555992522572 0.555557891853926
-0.346925756798652 0.235555992522572 0.558495644604707
-0.343468242008109 0.235555992522571 0.570546630975328
-0.342975631111336 0.235555992522571 0.566407080498059
-0.340349475026375 0.235555992522572 0.577880598888621
-0.351783956907605 0.235555992522571 0.595063407891278
-0.348725003460407 0.235555992522572 0.601879788593569
-0.350734731657138 0.235555992522572 0.616050170224196
-0.345896974128447 0.235555992522572 0.616106116011506
-0.343745589582684 0.235555992522572 0.627628737779645
-0.346509059521548 0.232500072974504 0.63035269944335
-0.332713374423969 0.222127445578716 0.63035269944335
-0.331377417320179 0.220006855260655 0.63035269944335
-0.319449428005629 0.208662217172246 0.63035269944335
-0.316403891929022 0.206008391169265 0.63035269944335
-0.307942019927381 0.197128995786519 0.63035269944335
-0.299694751795922 0.186048333691295 0.63035269944335
-0.285432302384542 0.175617277526574 0.619507665507436
-0.281861082252647 0.173480842467618 0.62756677711127
-0.28416353425877 0.172264844398707 0.632153794210773
-0.281594640550534 0.171345458871523 0.635621922361667
-0.282487093239631 0.1607003907343 0.64127313115038
-0.270596038011355 0.150374906533986 0.643090799651609
-0.264826941235987 0.1499757608859 0.64316106410196
-0.257914340727497 0.139665543529665 0.643920454084922
-0.248394823269624 0.127651954236854 0.641805616424951
-0.237365353645452 0.119810446865639 0.640425220050862
-0.2288883714405 0.117830878515936 0.640076742539737
-0.0266589018142963 -0.106061940164451 0.384944126790395
0.00637699564687106 -0.135452478943758 0.361297622217903
0.00757057997815004 -0.139582895788621 0.370940019380848
0.00852595908506325 -0.14820951222702 0.378658070421416
0.0148151665675678 -0.153177626989023 0.380822374363143
0.0206167514809297 -0.155581049213545 0.38275623600093
0.0341529142894009 -0.169388572509999 0.387268290270421
0.0392227488583475 -0.165538990530796 0.388958235126737
0.0423805925353044 -0.178785391263269 0.390010849685722
0.0536162617118903 -0.184679240469661 0.392544570284397
0.0632482072345234 -0.19237110410249 0.390544930775305
0.0847799202734129 -0.219016732290326 0.381663054712692
0.0852522707319864 -0.218721850136628 0.381761348763925
-0.335813757184163 0.235555992522571 0.397052518180011
-0.337300662857776 0.235555992522571 0.398751047530753
-0.338948230431238 0.235555992522572 0.410959298752806
-0.334752670187368 0.235555992522572 0.417738958741059
-0.338422156833313 0.235555992522571 0.433266925745943
-0.331244189521368 0.235555992522571 0.435808988869908
-0.332002585089818 0.235555992522571 0.446466506849927
-0.329273996897037 0.235555992522571 0.453132622399862
-0.335266879716499 0.235555992522572 0.463060647907291
-0.330933440660509 0.235555992522571 0.472612299662885
-0.33391739028989 0.235555992522571 0.47648235281425
-0.339328438401021 0.235555992522571 0.493130775140316
-0.329579175482226 0.235555992522572 0.498272855464471
-0.329911215376803 0.235555992522571 0.504776142180725
-0.33627820567552 0.235555992522572 0.523619040593905
-0.329412151711461 0.235555992522572 0.519528276365099
-0.331099092157303 0.235555992522572 0.526708198238098
-0.335184407124699 0.235555992522571 0.540256587014778
-0.332428762390416 0.235555992522572 0.548523864998817
-0.333205307108675 0.235555992522572 0.558115849413629
-0.335330288335336 0.235555992522571 0.567421679495961
-0.327684354831987 0.235555992522571 0.569978175770719
-0.328433726823201 0.235555992522572 0.580021928161876
-0.33038711342821 0.235555992522572 0.590133866257857
-0.337367283809653 0.235555992522572 0.609761629387537
-0.334940535041199 0.235555992522572 0.604452144655966
-0.333806044944329 0.235555992522572 0.617204637070107
-0.327692333033477 0.235555992522572 0.626310892417618
-0.323652098515911 0.226636198555669 0.63035269944335
-0.326291158816635 0.226299869227251 0.63035269944335
-0.319431613101353 0.221785621546928 0.63035269944335
-0.303099469109913 0.209850786662141 0.63035269944335
-0.309682398015454 0.209031376450828 0.63035269944335
-0.297468274510197 0.196687806959254 0.63035269944335
-0.29345970514617 0.192200614209193 0.63035269944335
-0.273388853248468 0.173787642910441 0.626409457117645
-0.274685009442131 0.172699436801721 0.630514414317906
-0.275030626607006 0.168487655779762 0.639902283439098
-0.26531320178861 0.164978469199579 0.640520030538216
-0.25886200636041 0.160540632840777 0.641301254469852
-0.255017153127409 0.152440753257344 0.642727133944068
-0.248233702013074 0.148723121777292 0.643381575083038
-0.238837274473967 0.14138279203955 0.644222753566928
-0.233476641216466 0.131878600244902 0.642549663015468
-0.22010921718077 0.119145560608932 0.640308175389104
0.00736359401924352 -0.124463602286375 0.369267878778271
0.00830809642686348 -0.12480760044424 0.376898062165372
0.00790425734747662 -0.128279744107624 0.373635639317382
0.0155971009029949 -0.133791135147715 0.381083019141619
0.0259231540065963 -0.140921375309899 0.384525036842819
0.0337587203616307 -0.152675956656462 0.387136892294497
0.0362101319569236 -0.157635822475762 0.387954029492929
0.0424527279325301 -0.163090161373096 0.390034894818131
0.0562215843208164 -0.171946837105877 0.392544570284398
0.0632755157861787 -0.181606669205112 0.392544570284397
0.0745162689195986 -0.198825572573731 0.388393441284891
0.073418033338009 -0.19655046554108 0.389151810295775
0.0991222117931545 -0.216383485893686 0.382540803511572
-0.328157560055628 0.235555992522571 0.3932645852714
-0.323014653436788 0.235555992522572 0.396242404399295
-0.323513215717039 0.235555992522571 0.409244461119376
-0.329172359399215 0.235555992522571 0.415203885873475
-0.328847354072518 0.235555992522571 0.421005636035909
-0.321052972197393 0.235555992522571 0.430143873620605
-0.319347854514118 0.235555992522572 0.438197094436096
-0.317241046219775 0.235555992522572 0.440540044156066
-0.320791295644233 0.235555992522572 0.450074653034669
-0.315918391182452 0.235555992522572 0.459929261506957
-0.321375282821936 0.235555992522572 0.467349794338268
-0.322006669971612 0.235555992522572 0.480758652355291
-0.325162908843124 0.235555992522572 0.49185283360687
-0.31868618990168 0.235555992522571 0.497197962591838
-0.317729169057971 0.235555992522571 0.509791226067917
-0.317887509100997 0.235555992522572 0.510130421794883
-0.322588836355662 0.235555992522572 0.522591467910448
-0.324803491026873 0.235555992522572 0.534073195497573
-0.318228068240776 0.235555992522572 0.538798736938612
-0.319657171232407 0.235555992522571 0.544257137655864
-0.320616191380246 0.235555992522571 0.560901107506015
-0.323823046466121 0.235555992522572 0.571698849341657
-0.322945701456705 0.235555992522572 0.582019339633727
-0.321110911353644 0.235555992522572 0.582425305009333
-0.325740170072606 0.235555992522572 0.599886840391407
-0.327419445159123 0.235555992522572 0.605923766885429
-0.319003972007985 0.235555992522572 0.614004811521639
-0.326084881478827 0.235555992522572 0.625541227070544
-0.317451318496394 0.234511987280093 0.63035269944335
-0.314087228728772 0.235284892245986 0.63035269944335
-0.30934819016505 0.217951039368493 0.63035269944335
-0.299551137081573 0.214868631328583 0.63035269944335
-0.291720949750103 0.202842732085838 0.63035269944335
-0.291583288074952 0.200023561614988 0.63035269944335
-0.287050758694224 0.197100104224572 0.63035269944335
-0.27279703919327 0.189772530867237 0.63035269944335
-0.267653093778606 0.173449535102406 0.627684875505701
-0.260387422939737 0.174047520340717 0.6254291412381
-0.258355200033676 0.17075333894163 0.63785553137209
-0.250638791340797 0.160928654104017 0.641232948324173
-0.248373875135099 0.156058196333601 0.642090329683159
-0.243802600596921 0.150074443076558 0.643143692373321
-0.241074034641702 0.149958812136675 0.643164047710961
-0.232911795917145 0.14434893439964 0.644151594431341
-0.223365892844104 0.132749169812235 0.642702915574861
0.007557288671182 -0.116844945102595 0.370832645266392
0.0080254534557083 -0.113716862475881 0.374614724732255
0.0158246390406434 -0.111117450729622 0.381158865187502
0.0189642398718328 -0.124598577532043 0.382205398797898
0.0243376964706401 -0.126854012588555 0.383996550997501
0.0387273624850588 -0.143034315703799 0.388793106335641
0.0477673000961096 -0.152934333195632 0.391806418872657
0.0535746078850578 -0.156845073568495 0.392544570284397
0.0533480727654613 -0.154590149626803 0.392544570284397
0.0625018886300417 -0.166689792969253 0.392544570284397
0.0751218753553985 -0.182670572509914 0.392544570284397
0.0882773996212199 -0.197742179396888 0.388754572343838
0.101337300486945 -0.199494105498922 0.388170596976493
0.112130865702633 -0.214385465385946 0.383206810347486
-0.313530940452424 0.235555992522572 0.380802446070448
-0.309976858340116 0.235555992522571 0.390750792260522
-0.308175091448905 0.235555992522571 0.389383206159037
-0.310432674476771 0.235555992522572 0.405999090200963
-0.308089525611186 0.235555992522572 0.417689325703098
-0.306869001058044 0.235555992522571 0.419626641761485
-0.311008899293254 0.235555992522571 0.429104196451577
-0.309652425117144 0.235555992522571 0.439436805931654
-0.305654764677286 0.235555992522571 0.445533785870923
-0.316558710572897 0.235555992522571 0.460626764491087
-0.304750163433554 0.235555992522571 0.457465832571702
-0.307180901520187 0.235555992522571 0.468764852986382
-0.317586172151022 0.235555992522571 0.489071753160705
-0.309901375772713 0.235555992522571 0.494625405326073
-0.302699393866396 0.235555992522571 0.492063905743986
-0.315308372343948 0.235555992522572 0.516782799022067
-0.312302892179789 0.235555992522572 0.521830798812385
-0.311653118141228 0.235555992522572 0.531195393332595
-0.314584610784249 0.235555992522572 0.537351067973345
-0.31532774220955 0.235555992522571 0.549555493096051
-0.309420040659662 0.235555992522571 0.554212053333994
-0.313368326938437 0.235555992522572 0.55862691427935
-0.306155175022464 0.235555992522572 0.565059643765693
-0.305735971372915 0.235555992522571 0.576510656580659
-0.313321494900354 0.235555992522571 0.589682981520578
-0.311093040705139 0.235555992522572 0.594318191112674
-0.312220883675655 0.235555992522571 0.606408170525322
-0.316083988047794 0.235555992522572 0.617748166386834
-0.30730415253532 0.235555992522571 0.616354791691069
-0.307688640613118 0.235555992522572 0.627683030451065
-0.297492043182057 0.224055752755008 0.63035269944335
-0.294689433940437 0.218430872439667 0.63035269944335
-0.29044302564274 0.215597750142307 0.63035269944335
-0.287066753049096 0.207615850618446 0.63035269944335
-0.282009472661503 0.199103318119664 0.63035269944335
-0.274748027123642 0.19270336957667 0.63035269944335
-0.260974814872397 0.190695427240084 0.63035269944335
-0.245716737981513 0.175248065411198 0.620900416310149
-0.247362115385559 0.173307121990182 0.628222089665544
-0.249278896871722 0.171739538438101 0.634135365962712
-0.247953054524261 0.16380085922277 0.640727333607017
-0.231984527869231 0.15592327783109 0.642114080347776
-0.231701455966521 0.154698860815128 0.642329623192945
-0.217781676170992 0.147591266846228 0.643580823565361
-0.211915748190602 0.138500531052277 0.64371536864364
-0.201954462168068 0.12715761030318 0.641718593542578
-0.205006985955567 0.123333292183587 0.64104537159484
0.0190314083611661 -0.111211472321271 0.382227788294343
0.0226358887158079 -0.117380245126342 0.38342928174589
0.0326363028546329 -0.123658566771464 0.386762753125498
0.0462253481423197 -0.127592639219752 0.39129243488806
0.0464071912485442 -0.138286491635409 0.391353049256802
0.0587903401279901 -0.145462863192163 0.392544570284397
0.0649917280958495 -0.148030205251515 0.392544570284397
0.0714812149872346 -0.161938283139361 0.392544570284397
0.0782899541669299 -0.173002416949528 0.392544570284397
0.0876710027224029 -0.184746613871823 0.392544570284397
0.102621852756406 -0.184138589493314 0.392544570284397
0.117354367417731 -0.205512376551619 0.386164506625595
0.121370458383272 -0.212700828905413 0.383768355840997
-0.296469334208922 0.235555992522572 0.365601600502095
-0.303550297745867 0.235555992522572 0.378555755846
-0.292881906131478 0.235555992522572 0.381480701555599
-0.294993710891599 0.235555992522571 0.390741979522035
-0.290663934892085 0.235555992522571 0.395324141783327
-0.297431519704461 0.235555992522571 0.415323068901803
-0.294813682453367 0.235555992522572 0.414049647590383
-0.301021973453406 0.235555992522571 0.430445253227534
-0.297306492943156 0.235555992522571 0.43712454260847
-0.296785959369271 0.235555992522572 0.449313589968052
-0.299030766871823 0.235555992522571 0.458270704664853
-0.299852562518555 0.235555992522571 0.461530590329843
-0.291018111966047 0.235555992522572 0.465017308981319
-0.301175494886071 0.235555992522572 0.484476229682606
-0.298240723055917 0.235555992522571 0.491874423483016
-0.301342547365478 0.235555992522572 0.506376622260695
-0.292550381604653 0.235555992522572 0.500869343018337
-0.301304823856476 0.235555992522572 0.516828020776987
-0.295839894016481 0.235555992522571 0.530300257890505
-0.304210074870512 0.235555992522572 0.539148791898055
-0.297175269129227 0.235555992522572 0.545104887574105
-0.295003866406869 0.235555992522572 0.552537171397024
-0.300633881510486 0.235555992522572 0.566158477484342
-0.298230896388275 0.235555992522571 0.567175579082888
-0.297485253752683 0.235555992522572 0.578343193308494
-0.300109123527455 0.235555992522571 0.588991533295468
-0.290654916992231 0.235555992522571 0.589532007647009
-0.297973168011651 0.235555992522572 0.602345665575658
-0.297727730605019 0.235555992522571 0.611968438649979
-0.297622674402097 0.235555992522572 0.61685788094941
-0.299456779691063 0.235555992522572 0.629149766352223
-0.292545518997837 0.228485475182531 0.63035269944335
-0.286205626269261 0.222466530905138 0.63035269944335
-0.274335973879499 0.212338710720571 0.63035269944335
-0.27422005053854 0.204915740261887 0.63035269944335
-0.265528147785753 0.197425163527967 0.63035269944335
-0.257507422634644 0.196953226590417 0.63035269944335
-0.242668533433928 0.174845357981612 0.62241951894101
-0.235957934581522 0.172969232492911 0.629496684536501
-0.241863164228171 0.170883701087434 0.637363776156994
-0.23537235141592 0.172315411480643 0.631963043850684
-0.226543368659955 0.163695140799673 0.640745943973751
-0.22102649951792 0.158884832732538 0.641592736752202
-0.219012502205071 0.14729916054754 0.643632245116915
-0.209951847521869 0.150686938559934 0.643035870432414
-0.202609583998911 0.138166186962525 0.64365651167299
-0.190127903485228 0.126943069587539 0.641680826412874
-0.182411461772292 0.118700886967197 0.640229896321873
0.0313593279216507 -0.107586424115407 0.386337094814504
0.0394364311839148 -0.114243998596713 0.389029462568592
0.0464036782805027 -0.116664347133712 0.391351878267455
0.0541619887364001 -0.132639985225672 0.392544570284397
0.0642309247296238 -0.134020689452965 0.392544570284398
0.0727428193712504 -0.15215207980306 0.392544570284397
0.0759006876128778 -0.157665423776182 0.392544570284397
0.0911193054804876 -0.165404300972888 0.392544570284397
0.09633791298445 -0.180934089097323 0.392544570284397
0.107642224315746 -0.18609704206371 0.392544570284397
0.130584662067871 -0.203997811907032 0.386669361507124
0.130536418604939 -0.207824244186774 0.385393884080543
0.14535112523913 -0.223142014367305 0.380287960687033
-0.282553696372989 0.235555992522571 0.355277933414059
-0.287743518335444 0.235555992522572 0.368378849265702
-0.285033578973103 0.235555992522571 0.376003592912441
-0.283744149876604 0.235555992522571 0.38062039851262
-0.280270781241976 0.235555992522572 0.388631603932027
-0.287839372995566 0.235555992522572 0.408836439602856
-0.279516281619444 0.235555992522571 0.405982450983553
-0.284090129492543 0.235555992522572 0.423966549264085
-0.285002884563835 0.235555992522572 0.425561054313635
-0.290208701763921 0.235555992522571 0.439048254345483
-0.278184668555275 0.235555992522571 0.446328254755075
-0.287908604489623 0.235555992522572 0.465718408926683
-0.28989859532677 0.235555992522572 0.464384133563149
-0.283983745640033 0.235555992522571 0.47586214957346
-0.285804794643583 0.235555992522571 0.485897151972063
-0.285618406479813 0.235555992522572 0.492226153302188
-0.278670860242734 0.235555992522572 0.493560464943413
-0.285697041253032 0.235555992522571 0.508869205798102
-0.288038737862584 0.235555992522572 0.5188411092071
-0.2838880170811 0.235555992522572 0.520203757501448
-0.28146683406208 0.235555992522571 0.537671160037054
-0.280895190290343 0.235555992522572 0.537978526345982
-0.283850490395002 0.235555992522572 0.552654909971123
-0.281804019761001 0.235555992522571 0.559439741498608
-0.280099355690921 0.235555992522572 0.571989974625187
-0.288686862723747 0.235555992522572 0.580975299987814
-0.282252396586036 0.235555992522572 0.581413059927497
-0.284579062351262 0.235555992522572 0.600936709219651
-0.283064548901907 0.235555992522572 0.604197094310315
-0.279606778824058 0.235555992522572 0.612303175521277
-0.285342947384672 0.235555992522572 0.617351133882571
-0.284304453289028 0.235555992522572 0.628384672430219
-0.276750433274222 0.227970407159901 0.63035269944335
-0.271227300104913 0.21894580687052 0.63035269944335
-0.268386065597018 0.220888405040377 0.63035269944335
-0.249494096326945 0.205568606455125 0.63035269944335
-0.253284301280144 0.201588066928008 0.63035269944335
-0.242137515362928 0.193115637339088 0.63035269944335
-0.229242450522711 0.175227161617512 0.620979270102382
-0.225167085101198 0.173874277572891 0.62608265176472
-0.224021460255044 0.170813032682242 0.637630353211105
-0.222221173024399 0.170778919227938 0.63775903680215
-0.221993568358421 0.165098985160048 0.640498815255622
-0.207022218760239 0.156060675433481 0.642089893269556
-0.199823465999784 0.153612567372643 0.642520851162035
-0.195234798395728 0.136210841727472 0.643312298329205
-0.185658436270811 0.132404841935263 0.642642301087064
-0.168480902486782 0.118585654276405 0.640209611090857
0.0383154911536664 -0.101540679499867 0.388655815891843
0.0444778448013182 -0.103003117704493 0.390709933774393
0.0536317949347739 -0.107326943318271 0.392544570284398
0.0624900255450618 -0.123940908904563 0.392544570284397
0.071110567592518 -0.130123808720155 0.392544570284397
0.077543700828716 -0.134811624000948 0.392544570284397
0.0841447107059703 -0.142820258648121 0.392544570284397
0.0978156185924456 -0.160639204846959 0.392544570284397
0.106868904467341 -0.166634510392344 0.392544570284397
0.112767945141131 -0.172974235743712 0.392544570284397
0.130101733954292 -0.190305466160423 0.391233476755993
0.133437149080236 -0.196287450369884 0.389239482019506
0.151925528153934 -0.213911261893179 0.383364878178408
0.157053252044894 -0.221001459247231 0.38100147906039
-0.271576425789534 0.235555992522571 0.341993945708981
-0.26989881852027 0.235555992522572 0.357412886443447
-0.268964042314613 0.235555992522572 0.368892177576272
-0.273349119635758 0.235555992522572 0.379214374512887
-0.278963586624333 0.235555992522571 0.392287393719373
-0.273753781843589 0.235555992522572 0.396514572969982
-0.272899912227509 0.235555992522572 0.403688459438868
-0.272264648319664 0.235555992522572 0.410558686395753
-0.27334266549481 0.235555992522572 0.414029365251014
-0.279656646013287 0.235555992522572 0.435478532176271
-0.266992078598451 0.235555992522572 0.433879087622026
-0.27188830146107 0.235555992522571 0.443174115802745
-0.272176354947214 0.235555992522572 0.456948685335364
-0.277081683960065 0.235555992522572 0.465625943578801
-0.276084864657711 0.235555992522572 0.479271682068339
-0.273445750252079 0.235555992522571 0.484808657966747
-0.271140579652439 0.235555992522572 0.489046472809445
-0.275201961712442 0.235555992522572 0.497253821832138
-0.270960693919575 0.235555992522571 0.504235273919909
-0.278758383475383 0.235555992522572 0.525552152002023
-0.266775668516019 0.235555992522571 0.523930047851085
-0.271350728484539 0.235555992522571 0.530336348347054
-0.266204749002183 0.235555992522571 0.539447376648942
-0.270443936515953 0.235555992522572 0.544580144982353
-0.279794906223728 0.235555992522571 0.567540139925838
-0.274885701000819 0.235555992522572 0.565201225927418
-0.268923103122338 0.235555992522572 0.573666960375203
-0.268742525594144 0.235555992522572 0.586403924520482
-0.275310362007392 0.235555992522572 0.599822639602334
-0.272425522862231 0.235555992522571 0.60495841963161
-0.272478449423847 0.235555992522571 0.614491904760369
-0.26587197475144 0.235555992522571 0.618523936984133
-0.266846934102039 0.231527126614505 0.63035269944335
-0.262386837071288 0.228711909360012 0.63035269944335
-0.257558997400501 0.222074752136528 0.63035269944335
-0.253243160113875 0.212573146198772 0.63035269944335
-0.242254800010791 0.203215919153844 0.63035269944335
-0.235744563443624 0.194206185135987 0.63035269944335
-0.232583633896595 0.190812137143274 0.63035269944335
-0.219309522433954 0.187017736503517 0.63035269944335
-0.21377090789961 0.173182251262886 0.628693130019951
-0.210693070324085 0.172766663587511 0.630260819823106
-0.20672226031943 0.171356206785245 0.635581378823574
-0.197056658318146 0.160496505272666 0.641309022559855
-0.192439990478481 0.154320888101853 0.642396160420828
-0.180951166692756 0.147256539006485 0.643639748090253
-0.173150041625464 0.141027441455337 0.644160198673492
-0.167690927369079 0.125741786382919 0.641469355977228
-0.163832680960754 0.125790790391844 0.641477982501827
-0.159824593687869 0.11703185961062 0.639936085552819
0.0635892478716374 -0.106000519581519 0.392544570284398
0.0653453578481926 -0.11431432915283 0.392544570284397
0.0764769443193734 -0.126962102429459 0.392544570284397
0.0861372730997707 -0.12835250695932 0.392544570284397
0.095265240486029 -0.139588179239747 0.392544570284398
0.105201916593316 -0.156654614685754 0.392544570284397
0.113137329168768 -0.160275551089911 0.392544570284397
0.129531582273844 -0.167186540790487 0.392544570284397
0.130515182687836 -0.17031483939383 0.392544570284397
0.149039947851893 -0.195419495314633 0.389528800371257
0.146737143338806 -0.198899752155577 0.388368714757609
0.164506033188747 -0.2014816749472 0.387508073827068
-0.264715500429907 0.235555992522571 0.349624099373515
-0.260344482681652 0.235555992522572 0.349799991187543
-0.254081217799288 0.235555992522571 0.359695062790307
-0.266595349145848 0.235555992522572 0.378724799725196
-0.265517099213184 0.235555992522572 0.382065720067543
-0.265069861086693 0.235555992522571 0.386670370952917
-0.26230386856098 0.235555992522571 0.389365304576977
-0.254937475329536 0.235555992522572 0.397754473677086
-0.26344601993331 0.235555992522572 0.415991428691996
-0.263188641153271 0.235555992522572 0.422662158561329
-0.261250615673156 0.235555992522572 0.425862487405862
-0.260688248241303 0.235555992522572 0.442910619040958
-0.258165295487174 0.235555992522572 0.448898913681948
-0.26369046061543 0.235555992522571 0.454734486207394
-0.251854766588787 0.235555992522572 0.457801660086372
-0.258846477291555 0.235555992522571 0.479339819676618
-0.265172217732821 0.235555992522571 0.489815420108849
-0.259996168287189 0.235555992522571 0.487126004107394
-0.262321095312909 0.235555992522572 0.501973017648831
-0.259872632387283 0.235555992522571 0.515424701900212
-0.265348262718281 0.235555992522571 0.520777470453883
-0.264251542020515 0.235555992522571 0.530777506649085
-0.261010293917945 0.235555992522572 0.5342872860554
-0.262426025150374 0.235555992522571 0.545992140240473
-0.26462951227557 0.235555992522572 0.555738114797657
