ply
format ascii 1.0
element vertex 845
property float x
property float y
property float z
end_header
0.112746134120987 -0.00125416231350336 0.281706914608013
0.107235307683925 0.00262577621279074 0.283638890867772
0.095757453801149 -0.00311616970344345 0.287662777569294
0.0868887149958682 -0.000120466555288715 0.288170469607414
0.0645707454859402 -0.00301604450496139 0.288170469607414
0.0606700866559003 -0.00327230049929381 0.288170469607414
0.0461864579845915 0.00433254150539248 0.288170469607414
0.0492461991309643 0.00299559276809524 0.288170469607414
0.0293430981792456 -0.00498263050358191 0.288170469607414
0.0200279731495742 0.000738873821131117 0.288170469607414
0.0107097370795323 0.000405643530647544 0.288170469607414
0.00333672144651132 -0.00348123951888645 0.288170469607414
-0.0119878594222451 -0.00413404945236241 0.288170469607414
-0.0261099506038879 -0.00315627435088106 0.288170469607414
-0.033062359105782 0.00324485246766735 0.288170469607414
-0.0465465255043407 -1.03224513819847e-005 0.288170469607414
-0.0559358666150179 -0.00285784511273262 0.288170469607414
-0.072058024157658 0.00129728719092393 0.288170469607414
-0.085773179938508 0.00374022354531525 0.288170469607414
-0.09437611891726 0.00183796109957032 0.288170469607414
-0.0959218840645825 -0.00174229102902607 0.288172682491617
-0.13790146246568 -0.00330720786310275 0.269630361157148
-0.138717127391824 0.000598213011545377 0.276560628713425
-0.151947709974761 -0.00152681629316191 0.282103000566902
-0.15517645181061 0.00283076701550159 0.283234927447015
-0.172597317644114 0.00158192534062187 0.288170469607414
-0.179269770781494 -0.00225983725163074 0.288170469607414
-0.191385367132663 -0.00242078428274824 0.288170469607414
-0.200279180137581 0.00177105632559913 0.288170469607414
-0.207535631362991 0.00363473819493653 0.288170469607414
-0.224635991416018 0.00332339013007331 0.288170469607414
-0.244061628366706 -0.000500574633432457 0.288170469607414
-0.256056599122396 -0.00148893012092616 0.288170469607414
-0.266046554491401 -0.00220508039970627 0.288170469607414
-0.283245840408404 0.00332649482075788 0.288170469607414
-0.296132303183867 8.92404989247655e-005 0.288170469607414
-0.304583953082064 -0.00197820124375596 0.288170469607414
-0.323246232040291 6.75391367574249e-006 0.288170469607414
-0.330284362904561 -0.0046573803931142 0.288170469607414
-0.345116659583815 -0.00442017367205151 0.288170469607414
-0.370543290609632 -0.000167708308432341 0.284296208393422
-0.396459095253672 -0.00203418365136719 0.276118630942461
-0.396459095253672 -0.00281939245254748 0.276365857530289
-0.396459095253672 -0.00186397946229967 0.29035202348518
-0.396459095253672 -0.00223808668789229 0.310448942563508
-0.396459095253672 0.00453816897302188 0.314936803373997
-0.396459095253672 -0.00225398065931668 0.32657819967054
-0.396512106274972 -0.00171368153999751 0.346268019748747
-0.396596002849444 -0.00487038889986605 0.346498523692678
-0.400530260013696 0.0003900659330596 0.357307806413788
-0.405145467736749 0.000458276391033231 0.369987985418969
-0.408421380124472 0.00383172949709864 0.378988480732349
-0.417720190128397 0.002763198377976 0.38549923777091
-0.427278060266664 0.0037540167506569 0.391017476668117
-0.431170047845193 0.00409040264974287 0.393264516744264
-0.45209761352008 0.00432888926012815 0.396658804282443
-0.455735449111406 0.00246227945672836 0.39601735571631
0.29714720900473 0.0074366178734692 0.288170469607414
0.288244010998853 0.00893116045440143 0.288170469607414
0.278881302857782 0.0131025824303002 0.288170469607414
0.269411251131345 0.00513401768953847 0.288170469607414
0.266087661179486 0.0136190052115254 0.288170469607414
0.247243312186433 0.00623214148213631 0.288170469607414
0.235629783801444 0.0113581623794323 0.288170469607414
0.235041657947941 0.0110782986332465 0.288170469607414
0.222422725154753 0.00513172099087377 0.288170469607414
0.219318395484285 0.00502685179338546 0.288170469607414
0.200749741497439 0.00868569389583575 0.288170469607414
0.198169374584022 0.00735408806338073 0.288170469607414
0.181553952193397 0.0109071277271707 0.288170469607414
0.173782099327627 0.00950645566192883 0.288170469607414
0.168942674816539 0.0139322653407156 0.287926846442371
0.126145082480091 0.00753301071291647 0.26553074770042
0.126018857108564 0.00686012001401456 0.266603217006184
0.123142762278467 0.00510873409876213 0.278062082201988
0.121623174894215 0.00750370433568069 0.278594816590292
0.103906402659543 0.00620638363201509 0.284805932789985
0.102075859276869 0.0128825415438565 0.285447681609001
0.0974697888591131 0.00838846316372139 0.287062470025858
0.0849594170004209 0.0113250882985995 0.288170469607414
0.0662194196542213 0.0113823952784454 0.288170469607414
0.0688308113922423 0.00541308420539403 0.288170469607414
0.0501139680215481 0.00878811595797604 0.288170469607414
0.0391413981583 0.0112238725857801 0.288170469607414
0.0221941110406379 0.0106457628608721 0.288170469607414
0.0181704484865049 0.00845280467406889 0.288170469607414
0.00805570153005264 0.00969364567049543 0.288170469607414
-0.00169996608416136 0.0118640391302752 0.288170469607414
-0.0156647791294373 0.00984207651854574 0.288170469607414
-0.0218057554097682 0.0123054348083936 0.288170469607414
-0.0357154064816768 0.0122582475195832 0.288170469607414
-0.0407189883494743 0.00736751067992028 0.288170469607414
-0.0588427734702459 0.0127834217077977 0.288170469607414
-0.0719573996431142 0.0149896182620377 0.288170469607414
-0.0814572021012328 0.013679168607397 0.288170469607414
-0.104069783289491 0.0154056666323459 0.285316205691049
-0.121771914351082 0.00558034235599433 0.279110222369179
-0.137943880160088 0.0135308078251588 0.269990761564156
-0.138469536962891 0.0100138764487913 0.274456985585122
-0.146874122459585 0.0148376505064484 0.280324310792678
-0.161739233562202 0.0106680104825698 0.285535696430916
-0.162101545589577 0.00592825903611927 0.285662715171845
-0.180541413649108 0.0107523127405786 0.288170469607414
-0.190450860632993 0.00616268692652986 0.288170469607414
-0.200325435957829 0.00931272038268528 0.288170469607414
-0.209353938934835 0.00536833902868606 0.288170469607414
-0.225118870376546 0.00973348948582684 0.288170469607414
-0.234860001995909 0.0105567857961411 0.288170469607414
-0.250954485578322 0.0105829321847016 0.288170469607414
-0.265154717927763 0.0148388601266282 0.288170469607414
-0.279404444827063 0.0133712319961309 0.288170469607414
-0.294928988603787 0.0135630148462589 0.288170469607414
-0.302417376466199 0.00766688909184606 0.288170469607414
-0.313464618487218 0.0158687197643645 0.288170469607414
-0.343499475413748 0.00765467598243495 0.288170469607414
-0.352224433559285 0.0164670747296214 0.288170469607414
-0.373342772349043 0.0118057649690715 0.283314770795643
-0.384299748149366 0.00880443867219565 0.279473492655834
-0.396459095253672 0.00965341230469352 0.274264268056955
-0.396459095253672 0.007279159569652 0.298158508905012
-0.396459095253672 0.00902031353949542 0.30573487581707
-0.396459095253672 0.0149092586258283 0.318924941282621
-0.396459095253672 0.00942157885503188 0.32569700905312
-0.396459095253672 0.0105796841951283 0.345098336795141
-0.398143454988818 0.0100535182454235 0.350750113503296
-0.402517651242589 0.0113432829750809 0.362768118938797
-0.40528867370938 0.0133415350354484 0.370381440595104
-0.406897563890035 0.0110531153010236 0.374801830036837
-0.419941099931398 0.00594278163352889 0.386781480643517
-0.420084381949923 0.00912209197807509 0.386864204555483
-0.426868352708628 0.0163126888485713 0.390780931899196
-0.439174204428157 0.00792310053814203 0.397885718702074
-0.456289976703893 0.00910019059614474 0.395919577540207
-0.463035703780017 0.00842039035043623 0.394730123852191
0.299194896797855 0.0197917735479836 0.288170469607414
0.289639920602235 0.0191093198680235 0.288170469607414
0.272211996562151 0.0226374120644685 0.288170469607414
0.265515399376595 0.015452410355874 0.288170469607414
0.259143661104234 0.0197031687124918 0.288170469607414
0.253501444678921 0.0211523324435521 0.288170469607414
0.243949871318718 0.0196049801257773 0.288170469607414
0.234835265694569 0.0227298673279534 0.288170469607414
0.226792132177686 0.0230136336483864 0.288170469607414
0.212218647234396 0.0220426691756369 0.288170469607414
0.201021444986928 0.0156977074305981 0.288170469607414
0.196025078128843 0.0159156642534806 0.288170469607414
0.181738422188707 0.0210710832610985 0.288170469607414
0.173931273209293 0.017598680434574 0.288170469607414
0.166208976845797 0.0191734757188756 0.286968471207524
0.148245202850602 0.0224490262863967 0.280670761546234
0.142737557162986 0.0152172547923933 0.278739900388264
0.120454691271985 0.0148086449989759 0.279004461612476
0.11198561694378 0.0232264384176848 0.281973535440348
0.110795505820425 0.017331770343479 0.282390762595486
0.0999991539190964 0.0179343336832921 0.286175729479053
0.0958156408061122 0.0164655579302463 0.287642378467001
0.0884299157985513 0.0179032924758313 0.288170469607414
0.0676180064927682 0.0208730315145331 0.288170469607414
0.062940491663989 0.0195003795236766 0.288170469607414
0.0507096021899816 0.0150084798525705 0.288170469607414
0.0421290360804251 0.021337594637977 0.288170469607414
0.0239157633240621 0.0152100432152753 0.288170469607414
0.0205321815992377 0.0180409063039999 0.288170469607414
0.00741910326160497 0.0150795822200148 0.288170469607414
-0.00803866879193833 0.0210548792722141 0.288170469607414
-0.00876615760726194 0.0192611189703736 0.288170469607414
-0.0227449674460404 0.0177593790304879 0.288170469607414
-0.037144248841036 0.0156595942722671 0.288170469607414
-0.0483890207506717 0.0212665067272778 0.288170469607414
-0.0606314052856988 0.0249776874503526 0.288170469607414
-0.0770264347717817 0.0182757533564712 0.288170469607414
-0.0833971588092992 0.0242024608363828 0.288170469607414
-0.0907854411485883 0.0229498788667738 0.288170469607414
-0.10041059853277 0.0190533766903678 0.286599036526096
-0.12457645234874 0.0260233276996075 0.278127012156891
-0.14268990952343 0.0228580842824724 0.278857416461901
-0.154367591789517 0.0173864601134065 0.282951358661813
-0.15296675120881 0.0240020951599636 0.282460254328092
-0.167882329015426 0.0196369389416971 0.287689332498501
-0.174876570103125 0.0183483235935681 0.288170469607414
-0.192598193614234 0.0188639066219931 0.288170469607414
-0.203759805036549 0.025228549172476 0.288170469607414
-0.216976312182988 0.0220276243856356 0.288170469607414
-0.227131643320755 0.0199088010482946 0.288170469607414
-0.241875792356502 0.0210806103768259 0.288170469607414
-0.252668959783003 0.0230780506803707 0.288170469607414
-0.269008103815903 0.0208873938796304 0.288170469607414
-0.279872366002228 0.0252161626104458 0.288170469607414
-0.295008981055006 0.0187388907890879 0.288170469607414
-0.302657272834972 0.0242325875266728 0.288170469607414
-0.322748681155671 0.0169115633636004 0.288170469607414
-0.340297029869933 0.0265525703352946 0.288170469607414
-0.351163218605516 0.0273895624408361 0.288170469607414
-0.358385548426736 0.026049564635851 0.288170469607414
-0.381989763891526 0.0268397140188806 0.280283323050155
-0.396459095253672 0.0228691602194891 0.276766159806382
-0.396459095253672 0.027193349378746 0.300835277047803
-0.396459095253672 0.0242888586226945 0.306726533809442
-0.396459095253672 0.021971691986839 0.320299462771603
-0.396459095253672 0.0219308188447944 0.322588355320325
-0.396459095253672 0.022993663833809 0.339003356120146
-0.398725735569545 0.0199823091331541 0.35234991625063
-0.40055231297114 0.0169101025111083 0.3573683964164
-0.40630921627031 0.0218334188286308 0.37318535823685
-0.411206340434293 0.0216306740911978 0.381738464896557
-0.414557177369209 0.0228178878425761 0.383673071502941
-0.418765794798471 0.0283838132744941 0.386102917908642
-0.424034537255844 0.024580535063965 0.389144827784697
-0.45093645010581 0.0255536163760187 0.39686354872139
-0.471829906393508 0.0186972399308663 0.393179468657616
-0.473943398056727 0.0238627121974608 0.392806803053888
0.299463832552237 0.0243180274291138 0.288170469607414
0.287796277167079 0.0229218695914942 0.288170469607414
0.283836579036137 0.0282763505862886 0.288170469607414
0.27060272522742 0.0244670520598412 0.288170469607414
0.258516201478239 0.0304968254538543 0.288170469607414
0.248948042506233 0.0270628370371106 0.288170469607414
0.243439849940662 0.0298258495103588 0.288170469607414
0.233953942700214 0.0260852768219185 0.288170469607414
0.223243075262527 0.0314681362143505 0.288170469607414
0.211695416510467 0.0312894946278989 0.288170469607414
0.205660575105504 0.0323536446422717 0.288170469607414
0.196992196059665 0.0292699054380024 0.288170469607414
0.181996905101394 0.0299406389125189 0.288170469607414
0.171324095135181 0.0302456917472609 0.288170469607414
0.170333627187303 0.0292654816082431 0.288170469607414
0.147425235840352 0.0311762646077079 0.280383298891461
0.126059224960406 0.024577396020117 0.266260233012422
0.123322761717033 0.0244265997263578 0.277998978301683
0.118648505140379 0.0293120655666731 0.279637671307396
0.107805049378521 0.0325770573798212 0.28343915178313
0.0996259706632316 0.0289809705227561 0.286306559436974
0.0896674300657206 0.026067161384101 0.288170469607414
0.0907326243618477 0.0269331372343397 0.288170469607414
0.07684541809261 0.0281415332562011 0.288170469607414
0.0664673269786814 0.0339778655167936 0.288170469607414
0.0559630747141057 0.0316022229408804 0.288170469607414
0.0433498614284653 0.031820828612646 0.288170469607414
0.0401213832818702 0.0268954712437383 0.288170469607414
0.0233167036442808 0.0346674893293952 0.288170469607414
0.0165205326473054 0.0269811631561244 0.288170469607414
-0.00698831194936349 0.032624995348788 0.288170469607414
-0.00961693598580329 0.0264051859127385 0.288170469607414
-0.0278710805811511 0.0338739072841438 0.288170469607414
-0.0359870298318713 0.0312965914577134 0.288170469607414
-0.0485663278535283 0.0350555491350485 0.288170469607414
-0.0525724447975295 0.0330692962083047 0.288170469607414
-0.0777333876081922 0.0336691729389827 0.288170469607414
-0.0801734922923176 0.0292206478342157 0.288170469607414
-0.104716114873791 0.0285652381466655 0.285089615851746
-0.095283954018861 0.0313721770130879 0.288170469607414
-0.138173087392284 0.0274496968233135 0.271938212525987
-0.138501899889301 0.0308771696768293 0.274731956019348
-0.148439826361248 0.0364892350105894 0.280873212632061
-0.156065716677126 0.0293154495605315 0.283546684427637
-0.171347559039143 0.0357026069127312 0.288170469607414
-0.184335738396363 0.0334730052318189 0.288170469607414
-0.188529174213966 0.0364046105915892 0.288170469607414
-0.19761164914294 0.0297481249565612 0.288170469607414
-0.223517027987585 0.0274227221577971 0.288170469607414
-0.235581615830981 0.027063719623126 0.288170469607414
-0.23409080516517 0.0374419442611548 0.288170469607414
-0.260808279710214 0.0346307017773881 0.288170469607414
-0.269202782424901 0.030547195651201 0.288170469607414
-0.286198628595506 0.0322956342820142 0.288170469607414
-0.290457252654376 0.027855893702242 0.288170469607414
-0.311289204349147 0.0385477994209256 0.288170469607414
-0.324905417845993 0.0338887967821482 0.288170469607414
-0.335289118990324 0.0362193968164931 0.288170469607414
-0.35587524297301 0.0341788389792104 0.288170469607414
-0.358164324313541 0.0315964594337432 0.288170469607414
-0.377847525469177 0.0329563349948511 0.281735502026509
-0.396459095253672 0.0339598476931976 0.27919653197679
-0.396459095253672 0.0361639845770238 0.300952802298168
-0.396459095253672 0.0306536640273764 0.301915048653871
-0.396459095253672 0.0351336953705423 0.312039527971332
-0.396459095253672 0.0370750714390713 0.322525384864078
-0.396459095253672 0.029124834075033 0.331846873091583
-0.396979412776509 0.0382204148434747 0.347551933809683
-0.400219878185766 0.0362475123263889 0.356455039350145
-0.404584168037478 0.0329772200999679 0.368445827169677
-0.407318973506697 0.0286676704336025 0.375959643442956
-0.412097162589247 0.031405035425528 0.382252781307521
-0.428023174141698 0.0289037161839148 0.391447668364445
-0.428814857019507 0.0301383651290413 0.391904746687061
-0.433826844359934 0.0380548187742102 0.394798418927231
-0.458041103316291 0.0371016057622147 0.395610806671805
0.298760660923528 0.0357648380660775 0.288170469607414
0.284358083337906 0.0346214316498161 0.288170469607414
0.279565888053531 0.0385174900001432 0.288170469607414
0.264712200637147 0.0350897137812993 0.288170469607414
0.253979675880761 0.034059418093305 0.288170469607414
0.249181215397409 0.0394707745987656 0.288170469607414
0.247053579584438 0.0393871353202134 0.288170469607414
0.232950191077964 0.0384485887600129 0.288170469607414
0.229899056150378 0.0350292651182334 0.288170469607414
0.218189648937579 0.0410089555505735 0.288170469607414
0.208517481468302 0.0336039554051897 0.288170469607414
0.188208923692093 0.0370034132022053 0.288170469607414
0.189205899105475 0.0375096672016174 0.288170469607414
0.182510044531137 0.0340963985106868 0.288170469607414
0.157538634104207 0.0403749996352905 0.283928837037944
0.144797143557353 0.036642644645929 0.279461946720929
0.125943079872587 0.0403448469990694 0.267247055552092
0.123910769344181 0.0369976506507888 0.277792835577142
0.114154704410892 0.0355228788739833 0.281213100405846
0.104135549597893 0.0339469017586974 0.284725598841902
0.0998385574733453 0.036298082833802 0.286232031110783
0.0957644604697428 0.0405797319445694 0.287660321183209
0.0840723673268437 0.0412103912801411 0.288170469607414
0.0813312517122978 0.0377914638296972 0.288170469607414
0.0635922965362643 0.037598535276259 0.288170469607414
0.0513453975856472 0.0392851040734747 0.288170469607414
0.0357432269906686 0.041638224970393 0.288170469607414
0.029296935070656 0.0424910913492358 0.288170469607414
0.0228743096799552 0.0433178045432904 0.288170469607414
0.0159330810842734 0.0396356167941634 0.288170469607414
0.000652363631077236 0.044616349948566 0.288170469607414
-0.0102050389914883 0.0360137429237237 0.288170469607414
-0.0246378469375253 0.0368051415863205 0.288170469607414
-0.035222686469348 0.0436596020819438 0.288170469607414
-0.0471942581899738 0.039753273297948 0.288170469607414
-0.0664930237242255 0.0360172489784202 0.288170469607414
-0.0665954911840006 0.0387936510923866 0.288170469607414
-0.0836550031886957 0.0379048593296077 0.288170469607414
-0.0910086376843487 0.0387092022390968 0.288170469607414
-0.118881346129276 0.0428508585420202 0.280123592912694
-0.125099690029245 0.0455986548982871 0.277943576371263
-0.14424078420083 0.042574349623758 0.279401119496794
-0.150078269388477 0.040841439116617 0.281447615231694
-0.160778382504914 0.041419457750129 0.285198842883985
-0.168624094157025 0.04184045043006 0.287949379273745
-0.182007015479045 0.0401408253071297 0.288170469607414
-0.200430788700779 0.0405870649364163 0.288170469607414
-0.203378819608181 0.0468998205066488 0.288170469607414
-0.218037769958932 0.039870110435433 0.288170469607414
-0.226043004785446 0.0408125916543366 0.288170469607414
-0.243203037434461 0.0424581028841896 0.288170469607414
-0.249031391314729 0.044644210785738 0.288170469607414
-0.26303927275207 0.0402292745251378 0.288170469607414
-0.283997830467889 0.0422983829347431 0.288170469607414
-0.291650429511816 0.0463746110474834 0.288170469607414
-0.309185080298739 0.0398392597327097 0.288170469607414
-0.310119893464606 0.039069000100166 0.288170469607414
-0.333643861191497 0.0388112041733098 0.288170469607414
-0.337004863740781 0.0414517953830463 0.288170469607414
-0.357655944192877 0.0448687880704956 0.288170469607414
-0.396459095253672 0.0488599035452536 0.275017594553282
-0.396459095253672 0.042645361856414 0.288638776398905
-0.396459095253672 0.040603556159598 0.284420225267277
-0.396459095253672 0.0414081916263784 0.311065178374395
-0.396459095253672 0.0496933079563384 0.321976469156816
-0.396459095253672 0.0485887531259579 0.325302717149668
-0.396459095253672 0.0493742627822712 0.331996310794453
-0.396960298013286 0.0429476102340504 0.347499416429353
-0.399098750899382 0.04770569811555 0.353374767446469
-0.406068741631023 0.0397700624292385 0.37252465959546
-0.408440217895612 0.044926974234448 0.379040237083191
-0.412926434013156 0.049615107291821 0.382731561387346
-0.424611952123808 0.0498564893126743 0.38947819841415
-0.434629428237764 0.0510161558790187 0.395261790945143
-0.445237821520382 0.0515666347889537 0.397868370694037
-0.460740170916166 0.0480376731014613 0.395134888231191
-0.471875337706009 0.0472260658349867 0.393171457891453
0.299034471935807 0.0452449313621926 0.288170469607414
0.290494015771297 0.0463605212983259 0.288170469607414
0.282960461241825 0.0499187559859567 0.288170469607414
0.266470817671274 0.0432490669382894 0.288170469607414
0.260146649608316 0.0418517904033594 0.288170469607414
0.250887218217503 0.0463974634246585 0.288170469607414
0.241719310082761 0.0504463169056825 0.288170469607414
0.235727928359108 0.0447299870955899 0.288170469607414
0.227283398004405 0.0449049586530682 0.288170469607414
0.214376323076073 0.0485230988442175 0.288170469607414
0.205425760557489 0.0465800705217422 0.288170469607414
0.199911140950981 0.049867936477392 0.288170469607414
0.184342556317344 0.0422915070295037 0.288170469607414
0.180486195050621 0.044170756473145 0.288170469607414
0.163312855746902 0.04941537883872 0.285953153945702
0.145372926558691 0.0435142066256565 0.279663803756724
0.12589260719647 0.0498323746740297 0.267675894819985
0.124562857651701 0.0517395318136345 0.277564227555499
0.116990113524559 0.0486968834552693 0.280219067449653
0.108989639666085 0.0488620917150353 0.283023860113314
0.102541642336378 0.049801316964127 0.285284388167727
0.0911457043997187 0.0474307425004427 0.288170469607414
0.0786274499337409 0.0502996006629492 0.288170469607414
0.078326596744623 0.0486305096226672 0.288170469607414
0.0669236845813596 0.0525816763204734 0.288170469607414
0.0502971314016026 0.044120077258172 0.288170469607414
0.035567597660056 0.0498337942275868 0.288170469607414
0.0349281856745369 0.0450161816583429 0.288170469607414
0.0129592321713255 0.0490728082626471 0.288170469607414
0.011603085446711 0.0471144920595978 0.288170469607414
0.00168126175813046 0.0538424043941807 0.288170469607414
-0.0150373329894892 0.0549224344991168 0.288170469607414
-0.0263801073433599 0.0505511345290297 0.288170469607414
-0.0260867368971783 0.0482501372147137 0.288170469607414
-0.052219878043062 0.0516167149941132 0.288170469607414
-0.0573847797034107 0.053681379405647 0.288170469607414
-0.0701700168598904 0.0489126730727004 0.288170469607414
-0.0901775483784397 0.0505368706306951 0.288170469607414
-0.0883251353768304 0.0463098597479643 0.288170469607414
-0.11932092580661 0.0566504733030751 0.279969485809054
-0.125159851814663 0.0497763724727375 0.277922484953759
-0.146145236115422 0.0527450222635567 0.280068779044569
-0.143867521616832 0.048168210721151 0.27927026172815
-0.161534009809323 0.0483201707811163 0.285463749432943
-0.165869086993029 0.0498865413170885 0.286983533497781
-0.185175740095218 0.0579432734300102 0.288170469607414
-0.197193559676723 0.0543049704190525 0.288170469607414
-0.203314889652461 0.0553992862608266 0.288170469607414
-0.219098201258593 0.0524568394327994 0.288170469607414
-0.235027685014888 0.0583769529564089 0.288170469607414
-0.235131644577123 0.0533849917977508 0.288170469607414
-0.252422584260845 0.0526710932746294 0.288170469607414
-0.265309105048848 0.0517371926448884 0.288170469607414
-0.290070968648806 0.0539218435277056 0.288170469607414
-0.291222258263471 0.0555216297150407 0.288170469607414
-0.305165738414296 0.0569799940187624 0.288170469607414
-0.315871130079453 0.0579888461090331 0.288170469607414
-0.328657629115158 0.0538292891515276 0.288170469607414
-0.354457857538715 0.0547800408652256 0.288170469607414
-0.3567844816904 0.0609847653497741 0.288170469607414
-0.396459095253672 0.0611338677859564 0.278367114295712
-0.396459095253672 0.0616480807439041 0.282878035849621
-0.396459095253672 0.059693810082056 0.288680416866467
-0.396459095253672 0.0569281880109713 0.300067478222612
-0.396459095253672 0.0542349437260479 0.317245941112207
-0.396459095253672 0.0618123694576378 0.32288012036105
-0.396459095253672 0.0564911499131472 0.333471016788187
-0.398984195343082 0.0548221251533666 0.35306002864226
-0.399311435527043 0.0564992234148015 0.353959113658432
-0.404540507732147 0.0518542812987028 0.368325871466653
-0.405857587420031 0.0623358405945428 0.371944518168737
-0.41589639945992 0.0594207867017833 0.384446271737518
-0.420391825839435 0.0517301708085563 0.387041707367853
-0.42687687988993 0.0588738080618518 0.390785855069615
-0.439085728031645 0.0551442612771494 0.39783463683073
-0.448532805262633 0.0601581051083378 0.397287376159283
0.296903743752696 0.0507737459383317 0.288170469607414
0.293735512296288 0.0579592895450376 0.288170469607414
0.279313570705817 0.0520337649777471 0.288170469607414
0.268827984108588 0.059134665344151 0.288170469607414
0.260122104395537 0.0505939659359158 0.288170469607414
0.253164455392128 0.0509582313175034 0.288170469607414
0.246238222486519 0.0509414277613766 0.288170469607414
0.231355573149588 0.0548142701519959 0.288170469607414
0.223006241542208 0.0558247158674375 0.288170469607414
0.215800606931425 0.0571201930416617 0.288170469607414
0.204425592924025 0.0558630995920673 0.288170469607414
0.195130103745551 0.0544420905958858 0.288170469607414
0.183814055098915 0.0576513543846963 0.288170469607414
0.171657395223498 0.052055787707255 0.288170469607414
0.16592976366998 0.0605945505173092 0.286870585122152
0.145003235902882 0.0566875819904146 0.279534198228654
0.12546130503177 0.0610282435132909 0.271340438069503
0.120500078857612 0.0561174450520862 0.278988549709076
0.117831197987673 0.0585530428233223 0.279924201473786
0.113046893241713 0.0624405206974022 0.281601474981528
0.104684711221584 0.0624391204965307 0.284533074683891
0.0979766229724574 0.0593198562606123 0.286884784975204
0.0847927790500162 0.0581114324444314 0.288170469607414
0.0702725855874401 0.0573084444137068 0.288170469607414
0.0647418252162867 0.0610094059224075 0.288170469607414
0.0570374095431195 0.0598897606177194 0.288170469607414
0.0445795013623349 0.0574704587499955 0.288170469607414
0.0300321680166648 0.0617139785109018 0.288170469607414
0.0135747082184468 0.056417936062653 0.288170469607414
0.00386969790997221 0.0599042651397586 0.288170469607414
-0.0088556399387523 0.0638745535498738 0.288170469607414
-0.00651675927022058 0.0599331175454547 0.288170469607414
-0.0264407412265618 0.0618352398942015 0.288170469607414
-0.0337390014118089 0.0635041118032566 0.288170469607414
-0.050642535261478 0.0626559924232993 0.288170469607414
-0.0554936870706234 0.062605886911409 0.288170469607414
-0.0617042662723413 0.0587870442802345 0.288170469607414
-0.083827280695651 0.0585129661292615 0.288170469607414
-0.0942496786952933 0.0630601268811102 0.288170469607414
-0.111890643947933 0.0580356483500357 0.282574381520835
-0.13774068223949 0.0651206086407303 0.268264297778002
-0.138786864777037 0.0633113816456862 0.277153149885678
-0.14937960174419 0.0581449062547575 0.281202677504542
-0.154569384310413 0.066996278801945 0.283022102744251
-0.16767723496276 0.0623198281657186 0.28761743097061
-0.17938805220616 0.0686052094041454 0.288170469607414
-0.194387081075055 0.068997466751855 0.288170469607414
-0.201080509944745 0.0641427223076813 0.288170469607414
-0.209654212381416 0.0692218032977704 0.288170469607414
-0.233519753077676 0.062427382671887 0.288170469607414
-0.247610450254993 0.0650657299107147 0.288170469607414
-0.256370778300575 0.0677356675966212 0.288170469607414
-0.269441592535232 0.0615378382076831 0.288170469607414
-0.284412881958073 0.0659565443585689 0.288170469607414
-0.290066614187901 0.0704190769066372 0.288170469607414
-0.317532282066451 0.0630977139860959 0.288170469607414
-0.321137877007005 0.0660218759247201 0.288170469607414
-0.340172070342258 0.0634601657288055 0.288170469607414
-0.350241193843107 0.0655903240684906 0.288170469607414
-0.358713956578696 0.0638059260804626 0.288170469607414
-0.370892341572997 0.0713704069402946 0.284173838694001
-0.396459095253672 0.0652221823502216 0.285346385955078
-0.396459095253672 0.0624933295165663 0.294633375498226
-0.396459095253672 0.0707684698318131 0.300852087703364
-0.396459095253672 0.0713254502427829 0.313517980696521
-0.396459095253672 0.0666665229682622 0.326598737718911
-0.396459095253672 0.0632041146973957 0.333224762748007
-0.397127993889461 0.0711195261545077 0.347960157062477
-0.399715965018371 0.0649427420349186 0.35507054930136
-0.40285743811761 0.0691590407759706 0.363701675705344
-0.406869496243746 0.0678323303038403 0.374724714812441
-0.41612685814664 0.0720698478315426 0.384579327122333
-0.419376422239147 0.0688684130953807 0.386455463825891
-0.432365957523146 0.0703388384097459 0.393954975518756
-0.433460363511349 0.0637730909493911 0.394586831110648
-0.455466950098975 0.0687610286178852 0.396064699336495
0.295753833849498 0.0595194851519686 0.288170469607414
0.291734633122422 0.0613964419030093 0.288170469607414
0.282014236222668 0.0679581616355426 0.288170469607414
0.266008207025308 0.0595310588511445 0.288170469607414
0.266036093785095 0.0665892532538323 0.288170469607414
0.248748288913763 0.061506688742387 0.288170469607414
0.23852047855667 0.0690489670492755 0.288170469607414
0.236976614808004 0.0648260996296973 0.288170469607414
0.226130775005242 0.0676658535187266 0.288170469607414
0.21063955130053 0.0638666375328191 0.288170469607414
0.204470763173264 0.0637359255868343 0.288170469607414
0.195144778215319 0.0667510207952871 0.288170469607414
0.187833774511615 0.0656383283487926 0.288170469607414
0.175510943479655 0.0703184487754473 0.288170469607414
0.173523067097685 0.0626447947425416 0.288170469607414
0.154963234957742 0.0694038397685915 0.283025957938557
0.12487148297337 0.0687100812508491 0.276351839864892
0.120909053499801 0.0712734089947541 0.278845172067161
0.120843052121163 0.0626673728186284 0.27886831071943
0.106920120717098 0.0676230099608138 0.283749388584266
0.101413497467023 0.0721363036064065 0.285679891297802
0.0938037809253889 0.0665434960919682 0.288170469607414
0.0893012457392581 0.0704133747998995 0.288170469607414
0.0798179237970741 0.0650671029504475 0.288170469607414
0.0615835991676446 0.0688301648607565 0.288170469607414
0.0452566364145907 0.0711667121807655 0.288170469607414
0.0325489294646423 0.0647682810026523 0.288170469607414
0.0334744101178099 0.0642695824170037 0.288170469607414
0.0180053654640874 0.070859626579733 0.288170469607414
0.00371863773704577 0.06625166975187 0.288170469607414
-0.00862528123012045 0.0671499054871969 0.288170469607414
-0.0196518835952217 0.0703548872932118 0.288170469607414
-0.0171034567042996 0.0655370563464509 0.288170469607414
-0.0361321632403159 0.0710538629510749 0.288170469607414
-0.0514352079293207 0.0662448592037428 0.288170469607414
-0.0628475925293664 0.0694793021879006 0.288170469607414
-0.0608661025902409 0.0672485163515911 0.288170469607414
-0.0721369161186572 0.0725203090741026 0.288170469607414
-0.0903597797678502 0.0759442640753105 0.288170469607414
-0.109175254099314 0.0696991765244817 0.283526338325034
-0.121585467029149 0.0734959101095601 0.279175586757585
-0.141253797530457 0.077316784374391 0.278353946735814
-0.151428048740182 0.0743253414376383 0.281920818605668
-0.153783928760813 0.076668145953274 0.282746739059285
-0.167807478413314 0.0719479443780028 0.287663091500357
-0.174942404101951 0.0714141088695266 0.288170469607414
-0.182777379014996 0.0699675243539845 0.288170469607414
-0.202508564583917 0.069581039515533 0.288170469607414
-0.218693797062678 0.0724442301587685 0.288170469607414
-0.224159046030376 0.0760193859765201 0.288170469607414
-0.243507677731254 0.0798208928495481 0.288170469607414
-0.25359088398005 0.0734540499022078 0.288170469607414
-0.270752702215358 0.0773747022410581 0.288170469607414
-0.188355959844859 0.0793752029311903 0.361282529648131
-0.293523859044225 0.0752101589166937 0.288170469607414
-0.195926661725413 0.0793752029311903 0.38182567159983
-0.323083340818134 0.0783154385806183 0.288170469607414
-0.264998285434858 0.0793752029311903 0.343091473146469
-0.341033063332385 0.0756770263773329 0.288170469607414
-0.294034585383087 0.0793752029311903 0.337515677547985
-0.371402326817415 0.0774379412432637 0.283995048925117
-0.181540505234325 0.0793752029311903 0.450395049777089
-0.299436574832868 0.0793752029311903 0.371043302822269
-0.396459095253672 0.0755469095456513 0.308124764971699
-0.396459095253672 0.0758717487811479 0.318780233102528
-0.396459095253672 0.0791859907227177 0.332656118519531
-0.396459095253672 0.0741418153495589 0.345383366617618
-0.399452854445301 0.0789118311307645 0.354347658943028
-0.32547657108862 0.0793752029311903 0.420423157411556
-0.29112503844016 0.0796026604569637 0.451253070514792
-0.311807730750628 0.0794981612446126 0.45085887607798
-0.326312315152626 0.0799251282886695 0.45246949140878
-0.331818798050345 0.0818446159229488 0.459710228730512
-0.345784894981425 0.0811670041625525 0.457154125385263
-0.448344182990306 0.0803295126711465 0.397320635355057
-0.368673979997801 0.0830464429314325 0.464243789415762
-0.397464704616833 0.08125833407677 0.457498642279592
-0.415156866677303 0.0816749744898411 0.459070303245149
0.297908439964123 0.0725261764665011 0.288170469607414
0.296807561708315 0.0690977980873977 0.288170469607414
0.278960871806519 0.0695800549195577 0.288170469607414
0.266170359047483 0.0771164090753937 0.288170469607414
0.26376074859067 0.0727775342590006 0.288170469607414
0.251389720037968 0.0764238339559725 0.288170469607414
0.241976888832089 0.07333645203052 0.288170469607414
0.236956629489174 0.0742722311704 0.288170469607414
0.230357218557564 0.0697432297232481 0.288170469607414
0.215668577004271 0.0718749893063916 0.288170469607414
0.195651317788357 0.0774817456141733 0.288170469607414
0.188951097378977 0.073904167415524 0.288170469607414
0.193107034381339 0.0723743678187789 0.288170469607414
0.181481927030611 0.0734664704235253 0.288170469607414
0.170224696454778 0.0740195277976186 0.288170469607414
0.126053684645167 0.0766580049844945 0.266307306100554
0.125817344177606 0.0770206636153772 0.268315364338774
0.122572934229383 0.0798624530841727 0.278261851560639
0.115302068140571 0.0749688592540013 0.280810859560056
0.114246721253485 0.0789033660628272 0.281180841295998
0.100264124342649 0.080862849659119 0.286082836593804
0.0971199643390702 0.0780290498457836 0.287185110917478
0.0849879637868421 0.072974226623682 0.288170469607414
0.0988252984813352 0.0797168891474872 0.310743801757542
0.10188048612651 0.0802260870883496 0.325881144968893
0.199268981145773 0.0793752029311903 0.423976586695332
0.0989106725759171 0.0797311181632508 0.346094225639579
0.0372102882996108 0.0743616287334606 0.288170469607414
0.0983611520343209 0.0796395314063181 0.360022480553834
0.190567435076715 0.0794084837505493 0.450520592482614
0.100055345685442 0.0799218970148382 0.385666584501312
0.0253547053824824 0.0793752029311901 0.319147201877543
-0.0253739002199565 0.0780359926039251 0.288170469607414
-0.0354436950165117 0.076814946091262 0.288170469607414
0.10806132859289 0.0812562274994131 0.424631667521007
0.062878748124959 0.0793752029311901 0.399105860885625
0.0494482970666131 0.0793752029311902 0.397221840117517
-0.0908120328449749 0.0774303328974672 0.288170469607414
0.0601224854155019 0.0793752029311901 0.417399560900888
0.0899956223910156 0.0824665946826532 0.46205647193536
0.0767925522394173 0.0818105836575597 0.459581851402238
-0.138430111163435 0.0794720612360861 0.274122005705404
0.0037807108909407 0.0793752029311901 0.411829180639124
0.0490002338011453 0.0834952680175243 0.465936858177321
-0.0477947403478641 0.0793752029311901 0.395430674534371
0.0307806772904048 0.0825540305758365 0.462386299710087
0.0162919191973397 0.0827355072144432 0.463070870241678
0.00843262498293195 0.0826108216395122 0.46260052832347
-0.0150395065102655 0.0797632538716205 0.451858864847803
-0.0247283638072124 0.0827155152936666 0.462995456238319
-0.0340010769819976 0.0820234542850548 0.460384847092169
-0.0513789351323482 0.0809868815503899 0.456474662544721
-0.0531447066044387 0.0860855860288578 0.469812969419678
-0.169634158375804 0.0795682365219391 0.377679857611214
-0.159786867433244 0.0812094516790324 0.405230718850557
-0.0852581402033753 0.0828383787576949 0.46345892474605
-0.0905261091873098 0.0839785685021825 0.46775997586476
-0.105963182183698 0.0859272434860898 0.469785095254476
-0.152255757052087 0.0824646367425587 0.446490295778179
-0.158395632798509 0.081441324118155 0.443812161732045
-0.150619398945846 0.0841866678052836 0.4685449730503
-0.160361845182798 0.0852793468177171 0.469671041390919
-0.178488490322856 0.0822696185027509 0.461313433662104
-0.210875124982016 0.080750287812825 0.455582177969629
-0.198413786046551 0.0879532818409748 0.47014175321148
-0.229820028480894 0.0825377104669747 0.462324736603755
-0.224991531992273 0.0854692733003175 0.469704475501927
-0.252748533472298 0.0823300615440922 0.461541438353284
-0.245246219994194 0.0910655062418138 0.470689620231798
-0.272430862393141 0.0880649144020606 0.470161404686032
-0.287979956736415 0.0854960176932946 0.469709183507842
-0.296848601594674 0.0906718476105883 0.470620321700094
-0.321817344611806 0.0854631973445294 0.469703405908169
-0.327887929232055 0.0873938545590689 0.470043273243924
-0.331011231124575 0.0916064267201189 0.470784842314948
-0.363548333694801 0.0885499122398426 0.470246782308601
-0.377449462771479 0.0903515846534069 0.470563943531468
-0.382883725946699 0.0940329255725378 0.471211996184612
-0.395407470177742 0.0912143314453693 0.470715818992015
-0.418750297251493 0.0871867794393349 0.470006820336222
-0.424509416857275 0.0966750821231052 0.471677113814363
0.369357790504469 0.0809496139983015 0.36190506264475
0.287365932638438 0.0787570764494304 0.288170469607414
0.276089089569221 0.0799876995292687 0.288170469607414
0.369108924781583 0.0793752029311903 0.38869221786563
0.332796731402064 0.0793752029311903 0.362300047936079
0.279180467692392 0.0793752029311903 0.313986830712154
0.316890485389833 0.0793752029311903 0.360531994902625
0.361381277130007 0.0793752029311903 0.412743783996547
0.395994087257047 0.0810790117747273 0.456822198388091
0.38460647535271 0.0802816028766613 0.453814193404993
0.279214262626215 0.0793752029311903 0.364730416650617
0.374809698823379 0.0809206090954504 0.456224667999659
0.360599668748906 0.0809522070600876 0.456343862600215
0.360242986964618 0.0834391640093166 0.465725221291062
0.341876173868826 0.0816869416409633 0.459115446019824
0.308205459721845 0.0793752029311903 0.433290498071269
0.323473739145673 0.0821747669086336 0.460955632202336
0.328946344908695 0.0841054869338657 0.468238740618797
0.26580417896309 0.0793752029311903 0.421580555065674
0.248269084274505 0.0793752029311903 0.418392376902052
0.27023741431626 0.0793752029311903 0.444513386172722
0.238958869167083 0.0793752029311903 0.420801202105286
0.260617326877259 0.0805505134200548 0.454828584210636
0.267893123783931 0.0845468743325608 0.469542099044152
0.248535921282511 0.0828808842549427 0.463619265002899
0.233573519717105 0.07991892876875 0.452446105430952
0.209274651393081 0.0793752029311903 0.441878399037451
0.23030420284863 0.0870720830278699 0.469986629510273
0.224232995530825 0.0853041468491644 0.46967540711703
0.21083588480428 0.0873106715649576 0.470028629949208
0.185752334408896 0.0804538108403844 0.454463800418741
0.173134343404316 0.0805190963617158 0.45471007202916
0.163221762725355 0.0818433548611933 0.459705471723092
0.167747513162724 0.0877257380194302 0.470101697052462
0.112150463405641 0.0819377499682049 0.429838930418086
0.149027542716334 0.088444551646071 0.470228234933112
0.141068834445274 0.0869615893416047 0.469967178519965
0.127845217589979 0.0896563517561136 0.4704415567345
0.11586736632322 0.0905292012098639 0.470595210638531
0.0994689085798539 0.0836537422520978 0.466534658488361
0.0919985898490462 0.0851871945711334 0.469654819174828
0.0817086635907747 0.0888578458261164 0.47030099005028
0.0707614770969446 0.0899039786843463 0.47048514826578
0.060693061370861 0.0907189029854263 0.47062860519276
0.0499593078554532 0.0871201197341592 0.469995085753703
0.0329211249955672 0.0931997853092884 0.471065332572112
0.017531660413753 0.0864115368889962 0.469870348870358
0.0146414135444677 0.0901133881036014 0.470522012096847
0.00781871915291253 0.0920837101226024 0.470868861910545
-0.0119662929835308 0.0873367943249178 0.470033228524637
-0.023128315845441 0.0881209535493863 0.470171269656134
-0.0341642350127399 0.0867358642958704 0.469927442533002
-0.0456130867858944 0.0958140868433874 0.471525546684987
-0.0674643972672844 0.0867998786143867 0.469938711429272
-0.0680315249172951 0.0916940205253499 0.470800262076151
-0.0901330385781028 0.0945107240794016 0.4712961064577
-0.10467663135081 0.0936847719698436 0.471150708227075
-0.110353278963946 0.0882001273553374 0.470185207184913
-0.138873355761649 0.0904743845780352 0.460082932195463
-0.138260551733518 0.0934732940235321 0.471113480258463
-0.149068829685837 0.0983958148296715 0.471980026644317
-0.163401075970678 0.0969592822640905 0.471727143588686
-0.168175116212947 0.0917858151996643 0.470816421346249
-0.186156479534207 0.09442958858818 0.471281823599496
-0.199229636305779 0.0992613942866294 0.472132400759051
-0.217096342683492 0.0927251804532877 0.470981784500124
-0.225933820790135 0.0999929804654934 0.47226118708301
-0.229216670100931 0.0968571658435989 0.471709167308118
-0.251687294394671 0.093621363831454 0.471139546041009
-0.26177879811495 0.0995922728721678 0.472190647672319
-0.27806318348447 0.0993567554705897 0.472149187867235
-0.300519612846476 0.0975738554748102 0.47183533128673
-0.310811619691385 0.102172610760008 0.472644882922722
-0.319837685507609 0.0959063644060303 0.471541790961356
-0.329172416840422 0.100010966380689 0.472264353271722
-0.353410208583276 0.104422069267577 0.473040871119954
-0.37875699215386 0.105904232490143 0.472888627049724
-0.372608920621364 0.104168925995975 0.472996308507474
-0.401478222236646 0.10051002807256 0.472352206654661
-0.417346734905647 0.105779965372842 0.472910502675164
-0.428097341333628 0.106964451780708 0.472701989099244
0.433925225280736 0.0880138710307932 0.418821248853005
0.434304990670639 0.0895478425408998 0.436151692277538
0.433556387178188 0.0865240376858009 0.442587996885983
0.423879004623839 0.0829191419414523 0.440892446883965
0.431410258087207 0.0841743508520136 0.460292839417842
0.419748930074767 0.0822307961832736 0.460999964785888
0.432147428660053 0.0894932008262849 0.470412836114687
0.416429749042359 0.0901255330406796 0.470524150056593
0.413704491336507 0.0862098210736904 0.469834839399174
0.401539459224828 0.089964888382859 0.470495870633688
0.384811643907489 0.0901424053564573 0.47052712021047
0.3847559932213 0.0913769599268995 0.470744447641534
0.374085425918926 0.083353540521383 0.465402230314916
0.363593144794405 0.085461758367637 0.469703152594821
0.353473430359609 0.0847020291843062 0.469569412057407
0.343820484291797 0.0846331015771994 0.469557278239964
0.331929386124331 0.0901157897167364 0.470522434869907
0.32261082182602 0.0885980904218602 0.470255263457011
0.319739295135859 0.0900481128405675 0.470510521227536
0.310387777662408 0.0919073869428293 0.470837822485789
0.296876064428097 0.0856697919152797 0.469739774221411
0.285402857856541 0.0882304433566838 0.47019054392648
0.27658146817199 0.0866864031613778 0.469918735537334
0.267923667974631 0.0917514034618209 0.470810363603024
0.259569940395203 0.0943441589416769 0.471266784810563
0.256607399054012 0.0912220797535166 0.470717182981867
0.240795919467458 0.0939857010099232 0.471203682908616
0.236467347975785 0.0930278946779458 0.471035073440417
0.220113674789954 0.0919616642149153 0.470847377300448
0.210618139706572 0.0965547857439706 0.471655937186234
0.205274425845224 0.0976720536485859 0.471852617810431
0.188614219148778 0.0951320515506022 0.471405483156308
0.180654633246273 0.0969931982757672 0.471733114065703
0.166687560168144 0.0973923874934851 0.471803386185926
0.154919589392994 0.096859764107591 0.471709624699028
0.1446417674136 0.0914177265009305 0.470751624071818
0.137608045800678 0.0946403468886192 0.471318924883722
0.127830090084838 0.0977928981930147 0.471873890935999
0.116518195481971 0.0920442199917341 0.470861910181638
0.108834971797764 0.0989997642277124 0.472086344156973
0.0882206218969294 0.09832810322451 0.471968106888354
0.0801080335106317 0.0975693841577827 0.471834544168957
0.0758939668551594 0.101568894905782 0.472538606522445
0.0623604121265685 0.0986712102794467 0.472028506466156
0.0452486008507791 0.100326368541551 0.472319875759762
0.0353774259315635 0.100188398697237 0.472295587945722
0.0312216895059215 0.10088385346313 0.4724180137998
0.0149450467051845 0.094465967464969 0.471288227632194
0.00910451256198447 0.102583780086769 0.472717263986837
-0.0172063449016684 0.101032887954577 0.472444249402455
-0.0202789873124226 0.103263960409602 0.472837000971949
-0.0297427161267833 0.105856809179089 0.472896975312823
-0.0436615917183907 0.104652075842694 0.473081360815018
-0.0517500319196307 0.102996937356863 0.472789995002772
-0.0677603365395482 0.107454848746779 0.472615661029679
-0.0857013372295196 0.102733143541943 0.472743557499319
-0.0959488748121046 0.0986977239224538 0.472033173851512
-0.0981338461615253 0.0995207556451858 0.472178057985651
-0.124544229888231 0.105912414417746 0.472887186726752
-0.122246949199961 0.106784749909901 0.472733623299039
-0.138935603063489 0.108536366414322 0.472425273774257
-0.152683783718404 0.103455451430353 0.472870710499748
-0.170877152137736 0.10066132765562 0.472378840997521
-0.184518293112013 0.111106476635408 0.471972838972854
-0.195136588761851 0.111960997945547 0.471822411502438
-0.212410255132086 0.10947837043825 0.472259446098855
-0.226867265276167 0.108933764166759 0.472355317018423
-0.243436883672556 0.102795281093545 0.472754496014948
-0.259379870049525 0.112401960240405 0.471744785770023
-0.27002434363562 0.111417341390168 0.471918115236716
-0.287929383509688 0.114880811438889 0.471308415944132
-0.299936357733451 0.104322716604253 0.473023381363238
-0.318414353609259 0.114903269658043 0.471304462463912
-0.315394980451158 0.108820938831754 0.47237517846546
-0.339717394846331 0.114727185559517 0.471335459801494
-0.352670892173423 0.117484178947762 0.470850126625568
-0.370127568405052 0.115420199414586 0.471213463638328
-0.388391532758973 0.117146694202521 0.470909536468165
-0.402500156173185 0.11232665129641 0.471758042939634
-0.416514535929239 0.119384562901796 0.470515588507406
-0.435039882917005 0.111477725447351 0.471907485401196
0.436408351215545 0.0980438646565323 0.425750383584444
0.436127406261053 0.0969090546723766 0.434132833360387
0.435971223052228 0.0962781899357189 0.448189652892302
0.435082756956627 0.0926894435291604 0.450676506360911
0.436517430318477 0.0984844636176171 0.458740241275814
0.430844675455105 0.0941008161798079 0.471223947451591
0.430092193050247 0.0928212422201076 0.470998694936898
0.421474726319908 0.0983315580116448 0.471968715059132
