ply
format ascii 1.0
element vertex 847
property float x
property float y
property float z
end_header
-0.442996678042484 -0.113827984968792 0.231192652224038
-0.5 -0.0264963781489621 0.346336214112233
-0.5 -0.0310570821216629 0.34211314982674
-0.5 -0.0315491163844403 0.355965736008481
-0.497366487315421 -0.026077138962007 0.367517926481476
-0.498042048602909 -0.0341989698459212 0.366712823890096
-0.489294881502818 -0.0407530896435476 0.37713729170665
-0.489985440095934 -0.0490940617507008 0.376314316022407
-0.483813676446016 -0.0482290511513289 0.38366953752484
-0.480127487360045 -0.0465952454337657 0.388062566611027
-0.479915598244572 -0.0632194964828852 0.388315086225625
-0.476743196911924 -0.0625215625443322 0.392095806910957
-0.468327058125573 -0.0677454856936787 0.39379711531658
-0.460880234746351 -0.0792484833234649 0.395110191198907
-0.464427864807221 -0.0762087736506814 0.394484648301604
-0.455026513137047 -0.0863082529039933 0.396142360256184
-0.452360540417454 -0.0943020884371662 0.396612443176481
-0.441721285726071 -0.0959805540452759 0.398488430833201
-0.43264113086714 -0.112885905509808 0.394113846922984
-0.435027092114408 -0.115602538506328 0.395491382291371
-0.41889104150914 -0.140750811901235 0.386175229130762
-0.414210579920483 -0.146490658112855 0.383472963372619
-0.5 -0.00740314076932985 0.338851883386849
-0.5 -0.0149056756299943 0.340597277668569
-0.5 -0.00757150488910219 0.358061076045151
-0.5 -0.0172758069774759 0.359540230916812
-0.5 -0.0153397208996891 0.363444164176598
-0.491891247560563 -0.014897210114745 0.374043063129643
-0.488742934898445 -0.0272858150951101 0.377795076055333
-0.489750839694971 -0.0242925749362676 0.376593901893079
-0.485513868895746 -0.0345722679347745 0.381643327064773
-0.481777284850156 -0.033454558635364 0.386096414525134
-0.477546731751666 -0.0439712640872351 0.391138191378919
-0.475831770198073 -0.0478521821346137 0.39247383209575
-0.471816121880168 -0.0542805516092282 0.393181899239233
-0.466057735261312 -0.0525695954081092 0.394197258165489
-0.462737709640774 -0.0666612472911609 0.394782668259032
-0.45494504859769 -0.0746728167496123 0.396156724652444
-0.449787598879167 -0.0788822897494919 0.397066122189467
-0.447256168173951 -0.0833145239312081 0.39751248172259
-0.434831554651059 -0.100940688139323 0.395378488684269
-0.422125016613437 -0.116034078765571 0.38804236552778
-0.412742937785856 -0.120952553707123 0.382625619791118
-0.5 -0.000190328786071069 0.340265665188327
-0.5 -0.00344346829410349 0.348614901860964
-0.5 -0.00347241249803244 0.357973139451666
-0.498375913861737 -0.000856659475538689 0.366314938768445
-0.496337771326058 -0.00231031065435986 0.368743902457559
-0.491372795703064 -0.00903421791778058 0.374660929993404
-0.488650280104271 -0.0077031750592505 0.37790549773916
-0.483850009801311 -0.0155539091144459 0.383626237118136
-0.48243858374763 -0.0238979397408172 0.385308309188291
-0.475021158143923 -0.0226564772712234 0.392616764871784
-0.472942761334701 -0.0284917090282498 0.392983242305868
-0.469396499244485 -0.0400048195585162 0.393608543993038
-0.466667248377812 -0.0485477080267668 0.394089784557953
-0.463105925688072 -0.0529243743378434 0.394717741835164
-0.455037450757556 -0.0630356043187173 0.396140431658584
-0.445679696487932 -0.0667233251044886 0.397790456215158
-0.441574472735102 -0.0669067366378801 0.398514317924628
-0.438906700602776 -0.0836345404640904 0.39773127529648
-0.421739061103959 -0.0989923597491303 0.387819534010488
-0.416546164084661 -0.107256801928302 0.384821413518522
-0.5 0.0191884088300215 0.359736795937501
-0.5 0.0082505775383753 0.361755610384035
-0.498500129912939 0.0146504465191894 0.366166903843166
-0.49443097398015 0.00739622968858583 0.371016335044893
-0.494180618249883 0.00428234852955587 0.371314697385866
-0.486016920303767 0.00130923169315491 0.381043813742003
-0.485757545771787 -0.00656490115289469 0.381352924272318
-0.480593579862612 -0.00646705014423246 0.387507099196613
-0.480217684888988 -0.0131653966001864 0.387955073381866
-0.474221373749256 -0.0131666893565587 0.392757788439314
-0.470998042707047 -0.0269220458147476 0.393326148669811
-0.468272790366433 -0.0326773506134718 0.3938066841867
-0.453229310130525 -0.0434512436812807 0.396459255636045
-0.454550098182722 -0.0422666043849383 0.396226365066645
-0.450720847242048 -0.0515651517168865 0.396901565323389
-0.444559681127638 -0.0651635135897146 0.397987945141986
-0.435550072766971 -0.0659996117619436 0.395793325311908
-0.423483160196635 -0.0785520298103746 0.388826490091138
-0.414351271032816 -0.096518148133527 0.383554191424197
-0.497052039353419 0.0236687222807382 0.367892670969875
-0.492909215098785 0.0287899962962064 0.372829896658823
-0.492768672239359 0.0241290555279098 0.372997389116457
-0.493833123806004 0.0118805976761983 0.371728825137766
-0.486859538693903 0.0148326907291321 0.380039620248374
-0.481219417749864 0.00640001077867747 0.386761254646097
-0.477488298178944 0.00403085940849236 0.39120782979914
-0.477421185022711 -0.00142789960861957 0.391287812144191
-0.475334168774736 -0.000816514636208629 0.392561572652323
-0.464483334327153 -0.0167626064271025 0.394474867528633
-0.461881426049282 -0.0154819347584265 0.39493365415935
-0.460202697563077 -0.027763669380964 0.395229659284752
-0.449063476010618 -0.0345712031134501 0.39719380458854
-0.445320044012757 -0.0412837078395009 0.39785387265021
-0.440346684203214 -0.0394609822743126 0.398562650215822
-0.439212422407596 -0.0533929280939066 0.397907783862791
-0.418373572955476 -0.0672208997541105 0.385876468522007
-0.410192269456673 -0.0893643309112819 0.381152990744651
-0.499201917151358 0.0357040685619676 0.365330546380544
-0.494368954557956 0.0298260775144518 0.371090246914104
-0.48846419784515 0.0335112067922497 0.378127261939985
-0.485931670523506 0.023799922798247 0.381145410473898
-0.484242306584059 0.0223444806141174 0.383158716017933
-0.482635945343645 0.0222935160123206 0.3850731027972
-0.479162381088542 0.0138193877727987 0.389212735477326
-0.473218986964573 0.00263904093955352 0.392934536274559
-0.466424271667512 -0.000637485917993962 0.394132627907663
-0.463620829298872 -0.00323524650477634 0.394626950436116
-0.456611526001522 -0.0137259724626392 0.395862879723408
-0.448320925527826 -0.0155052492848987 0.397324736273195
-0.447537107431464 -0.0246807268306946 0.39746294455155
-0.447219652945453 -0.0326197225466385 0.397518920342581
-0.437229909607794 -0.0369030732538784 0.396763179564153
-0.433325303354619 -0.0491382416235426 0.394508854092802
-0.422036860830611 -0.0590042439230925 0.387991468762835
-0.339292206739919 -0.159317439964912 0.280282472702657
-0.492295518448928 0.052914119696241 0.373561271846052
-0.488431252611705 0.0513218752536843 0.378166524540303
-0.486712652122719 0.0375864039686472 0.380214672847285
-0.484745600599255 0.035360746830348 0.382558913567192
-0.478406239826529 0.0335378287117744 0.39011386954284
-0.474473051857676 0.0297143177032908 0.392713410798345
-0.473482904855112 0.0185557580937772 0.392888000429765
-0.470400628583632 0.0127310909593486 0.393431488898425
-0.460491302418505 0.0101857133504082 0.395178770461977
-0.45969488319553 0.00523268391066471 0.395319200658943
-0.451825336225386 -7.68100281933641e-005 0.396706814115731
-0.446519285243882 -0.0105629303252863 0.397642414064785
-0.436316578848633 -0.0237631687132671 0.396235867804492
-0.431650424082814 -0.024430771060674 0.393541862094366
-0.427054126946233 -0.0343475901339295 0.390888188705286
-0.410208480519313 -0.056645355864145 0.38116235020603
-0.41278820070814 -0.0614438562709499 0.382651752351483
-0.33331383754401 -0.144425896798283 0.285503124849422
-0.334372834776478 -0.154101347563638 0.28211112160007
-0.490043382726599 0.0554525906808492 0.376245262684148
-0.488153561594608 0.0579442753501943 0.378497463807559
-0.480261705124201 0.0490070178694959 0.387902612108404
-0.481245925989997 0.044159101572295 0.386729663355686
-0.473605944735585 0.0391974162747526 0.392866305179135
-0.468641488333624 0.0339479244375183 0.393741672787351
-0.467997848390529 0.0292824739736315 0.39385516387518
-0.46480779965881 0.0201387278471628 0.394417655536357
-0.45377585743247 0.00974906492786554 0.396362884600478
-0.449492644763912 0.00300685988997606 0.397118130558057
-0.447856001486206 0.00435014310695565 0.397406714925713
-0.440688519061869 -0.000353736430604303 0.398670535460876
-0.4345864072702 -0.0094133430194226 0.395236952777939
-0.414448168759434 -0.0310682420956076 0.383610135352744
-0.421177647738908 -0.0342416731850581 0.387495401853049
-0.34055484407616 -0.128061998420804 0.288170469607414
-0.342055030387902 -0.129097427886084 0.288170469607414
-0.333733925008969 -0.13755152337489 0.287913131117336
-0.319606772227484 -0.159485138690745 0.280223681165525
-0.486817850244809 0.0663078061486676 0.380089302607351
-0.480807856831868 0.0681210379003674 0.387251733848691
-0.479021150576387 0.0596118025112414 0.389381047447571
-0.472157374481103 0.050250390333441 0.393121727198451
-0.471469798854095 0.0476922747285643 0.39324296533277
-0.462511817951819 0.0389468825559038 0.394822499058513
-0.457156764653248 0.0390153599813541 0.395766739438183
-0.45623183445023 0.0329117566765709 0.395929829588248
-0.447454178150433 0.0203712036851415 0.397477567221287
-0.447990949279204 0.0220931798620922 0.39738291998882
-0.435850464940173 0.0126471909036283 0.39596675681397
-0.426345886387286 -0.00685606158556257 0.390479285827927
-0.412693341262042 -0.0189016214752814 0.382596985224743
-0.347201972004132 -0.107408989903417 0.288170469607414
-0.344549053850702 -0.10899811169378 0.288170469607414
-0.338874485400406 -0.119934166548876 0.288170469607414
-0.338973357610975 -0.122532578042043 0.288170469607414
-0.329211888972798 -0.128448162883451 0.288170469607414
-0.309908116638348 -0.147086998822015 0.284570200179527
-0.308511130146343 -0.159081145200513 0.280365312523569
-0.483380341092913 0.071104879781587 0.384185966488698
-0.47897201173996 0.0739222993763696 0.389439608832419
-0.47249509573026 0.0637686849942869 0.393062177830267
-0.474087239575374 0.0604961361626595 0.392781439913204
-0.465348778954592 0.0587659989786773 0.394322266290506
-0.462333568130479 0.0469761337045759 0.394853929311322
-0.454427720515164 0.0391311469860555 0.396247943551272
-0.449241886133414 0.0393453390496466 0.397162346070259
-0.444294072705743 0.0243731712226306 0.398034779073069
-0.443221766522609 0.0259149603956327 0.398223855584737
-0.422632157656811 0.00182938466438544 0.388335163545689
-0.426396330919066 -0.000272877728152329 0.390508409991928
-0.417114641086993 -0.010006972477858 0.385149623868846
-0.343487190370783 -0.0976217765353015 0.288170469607414
-0.340106100656478 -0.101065035267627 0.288170469607414
-0.328008027436165 -0.10679837167841 0.288170469607414
-0.325462857589834 -0.125671828578638 0.288170469607414
-0.320365009845684 -0.128115429742565 0.288170469607414
-0.310855500454309 -0.137084343631427 0.288076914205721
-0.299761883402405 -0.15428200706699 0.282047786295364
-0.29339238179548 -0.156104156600533 0.281408980177853
-0.288731823393292 -0.162968806768904 0.279002382672324
-0.477538906548964 0.0810664085057565 0.391147517092354
-0.476524066975547 0.083843213094974 0.392356955799879
-0.465437116815619 0.0678178729269307 0.394306689942189
-0.46722931833763 0.0638575575652434 0.393990676458992
-0.461206373138687 0.0625139053041506 0.395052684200894
-0.453170465626417 0.0529066772916297 0.396469631509785
-0.451271975176228 0.0521303005897897 0.396804386598771
-0.442617407779495 0.0423977742054254 0.398330420337174
-0.440362523042907 0.0359750256315568 0.398571794774183
-0.418351952657631 0.0133060080940878 0.385863986037226
-0.425721827356937 0.0185219486668165 0.390118985178764
-0.408947656467086 0.00204215425554841 0.380434413100076
-0.346353215738775 -0.0793832866241261 0.288170469607414
-0.341424455084585 -0.0915445791344957 0.288170469607414
-0.326244705786033 -0.0969848785790046 0.288170469607414
-0.321374101075634 -0.108455219147089 0.288170469607414
-0.319930962994533 -0.113190592088033 0.288170469607414
-0.311896957819144 -0.125179748301581 0.288170469607414
-0.303684781374734 -0.126039075864757 0.288170469607414
-0.30001339622191 -0.138244360798878 0.287670237339006
-0.285349701517257 -0.153606170203557 0.282284720045779
-0.29009777101375 -0.147923838293717 0.284276822405609
-0.471746386564453 0.0964224354131582 0.393194195456902
-0.46530383100595 0.0836479207034642 0.39433019182658
-0.467694840563484 0.0858157709813526 0.393908592330454
-0.45688629582761 0.0755732984297556 0.395814430389584
-0.451471977335157 0.0715080534893538 0.396769120821952
-0.449978223998302 0.0615186392841742 0.397032509837763
-0.447228010081066 0.0520114427432927 0.397517446754091
-0.434222692238576 0.0408487460609936 0.395026961806523
-0.429144426149219 0.0348830646306128 0.392095023512816
-0.423459594477535 0.0285879747444514 0.388812884416872
-0.344353762026528 -0.061115021030418 0.288170469607414
-0.342513893156107 -0.0694525205124193 0.288170469607414
-0.330710471183156 -0.0743650195003719 0.288170469607414
-0.33283149156806 -0.0792839273137765 0.288170469607414
-0.319538354502096 -0.0865185766672439 0.288170469607414
-0.321716844633312 -0.0999691367237776 0.288170469607414
-0.309283471106566 -0.101969311764613 0.288170469607414
-0.301099336810027 -0.117817828161876 0.288170469607414
-0.299149690905258 -0.116999451939053 0.288170469607414
-0.293772008323323 -0.133953920475188 0.288170469607414
-0.288175772374764 -0.139343003629968 0.287285076983866
-0.272456204976853 -0.148662007101225 0.284018036427119
-0.269604693616622 -0.160245809457606 0.279957006487988
-0.4664111630113 0.102265353481208 0.394134939317434
-0.461096686985495 0.092232064097401 0.395072024829112
-0.457871137928467 0.0901294426408964 0.395640776155465
-0.449216416624262 0.0870565681112664 0.397166837031909
-0.449720050212603 0.0723813256335354 0.397078032841893
-0.438309696688712 0.0667289779353144 0.397386594925988
-0.435735123184855 0.0590536344593656 0.395900164220488
-0.424577796270804 0.0480042481614423 0.389458478523224
-0.421044742650436 0.0392046439615793 0.387418669064443
-0.414088405375816 0.0350780965518687 0.383402425866368
-0.339146702186871 -0.0503224495706674 0.288170469607414
-0.333258156235493 -0.0641097220323683 0.288170469607414
-0.326172099305788 -0.0668451447907764 0.288170469607414
-0.319398350109843 -0.0757175626820253 0.288170469607414
-0.319253619233648 -0.0808103118563702 0.288170469607414
-0.30717969159186 -0.0944677032050086 0.288170469607414
-0.300291555493375 -0.10253679553576 0.288170469607414
-0.300182749017673 -0.111452831053545 0.288170469607414
-0.292794856072251 -0.11495192187656 0.288170469607414
-0.283511500013964 -0.125802019118516 0.288170469607414
-0.275585399951592 -0.134928106654168 0.288170469607414
-0.273978315616704 -0.13272569705609 0.288170469607414
-0.260598354994528 -0.146085411588594 0.284921334946543
-0.253501844373452 -0.15527215946423 0.281700660333975
-0.462039309825119 0.109664483424931 0.394905814989854
-0.457903256646285 0.099927715817109 0.395635112758928
-0.451380122330916 0.098784059252522 0.396785317337513
-0.446905892161277 0.0938649533852856 0.39757424483432
-0.443981707531578 0.0873020055436425 0.398089857481109
-0.430986643748631 0.0739293097344883 0.393158628339743
-0.433992579429809 0.0700526339297458 0.394894106114437
-0.422990405062216 0.0557863815589121 0.388541997781636
-0.347704487182982 -0.0286413294265259 0.288170469607414
-0.338596197809076 -0.0398023568928131 0.288170469607414
-0.338291642148653 -0.0417200432060299 0.288170469607414
-0.335151835462958 -0.0484551223276963 0.288170469607414
-0.325622884911412 -0.0618511895089116 0.288170469607414
-0.320378477003636 -0.0667380942117933 0.288170469607414
-0.307318889778891 -0.0794845498451478 0.288170469607414
-0.303570716620015 -0.0882409892730047 0.288170469607414
-0.295782685360481 -0.0931715164861401 0.288170469607414
-0.289755398024442 -0.104354797366387 0.288170469607414
-0.287208957213748 -0.10665028873063 0.288170469607414
-0.278321713962248 -0.116741694334787 0.288170469607414
-0.271124808066663 -0.128031020695912 0.288170469607414
-0.269048420902316 -0.127322631867157 0.288170469607414
-0.256162209116628 -0.150592163147242 0.283341365568197
-0.252782143150064 -0.150282496852675 0.2834499278567
-0.46070742770798 0.117306624692183 0.395140661742229
-0.454360462829871 0.109320947328754 0.396259802895848
-0.445967239913185 0.10673252575261 0.397739754551161
-0.44122146639942 0.0962564620405736 0.39857656246597
-0.440377631136797 0.0889008419321539 0.398580517436256
-0.436745488550189 0.0948876160194301 0.409592270850577
-0.420115743718516 0.0612773423111375 0.386882311281022
-0.409279013472871 0.0530150405921568 0.380625722156564
-0.43658057782622 0.0942214985716455 0.435880583921046
-0.436401110625485 0.0934965837156683 0.441823915712267
-0.435396635021349 0.0894392446313029 0.448735474357921
-0.329114814225853 -0.0434487753068186 0.288170469607414
-0.321878936012792 -0.0576059352287858 0.288170469607414
-0.309553227168228 -0.0666852037507644 0.288170469607414
-0.310455983712576 -0.0719997380925872 0.288170469607414
-0.296088332402551 -0.0791665272566496 0.288170469607414
-0.292473597111075 -0.0839023270154435 0.288170469607414
-0.288850735851401 -0.0947712592587544 0.288170469607414
-0.280714996236216 -0.101186730056629 0.288170469607414
-0.272544966312218 -0.113910362820015 0.288170469607414
-0.261997585454564 -0.11459643588855 0.288170469607414
-0.262125401414983 -0.120894402687905 0.288170469607414
-0.255465795743929 -0.138681270048814 0.28751706642931
-0.244428816622838 -0.136889380414415 0.288145264082294
-0.232137888399376 -0.157146761415934 0.281043465535962
-0.226052997680232 -0.162120883286755 0.279299646259975
-0.45537831490654 0.117924829005829 0.396080328112362
-0.448185300423685 0.117625886243495 0.397348650638316
-0.439658034421205 0.112257263788895 0.398165058078802
-0.43817150939079 0.099985069192629 0.397306812452334
-0.438568505940237 0.10225125897667 0.404845052341113
-0.437117636827247 0.113070641011124 0.4246864134086
-0.438309440833115 0.101204827405618 0.420065537720141
-0.437912680638903 0.0996022094460908 0.429653996449558
-0.438483371390091 0.101907378312656 0.443358736760244
-0.438708024425447 0.106646650488211 0.449328666346316
-0.438543770220852 0.107310116082925 0.466454879685844
-0.436902602591656 0.0955222406320354 0.461421229262014
-0.429827668924913 0.102894158657511 0.47277190213654
-0.427709908986147 0.093898645656233 0.471188357934872
-0.294004093934256 -0.0647240412341356 0.288170469607414
-0.295097083948956 -0.0731000714299568 0.288170469607414
-0.286816097277334 -0.0802364379086398 0.288170469607414
-0.271989396291357 -0.0922249647828153 0.288170469607414
-0.275476656294625 -0.0958790417820426 0.288170469607414
-0.266553586599686 -0.102211412548628 0.288170469607414
-0.259527320683652 -0.106443754627105 0.288170469607414
-0.252508927163392 -0.118339764401632 0.288170469607414
-0.239026120560531 -0.131970804802468 0.288170469607414
-0.2399554652738 -0.13501484201617 0.288170469607414
-0.224718992611878 -0.146833850142072 0.284658948617792
-0.219728890863619 -0.154501110139518 0.281970973508861
-0.205370571735046 -0.165196111195997 0.278221538033948
-0.444834365731695 0.13174022620314 0.397939510835106
-0.445681329715109 0.123768357508841 0.397790168233142
-0.433860428364153 0.111111820885816 0.394817808661107
-0.436549259187402 0.115366466617363 0.406269827242106
-0.435988875444733 0.117630002786894 0.420631122069805
-0.434723455728694 0.122741363232954 0.427881924918682
-0.436334275132207 0.116234843316677 0.431712738518838
-0.436279891677483 0.116454512281743 0.439933502393627
-0.436666881008577 0.114891361388067 0.457814305990524
-0.435692022743868 0.118829068309799 0.46171807990876
-0.435784192819948 0.117001275484779 0.470935135560429
-0.430363798610212 0.110544926170039 0.472071692699511
-0.429423894823597 0.110864739708966 0.472015393645181
-0.417017242741889 0.0921859720606116 0.470886863807598
-0.283650150195047 -0.0618161285484957 0.288170469607414
-0.28510520693055 -0.0657066800060306 0.288170469607414
-0.276881507505726 -0.0750769160372503 0.288170469607414
-0.273603190566046 -0.0770831677939281 0.288170469607414
-0.264206293364631 -0.086055105210008 0.288170469607414
-0.257684082477781 -0.0898322344754156 0.288170469607414
-0.250923428464541 -0.0993447554961805 0.288170469607414
-0.245851243788481 -0.10827485808445 0.288170469607414
-0.239648869262402 -0.114030508075537 0.288170469607414
-0.224593578590648 -0.133136104004032 0.288170469607414
-0.225422677075219 -0.139711869906998 0.287155760465121
-0.215644921872358 -0.13840931666286 0.287612407389768
-0.20362053574667 -0.154735908564988 0.281888658271932
-0.192264556430689 -0.165878913864233 0.277982162223405
-0.440569803520674 0.137605389229829 0.400808072174962
-0.440569803520674 0.136267371787007 0.407538827185102
-0.430838868941625 0.116007717871925 0.393073310515138
-0.435225424350528 0.120713780979976 0.408555406673238
-0.440569803520674 0.137431380828733 0.431592130750998
-0.434305145914024 0.124431025732912 0.431672602578274
-0.434362389109566 0.124199805528429 0.441214283426825
-0.434640944345627 0.123074648240615 0.448379945147159
-0.430854658869927 0.125566131708325 0.456089544550463
-0.434859619627303 0.122191361714318 0.459050070088538
-0.427216565653774 0.122640380931274 0.469942443678251
-0.426817621737586 0.117151594843134 0.470908673773504
-0.422848946805102 0.108426745644368 0.472444571098891
-0.414998971390083 0.108995076196063 0.472344523825362
-0.414395534865307 0.0986700208003698 0.472028297073685
-0.400533876478182 0.0884256167395617 0.470224901686703
-0.269193676273547 -0.0671633324257338 0.288170469607414
-0.263104717253808 -0.0700797607022969 0.288170469607414
-0.254927548840075 -0.0812391582294067 0.288170469607414
-0.252355040181063 -0.086371202204005 0.288170469607414
-0.248914949832589 -0.0979200382620983 0.288170469607414
-0.236421454376951 -0.108731321349912 0.288170469607414
-0.232409240889791 -0.111687874085164 0.288170469607414
-0.226037119522866 -0.12136989490128 0.288170469607414
-0.214077269595661 -0.126928515507029 0.288170469607414
-0.214715522482768 -0.135595165918585 0.288170469607414
-0.200388538128323 -0.152188363519571 0.282781772327442
-0.196698438862995 -0.157485992094897 0.280924538615323
-0.190571589423091 -0.160469059671958 0.279878739803483
-0.440569803520674 0.149247844341807 0.410788044578239
-0.440569803520674 0.146663890741732 0.41761190596514
-0.440569803520674 0.143310359720887 0.422260612561023
-0.440569803520674 0.150204060752788 0.432123321081407
-0.440569803520674 0.149121650992627 0.442690527704632
-0.440569803520674 0.148150552256129 0.4500466311774
-0.436415337115973 0.145956730111794 0.462747537904516
-0.440569803520674 0.142709920562214 0.460656403034867
-0.424346997260595 0.126650741976547 0.453426979095557
-0.423034192972101 0.126869542691296 0.459664819706226
-0.418799730501324 0.126160421601627 0.465204184447616
-0.416199733214088 0.1187456008512 0.470628069546581
-0.414377252937562 0.11958686751923 0.470479975385189
-0.404007594663916 0.111899771165033 0.471833189688546
-0.399195729132157 0.104887151797063 0.473067671005741
-0.393603206021641 0.0941751817767107 0.471237038557096
-0.394167423665321 0.0935333585258938 0.471124053840473
-0.252621552501703 -0.0739117998045696 0.288170469607414
-0.253741001467346 -0.0806625328372981 0.288170469607414
-0.240230388101131 -0.0846743868548668 0.288170469607414
-0.235549545989978 -0.0910842774617961 0.288170469607414
-0.226856161809227 -0.0981805125170468 0.288170469607414
-0.225832973265527 -0.109529538592976 0.288170469607414
-0.211473473769214 -0.120550630094607 0.288170469607414
-0.211235170972541 -0.122209483442921 0.288170469607414
-0.203740686376646 -0.128195311476818 0.288170469607414
-0.202048688656476 -0.133253655328487 0.288170469607414
-0.180389339325608 -0.15135006820013 0.283075660490011
-0.178436771974687 -0.163177346947271 0.278929273007483
-0.440569803520674 0.168009658409019 0.419324088889836
-0.440569803520674 0.165272998991734 0.422111015625743
-0.440569803520674 0.157241594981232 0.432366093366796
-0.440569803520674 0.158605945352428 0.438032232527369
-0.440569803520674 0.162391507126506 0.453614476967544
-0.43785821573201 0.165899369787986 0.462747537904516
-0.432302431262637 0.158489898199094 0.462747537904516
-0.433485734406334 0.15191378249803 0.462747537904515
-0.421822127496948 0.148776449540706 0.462747537904516
-0.417659257740554 0.127765365229887 0.454574160524756
-0.412905754226274 0.127409962855923 0.46049063493917
-0.411481094045474 0.122631511809685 0.469944004972872
-0.405119581650473 0.121567916938498 0.470131237150843
-0.401278064201889 0.111226185911266 0.471951765696693
-0.39986753929132 0.111938542459164 0.471826364501588
-0.394412844762606 0.10337380916652 0.472856338430753
-0.38951746901623 0.103281746615635 0.472840132004436
-0.377180729606781 0.0914745778891585 0.470761632026471
-0.242945458811457 -0.0699055304218933 0.288170469607414
-0.235919864730242 -0.0786546724295333 0.288170469607414
-0.22865068012756 -0.0883333670721917 0.288170469607414
-0.225310993431067 -0.0849173396257981 0.288170469607414
-0.220500407061932 -0.102549465534299 0.288170469607414
-0.214521856552139 -0.108573996483521 0.288170469607414
-0.202375477322191 -0.113029061718089 0.288170469607414
-0.2011405900822 -0.123577936865233 0.288170469607414
-0.18641628820454 -0.129674048977655 0.288170469607414
-0.179682682983637 -0.138032134127637 0.287744639408317
-0.167789835794346 -0.153874433639589 0.282190672701757
-0.440569803520674 0.17113940319814 0.423290794300743
-0.433607490815032 0.172923754708647 0.434068169279093
-0.435219732111075 0.172923754708647 0.43440530779895
-0.434566088784084 0.172923754708647 0.451349666727244
-0.434745083742679 0.172923754708647 0.454476126835925
-0.436289484568052 0.171616107609827 0.462747537904516
-0.434416245929294 0.160010312575103 0.462747537904515
-0.424205360462752 0.157976835524942 0.462747537904516
-0.419901777197123 0.145878950331656 0.462747537904515
-0.416135337323826 0.1453850703978 0.462747537904516
-0.400109850838328 0.128820475487302 0.455169865338778
-0.406987622443411 0.135960515007216 0.462747537904516
-0.399844787142577 0.125726597262089 0.466840667033002
-0.392387140409384 0.124459888897133 0.469622142736124
-0.389617552144757 0.11991936224769 0.470421443970775
-0.38688005248378 0.11135432854048 0.471929207837298
-0.37604957508325 0.0990501967777859 0.472095222157843
-0.37089628165941 0.0896783125909818 0.470445422656622
-0.361171681634349 0.0888248574101346 0.470295182864538
-0.22846368680071 -0.0735000719792934 0.288170469607414
-0.230133806231545 -0.0696336112758704 0.288170469607414
-0.216270748118173 -0.0880294449432162 0.288170469607414
-0.213320224993703 -0.0887650122928952 0.288170469607414
-0.203858059825961 -0.0973712910990624 0.288170469607414
-0.193077248943607 -0.112373030871648 0.288170469607414
-0.185353453625622 -0.120477896831985 0.288170469607414
-0.188457088027619 -0.121204801281287 0.288170469607414
-0.174833101692662 -0.136049707835985 0.288170469607414
-0.170355808230613 -0.143497832964426 0.28582848390673
-0.16537395590409 -0.147285791252434 0.284500507863759
-0.152136344818495 -0.164352391441362 0.27851732788588
-0.422934368569898 0.172923754708647 0.409343309385369
-0.429004625269432 0.172923754708647 0.420895516275051
-0.430107630527373 0.172923754708647 0.429731708385671
-0.427387495069589 0.172923754708647 0.44476390437392
-0.433071344443477 0.172923754708647 0.457182025910901
-0.425765414642861 0.171389541947423 0.462747537904516
-0.423346864220075 0.172504345148394 0.462747537904516
-0.416955857597704 0.165701507740303 0.462747537904515
-0.407842726855087 0.154562711545764 0.462747537904516
-0.406000596225316 0.149369708495271 0.462747537904516
-0.401614574596728 0.138607755479922 0.462747537904516
-0.39255691501078 0.137788428160897 0.462747537904515
-0.385575228205919 0.127364106360974 0.460663615909972
-0.391894629858436 0.123501997232264 0.46979076722608
-0.378020150774322 0.121993979053279 0.470056234403216
-0.375474176784241 0.114075286221084 0.471450218283561
-0.377605643653167 0.112584712592906 0.471712614572215
-0.366830532770623 0.101696817002758 0.472561125559981
-0.358689527651337 0.0896027621726816 0.47043212297857
-0.345989846678862 0.0860197095867197 0.469801372720529
-0.215346254413806 -0.066618077297158 0.288170469607414
-0.213754975974199 -0.0744610405011297 0.288170469607414
-0.205607698378183 -0.0849333870652816 0.288170469607414
-0.193727543624353 -0.0910944264913779 0.288170469607414
-0.194384249429173 -0.102162215349092 0.288170469607414
-0.175524464197278 -0.108330684124801 0.288170469607414
-0.177532382357196 -0.115851356804875 0.288170469607414
-0.168715824378422 -0.125749442781142 0.287981537900416
-0.157436159610075 -0.139281583516884 0.284027132005156
-0.142671570627221 -0.149053705143574 0.278850987242525
-0.140658141740505 -0.154133150024438 0.278145122731227
-0.413994197598364 0.172923754708647 0.407542001989072
-0.412205403801118 0.172923754708647 0.415855323329007
-0.412822333882088 0.172923754708646 0.428413502768391
-0.413741618153717 0.172923754708647 0.426236842986156
-0.417233936830995 0.172923754708647 0.444955080674693
-0.410695634175666 0.172923754708647 0.445864544598802
-0.411331194712821 0.172923754708647 0.460884561163163
-0.41289924605999 0.171341877714921 0.462747537904515
-0.410454875817257 0.160019646220185 0.462747537904516
-0.402458037648104 0.152661047620967 0.462747537904516
-0.395354596372265 0.149860493103447 0.462747537904516
-0.389180261215736 0.143718234842426 0.462747537904516
-0.379025070469523 0.135906769355641 0.462747537904516
-0.381693379584502 0.125567821326933 0.467439605426224
-0.377436361237366 0.126559918156746 0.463697193954479
-0.367914914710847 0.120005367123798 0.470406303920079
-0.362662959337952 0.110439554367027 0.472090242048243
-0.357562560445016 0.110628380187435 0.472057001694636
-0.348486511591775 0.102848256427072 0.472763821640092
-0.348600386657418 0.0971521633199947 0.47176109781427
-0.209181070245258 -0.0678383491678303 0.288170469607414
-0.204874783971611 -0.0696370045642332 0.288170469607414
-0.195779261694063 -0.0812289053948038 0.288170469607414
-0.18875998197931 -0.0803817547868187 0.288170469607414
-0.175447614026939 -0.0983738475307744 0.288170469607414
-0.175577527033343 -0.0974124827832173 0.288170469607414
-0.163482801658588 -0.116400136213882 0.28614695360041
-0.15906254740759 -0.123813178004739 0.284597308302639
-0.144152743417651 -0.139250910056729 0.279370254307165
-0.139063082960746 -0.148690575533715 0.277585929708074
-0.125095149698793 -0.15600324702127 0.277945168112672
-0.12652087802939 -0.157613814711665 0.276092724440355
-0.121006815087386 -0.160133228553546 0.279378449581685
-0.401584921667895 0.172923754708647 0.397618156157136
-0.408840117435423 0.172923754708646 0.408173798682022
-0.407041470294331 0.172923754708647 0.416794826189619
-0.407304150934936 0.172923754708647 0.433924984926937
-0.40606452681717 0.172923754708647 0.433874989327818
-0.404938038912207 0.172923754708646 0.44510529478938
-0.406452868370283 0.172923754708647 0.450210597759997
-0.406521243603953 0.172923754708646 0.459386954663474
-0.397463959265824 0.167569138573831 0.462747537904516
-0.399009389063469 0.166833027807768 0.462747537904516
-0.38887186116769 0.150281919704456 0.462747537904516
-0.385779270046107 0.149394499195362 0.462747537904516
-0.376405270627299 0.138767830373878 0.462747537904515
-0.371443751177351 0.127767276098372 0.459142769350485
-0.366464473515546 0.126302640542475 0.464667702745695
-0.362593993191987 0.124039036863053 0.469696228316149
-0.36129740646754 0.118757087489832 0.470626047471798
-0.348619152774924 0.116061001277533 0.471100658723884
-0.346738243578508 0.108178377129112 0.472488293177015
-0.343202625199316 0.102318546394676 0.472670573011554
-0.33735009233813 0.0926317171618654 0.470965331491477
-0.194794363267573 -0.066092689046413 0.288170469607414
-0.187667179522607 -0.0762562799057361 0.288170469607414
-0.185936634437696 -0.0758644712399481 0.288170469607414
-0.17852640130009 -0.089201672118698 0.288170469607414
-0.170915046656711 -0.0979194924804792 0.288170469607414
-0.162954070606166 -0.105884944292046 0.285961591957698
-0.145614407629581 -0.11911947590184 0.279882682087179
-0.127520495187152 -0.136686191069229 0.267599513398561
-0.127056584604556 -0.139960595253802 0.271541112891847
-0.120272576241942 -0.148627982573265 0.279635857800686
-0.113555847013208 -0.155335320475571 0.281678517452895
-0.115709188131468 -0.161736537832383 0.279434389442667
-0.396197178951781 0.172923754708646 0.398931068991785
-0.391338038418802 0.172923754708646 0.401782151676245
-0.390256659780163 0.172923754708647 0.404919671940014
-0.387917767431288 0.172923754708647 0.415599664067068
-0.393780285145463 0.172923754708647 0.420312454783324
-0.400597740851146 0.172923754708647 0.442735421484864
-0.395646677310855 0.172923754708647 0.442879622201336
-0.397198206143691 0.172923754708646 0.459042152707141
-0.394478914863938 0.170770518672864 0.462747537904516
-0.388521405569881 0.168300101566554 0.462747537904516
-0.381846547853726 0.163395993557314 0.462747537904515
-0.373989693896238 0.154959290536331 0.462747537904516
-0.371324226500108 0.14779993508011 0.462747537904516
-0.362626122830104 0.139459756526953 0.462747537904516
-0.349987496203369 0.128575747633138 0.456093033623723
-0.352806992098817 0.123974449333469 0.469707598118845
-0.351564019001532 0.124050019852398 0.469694294902336
-0.345900022100137 0.121660991538804 0.47011485256626
-0.336644262686755 0.108597487591956 0.472414514178174
-0.340712665231668 0.105677905145579 0.472928469063637
-0.325758816312165 0.102662472130078 0.472731116707508
-0.318308719138913 0.0908555297481998 0.470652656574594
-0.184888593741859 -0.0636305191744335 0.288170469607414
-0.173037289166807 -0.0757024742984226 0.288170469607414
-0.174075963832608 -0.0810603046102647 0.288170469607414
-0.164320841596119 -0.0859176118275025 0.286440752231619
-0.149166579859673 -0.104893647599828 0.2811279966507
-0.143680451868304 -0.110606518237861 0.279204679130474
-0.127740835950699 -0.135499108424228 0.265727396067052
-0.126568931913375 -0.137940810627305 0.275684436352372
-0.121153100326665 -0.139808723297386 0.279327165148639
-0.114997441339823 -0.140009698077037 0.2814852057187
-0.102262883319089 -0.15300501132093 0.282495473315338
-0.10288783790937 -0.162305122562386 0.279235055964726
-0.379329139122723 0.172923754708647 0.385202227876788
-0.385268008628813 0.172923754708647 0.392040989356217
-0.38267130324116 0.172923754708646 0.399611472280082
-0.378187440981083 0.172923754708647 0.409769899020488
-0.38302735163136 0.172923754708647 0.414298085503273
-0.381009864840642 0.172923754708646 0.428533025114879
-0.384477717623205 0.172923754708647 0.438716513143562
-0.383754935706917 0.172923754708647 0.451872839705868
-0.382059565227364 0.172923754708646 0.450572469302437
-0.384964015934373 0.171050358331919 0.462747537904515
-0.375282654533471 0.171216726626549 0.462747537904516
-0.371995214434916 0.159179913099834 0.462747537904516
-0.364986131887957 0.149838519191906 0.462747537904516
-0.353860398195724 0.144113383248581 0.462747537904516
-0.35128702220398 0.140572897353738 0.462747537904516
-0.340823065129631 0.126519598151842 0.463849290044657
-0.34442741310273 0.127540764831847 0.459997220586339
-0.338415643088721 0.122631730224566 0.469943966523746
-0.334645560406617 0.116578924490831 0.471009485013033
-0.326956287771138 0.106289271033106 0.472820845973531
-0.319683876715761 0.0982724208121897 0.471958304716854
-0.315116255364943 0.0937448921891998 0.471161291617345
-0.304554802700025 0.0876165250004545 0.470082471507135
-0.173423207983706 -0.0667305950562842 0.288170469607414
-0.168600062981506 -0.0689249697685365 0.287940954464667
-0.14034216234342 -0.0953715532212701 0.278034347205865
-0.127728752364551 -0.105291462437708 0.2658300638199
-0.126996330669167 -0.112788317999918 0.272053058275516
-0.119310346033604 -0.114162209863796 0.279973194848072
-0.122104119484077 -0.121038672082395 0.278993758452623
-0.116943029318346 -0.120650820754785 0.280803124758847
-0.111951978228162 -0.134283411791327 0.282552879052074
-0.0970029363038342 -0.136559087533056 0.287793689016564
-0.0875623840424159 -0.158615707599216 0.280528484854684
-0.0784576975073652 -0.163931087843935 0.278665027792179
-0.365979206435496 0.172923754708646 0.365590652785883
-0.366489218387591 0.172923754708647 0.384534521062914
-0.363803693206772 0.172923754708646 0.391586089644183
-0.375552306093636 0.172923754708647 0.403927725389646
-0.371586142974055 0.172923754708647 0.412730716109248
-0.365746011432289 0.172923754708647 0.420296319683332
-0.372480921217262 0.172923754708647 0.432520163043696
-0.368570475878082 0.172923754708647 0.429651491248634
-0.369228067538468 0.172923754708646 0.441772689132897
-0.365348681712107 0.172923754708646 0.452262884623136
-0.369277416097186 0.170449783904348 0.462747537904516
-0.362834299916376 0.165953388501958 0.462747537904515
-0.358460371153303 0.165102465366268 0.462747537904516
-0.345458686379838 0.152696376563079 0.462747537904516
-0.345079489854873 0.147682324249308 0.462747537904516
-0.339548951771191 0.138746517252279 0.462747537904516
-0.329590385045782 0.127787610878914 0.459066062003293
-0.334412939274337 0.126044062711148 0.465643116246894
-0.319903249296203 0.119672708341254 0.470464864214102
-0.321604080037307 0.118507375016797 0.470670006136379
-0.320647515594921 0.113578900845066 0.471537600535566
-0.305786094286829 0.101320672349805 0.472494910138572
-0.298251612692404 0.101165402012002 0.472467576795484
-0.153697180063974 -0.0666816292784236 0.282716326847111
-0.149788518597902 -0.076711061059698 0.281346034887071
-0.144458476867736 -0.0824587987015025 0.279477437825666
-0.127050490652391 -0.0901289959663915 0.271592889936099
-0.126610952414705 -0.103696866353942 0.275327410681989
-0.116159541293169 -0.10248521682494 0.281077798672412
-0.116063911839992 -0.11093314185559 0.281111324285201
-0.104225638018651 -0.121461718327558 0.285261566402342
-0.108964967259063 -0.122310140514835 0.283600060331659
-0.0919974329769705 -0.132191211800764 0.288170469607414
-0.0859365855422551 -0.140833454379894 0.286762557267797
-0.076615652944341 -0.155515682844605 0.281615286317038
-0.0660534467478948 -0.159477941946793 0.280226204187911
-0.355220576067304 0.172923754708647 0.368020288153668
-0.356241834994583 0.172923754708647 0.376747548146925
-0.357888353214921 0.172923754708647 0.388746098054636
-0.359896209792632 0.172923754708647 0.391241875964283
-0.362996970385645 0.172923754708646 0.407755576800209
-0.356803233173507 0.172923754708647 0.413180742596275
-0.3548379365818 0.172923754708646 0.418241180524836
-0.359547922869822 0.172923754708647 0.434516406962814
-0.357263655272902 0.172923754708647 0.440635599604809
-0.360604720976622 0.172923754708646 0.446351958624427
-0.354645596312661 0.172923754708647 0.45261094275934
-0.353755742127753 0.172923754708647 0.460391499885297
-0.348855181666409 0.164200701982063 0.462747537904516
-0.342133268739414 0.157876404077248 0.462747537904516
-0.34411764430575 0.15088432909287 0.462747537904516
-0.328314495247907 0.146454462683992 0.462747537904516
-0.317085634665033 0.127805643311208 0.458998039629411
-0.318156216064898 0.12759556795515 0.459790490929342
-0.317516033309369 0.127709202162377 0.459361837245618
-0.314823907244928 0.123759471270545 0.469745442237906
-0.314297162341097 0.117455467197473 0.470855180959399
-0.305304166576536 0.116136132030778 0.471087432922458
-0.291945952851962 0.106076836228497 0.472858242384722
-0.283472837419748 0.0893203030254469 0.470382399683773
-0.278793026133675 0.0861181152901817 0.469818695777158
-0.126763654864396 -0.0859700152874378 0.274029979838832
-0.126471265151318 -0.0864175357892647 0.276514258465246
-0.122644698379529 -0.0830040927138173 0.278804243213037
-0.116448245943294 -0.094515420280294 0.280976585081947
-0.110987758597958 -0.10017553988888 0.282890913547629
-0.10074630696146 -0.108862414675875 0.28648134443003
-0.101302282712505 -0.115245288217047 0.286286431386717
-0.088146275733886 -0.128432060613962 0.288170469607414
-0.0844992847480324 -0.127224690904945 0.288170469607414
-0.0684341026906489 -0.148357258387325 0.284124874718466
-0.0613961384890449 -0.156823692776282 0.281156726396054
-0.347034432801945 0.172923754708646 0.356842854398189
-0.347967441717278 0.172923754708646 0.3656374344782
-0.344437858498318 0.172923754708646 0.375700944944532
-0.351175213159646 0.172923754708646 0.393123896823904
-0.353562917852236 0.172923754708647 0.395117102073473
-0.344606735294127 0.172923754708646 0.405950236916479
-0.342421974094713 0.172923754708647 0.412437871862883
-0.345108705045689 0.172923754708647 0.423103957583886
-0.340770312948226 0.172923754708646 0.430078312012002
-0.353454831781659 0.172923754708647 0.445482686898649
-0.343967564507197 0.172923754708646 0.442587099487664
-0.346790962365869 0.172923754708647 0.454324715193664
-0.340764467190357 0.172923754708647 0.462096371290183
-0.339139569636724 0.16660089624475 0.462747537904516
-0.333272677687558 0.154893071344849 0.462747537904515
-0.3322455229923 0.151339462073252 0.462747537904516
-0.313574715251248 0.143807557670051 0.462747537904516
-0.31384378467016 0.139518069814531 0.462747537904516
-0.30693546916394 0.127279793183981 0.460981664099741
-0.304144883202146 0.127123473285722 0.46157133777163
-0.305841556206126 0.125048732201689 0.469397725882607
-0.291718784939031 0.1123506201047 0.471753823539652
-0.289768102901303 0.106314545337915 0.472816396757702
-0.277025463579391 0.0970130048495696 0.471736600757912
-0.276752889841124 0.0932867586486089 0.471080643108284
-0.123102767580827 -0.0767204618512274 0.278643654083196
-0.116034529696067 -0.078226920746797 0.28112162502778
-0.111791224902372 -0.0848438624520385 0.282609235682545
-0.111371533836374 -0.0943775241758756 0.282756370270288
-0.105996558763482 -0.0965017172537907 0.284640719987379
-0.0997598483444674 -0.0993301390651661 0.286827175432154
-0.0888461170699684 -0.103766498944918 0.288170469607414
-0.0807971346744128 -0.109997801037255 0.288170469607414
-0.0757629960428031 -0.124224260555015 0.288170469607414
-0.057785138299167 -0.142433507882914 0.286201613202967
-0.0665219816163428 -0.139495673724523 0.287231554159
-0.0470128106806668 -0.16093505133436 0.279715373230558
-0.340104702460298 0.172923754708646 0.350573940763837
-0.332877063590655 0.172923754708646 0.355798611325207
-0.335979620070781 0.172923754708647 0.36511602356039
-0.339109603434729 0.172923754708647 0.379463710628681
-0.332998896604841 0.172923754708647 0.380508813430833
-0.334058329493891 0.172923754708647 0.396548549387111
-0.334118296633852 0.172923754708646 0.403280142591503
-0.333236120635187 0.172923754708647 0.40270813471526
-0.338325196661851 0.172923754708646 0.424339423529611
-0.328175929486932 0.172923754708646 0.427243968718966
-0.34234387184748 0.172923754708646 0.443778535045788
-0.333810692016945 0.172923754708646 0.440338248873684
-0.334143364788725 0.172923754708646 0.458126767006682
-0.333635468649755 0.167552796540505 0.462747537904516
-0.320807198158001 0.160095272216112 0.462747537904516
-0.326530221212927 0.154750632480469 0.462747537904516
-0.316563666136453 0.14968081004899 0.462747537904515
-0.3089864936036 0.139646856005457 0.462747537904516
-0.302315508386644 0.128853457145705 0.455045451135393
-0.286720027455747 0.128543786172815 0.456213599411427
-0.292725339366441 0.126453607933703 0.464098219929287
-0.287135677136326 0.118185967479805 0.470726585793538
-0.279863464607176 0.118283365467348 0.470709440132317
-0.277825464192714 0.108381974520101 0.472452452478666
-0.273080942061133 0.103794395912604 0.472930377310244
-0.265232768543118 0.094474769799857 0.471289777169878
-0.2604578255163 0.0915769909257317 0.470779660522479
-0.109569252753855 -0.0660296554476072 0.283388210939669
-0.105984891399551 -0.081379052844851 0.284644810312195
-0.0933507993920392 -0.0869475690172407 0.288170469607414
-0.0880777722049685 -0.0921783960198751 0.288170469607414
-0.0808263055371558 -0.0951402838614547 0.288170469607414
-0.0715539907506281 -0.110357321137957 0.288170469607414
-0.0648975900239587 -0.117574478653042 0.288170469607414
-0.0629839680314348 -0.125555529164233 0.288170469607414
-0.0477279492346299 -0.132519877642288 0.288170469607414
-0.0486420310697962 -0.140929636729455 0.286728837821525
-0.0298500027630077 -0.159867001393395 0.280089808381755
-0.321251341108611 0.172923754708646 0.338314652664332
-0.315013956391351 0.172923754708647 0.341721322041785
-0.322472198637141 0.172923754708647 0.351335881190515
-0.317862341534294 0.172923754708646 0.365871642215449
-0.321098074777661 0.172923754708647 0.374131733676539
-0.324379850736536 0.172923754708646 0.389210214680128
-0.320156793944075 0.172923754708647 0.38493721202177
-0.318969719728304 0.172923754708647 0.398454115855788
-0.316661365741599 0.172923754708647 0.406064393463567
-0.32336922444143 0.172923754708646 0.421393278757174
-0.327375521586865 0.172923754708646 0.434922098311365
-0.316940565510998 0.172923754708647 0.436525404004559
-0.318803987717279 0.172923754708647 0.448262005706754
-0.322160124393232 0.172923754708647 0.456934368606515
-0.322193673981204 0.169195248236683 0.462747537904516
-0.316963453509237 0.163175786016879 0.462747537904516
-0.306018368228764 0.152979342136532 0.462747537904516
-0.296775660561923 0.147179488532146 0.462747537904516
-0.294210532043898 0.150102728930204 0.462747537904516
-0.284228729696601 0.12860918766251 0.455966890342368
-0.280255079232336 0.127108392714474 0.461628225064427
-0.27558930342674 0.121726915594159 0.470103247485417
-0.273773776487303 0.117911140573329 0.470774965530652
-0.272786552005217 0.11087859538727 0.472012954531478
-0.263617025562135 0.103606976052428 0.472897384457827
-0.25316548300166 0.102683175737006 0.472734761310846
-0.254838788006112 0.0916824705139931 0.470798228845415
-0.101586497468139 -0.0660209667338369 0.286186791855907
-0.0974169715855539 -0.0648796853605722 0.287648537224157
-0.0939505095282764 -0.0759632843778257 0.288170469607414
-0.0874498456370383 -0.0816219150013984 0.288170469607414
-0.0816176359792408 -0.0960857592349157 0.288170469607414
-0.0687719219559024 -0.0977851039528173 0.288170469607414
-0.0587178979676142 -0.117181341328259 0.288170469607414
-0.0504918542417119 -0.121803608338963 0.288170469607414
-0.0518508282012506 -0.127956384367636 0.288170469607414
-0.0420501958539232 -0.132643302667248 0.288170469607414
-0.0300657786437257 -0.145764849245804 0.285033717153299
-0.0123668944474988 -0.154174355181492 0.282085526712246
-0.310724293179002 0.172923754708647 0.338650896728992
-0.306113563965589 0.172923754708647 0.335876128760166
-0.311462546659522 0.172923754708646 0.354823518038339
-0.311612789100781 0.172923754708646 0.352125281038013
-0.304413182507129 0.172923754708646 0.36178414114296
