ply
format ascii 1.0
element vertex 839
property float x
property float y
property float z
end_header
0.427190840465001 -0.165345731330688 0.273809523809524
0.441805407420285 -0.161880114312396 0.273809523809524
0.457141235592348 -0.160671185213387 0.273809523809524
0.45981950482221 -0.161449812918553 0.273809523809524
0.471787793382786 -0.16136664556485 0.273809523809524
-0.204809693330518 -0.117639944512779 0.199404761904761
-0.201779050614199 -0.122774664327288 0.199404761904761
-0.195084437759541 -0.123514596340188 0.199404761904761
-0.174720029303171 -0.124932695954859 0.199404761904761
-0.173094275749084 -0.120404417541776 0.199404761904761
-0.158457410262603 -0.123230420935225 0.199404761904761
-0.152066897655935 -0.127780149376774 0.199404761904761
-0.142878423599805 -0.119462261932181 0.199404761904761
-0.13538921823701 -0.12088762406013 0.199404761904761
-0.116040594498063 -0.127470413982335 0.199404761904761
-0.113744491204857 -0.125796444248347 0.199404761904761
-0.0977188513180093 -0.124980890493556 0.199404761904761
-0.0868415651766459 -0.126614823227542 0.199404761904761
-0.0863051422678021 -0.129151183467703 0.199404761904761
-0.0724736233165384 -0.131604472737141 0.199197753725568
-0.0619787026884222 -0.128305212509206 0.198616964278075
-0.0413817839326347 -0.130398403337196 0.19584694003197
-0.0273566447390576 -0.132807405325336 0.192714718299642
-0.0339578860048225 -0.133580123338307 0.194260803039838
-0.0194337234892136 -0.131305508488791 0.190331131387781
0.00637685772921388 -0.126801065735333 0.185670510352549
0.0116857557241666 -0.128897863338796 0.1877132357733
0.0237078917878564 -0.132317660319296 0.191640793862897
0.0273164470443353 -0.128003420050258 0.192705303548703
0.0354243277154395 -0.127903593977654 0.194604260135237
0.0432306927213036 -0.131286845589251 0.1961545740617
0.0540828224465234 -0.132511840558596 0.197815455512113
0.0604193688424466 -0.134194773117728 0.198458676701729
0.0734000422213606 -0.132790080313064 0.199233297971934
0.0924178487189393 -0.131858753522479 0.199404761904761
0.0953525061491168 -0.138433707810393 0.199404761904761
0.120878454992422 -0.133708476175904 0.199404761904761
0.133747957519779 -0.133251034546593 0.199404761904761
0.13209784834578 -0.140731657579213 0.199404761904761
0.148988394464608 -0.139965596776849 0.199404761904761
0.148349843406313 -0.136696099166599 0.199404761904761
0.171367965331832 -0.137040426594491 0.199404761904761
0.189754550831347 -0.141647686600071 0.199404761904761
0.199590719858778 -0.141562176649505 0.199404761904761
0.207893504652933 -0.135401231456944 0.199404761904761
0.21102020655974 -0.137126539710129 0.199404761904761
0.230708593423763 -0.142583736590809 0.199404761904761
0.243977350550094 -0.143746554885577 0.199404761904761
0.252926815854399 -0.145366015670526 0.199404761904761
0.266697626634722 -0.146079521753895 0.199404761904761
0.279276507282176 -0.141085000503199 0.199404761904761
0.289320688474966 -0.144610307549439 0.199404761904761
0.310003973874786 -0.142593177661189 0.199404761904761
0.321048790161544 -0.149576196096135 0.199404761904761
0.334084372057948 -0.149313191162092 0.199110572302118
0.340251793149771 -0.145222650958195 0.19882558897237
0.363871591888105 -0.145419464142254 0.195685933918928
0.399398828506655 -0.149420942061431 0.185097208024706
0.401785714285714 -0.147874347380463 0.19733704300237
0.401785714285714 -0.141536566363963 0.197113686590104
0.401785714285714 -0.144152197811448 0.204753052092185
0.401785714285714 -0.147184213579566 0.220220122075903
0.401785714285714 -0.147833172332959 0.232261824796615
0.401785714285714 -0.150806125591911 0.247733268808956
0.401785714285714 -0.145988177183964 0.257041611349062
0.403470591095148 -0.149760626161888 0.267913610198391
0.407581315900447 -0.149862478517234 0.27215029734379
0.423054592923015 -0.146141368350001 0.273809523809524
0.425689350350601 -0.150988604828282 0.273809523809524
0.452855991057511 -0.152591334910941 0.273809523809524
0.460328359539205 -0.155884742618213 0.273809523809524
0.482197220897724 -0.152163020483291 0.273809523809524
-0.207517529606981 -0.114734504743956 0.199404761904761
-0.202024233021181 -0.111937630249912 0.199404761904761
-0.189895654747475 -0.115705483209566 0.199404761904761
-0.183981140478039 -0.11433061616694 0.199404761904761
-0.168839643935709 -0.110930166855165 0.199404761904761
-0.160881909245366 -0.113416812780694 0.199404761904761
-0.150985954832952 -0.118250885305794 0.199404761904761
-0.140438098194503 -0.112493687449103 0.199404761904761
-0.128829546826497 -0.11022441278079 0.199404761904761
-0.120341772630565 -0.116596539545729 0.199404761904761
-0.111355863278861 -0.118010779454171 0.199404761904761
-0.102753869471984 -0.113668788359118 0.199404761904761
-0.086470122770718 -0.117387093745164 0.199404761904761
-0.0812130281126595 -0.112497771730048 0.199404761904761
-0.0738246095017988 -0.116230990856907 0.199249587497046
-0.0709098029086633 -0.112449070429735 0.199137754067141
-0.0575406205889848 -0.113845064321558 0.198166455709331
-0.0454056409068408 -0.115060721228029 0.19651645674562
-0.00926591614445462 -0.115578406790433 0.1867821446451
-0.00941343220263028 -0.115210035073771 0.186838904975077
0.00173460954695567 -0.117255009352816 0.182030833281984
0.0190769523791626 -0.125230002478351 0.190221811936044
0.0183254281474345 -0.118339643779195 0.189991534834941
0.0268704318591487 -0.121714770749705 0.192600841790081
0.0336300313966566 -0.117771716942857 0.194184015813574
0.0492472935291788 -0.126894490250866 0.197155657058947
0.0597873126816597 -0.12127719183003 0.198394516843938
0.0620083935062863 -0.117607238652567 0.198619978185335
0.0759976162589091 -0.119173586973493 0.199332960026609
0.087430838217157 -0.12515145875521 0.199404761904761
0.108921738218662 -0.124652088436754 0.199404761904761
0.109473286800028 -0.121545283736427 0.199404761904761
0.128947643399746 -0.126415134265125 0.199404761904761
0.140380595154865 -0.120985005763889 0.199404761904761
0.142392040584537 -0.129180994626608 0.199404761904761
0.15603670008538 -0.127556630295233 0.199404761904761
0.167501503291243 -0.128646850401647 0.199404761904761
0.182121515471229 -0.125010907385273 0.199404761904761
0.196021672086503 -0.127137822544299 0.199404761904761
0.206274448018687 -0.127294940988128 0.199404761904761
0.214145908274317 -0.131106655805602 0.199404761904761
0.232059329999211 -0.127874947988672 0.199404761904761
0.244424633681723 -0.133098254057675 0.199404761904761
0.263112719029255 -0.132618099188968 0.199404761904761
0.265630583161555 -0.13440122239172 0.199404761904761
0.282679783934517 -0.129637026109944 0.199404761904761
0.303737458484881 -0.136731593091544 0.199404761904761
0.297144991782828 -0.129222740722291 0.199404761904761
0.319044978301971 -0.135450700051992 0.199404761904761
0.33984828344034 -0.131273613398714 0.198866549138856
0.338358525333527 -0.130212031076828 0.19894658433054
0.360830949449146 -0.133466027784333 0.196191856705489
0.382193836024031 -0.13387221005958 0.191145625650831
0.397036274903667 -0.130615853195081 0.186006257003854
0.401785714285714 -0.139258473727107 0.19953145638417
0.401785714285714 -0.1395208239695 0.206562127304899
0.401785714285714 -0.133619348099974 0.222190144226346
0.401785714285714 -0.130345898894886 0.236717134039291
0.401785714285714 -0.136775207029143 0.245949108787918
0.401785714285714 -0.136795345831152 0.254006515900405
0.401851529336675 -0.131000747419181 0.262224098165636
0.412983500795525 -0.137546334617511 0.273809523809524
0.419911530658633 -0.136378318264338 0.273809523809524
0.433425819363933 -0.143079742292758 0.273809523809524
0.454130155762295 -0.138508649481527 0.273809523809524
0.470709421159357 -0.133330432767905 0.273809523809524
0.480201196445273 -0.134289061569838 0.273809523809524
0.488962448379004 -0.136324433228091 0.273809523809524
-0.214759191141366 -0.106344239819091 0.199404761904761
-0.198094739498684 -0.104099047614186 0.199404761904761
-0.190266327325707 -0.102302774913137 0.199404761904761
-0.179855683879751 -0.101797258285226 0.199404761904761
-0.169953716121836 -0.10225674261917 0.199404761904761
-0.16401540684266 -0.100796167197538 0.199404761904761
-0.151071799758196 -0.105101130638654 0.199404761904761
-0.138151868036003 -0.103605018897632 0.199404761904761
-0.133795910877105 -0.109526488400734 0.199404761904761
-0.124030539515557 -0.109592958424849 0.199404761904761
-0.114296330269106 -0.107526524334219 0.199404761904761
-0.107419808582421 -0.106022101214599 0.199404761904761
-0.0894441290834157 -0.106543562412459 0.199404761904761
-0.0762200267651914 -0.104525546732525 0.199341493330267
-0.0730810104646961 -0.103173788460156 0.199221057566111
-0.0519573399934907 -0.104219322754502 0.19759969833675
-0.0518513749634938 -0.103624756890089 0.197588941853897
-0.0421530692129884 -0.109478396486308 0.195975271727032
-0.0252578573417403 -0.111798227838998 0.192115724090677
0.00153988360302953 -0.111407933805199 0.181737208362642
0.00390943595362266 -0.1109552832378 0.18472111083696
0.0118171356705045 -0.108432958159103 0.187763787348489
0.0218579684838313 -0.106940403433844 0.191073952558615
0.0282975639878856 -0.114045446824856 0.19293509214053
0.0362823953543347 -0.108369340207493 0.194805229199863
0.0507481377635334 -0.112261621603332 0.197405377738863
0.0558361647767651 -0.11298594330558 0.197993436839637
0.0602627276428535 -0.111859078976901 0.198442776093977
0.0816960879172301 -0.117984009098842 0.199404761904761
0.0906057187283192 -0.118507213018194 0.199404761904761
0.0947693593445938 -0.111018223443089 0.199404761904761
0.114020074896609 -0.112702600037903 0.199404761904761
0.123527009140316 -0.119185642556547 0.199404761904761
0.134594971054292 -0.11434714968316 0.199404761904761
0.148043575345586 -0.11257044520082 0.199404761904761
0.155682327806463 -0.119394477281681 0.199404761904761
0.171287351753634 -0.111082286852885 0.199404761904761
0.184896851677184 -0.115037630417442 0.199404761904761
0.190953949746953 -0.118010673980424 0.199404761904761
0.204639057043749 -0.112963778256012 0.199404761904761
0.210359460672102 -0.11499027365241 0.199404761904761
0.235400100297524 -0.121016144417845 0.199404761904761
0.239895871110366 -0.114753926775626 0.199404761904761
0.257686028583038 -0.121603145124162 0.199404761904761
0.259475342310864 -0.116534585393412 0.199404761904761
0.281467055430752 -0.115340966278596 0.199404761904761
0.286338623869076 -0.125794191510047 0.199404761904761
0.309723288919657 -0.118096113821211 0.199404761904761
0.324246704850319 -0.11784596767381 0.199404761904761
0.330015028304345 -0.122685356557721 0.199266702273315
0.339382455257943 -0.126841171710989 0.198907298843915
0.36867611048156 -0.123779059950267 0.194647653873165
0.371833749381247 -0.125563665006993 0.193908099428583
0.392312865428787 -0.120336211938048 0.187823701719524
0.401785714285714 -0.119946168384856 0.204681749704606
0.401785714285714 -0.124711202588821 0.203358495015064
0.401785714285714 -0.129578899076003 0.223632457806438
0.401785714285714 -0.128284610690615 0.229541908072426
0.401785714285714 -0.125812101418505 0.242190179727808
0.401785714285714 -0.127160424284643 0.261389719850778
0.402807338758555 -0.120987880352015 0.26686170920496
0.409356870635379 -0.120568208604242 0.273090634334765
0.430177303670045 -0.124159099486584 0.273809523809524
0.430258950754713 -0.126578404476228 0.273809523809524
0.448508750186294 -0.123712058339667 0.273809523809524
0.459211771644599 -0.122248018827244 0.273809523809524
0.483714794414886 -0.126174489752377 0.273809523809524
-0.209070398805257 -0.0901691676277976 0.199404761904761
-0.193209517520876 -0.0928490489816183 0.199404761904761
-0.188622266884411 -0.0904586105415215 0.199404761904761
-0.17361533723705 -0.0895143124658754 0.199404761904761
-0.17027468533509 -0.0906062946038157 0.199404761904761
-0.15566337259964 -0.0934397522900096 0.199404761904761
-0.152533909546306 -0.0950357759253383 0.199404761904761
-0.144969248984737 -0.0987180425485093 0.199404761904761
-0.139241466178589 -0.098714142989036 0.199404761904761
-0.129284879675725 -0.0942921905357533 0.199404761904761
-0.106951898497461 -0.0918163711260218 0.199404761904761
-0.0985954604789183 -0.0991261562734067 0.199404761904761
-0.0919234304432311 -0.0932989229842859 0.199404761904761
-0.0769059653583585 -0.0988216645866668 0.199367810982272
-0.0772252209504123 -0.0961400525129641 0.199380059976068
-0.0550674828356613 -0.0934610189507665 0.197915408134141
-0.0391483668663181 -0.100421117247598 0.195475328897669
-0.0394508461007458 -0.0951227131696075 0.19552565745166
-0.0162066664505179 -0.0993492350320624 0.18934231784247
0.00242261322498691 -0.0996895958685518 0.183068265790438
0.00780599584500238 -0.0985721058384343 0.186220405408295
0.0101120706808998 -0.103551985694379 0.187107722831595
0.0188343926222699 -0.100222915235507 0.19014748837427
0.0271269913641808 -0.105712574199066 0.192660930903584
0.0311932369706618 -0.100189952473551 0.193613291229312
0.0489279427494864 -0.0971462931434576 0.19710252130241
0.062222691390677 -0.101076199522728 0.198641731508284
0.0660489916288245 -0.103118731598786 0.198951257577518
0.0802635401917181 -0.0998376217348283 0.199404761904761
0.0920362211821178 -0.101654914727726 0.199404761904761
0.105133038510556 -0.107389422436997 0.199404761904761
0.12098478597765 -0.102178930594731 0.199404761904761
0.128226673464881 -0.104864671214014 0.199404761904761
0.137258355202593 -0.100632187061767 0.199404761904761
0.14120600436141 -0.105462908830928 0.199404761904761
0.161734884402972 -0.10894757476691 0.199404761904761
0.168946972420408 -0.102984881289716 0.199404761904761
0.175666633230195 -0.104084770687792 0.199404761904761
0.199153084918828 -0.110848825656881 0.199404761904761
0.200180130015043 -0.103522855850924 0.199404761904761
0.219026188928987 -0.110493435450681 0.199404761904761
0.232321428864416 -0.10284112626081 0.199404761904761
0.237927797219249 -0.108170454299768 0.199404761904761
0.253965899311686 -0.105402621122862 0.199404761904761
0.270915824624761 -0.107256651495392 0.199404761904761
0.287042861915772 -0.1090211418894 0.199404761904761
0.287648536276175 -0.114633466568971 0.199404761904761
0.319529912890053 -0.105232565966073 0.199404761904761
0.328285784751825 -0.114473947573027 0.199333048780859
0.343457531267851 -0.11542201266655 0.198500175323188
0.353981947263964 -0.110899837625323 0.197331440310026
0.373655981228798 -0.110730161717025 0.193481312292774
0.39770773263835 -0.117058816535523 0.185747897588227
0.396089931118411 -0.112868502422691 0.186370385399003
0.401785714285714 -0.112639727323997 0.19803591332346
0.401785714285714 -0.113655055029666 0.20843785446525
0.401785714285714 -0.114194595665864 0.22175350639906
0.401785714285714 -0.114411107529465 0.230349958206781
0.401785714285714 -0.113212178348103 0.252280294332177
0.401785714285714 -0.118226671460256 0.255731428908149
0.401965832694193 -0.119011391516537 0.262778700893463
0.412426410961538 -0.117827244733288 0.273809523809524
0.427185895439986 -0.115650359821816 0.273809523809524
0.429479835619305 -0.11609780947594 0.273809523809524
0.443055059242665 -0.114400369419691 0.273809523809524
0.472029250459781 -0.114624636757334 0.273809523809524
0.487743285797846 -0.11044080819623 0.273809523809524
0.486611810706251 -0.111243764370327 0.273809523809524
-0.207113081906977 -0.0862221525918405 0.199404761904761
-0.192260919078179 -0.0861275416285191 0.199404761904761
-0.190042928828258 -0.0802185526728022 0.199404761904761
-0.18092675173739 -0.0815523671536288 0.199404761904761
-0.168545980743202 -0.0863396308303628 0.199404761904761
-0.1660188935519 -0.0894394423065865 0.199404761904761
-0.15701745446867 -0.0858946762518184 0.199404761904761
-0.142309121740505 -0.0856274933946648 0.199404761904761
-0.129979491754854 -0.0837821649772532 0.199404761904761
-0.127011680984778 -0.0899942027160328 0.199404761904761
-0.111337423030901 -0.0892385371029031 0.199404761904761
-0.103128773054134 -0.0822886441711204 0.199404761904761
-0.0931614197730084 -0.0857103005420379 0.199404761904761
-0.0873657940290931 -0.0873630486836753 0.199404761904761
-0.0752250943476166 -0.0834862027157218 0.199303320401387
-0.0616557679193647 -0.0877635730120082 0.198584183252996
-0.0553305784313477 -0.084054903886656 0.197942114900172
-0.0406614700894588 -0.0912241807711583 0.195727089311586
-0.0162694311118311 -0.0938072295549739 0.18936154977625
-0.00470860845423504 -0.0904810951017655 0.185028611561992
0.00754279875110004 -0.0864030109879751 0.186119134034293
0.0113857101046386 -0.0892116843641576 0.187597786048145
0.0273985994517238 -0.0861117854885306 0.192724544563888
0.0319478869439499 -0.0918919225889865 0.193790038716779
0.038368186847931 -0.0932681139941193 0.19529374496071
0.0528112901856162 -0.0904470892289297 0.197686382600405
0.0559587816463732 -0.086700125576599 0.198005883646432
0.0641607721344241 -0.0897402662447137 0.198838465584494
0.0775935094986647 -0.0941543114388017 0.199394190234879
0.0913087188452277 -0.0905092828409748 0.199404761904761
0.096253672198786 -0.0979948361273451 0.199404761904761
0.112817751985995 -0.0967997725893552 0.199404761904761
0.116448949557171 -0.089227987669563 0.199404761904761
0.139000275375736 -0.0889305018733909 0.199404761904761
0.135751244520944 -0.090650393312991 0.199404761904761
0.166551922084009 -0.0946075037265171 0.199404761904761
0.164140465811909 -0.099262335372658 0.199404761904761
0.185143706657927 -0.0962708946284234 0.199404761904761
0.188746946998909 -0.0984490578269573 0.199404761904761
0.203768552204738 -0.100230646664954 0.199404761904761
0.218870333498711 -0.0920385037421491 0.199404761904761
0.231855620951226 -0.096413478236957 0.199404761904761
0.247133853387705 -0.0933278425264391 0.199404761904761
0.253476904406881 -0.100679578224286 0.199404761904761
0.269910192703903 -0.103008744294683 0.199404761904761
0.287541736464476 -0.0944162400162786 0.199404761904761
0.291217223824761 -0.103123369910802 0.199404761904761
0.301609546711245 -0.100422695676367 0.199404761904761
0.326807460934897 -0.0983060124821149 0.19938976816092
0.336747544310636 -0.105418266721205 0.199008393417197
0.340968310398282 -0.103773653460251 0.198752855491358
0.354298817764962 -0.103117158121575 0.197278717239142
0.389811813658983 -0.103904088928154 0.188786041179361
0.39373268487643 -0.101067656156681 0.187277392244123
0.401785714285714 -0.101652537899948 0.196415569561385
0.401785714285714 -0.103702876121058 0.22036482857881
0.401785714285714 -0.100326200150722 0.218092568399224
0.401785714285714 -0.10720016857836 0.226442723169745
0.401785714285714 -0.102643921181482 0.242172311796323
0.401785714285714 -0.0981917755508272 0.260342924146031
0.404951570879783 -0.100569770050151 0.269888249911238
0.40597981360587 -0.107803791763521 0.271259240212686
0.417110774430289 -0.102877130660226 0.273809523809524
0.437321006762145 -0.103941472724428 0.273809523809524
0.44831254486154 -0.106153873067189 0.273809523809524
0.473857578845875 -0.109133561087226 0.273809523809524
0.475137384642074 -0.104069081915865 0.273809523809524
-0.209167989509439 -0.0713253017953514 0.199404761904761
-0.201475376155847 -0.0753515549891606 0.199404761904761
-0.185666623377952 -0.0720382699269328 0.199404761904761
-0.182311586859298 -0.0713581552290568 0.199404761904761
-0.166579274212338 -0.0762565140786973 0.199404761904761
-0.164649731874695 -0.0721095675980151 0.199404761904761
-0.151561172427086 -0.0761360074864424 0.199404761904761
-0.149312560026448 -0.0746642581914058 0.199404761904761
-0.124296129331363 -0.0763356970266229 0.199404761904761
-0.122240609150068 -0.0813336519318404 0.199404761904761
-0.110709860979327 -0.0778399190816522 0.199404761904761
-0.096822312549094 -0.0749859943780193 0.199404761904761
-0.0914609218415384 -0.0796543917256159 0.199404761904761
-0.0836316712870968 -0.0809763754707294 0.199404761904761
-0.0725184430319713 -0.0742410431843043 0.199199473339664
-0.0611515326003373 -0.0788356552564164 0.198532998455871
-0.05019652833201 -0.0782852527649232 0.197313597206856
-0.0346141742836844 -0.0813536096302589 0.194414513115301
-0.0212851445810597 -0.0782633650967714 0.190898431634334
0.00102771028288221 -0.0795248664057937 0.18096490834558
0.00936969338996422 -0.0801575835290862 0.186822075421262
0.0119620355941015 -0.0811559393118087 0.187819541058143
0.0254376055642195 -0.0818188923932631 0.192170801356124
0.0313643727345334 -0.0769481304517698 0.193653373144571
0.0364577481526797 -0.0850522312503301 0.194846298791892
0.0464191754940299 -0.0833307549531375 0.196685095529338
0.0572032287969807 -0.0847575612377307 0.198132207155582
0.0689690529358964 -0.0858621074260314 0.199063292616918
0.0730093225680416 -0.0837512026262269 0.19921830709087
0.0838589140974128 -0.0856167683394693 0.199404761904761
0.0961849957688 -0.0876122565272855 0.199404761904761
0.120667861889396 -0.08001104117111 0.199404761904761
0.1198772719827 -0.0839635041347332 0.199404761904761
0.134453807288758 -0.0850062739718363 0.199404761904761
0.153118594586866 -0.0881010880725685 0.199404761904761
0.157421994818066 -0.0813571679501439 0.199404761904761
0.17916864350607 -0.0831524771822097 0.199404761904761
0.177022548478596 -0.0811227920211348 0.199404761904761
0.196912492627229 -0.0831067719092145 0.199404761904761
0.206993360987504 -0.0905049245041259 0.199404761904761
0.220280545974547 -0.0867290936726045 0.199404761904761
0.233091927041278 -0.0848251377844884 0.199404761904761
0.239627697965959 -0.0881141720135718 0.199404761904761
0.264506862360661 -0.0856821918266042 0.199404761904761
0.271898622494039 -0.0835224213079806 0.199404761904761
0.283910550812175 -0.0878421747807633 0.199404761904761
0.294852410515735 -0.0900095873570017 0.199404761904761
0.301139091988732 -0.0901142151776042 0.199404761904761
0.322107232194287 -0.0870229761138318 0.199404761904761
0.324547998444188 -0.0866815844097606 0.199404761904761
0.35077093334566 -0.0878576672159591 0.197757793765365
0.364962680916514 -0.0941763068334594 0.195504391099368
0.383409379765925 -0.0875521735820262 0.190773166750201
0.401785714285714 -0.0856122587111796 0.189691884596291
0.401785714285714 -0.0919455401672388 0.195233421932269
0.401785714285714 -0.0936721004007977 0.210331870689798
0.401785714285714 -0.0884397558551874 0.222505341184577
0.401785714285714 -0.0895759133016718 0.234245736626649
0.401785714285714 -0.0917597631740807 0.248423542095808
0.401785714285714 -0.0939709005633989 0.255819693655952
0.402251879362662 -0.0860664365372933 0.264166606428903
0.408774770865757 -0.0908725884091684 0.272782353246582
0.430219379945292 -0.0919486465201964 0.273809523809524
0.439359658424809 -0.0862828025671972 0.273809523809524
0.447943055890855 -0.0866226943389797 0.273809523809524
0.471378915816942 -0.0874900297173903 0.273809523809524
0.482576429846157 -0.0944988601177457 0.273809523809524
0.494167118895466 -0.090286000212801 0.272170040628846
-0.209163314731094 -0.0682124782794089 0.199404761904761
-0.199517815129164 -0.0698703487296709 0.199404761904761
-0.193225079139746 -0.0624461374269933 0.199404761904761
-0.180387575478463 -0.0669776975397909 0.199404761904761
-0.167265769297599 -0.0631109972802847 0.199404761904761
-0.167691580179655 -0.0694259527369907 0.199404761904761
-0.147110630958948 -0.0687458128817458 0.199404761904761
-0.142873528322269 -0.0630751116061653 0.199404761904761
-0.134725929591969 -0.0660062924709951 0.199404761904761
-0.12229363450183 -0.0705486275277531 0.199404761904761
-0.121297593289953 -0.0645606624677847 0.199404761904761
-0.104608495672644 -0.0647470917335989 0.199404761904761
-0.0924125087576118 -0.0685119987647998 0.199404761904761
-0.0747995266822925 -0.064030524975235 0.199286992494148
-0.0658070146913213 -0.0665265323207558 0.198941973561576
-0.0584554373765327 -0.063881832364648 0.198259318525383
-0.054216224770461 -0.0653437425429233 0.197828997147594
-0.0313697678690882 -0.0720215725251237 0.193654636745593
-0.0284581513125082 -0.0737717635706401 0.192972703493012
0.00133893681827705 -0.0693625913573825 0.181434203111902
0.00230176169042686 -0.0666937470825027 0.182886035208462
0.0163827334749714 -0.0664797314840951 0.189396267139483
0.022992496368101 -0.0660565721986474 0.191421587114201
0.0303314307363017 -0.0707799934656185 0.193411446543698
0.0418141835008112 -0.0757060744266592 0.195918885615455
0.0507993455628262 -0.0694945723968645 0.19741389804108
0.0529154825620595 -0.0685925319277091 0.197696959141653
0.0735923947177947 -0.0676794888352325 0.199240678029148
0.0815470789685476 -0.0685800678876394 0.199404761904761
0.0955438411279032 -0.0741495662323457 0.199404761904761
0.101710337193748 -0.0708968969576566 0.199404761904761
0.106393447592284 -0.0765258840017788 0.199404761904761
0.127712802823801 -0.0752471553055259 0.199404761904761
0.140767247157133 -0.0754641091297274 0.199404761904761
0.152571558238416 -0.0757666136369228 0.199404761904761
0.164573884670316 -0.0731521230538932 0.199404761904761
0.168206140784235 -0.0714594510307303 0.199404761904761
0.18488394811518 -0.0785973234710301 0.199404761904761
0.1906587227598 -0.076096869940577 0.199404761904761
0.207386445185154 -0.0790299426286217 0.199404761904761
0.224432753366097 -0.0712709762049145 0.199404761904761
0.228816394890573 -0.0710529000717641 0.199404761904761
0.242313683434882 -0.0755051059243639 0.199404761904761
0.25243120914479 -0.0770472089345503 0.199404761904761
0.27490590646367 -0.0731191784734824 0.199404761904761
0.288993386584912 -0.0744194684615421 0.199404761904761
0.301104528065827 -0.078902805786261 0.199404761904761
0.304062290510932 -0.0761261867039844 0.199404761904761
0.319783747598099 -0.0830043775471533 0.199404761904761
0.324545147941477 -0.0772842589473538 0.199404761904761
0.339292462594543 -0.0740560569708353 0.198910751624706
0.352651084607358 -0.0788604764260932 0.197552878297977
0.381721288943949 -0.0803029906633766 0.19129042041212
0.401785714285714 -0.0764733115401506 0.189922152669655
0.401785714285714 -0.0790211127881219 0.201351121484609
0.401785714285714 -0.0735545569579989 0.210037924738763
0.401785714285714 -0.0815537912981666 0.214824178808877
0.401785714285714 -0.0822068394043756 0.227782376303038
0.401785714285714 -0.0847209518312627 0.24766146057765
0.401785714285714 -0.0759045650266664 0.258482901903626
0.402025628435636 -0.0791645907656117 0.263068831315146
0.408554151120085 -0.0824595870904045 0.272665512631245
0.430192879492721 -0.081994698100329 0.273809523809524
0.439754523890335 -0.0860348019226558 0.273809523809524
0.454883832142267 -0.0752108491240462 0.273809523809524
0.470673211751004 -0.0812784316400471 0.273809523809524
0.486193945361455 -0.0841336325599687 0.273809523809525
0.483409778057744 -0.0841561446211867 0.273809523809524
-0.209350824448843 -0.0585866570087436 0.199404761904761
-0.205552010055731 -0.0522990805412017 0.199404761904761
-0.187047236157391 -0.0553451942109232 0.199404761904761
-0.176232353871832 -0.0596583086501178 0.199404761904761
-0.17143536658087 -0.0531589729374234 0.199404761904761
-0.165547804335675 -0.0555190178927525 0.199404761904761
-0.152598610955856 -0.0552714494532585 0.199404761904761
-0.141626887327614 -0.0588479763131961 0.199404761904761
-0.129942091313447 -0.0569754142419195 0.199404761904761
-0.122610227120254 -0.0597414356329005 0.199404761904761
-0.118475451015426 -0.0591919126013022 0.199404761904761
-0.0956971415772484 -0.0559630769405022 0.199404761904761
-0.0926648770558043 -0.0575447044911954 0.199404761904761
-0.0868456369094888 -0.0581562354312932 0.199404761904761
-0.064197586356884 -0.0633220390845602 0.198842202586717
-0.0673499685168893 -0.0617530850320215 0.199001172624356
-0.0600374044501514 -0.0557729484644566 0.198419903594827
-0.0399254711802552 -0.0570794208449017 0.195604628803149
-0.027233784362683 -0.061538079478164 0.192685943021563
-0.0149251015519737 -0.0584581776021337 0.188949629174225
0.0020373983697627 -0.0596348538055241 0.182487404922525
0.0123174243693692 -0.061747630484201 0.187956285385531
0.0219629077671596 -0.0591051201121234 0.191106107362061
0.0305918086012978 -0.0570441020240062 0.193472429959929
0.0380045697875183 -0.0594114304855036 0.19520858176704
0.045232852595131 -0.0627956029022476 0.196487707050153
0.0523233510423961 -0.0601327141280689 0.197636852023881
0.0655745942745541 -0.0602981738706091 0.198933056204092
0.0735116147004314 -0.060408837547755 0.199237578713252
0.0830726135806895 -0.0574894091044575 0.199404761904761
0.107823399305658 -0.0665376108423096 0.199404761904761
0.121194313617359 -0.061232090316746 0.199404761904761
0.123890188709272 -0.0645608651467828 0.199404761904761
0.14003545065769 -0.0617476201465595 0.199404761904761
0.146587094893289 -0.0661735117556449 0.199404761904761
0.160466539531431 -0.0578735976888306 0.199404761904761
0.166184028457093 -0.065865546384232 0.199404761904761
0.181683825566488 -0.0639279679015052 0.199404761904761
0.196615527653462 -0.0616621025857917 0.199404761904761
0.205923601069921 -0.0634056654113168 0.199404761904761
0.218334186382935 -0.0661743490203435 0.199404761904761
0.234693982377399 -0.0687391512312284 0.199404761904761
0.245589445790244 -0.0647251522804918 0.199404761904761
0.260876831580208 -0.0690168173814045 0.199404761904761
0.275302555607495 -0.0706622877107505 0.199404761904761
0.282445749295987 -0.0673445202875546 0.199404761904761
0.284991409399868 -0.0622994953346986 0.199404761904761
0.307902415373619 -0.0611783273471869 0.199404761904761
0.324380347084159 -0.0650832023376975 0.199404761904761
0.330132080162221 -0.0653697391710902 0.199262211302706
0.339348128522443 -0.0624293883692244 0.198908615870086
0.370664749528117 -0.0623771079585164 0.194181892305022
0.383719308074704 -0.0707404290994656 0.190678200560846
0.401785714285714 -0.0701297509629788 0.188845715049003
0.401785714285714 -0.0680293080699741 0.193458356548487
0.401785714285714 -0.0715915252792186 0.204011249178786
0.401785714285714 -0.0703818718871937 0.222072477164341
0.401785714285714 -0.0633754428807487 0.238340003229277
0.401785714285714 -0.0627915655234621 0.23861520042012
0.401785714285714 -0.0713932810884396 0.257723907358962
0.404395590938115 -0.0636564586548222 0.269146943322347
0.406065462755256 -0.0631606719025791 0.271347498783283
0.425576530387842 -0.0688328371706293 0.273809523809524
0.431396651109583 -0.0699867115091981 0.273809523809524
0.450416381072782 -0.0659472584649574 0.273809523809524
0.469122856513016 -0.064574100987754 0.273809523809525
0.489651894314421 -0.0706021951217993 0.273809523809524
0.495301131967847 -0.0686745033910481 0.271569465259792
-0.203720281302607 -0.0488202899515328 0.199404761904761
-0.199671460231052 -0.0480480272891018 0.199404761904761
-0.186191809115071 -0.0453943838054434 0.199404761904761
-0.175670266404422 -0.0453103334451149 0.199404761904761
-0.171195775681188 -0.0442413166909757 0.199404761904761
-0.159464375703696 -0.051413287214869 0.199404761904761
-0.151185713624908 -0.0474672911783914 0.199404761904761
-0.141878170519424 -0.0517379482191158 0.199404761904761
-0.125969757247228 -0.0434887061793498 0.199404761904761
-0.117458107505184 -0.0528597625970032 0.199404761904761
-0.108788597831712 -0.0484493580250899 0.199404761904761
-0.103285770404939 -0.0510615523816817 0.199404761904761
-0.0982243723988872 -0.047711518390031 0.199404761904761
-0.0785363816862501 -0.0496960462206078 0.199404761904761
-0.0704135169367472 -0.0476799496300302 0.199118712885271
-0.0641488244484565 -0.0479076398218559 0.198837252777975
-0.0571225283630514 -0.0540364802919388 0.198124015275358
-0.0433496316887888 -0.0495355801911577 0.196174363936723
-0.0238920361641068 -0.0475896303366957 0.191697218168804
-0.00727296227708763 -0.0508549477988235 0.186015308000071
0.0114048046916927 -0.0529015682523181 0.187605133146999
0.0116153852369847 -0.0548104896695244 0.187686159046044
0.0246347738117844 -0.0552817755286244 0.191924802942741
0.0279687813216715 -0.0475755630195333 0.192858087552664
0.0361001839245176 -0.0528855102611542 0.194762553239421
0.0429237373556665 -0.0511311264567887 0.196103500738528
0.0552656832398409 -0.0554107148823151 0.197935527406027
0.0708998291701395 -0.0544570918548524 0.199137371401137
0.0780233787842399 -0.0478865865034067 0.199404761904761
0.0897875913789444 -0.051455986445285 0.199404761904761
0.0995675446650982 -0.0526743358459928 0.199404761904761
0.11153292037775 -0.0502362290970415 0.199404761904761
0.122090859045608 -0.0535135377946012 0.199404761904761
0.135824067198951 -0.0570815060698862 0.199404761904761
0.151385467013426 -0.0523639669984841 0.199404761904761
0.155595918284962 -0.056479463960381 0.199404761904761
0.170227948693904 -0.0516699564796674 0.199404761904761
0.192017260052632 -0.0529099693639878 0.199404761904761
0.194557473560828 -0.0564176730766635 0.199404761904761
0.208052796709836 -0.0483302896425745 0.199404761904761
0.220357925492441 -0.0572880458905858 0.199404761904761
0.228673206525586 -0.0591985001840986 0.199404761904761
0.249803481001162 -0.0546731166909149 0.199404761904761
0.255642126137586 -0.0551122051195498 0.199404761904761
0.261421109522169 -0.056001767319613 0.199404761904761
0.281203055888815 -0.0526630978852327 0.199404761904761
0.29974365147807 -0.0571380589114522 0.199404761904761
0.307047668619999 -0.0512816596877114 0.199404761904761
0.315462268654171 -0.0534088252365784 0.199404761904761
0.336805115693118 -0.052035770400957 0.199006184555319
0.348568770430235 -0.0590035640744137 0.19798133475468
0.368520311293189 -0.0608782395412129 0.194684143790436
0.382930206627758 -0.0537024979918155 0.190919991824529
0.401785714285714 -0.062128458828059 0.191151828013975
0.401785714285714 -0.05455017186658 0.197908482264323
0.401785714285714 -0.0536506441304137 0.213418090735901
0.401785714285714 -0.056271177030557 0.223689450083607
0.401785714285714 -0.0616372862232552 0.23364351966174
0.401785714285714 -0.0584391700385468 0.245571558436927
0.401785714285714 -0.0594584527767614 0.254835968471262
0.403383499531236 -0.0601048334966536 0.267797488113176
0.414022701735326 -0.0521535107069323 0.273809523809524
0.413635066371848 -0.0529495732729804 0.273809523809524
0.43808492379891 -0.0573745518454862 0.273809523809525
0.448182723124408 -0.0524573651727784 0.273809523809524
0.45670684613088 -0.0527049013864389 0.273809523809524
0.489400435725165 -0.0535820940972246 0.273809523809524
-0.210929463403523 -0.0329931009066356 0.199404761904761
-0.192621956416716 -0.0405393445945452 0.199404761904761
-0.182391778305985 -0.040313477285847 0.199404761904761
-0.180524696936776 -0.0420625131662848 0.199404761904761
-0.167132754616755 -0.0386928770355211 0.199404761904761
-0.158649227486876 -0.0354129864621972 0.199404761904761
-0.152131393998062 -0.0423341054510216 0.199404761904761
-0.137556697191889 -0.036432932701965 0.199404761904761
-0.130754106214382 -0.0354229863097909 0.199404761904761
-0.119566968343549 -0.0396429692229994 0.199404761904761
-0.111088602268444 -0.0357011071681061 0.199404761904761
-0.0971087601286921 -0.0366521627914697 0.199404761904761
-0.090091702266478 -0.0405801565048515 0.199404761904761
-0.0858140070463961 -0.0358656773812116 0.199404761904761
-0.073947215343622 -0.036188395131066 0.19925429155935
-0.0580743090650851 -0.0439189669237327 0.198220630288831
-0.0597790356504607 -0.0407766012230702 0.198393676644637
-0.0365553629685651 -0.0350216517178874 0.194869161276564
-0.0227546388497815 -0.043675076568906 0.191348704381375
-0.0138647459784831 -0.0444366960217755 0.188551654365689
0.00380016402031575 -0.0366884566230506 0.18467906584831
0.0134196322310979 -0.0357305587384174 0.188380386210268
0.0195966587432858 -0.0391726082088489 0.190381056934278
0.0304086996082327 -0.0396969888614018 0.193429543780108
0.0337276347612707 -0.0421495669170368 0.19420687561623
0.0469343893315937 -0.0363845739077846 0.196770820314678
0.0567781055803379 -0.0401138097557234 0.198089053007556
0.0685678265222451 -0.0394035331183318 0.199047898619212
0.0790260461090241 -0.0419896423559574 0.199404761904761
0.0875120689004937 -0.0413640761416893 0.199404761904761
0.10299379426006 -0.0382741720147834 0.199404761904761
0.112168311507763 -0.0373039023559538 0.199404761904761
0.126710571626773 -0.0429507327627863 0.199404761904761
0.130690900367694 -0.0449044032236513 0.199404761904761
0.150392358146655 -0.0377965876751916 0.199404761904761
0.154247485899827 -0.0373728101500733 0.199404761904761
0.167797564678411 -0.0462101924537249 0.199404761904761
0.182617800454814 -0.042458438731772 0.199404761904761
0.20338481741141 -0.0475638360151225 0.199404761904761
0.211776358973004 -0.0408502800810917 0.199404761904761
0.210745337663213 -0.0408654304198985 0.199404761904761
0.224907139773383 -0.039147544803861 0.199404761904761
0.249799587126443 -0.0392196345029161 0.199404761904761
0.260071910234122 -0.0455810261470954 0.199404761904761
0.269124014585851 -0.0460211681606284 0.199404761904761
0.280236454524993 -0.0474806777947942 0.199404761904761
0.287724419376586 -0.0472687449696499 0.199404761904761
0.307417502167246 -0.0492381581505611 0.199404761904761
0.326785347618727 -0.0490297573729899 0.199390616590452
0.340423962938249 -0.0435008609934452 0.198808112061568
0.348586825518567 -0.0461689390297089 0.197979501987322
0.3662186521295 -0.0400113529719245 0.195223218180668
0.385105587882226 -0.0455677611050386 0.190253425840464
0.401785714285714 -0.0407801377086676 0.188285124789986
0.401785714285714 -0.0493675916185114 0.204266518411057
0.401785714285714 -0.051149186740488 0.203911911560031
0.401785714285714 -0.0399076804848406 0.226403713139576
0.401785714285714 -0.0437182582496162 0.24005524786819
0.401785714285714 -0.045367773750645 0.246362399548692
0.401785714285714 -0.0509703087208783 0.253610433162056
0.402532105682131 -0.049399436306488 0.265526271486528
0.413036879081068 -0.047376161562974 0.273809523809524
0.41576061923542 -0.0427628251704176 0.273809523809524
0.433001939587747 -0.0480276141357415 0.273809523809524
0.457176511768284 -0.0420160295644503 0.273809523809524
0.457706508577162 -0.0438205641484307 0.273809523809524
0.482276100450686 -0.049341187466017 0.273809523809524
0.489425552406397 -0.0406828785791771 0.273809523809524
-0.213188448654423 -0.0248832563402265 0.199404761904761
-0.192811161208733 -0.029678382819661 0.199404761904761
-0.189521483827614 -0.0274186373709969 0.199404761904761
-0.179851690799931 -0.0264747586696372 0.199404761904761
-0.172128264635943 -0.0320249750614624 0.199404761904761
-0.16725766942549 -0.0292732028703168 0.199404761904761
-0.160521892636498 -0.0236738825278247 0.199404761904761
-0.133818373536846 -0.0271190340224238 0.199404761904761
-0.137327904706214 -0.0334498649209092 0.199404761904761
-0.128305995605868 -0.0285538326057512 0.199404761904761
-0.115147653653251 -0.0323981559464392 0.199404761904761
-0.0943616490892853 -0.0268287786649349 0.199404761904761
-0.0923069217983125 -0.032043208456237 0.199404761904761
-0.0820547974759763 -0.025215388308327 0.199404761904761
-0.0714218766292461 -0.0260492124439395 0.199157400983225
-0.0617072812177863 -0.0259970236933257 0.198589412354626
-0.0563567325682874 -0.0277379712359782 0.198046279541832
-0.0284776297178293 -0.0335579285269983 0.192977265553997
-0.0334408459413348 -0.0289783828224664 0.194139706458142
-0.00421439191147229 -0.0300553560028408 0.184838449932174
0.00365762831028596 -0.0337827848657244 0.184624221826346
0.0180633641458603 -0.0319940102511468 0.189911234911083
0.0206572558823891 -0.0305956054637866 0.190706038118276
0.0321287090348258 -0.0282287049576642 0.193832389278459
0.0375831621873174 -0.0322317538928549 0.195109883380806
0.0446930357689752 -0.0282160378665968 0.196397888652099
0.0549722452365357 -0.0295428503636616 0.197905740590027
0.0654660348087507 -0.0310401556991856 0.198928891064134
0.0855727888329996 -0.0313798677911372 0.199404761904761
0.0871353171719149 -0.0303501460744996 0.199404761904761
0.0963743622756379 -0.0272972523776581 0.199404761904761
0.122192195515391 -0.0361816819699122 0.199404761904761
0.118529725104139 -0.0287148496915902 0.199404761904761
0.140308032322707 -0.0290468772400302 0.199404761904761
0.142331312810944 -0.0349837984451002 0.199404761904761
0.162628506889475 -0.0363577264012283 0.199404761904761
0.175667795204264 -0.032822211836341 0.199404761904761
0.183000788790176 -0.0333763634586249 0.199404761904761
0.196777305500666 -0.0335490891759251 0.199404761904761
0.207700382491747 -0.0296829313172324 0.199404761904761
0.22208798072455 -0.0271004418943573 0.199404761904761
0.236767402872894 -0.0269636783448584 0.199404761904761
0.242999830405129 -0.0312750873746756 0.199404761904761
0.261446859228894 -0.0275154763557684 0.199404761904761
0.271499708527547 -0.0349707351660906 0.199404761904761
0.284887184129241 -0.0280805114845586 0.199404761904761
0.289918041247413 -0.0292637464805809 0.199404761904761
0.303579810387284 -0.0378244646285733 0.199404761904761
0.316432725250747 -0.0289678993584874 0.199404761904761
0.333977990004496 -0.0352342840037195 0.199114653900515
0.351202338799197 -0.0356181776661775 0.197714001909094
0.356783403781277 -0.0379976114071891 0.19686531490524
0.401785714285714 -0.0390790115869437 0.184442173237251
0.401785714285714 -0.0337349650217538 0.186309095585974
0.401785714285714 -0.0330249136222443 0.190733984760203
0.401785714285714 -0.0370586581760104 0.216094209364387
0.401785714285714 -0.0349190260804301 0.227910823860851
0.401785714285714 -0.0378175979174201 0.240018980541309
0.401785714285714 -0.0292644893120635 0.240445203090234
0.401785714285714 -0.0306393649922668 0.254163345139419
0.404605732042621 -0.0311407612553561 0.269427131461688
0.411369435777209 -0.036054174633251 0.273809523809524
0.419819386537574 -0.0369390384230802 0.273809523809524
0.44589405610683 -0.0385208217404692 0.273809523809524
0.450494970983746 -0.0312948122634365 0.273809523809524
0.468194086999716 -0.0347202244913843 0.273809523809524
0.47373884335225 -0.0346758201189088 0.273809523809524
0.493197481393454 -0.0341084163842565 0.272683562399276
-0.212784373230632 -0.0157421789751774 0.199404761904761
-0.20321563440405 -0.0228728504606724 0.199404761904761
-0.190993252890424 -0.0207802472737036 0.199404761904761
-0.18288044959895 -0.0226672185934625 0.199404761904761
-0.173531458040456 -0.0186123905422538 0.199404761904761
-0.168623817189406 -0.0159688796696866 0.199404761904761
-0.148221228373692 -0.0182857376948054 0.199404761904761
-0.139925786184101 -0.0217993436335322 0.199404761904761
-0.128969434596318 -0.0194520911742856 0.199404761904761
-0.127237904476818 -0.0181179361581996 0.199404761904761
-0.118434144788939 -0.0169028377759462 0.199404761904761
-0.098088063412995 -0.0147211982973253 0.199404761904761
-0.0923052455516397 -0.0233561396435693 0.199404761904761
-0.0832280564732226 -0.0175630671780329 0.199404761904761
-0.0788585395347969 -0.0234144635919677 0.199404761904761
-0.0601774902828564 -0.0215228966655832 0.198434123671558
-0.0381637542627209 -0.0201094684631032 0.195245864556454
-0.0472883288170114 -0.0242443935424606 0.196829711175518
-0.0251207760001553 -0.0202272104032588 0.192073720529617
-0.00683988752244587 -0.0203093498638044 0.185848672134918
0.0102078561652038 -0.0196365941544179 0.187144578586577
0.0156730720482112 -0.0234899335364771 0.189178817363124
0.0149228678403551 -0.0233373688806218 0.188948944735035
0.0321605783447246 -0.0235171488650617 0.193839853428265
0.0366617302654888 -0.0200153512012861 0.194894073690459
0.0498323019258273 -0.0157619257171833 0.197252994738117
0.0642957976344953 -0.0243510600975578 0.198852171988165
0.0632457355642117 -0.0182863076391239 0.198745580458361
0.0758961869065774 -0.0201090994327343 0.199329068450272
0.0972498865705372 -0.0234491837531607 0.199404761904761
0.107708935373899 -0.0183820860128766 0.199404761904761
0.117125610089128 -0.0168649620583931 0.199404761904761
0.125711243359119 -0.0241342273851547 0.199404761904761
0.140436388569006 -0.024478197122609 0.199404761904761
0.14526785382139 -0.021573852331788 0.199404761904761
0.158050901139382 -0.0220647263961907 0.199404761904761
0.168343749250212 -0.0159161484207612 0.199404761904761
0.183189048583322 -0.0233897750547047 0.199404761904761
0.198724149355243 -0.0218794672885394 0.199404761904761
0.208215053775851 -0.019819131687946 0.199404761904761
0.229031661663799 -0.0240024801964836 0.199404761904761
0.234819228291298 -0.0233693008587663 0.199404761904761
0.244064843075101 -0.0241246905291469 0.199404761904761
0.263122160510703 -0.018374804263785 0.199404761904761
0.26933839380426 -0.0226775194316702 0.199404761904761
0.283792723152799 -0.0171456085417432 0.199404761904761
0.297878359955457 -0.0272459347962057 0.199404761904761
0.304308195200756 -0.0274833216098735 0.199404761904761
0.32080248531237 -0.0269586988724485 0.199404761904761
0.339137615307843 -0.0269466860485752 0.198916692706088
0.349743139476953 -0.0198184638482912 0.197862124855773
0.360284570642618 -0.0193076397117727 0.196282766930504
0.382236082315671 -0.0174339043208887 0.191132680820631
0.393562631362874 -0.0207405021984395 0.187342824398848
0.401785714285714 -0.0223936444601097 0.197561404455118
0.401785714285714 -0.0181100616673016 0.210054256816087
0.401785714285714 -0.0209393337351617 0.221618728913102
0.401785714285714 -0.0233050810868771 0.238470330079361
0.401785714285714 -0.0243304876852988 0.241376738476695
0.401785714285714 -0.0281847789997923 0.255697861035405
0.402763536330279 -0.0213101606921203 0.266649178735734
0.407212336028866 -0.0261189200631409 0.271954884938109
0.420495091820258 -0.0206350340524136 0.273809523809524
0.434993446549509 -0.0184759651777183 0.273809523809524
0.453108051669249 -0.0272784277101079 0.273809523809524
0.464818469970773 -0.0173731668863521 0.273809523809524
0.487651229305931 -0.0197678899367865 0.273809523809524
-0.202734392218147 -0.00463023769040377 0.199404761904761
-0.193726760160471 -0.0111438447159826 0.199404761904761
-0.189849417325415 -0.0070128970036518 0.199404761904761
-0.178440575050118 -0.00481623637996823 0.199404761904761
-0.171046282954141 -0.00686882597624478 0.199404761904761
-0.160600179946907 -0.00508418077523347 0.199404761904761
-0.154825036754689 -0.00523059149306044 0.199404761904761
-0.137374230248411 -0.00530016919938322 0.199404761904761
-0.133125033501132 -0.00569937603441904 0.199404761904761
-0.129921105216077 -0.0117186332159147 0.199404761904761
-0.111452789620812 -0.00578545348012223 0.199404761904761
-0.103921102130009 -0.00594381850417627 0.199404761904761
-0.0928364709105651 -0.0136680191483281 0.199404761904761
-0.0781364643634155 -0.014665144033309 0.199404761904761
-0.0719280329771792 -0.0139922399453759 0.199176820865351
-0.0551033468956756 -0.00611719407318538 0.197919048685619
-0.0432879111988788 -0.00652751397745945 0.196164094461482
-0.0402853658992093 -0.0138527425606272 0.195664510536281
-0.0137849662453774 -0.00871726292661897 0.188520957206122
-0.00781084419766672 -0.00762704769422463 0.18622227092789
0.00496017512353456 -0.0136352272973393 0.185125407852084
0.0135327488073962 -0.00544891660122007 0.188423910517221
0.0204091140320881 -0.0133441499607242 0.190630004128237
