ply
format ascii 1.0
element vertex 842
property float x
property float y
property float z
end_header
-0.401785714285714 -0.137465952871851 0.218727810913485
-0.401785714285714 -0.132187012140537 0.220728188611629
-0.401785714285714 -0.133356652345106 0.238510508195394
-0.401785714285714 -0.14119881750576 0.254400571755525
-0.401785714285714 -0.138645053376431 0.260974259135326
-0.405730088678189 -0.135404716295751 0.270926273642448
-0.405853284144918 -0.138117656300843 0.271090534264752
-0.416593675871304 -0.123825716422423 0.273809523809524
-0.426494295786326 -0.114977389439302 0.273809523809524
-0.437999331369064 -0.108222473092124 0.273809523809524
-0.44091072003632 -0.108513253845503 0.273809523809524
-0.459309723419414 -0.101795879479457 0.273809523809524
-0.470361103574218 -0.0827912158867819 0.273809523809524
-0.485068410910959 -0.0745481661233338 0.273809523809524
-0.491059013386337 -0.067677083664729 0.273809523809524
-0.296927102816452 -0.232142857142857 0.0115934649482652
-0.296044785532248 -0.232142857142857 0.0242761434673502
-0.290759590122144 -0.232142857142857 0.0354210770432016
-0.30333167101838 -0.232142857142857 0.0393573641159919
-0.302311569425606 -0.232130285891635 0.052942139876124
-0.300246216794269 -0.232008558433601 0.0717375432375828
-0.295646558571937 -0.231250635395053 0.0802600448192269
-0.301964893465803 -0.230505420448083 0.0829893023471465
-0.31270311048414 -0.22373703168984 0.0833333333333333
-0.300122406573455 -0.230914473727436 0.0976854202389371
-0.309468187783194 -0.231677522670666 0.109307106875935
-0.292608937144687 -0.232134348801072 0.135738147340448
-0.302340760875291 -0.232120950510152 0.133901051262427
-0.29372197864017 -0.231917092499684 0.152578671164382
-0.293805747210242 -0.231833597782624 0.154614134033278
-0.299407199738757 -0.229858718990283 0.171354441117011
-0.305161959445168 -0.230138898708478 0.169940270039107
-0.305102319220115 -0.227616798617819 0.179636770109341
-0.309552927462286 -0.224237282937418 0.185184429009516
-0.308468491246445 -0.219528627154631 0.18782961011421
-0.327152222004721 -0.214330048130483 0.190375379396015
-0.332199001206403 -0.210396675802018 0.192135026905845
-0.335197544567361 -0.207304022521826 0.19329544088128
-0.342059020007629 -0.198864189551851 0.195976139274717
-0.349986962671475 -0.186775267389306 0.197837374426212
-0.352424258829086 -0.18518168903681 0.197590619114962
-0.371250613351647 -0.173272908701216 0.194044676426836
-0.389997464879303 -0.156157477365653 0.188714607434071
-0.392224897516562 -0.152452899757122 0.187857549476757
-0.401785714285714 -0.15078817460576 0.194134959494344
-0.401785714285714 -0.156270847652414 0.213258160382746
-0.401785714285714 -0.158674642514183 0.214740915140177
-0.401785714285714 -0.148437365787083 0.216757753841006
-0.401785714285714 -0.14695249518927 0.229821509527855
-0.401785714285714 -0.151455382749135 0.237313330314939
-0.401785714285713 -0.148051435004046 0.25478833222771
-0.402779613007888 -0.155626030857072 0.266727183174533
-0.4053864940444 -0.145727545186807 0.270468147464062
-0.416879397059075 -0.138957559232851 0.273809523809524
-0.428977675973093 -0.126168671220239 0.273809523809524
-0.439534875305765 -0.123364063400392 0.273809523809524
-0.450244016066779 -0.116317132619264 0.273809523809524
-0.458750119026759 -0.107398692878549 0.273809523809524
-0.467671473128698 -0.0993610323636885 0.273809523809524
-0.474843564490426 -0.098228859935193 0.273809523809524
-0.489197349422339 -0.0823652477796613 0.273809523809524
-0.309565226660699 -0.232142857142857 0.0196998659778422
-0.316278000050368 -0.232142857142857 0.0124253643416144
-0.318977237099883 -0.232142857142857 0.02987777712215
-0.31650830891647 -0.232142857142857 0.0423616563418216
-0.314296543424778 -0.232115841898615 0.0565426400208573
-0.314913667611105 -0.232044285474121 0.0683702681246861
-0.308603233859933 -0.23185353709237 0.0749414035046179
-0.318068046015222 -0.228650064889372 0.083333333333333
-0.325600003701517 -0.227897898465543 0.0833333333333333
-0.316006569094113 -0.23133880637182 0.100026121999849
-0.314359733405669 -0.231918119746425 0.118388628205793
-0.316676291260044 -0.232055083397815 0.124869734173527
-0.325256849233469 -0.232114759495444 0.133052175170011
-0.31745186878367 -0.232078152270104 0.145776719430842
-0.3222531301685 -0.23199085394902 0.15078048923663
-0.317362757474583 -0.230662015896813 0.166966850504512
-0.320077506248943 -0.22932984844307 0.174023847156253
-0.323325382405708 -0.227709107857591 0.179335993134796
-0.32678606234158 -0.224084796097533 0.185270091526841
-0.33467911390427 -0.225623498251792 0.184074146721105
-0.342174162343528 -0.213842112699756 0.190593663935066
-0.339458920861345 -0.210535698104927 0.192072833391299
-0.348421416839051 -0.202910859998377 0.194797675665205
-0.364349867310282 -0.188440743190191 0.195606355198578
-0.370845429208748 -0.18699261087528 0.194139575097417
-0.394986801703742 -0.176854796372016 0.186794840813265
-0.394291754728431 -0.166124820004606 0.18706227675316
-0.401785714285714 -0.161131852439934 0.186382739302333
-0.401785714285714 -0.157324770774498 0.194615904281862
-0.401785714285714 -0.158645116908289 0.206036069676321
-0.401785714285714 -0.165319930671119 0.227355561067377
-0.401785714285713 -0.159850978127112 0.231836162617137
-0.401785714285714 -0.160556862240289 0.246329433627812
-0.401785714285714 -0.15990619804967 0.256259060353448
-0.402441902511183 -0.169190717010006 0.265088603462133
-0.404236145591234 -0.158845768662171 0.268934349526506
-0.413313420097708 -0.159055502811367 0.273809523809524
-0.423405232970482 -0.146413259250994 0.273809523809524
-0.433952729269553 -0.139792341124027 0.273809523809524
-0.449471691139158 -0.132680489598784 0.273809523809524
-0.447571210209836 -0.130258304169903 0.273809523809524
-0.464199731987955 -0.122598070635491 0.273809523809524
-0.478347843276654 -0.106133333090211 0.273809523809524
-0.476927678740262 -0.099547409116693 0.273809523809524
-0.333550480703227 -0.232142857142857 0.0217805579484337
-0.33073590358373 -0.232142857142857 0.0387629125713465
-0.331513256914702 -0.232142857142857 0.0318850837172041
-0.339423635325408 -0.232142857142857 0.0440947621663772
-0.330918792951086 -0.232104188569077 0.0591063725191359
-0.342627665907748 -0.232081831562131 0.0634168812187422
-0.339073973204129 -0.226212102747829 0.0833333333333333
-0.324273479474485 -0.231451432555929 0.103112132076498
-0.340012013672989 -0.23142481733528 0.102382862592971
-0.337088354084314 -0.231367313223668 0.100807223062189
-0.3350897422604 -0.231946473099763 0.119684158350589
-0.330906291961899 -0.232114427085642 0.133006597062742
-0.339065185652824 -0.232101268271741 0.142607187122607
-0.32892633419976 -0.23157702440209 0.158114905093201
-0.330239154143737 -0.231594932193127 0.157918899477344
-0.338201407870333 -0.229861261560832 0.171341607819307
-0.344477393092254 -0.230034241959984 0.170468511511335
-0.340960201135201 -0.223450133242878 0.185626626017455
-0.34386686963386 -0.225009902898617 0.184750394368474
-0.354115820656839 -0.214960156317134 0.19009349194449
-0.360850660125307 -0.208493721583991 0.192888625220798
-0.362931157499935 -0.21045840744094 0.192107410419117
-0.379372571762808 -0.190188289750149 0.192010098848221
-0.396048943373814 -0.185212108691358 0.186386156413611
-0.398778149405555 -0.178505305808163 0.185336029147122
-0.401785714285714 -0.180677059821708 0.197071666656962
-0.401785714285714 -0.176676368388892 0.208908517772465
-0.401785714285714 -0.181580655873586 0.222279654046129
-0.401785714285714 -0.182271766547301 0.229588934208081
-0.401785714285714 -0.176416256101667 0.241185470059063
-0.401785714285714 -0.175808325260215 0.251555113131729
-0.403053245923218 -0.176155854667953 0.267357149969153
-0.407475025966405 -0.177707723405596 0.272094006002961
-0.418061750468464 -0.171517243978796 0.273809523809524
-0.426936629835062 -0.161781957595766 0.273809523809524
-0.431517602351992 -0.15620953743177 0.273809523809524
-0.436939651874906 -0.153136666617735 0.273809523809524
-0.453661882401166 -0.138125016448677 0.273809523809524
-0.457350599121516 -0.137745904737226 0.273809523809524
-0.465930058793884 -0.125546973802572 0.273809523809524
-0.478441975267298 -0.119718994167612 0.273809523809524
-0.487766550211925 -0.116170085660441 0.273809523809524
-0.343586078462243 -0.232142857142857 0.0185852516567995
-0.341392571797806 -0.232142857142857 0.0275498133628944
-0.350898054062042 -0.232142857142857 0.0246196741107434
-0.353807173334849 -0.232142857142857 0.0404501189671341
-0.350121450786852 -0.232124485944508 0.0546409499244692
-0.357563155916354 -0.232130656392597 0.0526975427245917
-0.351086858550626 -0.232044285593664 0.0683702523536586
-0.343854102902247 -0.230268208725973 0.0833333333333333
-0.358421548881368 -0.226301033297567 0.0833333333333333
-0.351084967178182 -0.231272251664811 0.0995154836863203
-0.343837160593756 -0.231679256005844 0.109354601069801
-0.343204392611739 -0.232072213339823 0.127218492643387
-0.338817560211012 -0.232137624205474 0.137622271981253
-0.347286861734829 -0.231802754282244 0.155366047471399
-0.347940114706093 -0.232055282261794 0.148912522558548
-0.351832547972879 -0.231175949828552 0.162234985041977
-0.345969480915665 -0.22989815820541 0.171155376753152
-0.358611597345801 -0.229384954826863 0.173745704774391
-0.359849572355222 -0.222325448348084 0.186258440142267
-0.366026501822536 -0.222665035673399 0.186067670203296
-0.367789369272612 -0.219851170133492 0.187648415176102
-0.376773081265379 -0.211859519188531 0.191480604057614
-0.385389656320311 -0.20251075119748 0.190166383462221
-0.401785714285714 -0.193785286870626 0.184208758665214
-0.401785714285714 -0.192070721849318 0.202646222400845
-0.401785714285714 -0.196059003887119 0.211413253909119
-0.401785714285714 -0.184691236237228 0.21465223081594
-0.401785714285714 -0.185577280346517 0.225960382469027
-0.401785714285714 -0.190922821565432 0.242600228380258
-0.401785714285714 -0.196003321706845 0.254069222649621
-0.401785714285714 -0.189622233080863 0.258859803687278
-0.402793235390248 -0.187094549044184 0.266793279311869
-0.40854194573348 -0.188313877062126 0.272659048636478
-0.420267977906672 -0.18203220301035 0.273809523809524
-0.425421901160832 -0.174823162898386 0.273809523809524
-0.438822913973829 -0.159644823842647 0.273809523809524
-0.457261802729539 -0.155681662933626 0.273809523809524
-0.460792446611883 -0.148529077266326 0.273809523809524
-0.476062716666365 -0.135092233072035 0.273809523809524
-0.473379905113408 -0.13435903325909 0.273809523809524
-0.364009268709519 -0.232142857142857 0.0104858593066742
-0.3717521640593 -0.232142857142857 0.0208037237665198
-0.360785986515997 -0.232142857142857 0.031067628814978
-0.36475888653608 -0.232142857142857 0.0431313423492101
-0.368410603206648 -0.2321256188878 0.0543917024001496
-0.359493338270529 -0.23209604848031 0.0608971920478897
-0.369332216973725 -0.232031943498755 0.0699985224225904
-0.363176493704506 -0.230777839412119 0.0823343687471302
-0.375067776589359 -0.224618729620493 0.0833333333333333
-0.377851663636754 -0.22430407987405 0.0833333333333333
-0.358536064322831 -0.23188138348265 0.116710063537936
-0.358042668470264 -0.232085243279673 0.129005082555412
-0.3598167846764 -0.232111882002482 0.141151893814334
-0.366360053580438 -0.232122468448467 0.139700341633887
-0.376990164634322 -0.23211373370084 0.140897999656448
-0.36498394874521 -0.229750125680512 0.171902551875781
-0.366327967947106 -0.229511327387747 0.173107855533219
-0.370568016299054 -0.227038020669851 0.180960052251202
-0.375942637456104 -0.223805716076465 0.185426870283345
-0.38459320037829 -0.220599472828148 0.187130992632047
-0.397045550152692 -0.214835649157191 0.185864784140028
-0.401785714285714 -0.200821041492863 0.187541969012574
-0.401785714285714 -0.201032029163628 0.186048362064274
-0.401785714285713 -0.203436855538941 0.20310991968054
-0.401785714285714 -0.21009027099768 0.217213194897537
-0.401785714285714 -0.203331245845481 0.222783386794676
-0.401785714285714 -0.205192515010872 0.230664914160831
-0.401785714285714 -0.207322719554922 0.251065715306307
-0.401873123521723 -0.208707666004087 0.262328873687478
-0.404896501411731 -0.199509872943295 0.269814823953836
-0.404626066273264 -0.199533693130075 0.269454243769214
-0.416996511650214 -0.195096594267378 0.273809523809524
-0.432911834343661 -0.181597422223872 0.273809523809524
-0.433730606727851 -0.183635515957878 0.273809523809524
-0.449034598002357 -0.172265737241646 0.273809523809524
-0.456881055689175 -0.157652260517684 0.273809523809524
-0.471301103773102 -0.158333678605013 0.273809523809524
-0.469967563901495 -0.152008884200938 0.273809523809524
-0.489809472996983 -0.143683982170473 0.273809523809524
-0.377428012395579 -0.232142857142857 0.0141313781148462
-0.38101961268555 -0.232142857142857 0.0213395915156834
-0.389796955952669 -0.232142857142857 0.0229645844825641
-0.385103887358762 -0.232142857142857 0.0377128097725649
-0.382057896003646 -0.232133605983336 0.0507502832949706
-0.386929445535441 -0.232116299997804 0.0564418581992921
-0.382359254046824 -0.232095731994982 0.0609668188201506
-0.393723451352292 -0.231797129109612 0.0757029789073229
-0.380020253466133 -0.23035847097338 0.0953578795514585
-0.381490262558834 -0.231614869535772 0.10784861557141
-0.38975996457158 -0.230697199558572 0.103644579247267
-0.389056214946074 -0.231274516121459 0.11601295890571
-0.383033588060214 -0.232110788031812 0.1356281611912
-0.387862038857954 -0.231832204452505 0.13777027610413
-0.374513408976311 -0.231568758192063 0.158205380997449
-0.394961336951745 -0.229729882026341 0.156990277051033
-0.392216979533524 -0.229831762283064 0.162179148576844
-0.396886032232482 -0.226672855428389 0.170698342067242
-0.382239704840527 -0.224881599037271 0.184813226158209
-0.401785714285714 -0.22192268693196 0.186509252591122
-0.401785714285714 -0.217331710691912 0.198620597842598
-0.401785714285714 -0.222631600894546 0.20870461758487
-0.401785714285714 -0.216847736695728 0.217732704142051
-0.401785714285714 -0.222813117051098 0.22995933991482
-0.401785714285714 -0.213859727720241 0.232136097365966
-0.401785714285714 -0.21186457097564 0.242367368017646
-0.401785714285714 -0.217931805790728 0.253884558096456
-0.403905712306051 -0.217976423830413 0.26849377181293
-0.409871021567677 -0.21019052614303 0.273362929596111
-0.421220296446896 -0.207906623903672 0.273809523809524
-0.42947417712653 -0.203772472347616 0.273809523809524
-0.433054270666702 -0.192931249395389 0.273809523809524
-0.435134136829771 -0.19091270691062 0.273809523809524
-0.45379965145284 -0.174462283170381 0.273809523809524
-0.463965903964338 -0.169368715850818 0.273809523809524
-0.473846572279456 -0.160322593865035 0.273809523809524
-0.483031615832016 -0.153975072022042 0.273809523809524
-0.405173237487835 -0.232138514957311 0.00613556670557595
-0.406808605119137 -0.231998789648283 0.0129724808135065
-0.402678196986792 -0.232142857142857 0.0220720985089192
-0.409855785340509 -0.232142857142857 0.0264863100490727
-0.405660717712406 -0.232129791353303 0.0483657098633675
-0.402055153930719 -0.232098255603745 0.060411624892181
-0.390375288224108 -0.231611181449808 0.0777009313054537
-0.403906543009665 -0.231708921142606 0.0768490531830875
-0.4057717585621 -0.23172096745065 0.0815583309718859
-0.402870184898467 -0.229597086583461 0.0934998268041284
-0.402422736880011 -0.228959699787446 0.106831111996056
-0.402845489008191 -0.229572390693184 0.114595362090128
-0.406588416179815 -0.231939790199809 0.125413145594598
-0.402072274708611 -0.227651757157651 0.138961090177451
-0.405815573071785 -0.231732707513137 0.150759917874688
-0.40424143720622 -0.230968338891214 0.167272011873501
-0.405191946418013 -0.23156560725488 0.161124520159043
-0.403729497817605 -0.230456399502599 0.183219490658719
-0.401785714285714 -0.223334396843655 0.186502456690414
-0.404615490409318 -0.231342392094312 0.198015475246067
-0.407993351280986 -0.232142857142857 0.209617242585007
-0.401916062096713 -0.22706876375327 0.225273197993249
-0.402000547843949 -0.227384068854466 0.230762040454647
-0.408546302166707 -0.232142857142857 0.237835787637103
-0.403384322422053 -0.230111224107047 0.251764364651694
-0.40415514050067 -0.229822598850039 0.26553960567794
-0.410325946990449 -0.227871245546328 0.271343189480655
-0.412658361031201 -0.220135265722933 0.273809523809524
-0.414056633313227 -0.22323053108727 0.273800920230682
-0.432335675859336 -0.205088106555536 0.273809523809524
-0.443448567148927 -0.196389574296989 0.273809523809524
-0.448360620921443 -0.189500713632233 0.273809523809524
-0.456138606895798 -0.185901047852758 0.273809523809524
-0.47179857529338 -0.179186358023396 0.273809523809524
-0.482461051675687 -0.178438455562719 0.273809523809524
-0.487755927996783 -0.165664739094493 0.273809523809524
-0.416149066296665 -0.232142857142857 0.0220630837397655
-0.421387377745569 -0.232142857142857 0.0273583598087463
-0.423635312603191 -0.232142857142857 0.0344720752460532
-0.424306121055515 -0.232142857142857 0.0433037497219994
-0.41514134454981 -0.232142857142857 0.0665159329298886
-0.420191131003019 -0.232142857142857 0.064912237205514
-0.411361252874623 -0.232142857142857 0.0794426145376306
-0.416765222656319 -0.232142857142857 0.0952652266699555
-0.413536568289776 -0.232142857142857 0.100404199067855
-0.424669010405233 -0.232142857142857 0.100621170050052
-0.412770376918644 -0.232142857142857 0.124037962345751
-0.407909374470874 -0.232142857142857 0.138237097075568
-0.423328736035701 -0.232142857142857 0.137230710652672
-0.418281181609908 -0.232142857142857 0.143206484411465
-0.421578187338158 -0.232142857142857 0.156406313681006
-0.418614965937173 -0.232142857142857 0.16759171601443
-0.415764039060988 -0.232142857142857 0.186232944739176
-0.415387092158395 -0.232142857142857 0.201004626662614
-0.41535816979042 -0.232142857142857 0.204040064619574
-0.426489206294915 -0.232142857142857 0.211558162836571
-0.414589461686834 -0.232142857142857 0.218214552082265
-0.423925716582536 -0.232142857142857 0.229704316253096
-0.425504216092659 -0.232142857142857 0.245127340871703
-0.423919075524196 -0.232142857142857 0.249101832322898
-0.41920577162356 -0.231993756398723 0.262628202416167
-0.41767538420996 -0.227041917269591 0.271782403232241
-0.436841356378925 -0.216350762581042 0.273809523809524
-0.437831767182081 -0.221119779493318 0.273809523809524
-0.446617677437041 -0.213652403077671 0.273809523809524
-0.459148426807509 -0.203126598740456 0.273809523809524
-0.467905322993297 -0.194203297600111 0.273809523809524
-0.486517447500994 -0.185777063741552 0.273809523809524
-0.482032060369126 -0.181666198626726 0.273809523809524
-0.429112067578276 -0.232142857142857 0.0120377537395533
-0.431182076605617 -0.232142857142857 0.0140781577560069
-0.428036191420729 -0.232142857142857 0.0279398323983493
-0.438522667108418 -0.232142857142857 0.0256199487346258
-0.438577700852913 -0.232142857142857 0.0419093076974013
-0.441112651147647 -0.232142857142857 0.0489994882457157
-0.43456496819172 -0.232142857142857 0.0607047899530538
-0.431924556026629 -0.232142857142857 0.082595343809271
-0.436842085467998 -0.232142857142857 0.0847657110107755
-0.43453782654747 -0.232142857142857 0.102525771682511
-0.428131018318882 -0.232142857142857 0.106818731639895
-0.433094775966516 -0.232142857142857 0.119900776190675
-0.424463939390742 -0.232142857142857 0.138759644263762
-0.432910154513303 -0.232142857142857 0.149172538095135
-0.433960618449757 -0.232142857142857 0.145254232594913
-0.433378011373058 -0.232142857142857 0.163647284054161
-0.430910631151662 -0.232142857142857 0.175976195281419
-0.437628315482402 -0.232142857142857 0.170358031007363
-0.433477041230773 -0.232142857142857 0.190092412937802
-0.42873187035875 -0.232142857142857 0.206353307155722
-0.441383186159298 -0.232142857142857 0.207059986898215
-0.436974588517649 -0.232142857142857 0.218857180247518
-0.42772277403881 -0.232142857142857 0.231045954874526
-0.423738664983453 -0.232142857142857 0.249125215003712
-0.434397910145582 -0.232142857142857 0.257545143883001
-0.440082627307027 -0.232101768184873 0.262104126548779
-0.440644431527496 -0.228597373867185 0.270394418820042
-0.446966748256435 -0.220145223879181 0.273809523809524
-0.450150016746156 -0.214906489332813 0.273809523809524
-0.460043167559114 -0.205309668419603 0.273809523809524
-0.477996718309214 -0.20498220683928 0.273809523809524
-0.486632962693548 -0.193166281958204 0.273809523809524
-0.454208493799433 -0.232142857142857 0.0104362248145895
-0.447119986056005 -0.232142857142857 0.0336717464961485
-0.453086810107925 -0.232142857142857 0.0313680497462774
-0.451964292207811 -0.232142857142857 0.053565901687818
-0.453172666415693 -0.232142857142857 0.0543532479352936
-0.442491311766502 -0.232142857142857 0.0727637846403986
-0.454645946618323 -0.232142857142857 0.0809433419455354
-0.454757914149018 -0.232142857142857 0.085990143488418
-0.448225995340422 -0.232142857142857 0.0997875448126714
-0.44886058202529 -0.232142857142857 0.112556976741606
-0.452165561902336 -0.232142857142857 0.113214363072672
-0.457687416218424 -0.232142857142857 0.117565911482299
-0.449364896172236 -0.232142857142857 0.151890193110128
-0.458535702346934 -0.232142857142857 0.144440461246685
-0.453482096138713 -0.232142857142857 0.154907393545248
-0.4502393900642 -0.232142857142857 0.174111034594277
-0.45728757267662 -0.232142857142857 0.177598166121162
-0.462098038746258 -0.232142857142857 0.188878879747005
-0.445998253383787 -0.232142857142857 0.210406870761166
-0.448524398126945 -0.232142857142857 0.219992140832001
-0.443342988970106 -0.232142857142857 0.227487953995718
-0.447591043704116 -0.232142857142857 0.231889170846005
-0.444783219648128 -0.232142857142857 0.245725245678971
-0.45738206497336 -0.232142857142857 0.24698681716987
-0.451694650500801 -0.231613779305813 0.264471860702463
-0.449877106538933 -0.227306711426259 0.271642167769143
-0.457677345261727 -0.221159625547485 0.273809523809524
-0.482744125273081 -0.213457185798074 0.273809523809524
-0.489870166570037 -0.204107316485419 0.273809523809524
-0.468144315952136 -0.232142857142857 0.0132240876070655
-0.463198966964704 -0.232142857142857 0.0277337828344611
-0.467165081919857 -0.232142857142857 0.0264406376250375
-0.473356909841705 -0.232142857142857 0.0354244426945574
-0.478132178685821 -0.232142857142857 0.0483594843875017
-0.461104040637563 -0.232142857142857 0.0673650059429539
-0.468492515880298 -0.232142857142857 0.08233877103589
-0.471371703200221 -0.232142857142857 0.0816335385726567
-0.463800826100576 -0.232142857142857 0.0966018064849497
-0.464181963506526 -0.232142857142857 0.116092854208995
-0.469717701191409 -0.232142857142857 0.120756935700792
-0.46678666919506 -0.232142857142857 0.132071619659315
-0.463374196377464 -0.232142857142857 0.14948121992403
-0.476709900154736 -0.232142857142857 0.138555683799061
-0.473228433910718 -0.232142857142857 0.155106691775627
-0.467992289886665 -0.232142857142857 0.166696271326908
-0.472590436679601 -0.232142857142857 0.180419954066477
-0.474540315788019 -0.232142857142857 0.183045844617056
-0.476592521667001 -0.232142857142857 0.203471716153414
-0.471189403722556 -0.232142857142857 0.199920423180233
-0.468981203286867 -0.232142857142857 0.230114041410148
-0.472988002490583 -0.232142857142857 0.227740837495792
-0.472747741668573 -0.232142857142857 0.233304380381215
-0.465114362847039 -0.232142857142857 0.256888090566788
-0.467498516793091 -0.232142857142857 0.257706369972383
-0.471669060326101 -0.231364052822006 0.265683539800409
-0.482336788750336 -0.22083597782045 0.273809523809524
-0.481848807354337 -0.232142857142857 0.0218822298168304
-0.48174572305135 -0.232142857142857 0.0453524729869179
-0.481702257332802 -0.232142857142857 0.0494531252981897
-0.491923063105472 -0.232142857142857 0.0520054440344287
-0.478259423643379 -0.232142857142857 0.0831641003202986
-0.479996168515202 -0.232142857142857 0.0950174503721421
-0.479869179984091 -0.232142857142857 0.0999454829263413
-0.486419958889645 -0.232142857142857 0.104145873608925
-0.482711586862037 -0.232142857142857 0.113771228884378
-0.487304758014196 -0.232142857142857 0.131445403671985
-0.488940052593066 -0.232142857142857 0.127246048764042
-0.488837764950239 -0.232142857142857 0.145112865294534
-0.484209275291312 -0.232142857142857 0.161523983598135
-0.482611820987355 -0.232142857142857 0.170471378026324
-0.491318827708444 -0.232142857142857 0.173296506565877
-0.483909532982183 -0.232142857142857 0.193719430188175
-0.483093550473426 -0.232142857142857 0.200373186107831
-0.486743226232181 -0.232142857142857 0.211003343981346
-0.484432502063167 -0.232142857142857 0.226997190136525
-0.487266974766045 -0.232142857142857 0.230081103603072
-0.496053020124099 -0.231710500176087 0.236107613740723
-0.483125999139529 -0.232142857142857 0.258834380870715
-0.491157024871137 -0.232142857142857 0.253714352933111
-0.489004272441775 -0.226902180885712 0.271856407873247
-0.496001240553985 -0.231724374470083 0.0560043736718343
-0.494825197342339 -0.232039494298909 0.261335224587141
0.201830888279089 -0.219430708865374 0.187884617662117
0.174333926380898 -0.228965993196548 0.175240604953323
0.179942643328981 -0.224538930368789 0.185014972561104
0.162630999626881 -0.225018143438813 0.184745765081003
0.148603212197717 -0.227770622827008 0.179135555059079
0.148643230910995 -0.22607728963432 0.183075117496274
0.101896750869619 -0.22998642946123 0.170709838946937
0.201731228190297 -0.21848812258553 0.188414134265582
0.185420405970903 -0.215919459821264 0.189664334498601
0.180160081229393 -0.2207954599385 0.18711794158347
0.172047313297044 -0.216063839484346 0.189599744296251
0.153284311765479 -0.219281726499955 0.187968311471161
0.15085343107717 -0.215473241239457 0.189863956438949
0.139639416274992 -0.222194721491852 0.186331878555677
0.128423877406823 -0.224240073563093 0.18518286132
0.116468680450833 -0.21908911114163 0.188076516982419
0.107623147392386 -0.225562757958742 0.184207867479626
0.108030891423441 -0.220841666117732 0.187091984342622
0.0941318816045964 -0.222789225359899 0.185997904175095
0.0845184341236731 -0.22030211903563 0.187395085654866
0.060286683051294 -0.221250586462913 0.186862265199772
0.0428494018241902 -0.226466041599768 0.182219273622532
0.0376555119120787 -0.225753756380605 0.183787381298784
0.0219772805353164 -0.224135129513369 0.185232202129127
-0.0151719350389525 -0.229202876712163 0.171079125234886
0.197612151645023 -0.208462451063386 0.192899318124489
0.19533155910187 -0.209727442442048 0.192434417534809
0.185690910394442 -0.202229104531332 0.195030800838986
0.180630652013418 -0.209811583205452 0.192396776022022
0.171474482872446 -0.203858729316456 0.194473553292624
0.160875437538628 -0.205253597612796 0.193996580346012
0.146464904477032 -0.205041807659396 0.194069001576318
0.132144264662862 -0.212863524071774 0.191031448842921
0.124337752031265 -0.213355873211847 0.190811189771073
0.12213931143218 -0.206878788654278 0.193440848911082
0.108791335507318 -0.209764594159498 0.192417797209644
0.0955707943704684 -0.210513624747387 0.192082708207459
0.0820789996144089 -0.213290892154278 0.190840259929347
0.0654621673857507 -0.21759125913869 0.188916432377931
0.0623720826533666 -0.217225082649665 0.189080246401436
0.0544725984640438 -0.217477243242539 0.188967438936932
0.0309130121566117 -0.219360262411839 0.187924192359521
0.0307753220990291 -0.219266496540415 0.187976867204062
0.0188952006130214 -0.219122900214515 0.187820905741348
-0.00340569306902204 -0.224074195285185 0.171681483267056
-0.00911206650484677 -0.2216023632179 0.184642280347446
-0.00883935131908878 -0.21720287090612 0.186028002751567
-0.029671567250487 -0.224265428630377 0.185168617606298
-0.0352989043094664 -0.221738184541385 0.186588347274284
-0.0435009279444208 -0.222126232747108 0.186370353471202
-0.0556051105369204 -0.22027510939087 0.187410258860396
-0.0735907849519936 -0.228216400460009 0.177683049891605
-0.081442972354932 -0.223969746986564 0.185334722654809
-0.0986633588641146 -0.222360956729524 0.186238492602252
-0.10491468777612 -0.224186862215098 0.185212753853828
-0.12340823985255 -0.22427413012745 0.185163729367127
-0.138263369330004 -0.226618913837853 0.181882722865086
-0.172511355851841 -0.230829062039053 0.165428832050583
0.204520484535511 -0.198140885065897 0.196151847827591
0.197956860243158 -0.194159225177042 0.19711909151361
0.195317307475268 -0.198213942293105 0.196134100419799
0.178851785719254 -0.197400365338104 0.196331738388582
0.170778929712814 -0.194724898323757 0.196981675512548
0.158612189192004 -0.199463598636974 0.195830527979651
0.148233635472121 -0.202616537751888 0.194898318678979
0.135566628506487 -0.201931158043892 0.195132683156061
0.135348648253687 -0.203285643795945 0.194669518954827
0.124077160206746 -0.205580104204849 0.193884931947587
0.10670701501524 -0.205490112561003 0.193915704443921
0.0982544401546961 -0.207382817477582 0.193268497074238
0.0852821797230747 -0.203331097868624 0.194653976008559
0.072728796669537 -0.200086488403069 0.195679212646308
0.0574359413711688 -0.208888810413686 0.192753525237689
0.0608490667956389 -0.2026249294067 0.194895449166256
0.046088624218457 -0.205936919743428 0.193762919454165
0.0357521529674399 -0.212761610006653 0.191077041483518
0.0152520419367062 -0.211378577049795 0.189048922081526
0.00456709511606522 -0.208582537988117 0.184974160922041
-0.00249840321148597 -0.205566631691698 0.183182548603629
-0.0133206857460345 -0.20752722122 0.188342314184676
-0.0171942035032979 -0.20637176244161 0.189644912436422
-0.0340874749655443 -0.2136191593078 0.190693405161729
-0.0421025756235584 -0.210838445251512 0.191937395345239
-0.0494120670637174 -0.214459465085217 0.190317482964375
-0.0668432272880095 -0.215278489151547 0.189951081429392
-0.0744822460154237 -0.219970996165537 0.187581100517644
-0.0967218012519606 -0.218311397339058 0.188513413190237
-0.102718009400104 -0.221441866763134 0.186754809683976
-0.103066237120089 -0.216681208628928 0.18932355582814
-0.124234514447715 -0.21708892797032 0.18914115704565
-0.139533936377385 -0.216105478966797 0.189581116308488
-0.152573487797803 -0.221167948670871 0.186908688624232
-0.150523614251376 -0.219668096238382 0.18775126058049
-0.166286310454451 -0.220423793742408 0.187326732466581
-0.183785026934398 -0.220648950939783 0.18720024592954
-0.200553849703126 -0.225052980445084 0.184726194699351
-0.217818143094058 -0.227115421684758 0.180789652638293
-0.251546544191007 -0.231135637669254 0.162606145034584
-0.250963140393455 -0.230497744443084 0.168129042365035
-0.245266723127157 -0.224315140039776 0.185140691232637
-0.257360222146097 -0.227270860985321 0.180447450450396
-0.292670993977079 -0.229045932199647 0.174980134695308
-0.29199096861647 -0.224863841367412 0.184832447340763
-0.340644448001882 -0.231153031079615 0.162446001341625
0.21142132413097 -0.182204214250837 0.198967865102214
0.20020134831509 -0.183136949329371 0.198915616693563
0.190426866464559 -0.186093146502865 0.198497721131085
0.177314971576293 -0.189571527776324 0.197982210336206
0.166292357219259 -0.184690553018024 0.198705591409073
0.15612442073913 -0.19256147881828 0.197507223629488
0.146454626383861 -0.186326385945466 0.198463154060658
0.142914590974187 -0.191978175097387 0.197625535039297
0.138208815686118 -0.188398602546982 0.198156042808778
0.119145190832191 -0.189255404407787 0.198029061154498
0.109246207384808 -0.19454634569629 0.197025050362827
0.101625729768647 -0.190557096615329 0.197836144871939
0.0915128993302047 -0.199058341417077 0.195928974983689
0.087665996670553 -0.19722821813187 0.196373557203585
0.0673073474251773 -0.198014343891826 0.196182587809171
0.0607065679448797 -0.193232844176564 0.197344132375605
0.0428162381587865 -0.193666538410368 0.196085614290407
0.0394697104035984 -0.196297558874312 0.195528796222777
0.0108177428628935 -0.199774470715812 0.187379247073772
0.00708153740565737 -0.196235624911049 0.185941652704488
-0.00442103000725907 -0.204808030781883 0.184917958879523
-0.0104472194720859 -0.19946343314522 0.18723667934124
-0.0261269396934452 -0.199666834121616 0.192382022575969
-0.0303402900589345 -0.198534254456054 0.193413521496419
-0.0452989621933317 -0.198748328736866 0.196004284732862
-0.0501063410896468 -0.202943867854125 0.194786388682585
-0.0597695841999989 -0.198849514595927 0.195979704184542
-0.069239388481123 -0.208228080019837 0.192979460921866
-0.0811596904023803 -0.201074711329587 0.195425543717887
-0.0889691337177161 -0.203701810195831 0.194527211530854
-0.112007600191834 -0.202974846510445 0.194775795581412
-0.112703541819724 -0.209688617480726 0.192451786408336
-0.12579575541797 -0.203479645028795 0.194603180548598
-0.14859380032544 -0.206754272993583 0.193483426838859
-0.159087189534277 -0.213025736894282 0.190958880734602
-0.168699670113889 -0.213107646758478 0.190922237244862
-0.18080337157499 -0.209971833731009 0.192325085773884
-0.189126215267585 -0.216640313485572 0.189341850825705
-0.207128607054094 -0.217376961837755 0.189012301184762
-0.211126472957052 -0.214705615531438 0.190207364220567
-0.227513129617282 -0.214953554925696 0.190096445166569
-0.25298733906177 -0.21829416635282 0.188523093039714
-0.247288229043878 -0.213229152147353 0.190867880159616
-0.265352610504352 -0.213481193902832 0.190755125858632
-0.279759159399551 -0.216773036056772 0.189282475581663
-0.291009017115543 -0.214785621420948 0.190171572499751
-0.31352725020785 -0.224121168002752 0.185249658885157
-0.321405117473424 -0.221030356478017 0.186985983777134
-0.333297356666673 -0.219317784991903 0.187948054895618
-0.349710317240737 -0.226421069852136 0.182318279667832
-0.359552773899488 -0.226858994755002 0.181354180760076
-0.403038333720218 -0.22976523540521 0.16339055037234
-0.402317724909638 -0.228567789778611 0.173283071828077
-0.401785714285714 -0.221173072246765 0.196479226013803
-0.401785714285714 -0.225729170351348 0.198094990338394
-0.401785714285714 -0.223240386367339 0.214650498542125
-0.404506659381125 -0.231233561066117 0.21246022073834
-0.401990495846655 -0.227346554289843 0.24214214176529
-0.401785714285714 -0.225848174099582 0.25079546624884
-0.402889076887002 -0.229413641776899 0.262598959144959
-0.402745253259507 -0.225833090893584 0.266560468822537
-0.427955731334591 -0.231999776457864 0.262598992939789
-0.419984931217364 -0.225572736550314 0.272560483991781
-0.45455850712499 -0.227641409955951 0.271464910823974
-0.474753673371773 -0.229777231085798 0.268821275861892
0.204388548089697 -0.177123207356672 0.199252484530256
0.193650712376767 -0.179726392987886 0.199106663589471
0.197689551853764 -0.178086670785754 0.199198514831762
0.1773880112442 -0.179231673579778 0.199134375961823
0.170981208638341 -0.174167050490586 0.199404761904761
0.163582284182146 -0.179021226244686 0.199146164452057
0.148628408191588 -0.17809786513056 0.199197887765497
0.14390490936589 -0.17857958373091 0.199170903650859
0.129479062122387 -0.184644269386743 0.198712450838697
0.121518775047438 -0.178610366324064 0.199169179322544
0.112930318934978 -0.180143874073225 0.199083277825546
0.102292718847429 -0.184768275804909 0.198694072563813
0.088074120458676 -0.180076100762383 0.199087074238614
0.0784906887034646 -0.184079081941497 0.198796214005023
0.0689581749081786 -0.18374010719832 0.198846451493545
0.0616188417216546 -0.181173673589227 0.198580434884194
0.0546310953353043 -0.190586521873642 0.197831783924387
0.0399154666256682 -0.182743079529651 0.195602964177256
0.0264059901567167 -0.189424458918608 0.192467527379449
-0.0014039499872372 -0.193567222054531 0.18153223569096
-0.00610455548669206 -0.187565168972648 0.185565735554943
-0.0184722329705875 -0.193876324127755 0.190036517801128
-0.0230001966572088 -0.188052026216164 0.191423946586031
-0.028767086902064 -0.196516365050337 0.193045059672931
-0.0402427985927712 -0.19445789958923 0.195657427898082
-0.0441950885225693 -0.190315994568368 0.196315036799729
-0.0592246379545333 -0.193084807376902 0.197380094176404
-0.0720175360146179 -0.190926183328477 0.197781444662297
-0.0775227728238275 -0.195565714178583 0.196777420541158
-0.0876184321014741 -0.192383075084381 0.197550562309836
-0.108526722661863 -0.201894559583105 0.195145197940238
-0.116879894207011 -0.197948217624451 0.19619865151536
-0.131391624157249 -0.200764869086115 0.195514417196493
-0.139000117106609 -0.201787319431251 0.195181868535848
-0.152032606879114 -0.195325382333539 0.196835803091692
-0.165835125723398 -0.204162033877131 0.194369838791115
-0.171249924709053 -0.20080608360818 0.195504405169512
-0.195383425248715 -0.201896845732773 0.195144416195075
-0.192054051078604 -0.198558957493369 0.196050287692607
-0.211606298966135 -0.207332468655128 0.193285713772236
-0.229787228834995 -0.205404433069499 0.193945002406771
-0.232270449195617 -0.207839572031283 0.193112310597043
-0.255698869527193 -0.20972278073525 0.192436503012632
-0.260145547013042 -0.204869519314058 0.194127915295956
-0.270584801481969 -0.203823349554269 0.194485651344795
-0.290730442542959 -0.210014546794853 0.192305977504909
-0.298211004868183 -0.211716692122953 0.191544499684392
-0.309777732694749 -0.205536226986752 0.193899935690994
-0.322295307611338 -0.207122203387772 0.193357613638627
-0.340382463293126 -0.21692753034425 0.189213360464776
-0.349383170800089 -0.214391826074819 0.19034774219393
-0.364228453378854 -0.208395390390877 0.192922249412448
-0.37747759277416 -0.209557664039299 0.192510370208157
-0.401785714285714 -0.21964783121582 0.194004171218424
-0.401785714285714 -0.215362911996453 0.202523516573691
-0.401785714285714 -0.211087186590554 0.216238712094123
-0.401785714285714 -0.22014111175401 0.221143597127506
-0.401785714285714 -0.216145601543321 0.230325116425219
-0.401785714285714 -0.220712508382061 0.246244050455043
-0.401785714285714 -0.210161599663632 0.256980708917122
-0.403426157938284 -0.212097490475208 0.267854365989242
-0.408139588515464 -0.22152305265286 0.272445959527907
-0.415725279192859 -0.217012854390662 0.273809523809524
-0.432269772726268 -0.219799957651649 0.273809523809524
-0.444628427141555 -0.220365727652546 0.273809523809524
-0.465923947127794 -0.223983406697296 0.273402195949318
-0.483955518760482 -0.220484187409058 0.273809523809524
0.209072652395855 -0.170302998927862 0.199404761904761
0.196104670596423 -0.169777282724923 0.199404761904761
0.190250118293735 -0.168403375345656 0.199404761904761
0.17763850091568 -0.164587420704615 0.199404761904761
0.165853619646754 -0.16527727113571 0.199404761904761
0.160575678279075 -0.172512858229766 0.199404761904761
0.151820429574115 -0.167484084532439 0.199404761904761
0.141315572544472 -0.175277999818576 0.199355846309732
0.123438202142544 -0.17698962430675 0.19925996736428
0.123484895226503 -0.171512034880845 0.199404761904761
0.109015325238279 -0.174948339479204 0.199374312676576
0.102255723273703 -0.173028439932476 0.199404761904761
0.0910205062301869 -0.178439705836559 0.199178739099052
0.081755584732445 -0.177493765742383 0.199231727204396
0.0706385397796889 -0.179931080662588 0.199095197734353
0.0671624227623142 -0.173227716805418 0.19899397698913
0.0483427982206965 -0.18128669200597 0.197005160972647
0.0319850120847677 -0.173235683237022 0.193798733841133
0.0325803517326372 -0.182490205292766 0.193938169063653
-0.00264212745454563 -0.175049774798864 0.183399268668892
-0.00890634282085921 -0.185053343835188 0.186643790212706
-0.0085767238461734 -0.179854150507984 0.186516961432158
-0.0255007902458584 -0.182382909774975 0.192190161989764
-0.0307370532465812 -0.177719065817031 0.193506447884836
-0.0429634817474226 -0.177646909844055 0.196110113680967
-0.0448696452283288 -0.180152942400817 0.196427274136121
-0.0524370404473327 -0.181945992570996 0.197648392606041
-0.0599779940063012 -0.185829063819424 0.198413872856001
-0.0755421496091254 -0.186253057335871 0.198474021670287
-0.0936802143170912 -0.184544798999189 0.198727192770224
-0.104269695796904 -0.188767962645389 0.198101302082286
-0.109340885773153 -0.185057580403361 0.198651196400509
-0.11493470360314 -0.188765800466897 0.19810162252627
-0.139794468597098 -0.191124970485811 0.197751983566049
-0.14790322198364 -0.185686442308808 0.198557996410268
-0.157060387561611 -0.190359072172436 0.197865492930689
-0.173399680172764 -0.189446941658978 0.198000674524958
-0.189105523315747 -0.190642503711927 0.197823487179527
-0.198279376087997 -0.190528702085228 0.197840353061219
-0.218535801209345 -0.194176867074997 0.197114805860168
-0.223456422499719 -0.196964884388084 0.196437527484347
-0.236937555263827 -0.194290855940242 0.197087115144923
-0.248792011995685 -0.193537069422625 0.197270228537358
-0.26796572349468 -0.197800366687266 0.196234568165565
-0.271069638567599 -0.199013326915478 0.195939910119705
-0.286948237190063 -0.197509983756932 0.196305109362888
-0.294257205682134 -0.198540561717265 0.196054756481701
-0.316887232574893 -0.193640105912724 0.197245198424978
-0.327218801439156 -0.197853295332571 0.196221710488262
-0.334111179774022 -0.196287281434384 0.196602134004464
-0.350872523733929 -0.202417809145731 0.194966273602826
-0.372843544408888 -0.19848424357494 0.193671594107825
-0.385281274461326 -0.202566552783967 0.190199593117007
-0.401785714285714 -0.205368115310101 0.186174879708547
-0.401785714285714 -0.203612619500702 0.195988751042595
-0.401785714285714 -0.20167171671879 0.208640879629895
-0.401785714285714 -0.207748539667859 0.223376312437015
-0.401785714285714 -0.207997243964657 0.236054073126338
-0.401785714285714 -0.20776091375447 0.243304537389389
-0.401785714285714 -0.206534211841503 0.251821083167885
-0.402704273246853 -0.200252938815751 0.26636163278397
-0.406911220815064 -0.209301120554551 0.271795413777624
-0.424985589479306 -0.203105314945697 0.273809523809524
-0.440594660770989 -0.201541285234307 0.273809523809524
-0.452107258669329 -0.202181209671593 0.273809523809524
-0.466968224840791 -0.208937011270059 0.273809523809524
-0.479319367782722 -0.214186524413459 0.273809523809524
-0.488976160172139 -0.2072380997611 0.273809523809524
0.201878470504488 -0.15684267591317 0.199404761904761
0.20236263852967 -0.159053970526339 0.199404761904761
0.193746308666484 -0.163602675064678 0.199404761904761
0.172999369847816 -0.160237658776953 0.199404761904761
0.172153743627274 -0.164811093417257 0.199404761904761
0.160032726481008 -0.161294857771486 0.199404761904761
0.153496822783202 -0.16277352526257 0.199404761904761
0.145987264193708 -0.164969045391634 0.199404761904761
0.131454533252131 -0.164825830657516 0.199404761904761
0.125082474669229 -0.160191938814301 0.199404761904761
0.118695113796016 -0.15961560150028 0.199404761904761
0.107918683743242 -0.164485742286716 0.199404761904761
0.0988487812782895 -0.162768645955175 0.199404761904761
0.0884018470874246 -0.161943078821707 0.199404761904761
0.0750666012283031 -0.170628089004631 0.199297239439037
0.0702877232963238 -0.165861802014067 0.199113886515555
0.0503734794919885 -0.171114532257388 0.197343039545355
0.0376377577553262 -0.166107591044331 0.195122670275146
0.0305166383857551 -0.165681889489206 0.193454824252383
0.0132045077074228 -0.172436327985218 0.188297611906908
-0.0029511395200809 -0.166358990153933 0.183865224262628
-0.00825621448886934 -0.172512238693438 0.186393637794677
-0.0204312056581293 -0.168335151661109 0.190636773298663
-0.0258135860055486 -0.169635350225229 0.192286006804526
-0.0354309840146823 -0.171414304425665 0.194605819115173
-0.0447145285749004 -0.169029001968588 0.19640146477145
-0.0559804969478073 -0.172867447643215 0.198008087961077
-0.0642480531441334 -0.171351036280862 0.198847325457269
-0.080326277658013 -0.169676867117784 0.199404761904761
-0.0962481489369917 -0.175326474589729 0.199353130930295
-0.0980005641303981 -0.173709801441753 0.199404761904761
-0.115196511517187 -0.173192568212982 0.199404761904761
-0.124810732989696 -0.175543985383383 0.19934094677094
-0.130963923838692 -0.174668419527487 0.199389992768772
-0.148081668570895 -0.183686978374162 0.198854325409663
-0.157654308199266 -0.182339075517154 0.198960310667182
-0.170804745368045 -0.179747882460912 0.199105459827766
-0.181101413483274 -0.179969342709183 0.199093054434404
-0.201153372547774 -0.184755126438607 0.198696021355432
-0.202665540359056 -0.177409080240116 0.199236470976589
-0.220365102715803 -0.18195103871075 0.19898204707026
-0.233493205942555 -0.180450588148927 0.199066096824493
-0.247983301302659 -0.179270854084188 0.199132181213226
-0.25557477133649 -0.188296360421977 0.1981711955235
-0.264316681603956 -0.180630350822863 0.199056027176782
-0.275429905246059 -0.189114723796871 0.198049910615169
-0.308691447397371 -0.191849640491879 0.19764458441067
-0.312974321756062 -0.186223676257865 0.198478376070132
-0.317015358555095 -0.191525693437415 0.197692594732259
-0.337535521939132 -0.194066765530947 0.197141552248929
-0.345545683561128 -0.186512607033024 0.198288207522709
-0.366019763473842 -0.195247521634244 0.195269800134444
-0.38337856654045 -0.194491861927582 0.190782608335633
-0.401785714285714 -0.19363063504878 0.187396724149613
-0.401785714285714 -0.189855105161271 0.196585047355651
-0.401785714285714 -0.191333706496325 0.210029787462556
-0.401785714285714 -0.189057151719821 0.214033419451628
-0.401785714285714 -0.191522184843495 0.233124923988985
-0.401785714285714 -0.193729313475696 0.245853057576826
-0.401785714285714 -0.188425956394274 0.257130622058331
-0.405987189082979 -0.197984882007423 0.271269074182168
-0.408786099893314 -0.190832059187665 0.272788353120015
-0.419636858711753 -0.193619508551548 0.273809523809524
-0.431272155288327 -0.196054463103448 0.273809523809524
-0.450290750886401 -0.189851327357847 0.273809523809524
-0.465166582149618 -0.202218495027655 0.273809523809524
-0.474760395481312 -0.202215875305224 0.273809523809524
-0.489348004207461 -0.196114468299689 0.273809523809524
0.212512915307377 -0.147830273501657 0.199404761904761
0.207841687697595 -0.147289002790816 0.199404761904761
0.191865457753797 -0.151556168031462 0.199404761904761
0.180226425672675 -0.148382430050276 0.199404761904761
0.177195381706955 -0.151613119781476 0.199404761904761
0.16364316272631 -0.150651527448689 0.199404761904761
0.151040515056762 -0.15543300721546 0.199404761904761
0.149701666866753 -0.150784563321703 0.199404761904761
0.131639526074784 -0.14913082645576 0.199404761904761
0.120604129407321 -0.157414238541198 0.199404761904761
0.11824319093023 -0.152036463021888 0.199404761904761
0.102232950165042 -0.153012106968243 0.199404761904761
0.0894334332540844 -0.153867651326143 0.199404761904761
0.076835621914751 -0.16064580103753 0.199365112090144
0.0792740466890674 -0.153755576237408 0.199404761904761
0.0650309914212789 -0.156462423296686 0.198912199598465
0.0528859653582445 -0.161678395815041 0.19769396285791
0.0323446681147356 -0.155680660631819 0.193882969317048
0.0147314626668683 -0.159981072741732 0.188885144331711
-0.0011086829507062 -0.164066826321355 0.181087006061884
-0.0108988717318605 -0.164692900639062 0.187410463345615
-0.0124555544806659 -0.165189962608592 0.18800943424806
-0.0197040644614218 -0.158569002869639 0.19041396748642
-0.0367067469738536 -0.164236488876654 0.19490461710844
