ply
format ascii 1.0
element vertex 852
property float x
property float y
property float z
end_header
0.194314216338137 -0.247886056261781 0.481540314694571
0.19550470259168 -0.253086763368534 0.48720232393269
0.197484804206588 -0.252320586663119 0.496619781381417
0.199300055277043 -0.244559024311493 0.505253201800883
0.202613830578019 -0.248926876267851 0.521013674726422
0.203711952250658 -0.244914296378416 0.524100856617665
0.208550926996291 -0.236895037028799 0.527479461112117
0.21785106015331 -0.237589786472021 0.530990385872362
0.220879150397558 -0.228500261683075 0.531461012465933
0.243199668405301 -0.207243398563522 0.524903649430724
-0.00167736583071827 -0.398214704067001 0.269465008239149
0.00675995859105137 -0.392464088721302 0.269162446951143
0.0133017675190344 -0.386911689449533 0.268927858586846
0.0308279631131901 -0.371964182368247 0.268094458635034
0.0293239847144702 -0.376123417446662 0.268184413200541
0.0388834811995948 -0.361758662196398 0.267612649434838
0.0440303541032735 -0.355768937534119 0.267304809431174
0.0510365294590438 -0.355399343850402 0.26688576254823
0.0615440101022366 -0.343095664800549 0.266100449601242
0.0684841131494562 -0.339827543039078 0.265518664524033
0.0765786519305138 -0.332337724508943 0.264840103724912
0.0861825144234694 -0.331638370460813 0.26403501713701
0.0936022813778494 -0.324096997783651 0.263270694945646
0.0995939796490311 -0.319161322100136 0.262623937254271
0.111328386991545 -0.311784605341082 0.26135729833839
0.112726255326548 -0.299107367932256 0.261206409215429
0.130245158809496 -0.29603234715261 0.259074662090104
0.147599925927874 -0.282559735588509 0.256780755505162
0.146497098231492 -0.275910660009208 0.256926524313095
0.152833899883519 -0.276786412910607 0.264664905943114
0.152833899883519 -0.273788754316407 0.261428620493905
0.153059259928247 -0.275979677086216 0.285329780036128
0.153928360556807 -0.273594515827934 0.289463263957606
0.156376009105257 -0.277036528313086 0.301104396857512
0.15697728168949 -0.271719536425666 0.303964077863005
0.158467673558027 -0.268307942752991 0.311052452468734
0.159156481149893 -0.264027191757613 0.314328454133461
0.162315331116532 -0.272567315883129 0.329352094801066
0.162687679160742 -0.268340695839595 0.331122999807182
0.166305985195949 -0.261933998572518 0.348331835387378
0.166788010886688 -0.256062997598842 0.350624372496356
0.16892065561826 -0.25794717185974 0.360767332262467
0.169695784914174 -0.258589481140774 0.364453884056865
0.17117795184551 -0.260017051071287 0.371503140470111
0.173406764386413 -0.252213340620047 0.382103478910882
0.176129351507701 -0.255955921920326 0.395052232738527
0.177500526387576 -0.254364961875665 0.401573605676544
0.179108771972762 -0.250392160647563 0.409222498163454
0.180466836687864 -0.250118662678368 0.415681518534328
0.181714050982572 -0.24876486106521 0.421613329034062
0.183218091398393 -0.245041668182952 0.428766616779761
0.184974132997895 -0.250758211682147 0.437118434139535
0.187330492112995 -0.247983693059479 0.44832539015295
0.18898415078912 -0.248432328109991 0.456190269460092
0.189441034662268 -0.239060354728089 0.45836323088893
0.190991750414516 -0.241586111515738 0.465738508754423
0.193539618500665 -0.239350725264915 0.477856290541795
0.196668185476943 -0.242198003585831 0.492735903867071
0.197013437275348 -0.232039812689584 0.494377937839513
0.198165905602805 -0.23135034860235 0.499859132013148
0.201524799330575 -0.238796959227522 0.515834190322231
0.201131691211065 -0.229363666182599 0.513964549410693
0.202880439084412 -0.22552747238601 0.522281677462
0.21244581406149 -0.226366638425378 0.529406378000679
0.217273077715448 -0.213605336238924 0.53090055568768
0.222503146804448 -0.217384620610116 0.531590252637016
0.232938334855637 -0.19964264444618 0.53029123832225
-0.00171694125550013 -0.392446959884879 0.269466427408414
0.000243442362963439 -0.387424733814045 0.269396128322715
0.0148995834586504 -0.377719488041856 0.268870561128017
0.0136204427285008 -0.373655850379878 0.268916430937866
0.0252300632906977 -0.358850102167545 0.268429275043777
0.0257500472598994 -0.357637837676978 0.268398174243353
0.0401057786254527 -0.35297501874669 0.267539542511256
0.0522251333690641 -0.348461396926007 0.266814670870067
0.052848875963951 -0.339395374949357 0.266777364154652
0.062614004378942 -0.330228680790257 0.266010752560917
0.0713870090670681 -0.330169137800351 0.265275316332505
0.076005083783493 -0.319238494015213 0.264888185631827
0.0883586583671418 -0.316888153943901 0.263836703672948
0.0900357543340521 -0.311786133621511 0.263655674077217
0.0980172432318507 -0.306548263002501 0.262794133809393
0.108829775027719 -0.298405094038277 0.261627004260189
0.113739062069059 -0.289623700651072 0.261097084526342
0.132513070608532 -0.278192959882129 0.258774895589385
0.14328585951798 -0.272926270322468 0.257350977236058
0.14956836143266 -0.260434299624318 0.256520572978041
0.149999489590647 -0.259668133390441 0.256463587614088
0.152833899883519 -0.262794331438499 0.273227487353555
0.153650120942694 -0.265778276723111 0.288139943120572
0.1529351416338 -0.257556200648634 0.284739467525008
0.156685859100659 -0.255807037177937 0.302578058171264
0.156584805919685 -0.260148612775847 0.30209744443674
0.159420195811769 -0.251863813507961 0.315582693606888
0.160175535875139 -0.256868318688437 0.319175126870185
0.163304632840527 -0.249977330955901 0.334057260848869
0.163013630862997 -0.249552529486173 0.33267324160448
0.165756007440853 -0.252266636752664 0.3457161150287
0.168097557374811 -0.254014299146607 0.356852637872323
0.169355799857998 -0.250792568663522 0.362836898960934
0.171167388285389 -0.251981908626091 0.371452899675803
0.172114393211227 -0.249421501086826 0.375956900140055
0.173346261598002 -0.240033516261167 0.381815724771853
0.174882570096527 -0.242524243969327 0.389122481053471
0.176264125494244 -0.238194382696304 0.395693224228007
0.179256467677891 -0.242514995475066 0.409924945961054
0.180780139264543 -0.237874047214566 0.417171600488828
0.182462806771352 -0.234742318452356 0.425174447174281
0.183125731501999 -0.236848636312868 0.428327348720129
0.185132949122455 -0.234120774692826 0.437873771180803
0.187575884582239 -0.23528267461963 0.449492488406872
0.189131257371306 -0.234165890236193 0.456889915360951
0.190906894329513 -0.230535971334381 0.46533492917863
0.1924573771694 -0.229412777495129 0.472709099301857
0.193836828454767 -0.228460865211266 0.479269835217998
0.1963329608487 -0.228390682455602 0.491141559592779
0.198375073360581 -0.228950869487803 0.500853943816577
0.198978236043503 -0.217837256312229 0.503722614221322
0.201294398762423 -0.225915658148958 0.514738394262875
0.202956066435098 -0.21502467425113 0.522641364738493
0.203839001869312 -0.215616604774664 0.524197439614132
0.211678600154838 -0.212706301137449 0.529126598312777
0.213121221687385 -0.206542621226274 0.529629793722705
0.230101731600502 -0.194172362876913 0.530970889578728
-0.00587789994127189 -0.379622320175488 0.269615638811979
-0.00128682345452712 -0.378061074988471 0.269451003443499
0.00499277027485394 -0.367609754543672 0.269225818079995
0.00866946249168266 -0.364383925448588 0.269093972405096
0.0162914469892088 -0.358209387315686 0.26882064909412
0.0288375204155936 -0.351988437901771 0.268213509153434
0.0300364631778751 -0.353173703403507 0.268141799097398
0.037274154328468 -0.341468745943575 0.267708905005778
0.0406411622592682 -0.333050935002628 0.26750752064033
0.0533866782632999 -0.332678153797085 0.266745197620739
0.0678211283762908 -0.32044838487892 0.265574242178258
0.0699549639872646 -0.320449821160982 0.265395363895438
0.084694418339057 -0.302355529192154 0.264159763425282
0.0948913006258997 -0.300188082116226 0.263131555243466
0.0994652105018935 -0.294295577938181 0.262637836892163
0.1073361421818 -0.284063529369021 0.261788230424703
0.110712927619259 -0.28275138117713 0.261423732438497
0.124869742922406 -0.269514859167205 0.259785170149134
0.132346206291477 -0.265578224186817 0.258796951267405
0.142320293939765 -0.261038840849004 0.257478603105247
0.148884803212356 -0.253711851254085 0.256610923870799
0.152833899883519 -0.250053915413067 0.271380239543867
0.152833899883519 -0.251621143265917 0.271303532759623
0.152833899883519 -0.244922046046568 0.276991619475485
0.15305370720164 -0.243366061009596 0.285303371004313
0.15521552479686 -0.247565697558134 0.295585078297318
0.157037719123123 -0.247489419277829 0.304251521171609
0.159381813729646 -0.236106810313618 0.315400146598963
0.1608407579124 -0.243704300021862 0.322338954515542
0.161652683626982 -0.234558666889066 0.326200511827062
0.16396284879214 -0.234699520339999 0.337187767217694
0.165071688639837 -0.23280217652845 0.342461462266735
0.167114692889976 -0.237757485907396 0.352178087640096
0.169308987247898 -0.233321142209529 0.36261425596102
0.171253912581367 -0.228816704026014 0.371864413342336
0.171684745951544 -0.23158554534364 0.373913477340152
0.173819818940869 -0.233607276065019 0.38406798601562
0.17724624213215 -0.227647550260089 0.400364217664676
0.178387229709245 -0.227276544201017 0.405790808843592
0.178711726162014 -0.22762928481069 0.407334129405124
0.179818919831356 -0.219358236179644 0.412599995151624
0.183253309500718 -0.219535744174377 0.428934115749295
0.184007171404012 -0.216251997243586 0.432519518812975
0.185698858551379 -0.214980999734838 0.440565263337869
0.187528273831648 -0.214916777334839 0.449266049412822
0.188077468516384 -0.220462529266232 0.451878045451625
0.192473104275341 -0.222189736922817 0.472783898165649
0.19342854680217 -0.213493088266863 0.477328028261487
0.19417940980706 -0.214062595441247 0.480899168421734
0.195594098175492 -0.210534772216893 0.487627493580712
0.198334909377967 -0.205436003919594 0.500662922005173
0.199350752433916 -0.20260256635145 0.505494319889991
0.200781415803427 -0.208253067781863 0.512298622913823
0.203040520524439 -0.207438744346179 0.523043032403803
0.20690813596033 -0.200745915054139 0.526530592363489
0.219253148233595 -0.1989326425164 0.531208298775839
0.220241812358759 -0.19022709636268 0.531361957217919
0.230336939746568 -0.184191252448556 0.53092897442419
-0.0217764847140265 -0.379999545723752 0.269916252842782
-0.00886087102129266 -0.368272947006346 0.269722607742761
-0.0024049219696989 -0.363756657020574 0.269491098301769
-0.00216020055352643 -0.363353968283476 0.269482322625597
0.0107173733263065 -0.356881265435557 0.26902053460552
0.0216846259878662 -0.345966683613201 0.268627250440386
0.0313414157652715 -0.342782784434894 0.268063748479711
0.0386671047054568 -0.333378166099372 0.267625591145658
0.0388963057778103 -0.323548027172048 0.267611882383022
0.0555118188019577 -0.315467600179307 0.266606124928753
0.0594338805873825 -0.315556313239499 0.266277340614871
0.063549864516333 -0.304755779156733 0.265932299912795
0.0706593307603238 -0.296636332708281 0.265336317210588
0.0792426302914932 -0.296956119662702 0.264616783862673
0.088601177899668 -0.285122367911125 0.263810525556849
0.0975289519834684 -0.275923166460087 0.262846841089738
0.106003398734033 -0.273515551787671 0.26193208981756
0.117891015979777 -0.270149409585343 0.260648913072365
0.126156729292642 -0.256373021243685 0.259615059741471
0.132230896883142 -0.249207856089145 0.258812192555824
0.141106178379394 -0.249408215910374 0.257639081644649
0.152833899883519 -0.24056908683758 0.260909054420385
0.152833899883519 -0.23706906434272 0.270023163831641
0.15283389988352 -0.234924185082329 0.280129067472205
0.152833899883519 -0.235125115415349 0.283609452698767
0.154406402754456 -0.231795739539524 0.291736855384009
0.157541946800804 -0.237384014980076 0.306649651986346
0.158381095877777 -0.23076919748902 0.310640684904069
0.15795412353761 -0.224057323118392 0.308609984148596
0.160697934690852 -0.230900049640913 0.321659680481574
0.163302846808063 -0.22796798981132 0.334048766393537
0.166104440878755 -0.224149579602719 0.347373281029906
0.16554761372227 -0.225762486756311 0.344724984592482
0.167787840889829 -0.225070697343823 0.355379611540479
0.168611264089172 -0.226521139725924 0.359295851436309
0.170951348889714 -0.215662964185857 0.370425406035724
0.172936112937419 -0.219471887530914 0.379865038236566
0.174239733153824 -0.21361134897396 0.386065117982409
0.17619606377008 -0.222509616984619 0.395369519431056
0.176895761678343 -0.219315677996654 0.398697315958478
0.181246768318705 -0.217539900245935 0.419390910462026
0.180411756453884 -0.210988946348685 0.415419554322056
0.182042125490177 -0.210915197471409 0.423173666994562
0.184126047505947 -0.209282838603092 0.433084899207197
0.185810446066717 -0.203732447103444 0.441095978867616
0.187379466029597 -0.207556820398164 0.448558312429375
0.190174467420492 -0.203205189642672 0.461851471967098
0.191713550296023 -0.200451480192797 0.469171423317701
0.191767937210548 -0.204044823092767 0.469430090069677
0.194017639188251 -0.204674948898563 0.480129779665311
0.195698469970782 -0.200281297273527 0.48812389080275
0.197890187924601 -0.202541360973872 0.498547805623229
0.199869144475392 -0.201466984431559 0.507959817092556
0.202742055522053 -0.192390702700603 0.521623518658275
0.2047681675422 -0.20011320771876 0.524903790454473
0.208304374420447 -0.187014250328806 0.527349618286794
0.219571015602111 -0.183035911449803 0.531257701807051
0.227348816759254 -0.169427773746068 0.531461471443904
0.238901278375173 -0.166447488771657 0.52775056449901
-0.0228048553319943 -0.370989961694542 0.269928540667818
-0.0194859278753846 -0.363422036535506 0.269888883369971
-0.00944020214383496 -0.355776607891669 0.269743382476771
0.00334032407347886 -0.350193654866848 0.269285074572463
0.007454187401206 -0.349023368258353 0.269137552001931
0.0149112099948406 -0.340922080343097 0.268870144202035
0.0182841607465096 -0.336161309120769 0.268749190654111
0.0321475992808341 -0.324456942062437 0.268015529776622
0.0279096248915037 -0.327765008881282 0.268269007582651
0.0484207595515357 -0.311169129598589 0.267042214559574
0.0532910363258144 -0.307181191155033 0.26675091806788
0.0591153056367391 -0.301535613335022 0.26630404658033
0.0711813984044809 -0.294155692495763 0.265292552562917
0.0740001674329562 -0.290050360407698 0.265056256682913
0.0859541257701293 -0.278109065420767 0.264054162834043
0.0880842617633405 -0.276417902192835 0.263866322673431
0.0968977552460979 -0.268379268814999 0.262914973917225
0.102112382229998 -0.263866466613146 0.262352095087744
0.116708799159024 -0.253382888007349 0.260776524274913
0.123114169311355 -0.24207383621817 0.260017217161881
0.140104734235863 -0.231266305097225 0.257771449846402
0.149852738078502 -0.226795198356046 0.256482984835483
0.15283389988352 -0.229056105133749 0.261163802794223
0.152833899883519 -0.223811687011305 0.271755504522923
0.152833899883519 -0.217541220169873 0.272860825947429
0.153802748100014 -0.224493265637889 0.288865845139316
0.155424401727736 -0.221658982601924 0.296578506914178
0.15655510993749 -0.22059367479227 0.301956208933166
0.156839506446541 -0.21256964885402 0.30330881225533
0.159763989819065 -0.213302844494826 0.317217794255493
0.1613764745425 -0.223702730917094 0.324886848285516
0.162181036218854 -0.215808468127385 0.328713381881011
0.165262410610177 -0.214633077023959 0.343368545027889
0.166482071168018 -0.216351150334869 0.349169308644702
0.167359384059078 -0.204069446632044 0.353341850477188
0.170974774537396 -0.214042120710102 0.370536819530163
0.171704747074019 -0.210020699190936 0.374008603629842
0.172097657720032 -0.209863573820649 0.375877305348034
0.175003020614848 -0.203375843937861 0.389695349446905
0.177922523522601 -0.202320460574379 0.403580644119757
0.178166937648703 -0.201269783277272 0.404743089327165
0.180417216536479 -0.202532857985039 0.415445522734546
0.179737286801299 -0.191149070815302 0.412211744578422
0.184722107678331 -0.196208352443197 0.435919789734054
0.186235956584189 -0.194223087406094 0.443119727124829
0.187226629580369 -0.193787034152607 0.447831415008364
0.188539443567516 -0.197671654764615 0.454075220765081
0.190519531497479 -0.197494407267895 0.463492613127553
0.191147131552639 -0.189962227108896 0.466477508836838
0.193645373259901 -0.193793530649183 0.478359265206128
0.194478239516719 -0.184465803226345 0.482320416732396
0.196156037318666 -0.181190875844697 0.490300102869936
0.19819044771312 -0.182975883750237 0.499975855456963
0.201235862161963 -0.185883350424899 0.51445999140725
0.201708526807462 -0.182271217679099 0.51670800693988
0.202195459467482 -0.180724172676171 0.519023881828122
0.21477242707488 -0.171359566059547 0.530175990167215
0.2223604378517 -0.168597854159405 0.531591834386605
0.228625492581394 -0.164376750424588 0.53123396204308
0.237486916041699 -0.152735549057668 0.528535941407569
-0.0289907992105003 -0.361305313007837 0.270002455455669
-0.0216030598288626 -0.355263697228907 0.269914180618422
-0.0129481611747037 -0.348414807584508 0.269810764711252
-0.0111465359514146 -0.348448362065936 0.269789237398883
-0.000765632181150256 -0.343481577114966 0.269432313596448
0.00106562853058979 -0.336505453743123 0.269366644840344
0.00755912066268364 -0.325195250589173 0.269133789109672
0.0222725302874339 -0.319550893755639 0.268606168273433
0.0333211878361566 -0.314089237887281 0.267945336182971
0.0384662909211311 -0.311508457429739 0.267637602034067
0.0435961204518494 -0.305111139109387 0.267330781412869
0.0555609547056742 -0.29617281396442 0.266602005892575
0.0607077599337012 -0.292888736745689 0.266170551999658
0.070021979790039 -0.283519320634529 0.265389745997011
0.0782771488827144 -0.272639617753893 0.264697719645921
0.0856175039252663 -0.266926244276631 0.264082381660863
0.0945657764305789 -0.260967646045934 0.263166693073764
0.0998151692399324 -0.255850266685903 0.262600061541128
0.107237936891852 -0.248153600229482 0.261798830929557
0.117585381149802 -0.232040330857824 0.260681903998825
0.123968756783072 -0.237869238632686 0.259904260081247
0.133247296474935 -0.22513305390833 0.25867784758302
0.141697619320621 -0.219487180838233 0.257560906566849
0.148489504489494 -0.215009132436536 0.256663173396085
0.152833899883519 -0.21007943665561 0.262419290050857
0.152833899883519 -0.212038712576062 0.274571226834527
0.153642114252938 -0.206560095162481 0.288101862923316
0.154888519747159 -0.213638658223587 0.294029826729473
0.156344129064665 -0.203411168947127 0.300952773868334
0.157414801791089 -0.201444188489594 0.306044944273473
0.160106702574029 -0.198711468869197 0.318847752416584
0.161720325822559 -0.209207936787167 0.326522221326103
0.163095212842942 -0.19515669002322 0.333061249380914
0.164616182282837 -0.198192651423129 0.340295052370208
0.165397176224324 -0.201392777878277 0.344009496697855
0.168133230066805 -0.194215310618587 0.357022298891937
0.170582104214979 -0.196019416360986 0.368669260802418
0.171501315205536 -0.190635218447536 0.373041071988674
0.173861655577362 -0.187431124000792 0.384266963048414
0.174737321932703 -0.189915690109234 0.388431673878716
0.175635903549109 -0.184793103663516 0.392705370780426
0.178681675598746 -0.183685321749581 0.407191207497102
0.179245388424925 -0.184649416091763 0.409872252507049
0.181115294560171 -0.186514480062621 0.418765615013904
0.184032589447751 -0.187845440391655 0.432640408237807
0.184591454540821 -0.179708628446519 0.435298397198549
0.187474268884469 -0.175192453239593 0.449009199315709
0.189120101306173 -0.184046755892626 0.456836856584628
0.190953586834148 -0.182240035172819 0.465557000951238
0.192475010467977 -0.181589202275788 0.472792964108481
0.193642761103036 -0.173794767037927 0.478346841663851
0.195708349241078 -0.180653346706913 0.488170877082106
0.197186353784189 -0.171204413478197 0.495200336979
0.19815157772121 -0.164868453048636 0.499790987926886
0.201001264683099 -0.166316113441077 0.513344234640957
0.202887459632452 -0.16862861965286 0.522315067522354
0.20263224646701 -0.165611803239854 0.521101261570275
0.211313908517528 -0.156156736203953 0.528934539509912
0.218698515346139 -0.152320908868009 0.531122097584509
0.232902090501432 -0.139674948286145 0.530304125519873
0.243511296750992 -0.127383235873864 0.524655661465645
-0.0377296153188372 -0.360268362872418 0.27010687407818
-0.0251621240387566 -0.347393359299508 0.269956707269357
-0.0203381943938959 -0.343978491899435 0.269899066957173
-0.0165374626824496 -0.340878528556345 0.269853652662499
-0.00575263075498075 -0.331750851750688 0.269611146676268
0.00226100532090857 -0.324482914344119 0.269323778793804
0.00674422594239783 -0.318381458985343 0.269163011121749
0.0158970437958049 -0.314296760570751 0.268834792338142
0.0214283591102694 -0.305689174762038 0.26863644013521
0.0322110892511201 -0.294643275637414 0.268011732373217
0.0313018793304691 -0.300101252572816 0.268066113196397
0.0420187251008211 -0.283917658322523 0.267425127125252
0.0508511381918311 -0.284161519435214 0.266896850999305
0.0585597601368811 -0.274524648251425 0.266350617658501
0.0725352064939302 -0.268292638162501 0.265179063564486
0.0804548412273641 -0.257622449464614 0.264515164876885
0.0902193950081018 -0.255609820464067 0.263635851480514
0.0941799724368732 -0.242072562250187 0.263208337644135
0.10285170570878 -0.238031212319985 0.262272290811114
0.113956492717367 -0.234064659487498 0.261073614562107
0.120043310209939 -0.225677809808433 0.260416589483215
0.13408288394892 -0.218380168341238 0.258567401871141
0.132272204524301 -0.214765005055959 0.258806732622572
0.15232030023079 -0.200635574417947 0.256156829086387
0.149645698062698 -0.195649441630177 0.256510350829643
0.152833899883519 -0.199871727578005 0.262656072787145
0.152833899883519 -0.202359045235467 0.283479351202081
0.152982510216749 -0.192691869769661 0.284964754758235
0.156809371574956 -0.202024171028755 0.303165489372938
0.158592297939973 -0.195987795740137 0.311645171956065
0.158027255200324 -0.195943119873274 0.308957801814403
0.15977732834155 -0.189360402313713 0.317281232902775
0.162988468004054 -0.192272593663035 0.33255356585067
0.164019892547527 -0.195210743775702 0.337459070031163
0.164432208001758 -0.182553079315656 0.339420061940078
0.165894186720102 -0.184334918684067 0.346373302252233
0.168209911095667 -0.184635467706544 0.357386997511949
0.170459723265972 -0.180816821893358 0.368087211188839
0.17209091088599 -0.181620144517485 0.375845217084474
0.173148417323005 -0.18492352354657 0.380874767991026
0.175317808054988 -0.177171998553437 0.391192493482639
0.176652323682509 -0.171035001540973 0.397539513273045
0.179085822220945 -0.17021580153585 0.409113348052387
0.181230712491076 -0.17153300906733 0.419314548182251
0.182019873705543 -0.172754226522717 0.423067836448607
0.183340699624273 -0.1671991560379 0.429349747332957
0.185623339068481 -0.169162117242894 0.440206089085707
0.187219663219813 -0.173178908266301 0.44779828266626
0.188603031103661 -0.166544195040674 0.454377646111035
0.190048605418439 -0.167854710491948 0.461252866299685
0.191312663600143 -0.16420012360373 0.467264787127023
0.1955397075583 -0.165487927034094 0.487368809218674
0.197433444822855 -0.159541670370956 0.49637551370987
0.198734897097766 -0.158341068925934 0.50256528262286
0.199179822494805 -0.154359956169172 0.504681368970619
0.201323747708537 -0.159767345541951 0.514877979246348
0.201712480755787 -0.149671860776376 0.516726812106149
0.20425507571629 -0.153822902179466 0.524513738547715
0.217457683649714 -0.143802604301077 0.530929247191232
0.219685888630422 -0.144688232079884 0.531275555403756
-0.0472503005204537 -0.352533995043097 0.270126264686212
-0.0409147003374804 -0.346129126182704 0.270144932115574
-0.0330229152792998 -0.344716812430723 0.270050634522546
-0.0247733260449353 -0.335443349063445 0.269952061588473
-0.0206796969706077 -0.334005898637253 0.269903147513189
-0.0136577481040917 -0.31847260250883 0.269819243444389
-0.00467635650109044 -0.315431744197452 0.269572551630229
0.00849342127995821 -0.310419500535998 0.269100285218626
0.0105782466726766 -0.303412066028496 0.269025523668097
0.0252496728326098 -0.297328423537764 0.268428102175986
0.0259901196430598 -0.283950378639824 0.268383815255926
0.0365356107772313 -0.28626903448385 0.267753078089858
0.0390247835897058 -0.280186537550046 0.267604197986919
0.0514289569625168 -0.270672563631013 0.266862291037205
0.0589932398009365 -0.26150062440828 0.266314279293191
0.0732268072331712 -0.250781458291404 0.265121087049333
0.0799974759062 -0.244038565517286 0.264553505563887
0.0907174501710047 -0.241871348191778 0.26358209026078
0.102814419247991 -0.233295512432637 0.262276315597444
0.107728438235822 -0.22532467826846 0.261745885086411
0.115005028488258 -0.221391030208016 0.260960433199526
0.117882605124073 -0.20949213912325 0.260649820959473
0.125048327661488 -0.205078126300946 0.259761565297156
0.14579161941195 -0.191519095491891 0.257019772611884
0.146851842498941 -0.189931692672517 0.256879635166988
0.152833899883519 -0.188074644592557 0.260618094951014
0.152833899883519 -0.192438869533871 0.272835490011742
0.152833899883519 -0.186409872176437 0.27790460711239
0.154399782729502 -0.180946363535562 0.291705370230496
0.155912674725752 -0.175503172565322 0.298900756513668
0.157654634206953 -0.181694356697806 0.307185598649095
0.159137804040635 -0.181107630898379 0.314239624913596
0.160792501007346 -0.177515782159733 0.322109442380137
0.163938954958473 -0.174630450587218 0.33707412700845
0.163215184182168 -0.172533494561555 0.333631838775779
0.165963333912876 -0.167863837988443 0.346702169589521
0.166965448930333 -0.170420007062111 0.351468276270402
0.168142518916597 -0.164362502101684 0.357066477103307
0.170967785619138 -0.166361138731841 0.370503579902555
0.17172199461218 -0.170078290468701 0.374090633741582
0.174691119386532 -0.171020561048121 0.388211932371859
0.17726612940542 -0.167846347273803 0.400458802482134
0.176010364729117 -0.158459527332245 0.394486325960901
0.179008054328434 -0.162995047314036 0.408743480257176
0.180360745940089 -0.158772028247533 0.415176945892526
0.181959205691039 -0.153895500919122 0.422779296486419
0.184745259018797 -0.157767065529346 0.436029898610321
0.186398160151893 -0.152429147199657 0.443891175006792
0.187615130801718 -0.156525041875428 0.449679145293153
0.18851375356462 -0.154128301367013 0.453953037889562
0.191359980309395 -0.148249918837679 0.467489827646478
0.193203527496369 -0.154634458212195 0.476257825741793
0.194358690181674 -0.143259392356809 0.481751834409484
0.196745200704216 -0.151032207704764 0.493102191950614
0.197520450261233 -0.14058480328176 0.496789315712534
0.198157404800352 -0.144191052013372 0.499818701792403
0.202655096244526 -0.145647651705817 0.521209936198815
0.203332798626977 -0.134406223976921 0.523812624401905
0.208700130506968 -0.131476388103571 0.527558036666674
0.217001020736856 -0.12357274568297 0.53085827251949
0.224121850834833 -0.122847594477533 0.531572311334909
-0.0458827284019876 -0.346737240173193 0.270142605572097
-0.0370331089619844 -0.335261394000618 0.270098551642572
-0.0377396000016198 -0.333090187914806 0.270106993383451
-0.0279860719421094 -0.327994601070603 0.269990450140983
-0.018636686318393 -0.317101792703557 0.269878735927519
-0.0142670324298606 -0.314626957355679 0.269826523678831
-0.0100999921492412 -0.309491642242964 0.269767042455205
0.00682471250085765 -0.300234789554554 0.269160124884885
7.64259318485292e-005 -0.298516021718071 0.26940211750886
0.0112319923262229 -0.289506651549214 0.269002080439286
0.0262332111363479 -0.279936419232753 0.268369275692276
0.0273302796256259 -0.279681585161276 0.268303658846071
0.0458930520792797 -0.265380967196815 0.267193399461957
0.0441500644461043 -0.262442491383982 0.267297649426824
0.0626512353425074 -0.251550803441645 0.266007631509418
0.0612531613938519 -0.247616330311779 0.266124831290837
0.0791988402884119 -0.24033739280465 0.264620454754898
0.0796956820383535 -0.232373732991996 0.264578804780268
0.0815126804226522 -0.226231756989573 0.264426486790448
0.0906674076717413 -0.222522318327499 0.263587491963241
0.105286754713625 -0.210519979514136 0.262009446021293
0.11194068065933 -0.211141857824559 0.261291205951709
0.11519273810294 -0.198386147874253 0.260940171392014
0.125054972190586 -0.19555649944142 0.259760687041115
0.141234595442601 -0.176763423197011 0.257622107821555
0.150024510590482 -0.172915588858922 0.256460280405418
0.152073733940771 -0.172736627368535 0.256189419557492
0.152833899883519 -0.169527630193326 0.276822569274136
0.153287114017979 -0.175657036630837 0.286413464923009
0.153831856873121 -0.167329957579421 0.289004287848544
0.15583526931218 -0.171141595085008 0.298532612685536
0.158423772987718 -0.174809742069494 0.310843659268554
0.158936485052051 -0.166317946027767 0.313282142229708
0.162203961202831 -0.170078678981483 0.32882241419505
0.162002438979489 -0.156451221343647 0.327863964916994
0.163559240530104 -0.162050343099937 0.335268187128947
0.165989561589441 -0.164696756461465 0.34682690966658
0.167134671339918 -0.152928200675812 0.352273106098141
0.170243440708856 -0.154161831609036 0.367058561061385
0.171036155920824 -0.161255739428597 0.37082875230888
0.173194464859565 -0.151751936794871 0.381093772264808
0.17373140017676 -0.144982402215557 0.38364746216856
0.17691871782285 -0.14805227463684 0.398806496473483
0.177779357006359 -0.157557715935406 0.402899737359898
0.179098808115276 -0.142212837206542 0.409175109583398
0.181214070623857 -0.146612092422936 0.419235398670314
0.18414395796439 -0.15148722521107 0.43317008219933
0.184727492142497 -0.143873714851515 0.435945398501692
0.186246081702675 -0.14037750018467 0.443167882669872
0.188807035491091 -0.139846575619558 0.455347900679543
0.188285487617378 -0.134909353907827 0.452867394188771
0.190961102946448 -0.139000281937288 0.465592747938782
0.192607151522469 -0.139147672864659 0.473421433247914
0.194936899038857 -0.126357261693258 0.484501823232284
0.197578791738183 -0.131999069249827 0.497066790551473
0.198576463710163 -0.126896182087801 0.501811765896762
0.200677482752255 -0.128751593401896 0.51180431237968
0.20073167936919 -0.128639542111074 0.512062074067267
0.20575625293448 -0.127306078304626 0.525654932008158
0.208398093317742 -0.120360910975437 0.527398973789852
0.215373904083075 -0.112753373244212 0.530374950639256
0.220023349607595 -0.111312230572657 0.531328003678853
0.230680132640613 -0.0995376396442272 0.530867815899578
-0.0570929296274549 -0.342069424372684 0.270008656790531
-0.0471901697621656 -0.332240058749748 0.270126983178382
-0.0426904839506289 -0.325835952257969 0.270166150650952
-0.0362277395662415 -0.319853448759071 0.270088928421089
-0.0279441416020279 -0.321858892932891 0.269989949122504
-0.0137858051201295 -0.301849932200161 0.269820773575823
-0.00940066431682191 -0.303887740318888 0.269741964655758
-0.0109327272129306 -0.295657324337671 0.26978668263475
0.00378131370140096 -0.282282715272273 0.269269260745336
0.011001472186206 -0.286386902594603 0.269010346859657
0.0216906635431534 -0.277109152690569 0.268627033934488
0.0226101618252066 -0.276907840198372 0.268585974168047
0.0293676361414885 -0.261638312206241 0.268181802361746
0.0366939914470559 -0.261844143164233 0.267743605171663
0.0510430921902408 -0.251526434516689 0.266885370024219
0.0552087223418352 -0.23809844747068 0.26663153334074
0.0601721120270274 -0.239539032846188 0.266215455073376
0.0720711136844351 -0.225014365665847 0.265217968213187
0.0807277979918274 -0.219724785857029 0.264492283059251
0.0892852515326605 -0.209090107623498 0.26373668507564
0.102228481006263 -0.201932336806896 0.262339563118824
0.102281640030422 -0.19820358892642 0.262333825011499
0.109371696088398 -0.194414894335401 0.261568508054564
0.120839850387256 -0.183628367685405 0.260317830539212
0.12205232546757 -0.183543089379332 0.260157568834066
0.13296333950128 -0.167191368139146 0.258715380254433
0.152833899883519 -0.157626691507616 0.262645883414255
0.152833899883519 -0.155732216586747 0.271289971355692
0.152833899883519 -0.155194967722039 0.271434400070473
0.152971184563197 -0.159529732510289 0.284910889411323
0.154451316917611 -0.155930461473386 0.291950469279967
0.155095274423534 -0.152495191286065 0.295013161802998
0.157546003981123 -0.151716800417065 0.306668948128893
0.159513746905388 -0.151241782117646 0.316027627057174
0.160966396139137 -0.150134061087556 0.322936495896912
0.164134753832695 -0.154889519044457 0.338005355765912
0.165258888999066 -0.153771664533988 0.34335179607797
0.165812939362139 -0.146146754510114 0.34598688595386
0.16921850812341 -0.14509954103942 0.362183932942011
0.16974602760252 -0.143440509304982 0.364692840672045
0.171101916033522 -0.14364299686727 0.37114151053224
0.172960673224901 -0.142290647366478 0.379981848131853
0.174506483533038 -0.139260235699711 0.387333795471865
0.176119597419037 -0.135892147560095 0.395005841828969
0.1778368065028 -0.137116598612207 0.403172969897113
0.179170962450739 -0.132204567214137 0.409518279034324
0.181419230118771 -0.139246479920183 0.420211146984954
0.184072145426977 -0.135225030720044 0.432828538356183
0.184447436893644 -0.129692993992477 0.43461344241949
0.188357449435402 -0.127382786550063 0.453209648017601
0.18959631523347 -0.131812968993934 0.459101752670285
0.189356514572621 -0.124136063471781 0.457961249323022
0.191432448208424 -0.129764024404229 0.467834488420636
0.194098486012007 -0.121230844461031 0.480514291003948
0.194940945239696 -0.123259169766486 0.484521067155899
0.196517837709413 -0.117987959406362 0.492020842734567
0.19859407818899 -0.117272492307791 0.501895541195763
0.199289289649347 -0.112945054696402 0.505201999963577
0.202149815242328 -0.113926060298706 0.518806795722578
0.203152326640541 -0.115405293651549 0.52357478760918
0.210433429469941 -0.10196112883897 0.528470849821071
0.219002954117094 -0.102497242899408 0.531169413539507
0.235422371378025 -0.0876050662597874 0.529408003670456
-0.0578708007680391 -0.327031998009168 0.269999362141007
-0.0593602121287546 -0.328867696235973 0.269981565418806
-0.0506162967523436 -0.32591255734525 0.270086044971601
-0.039255042021611 -0.315428853164364 0.270125101141557
-0.0322068036167141 -0.307474535434524 0.270040882943549
-0.0254102132112322 -0.302947899122628 0.269959671644546
-0.0203795503178032 -0.294168984266256 0.26989956111205
-0.0201048854246942 -0.28902024593914 0.269896279188111
-0.00734155782068758 -0.284560745827452 0.269668125381307
-0.00051232651018466 -0.278986357980086 0.269423230090085
0.00781793858806728 -0.27094317425089 0.269124507934628
0.010942737735183 -0.266013631877676 0.269012453068956
0.0294607276308028 -0.250500731975357 0.268176234459653
0.0289285794599156 -0.249919677220407 0.268208062814062
0.0367339203599816 -0.248346579968213 0.267741216980438
0.0471472330981129 -0.235787130571328 0.26711838554639
0.0544637261430734 -0.223074467102895 0.26668077822872
0.0690162995620793 -0.224651343933396 0.265474051625485
0.0803963249347785 -0.212758820289813 0.26452007026598
0.0758113901861736 -0.20861108816398 0.264904422861116
0.0856029766978946 -0.19969905188762 0.264083599470461
0.100065144631626 -0.196115714349755 0.262573078622443
0.10435881301985 -0.18389108255622 0.262109610181842
0.11058082916017 -0.173199556309078 0.261437991449977
0.119821769856834 -0.175586629264449 0.260440503058439
0.124875134707818 -0.16893520008107 0.259784457477395
0.141678512768283 -0.147650766630696 0.257563432019707
0.151922935456743 -0.140315221961702 0.25620935169678
0.152833899883519 -0.146864605396267 0.270664550261125
0.152833899883519 -0.148758617040988 0.279640458288229
0.153289018931148 -0.141849162914627 0.286422524780634
0.155476369153477 -0.141062618854456 0.296825666462432
0.15688434059763 -0.142106606890738 0.303522045610098
0.156872685770289 -0.142244439789898 0.303466614696993
0.160405575288668 -0.143323331143217 0.320269205260978
0.16201140731211 -0.136555089383273 0.327906618733448
0.162427258581351 -0.135122553658317 0.329884427146707
0.163641453476065 -0.135920497508934 0.335659195809761
0.166587441229497 -0.131394819861388 0.349670453668209
0.168756519695913 -0.128705991181816 0.35998669400993
0.168870070393642 -0.125009397138107 0.360526746528491
0.172610668022648 -0.132331575317403 0.378317206744644
0.173569152360784 -0.126783484423058 0.382875803839719
0.176260853082946 -0.124567159688499 0.395677660484252
0.177868594668656 -0.126974057449082 0.403324155925685
0.178179942448328 -0.123316860770902 0.40480494077266
0.181065366819933 -0.121121213092516 0.418528156306907
0.181120423387687 -0.117441311315217 0.418790007961484
0.18368887993499 -0.122375810262394 0.431005709449235
0.186012507720233 -0.111637831143084 0.442056993701238
0.188221174925797 -0.118910123129415 0.452561519969077
0.188831935831056 -0.108456826499118 0.455466327880608
0.19049926788345 -0.109436146887331 0.463396238415554
0.192628247041774 -0.112240409310548 0.47352176454097
0.194229494567186 -0.114607955777596 0.481137373922793
0.196444963090598 -0.109603729307634 0.491674247581767
0.1972440026849 -0.104244229554838 0.495474517892405
0.198937942605403 -0.107992207923473 0.503530976713472
0.201621313918259 -0.101369391432122 0.516293218291223
0.20297367015797 -0.0947840323648579 0.522725088881653
0.210412318602684 -0.097306211884096 0.528459732132926
0.222678749792164 -0.090844092200919 0.531588306298344
0.219318710005866 -0.080824505371794 0.531218488403975
0.237726728550714 -0.0770899460066793 0.528402776657274
-0.0728478392459013 -0.326156647883786 0.269820404063876
-0.0597084794580278 -0.321442470836876 0.269977404031917
-0.0550435690508608 -0.311243930891866 0.270033144250364
-0.0538893325990989 -0.312732635946818 0.27004693602477
-0.0422293057916927 -0.303045889268069 0.270160640111826
-0.0323890424927891 -0.29750246354551 0.270043060484783
-0.0276934078614112 -0.289790378158464 0.269986953147823
-0.020919553549537 -0.280700859769875 0.269906013518522
-0.0147472544769096 -0.276415983584772 0.269832261770127
0.000440513088778731 -0.263695148368033 0.269389061393717
-3.37308809458962e-005 -0.266469077588751 0.269406067716946
0.0113854033365364 -0.262173295020154 0.268996579141653
0.0130814414856989 -0.247048714924136 0.26893575944796
0.0244353497217736 -0.240211406132268 0.268476807717023
0.0329668980751312 -0.234310950812996 0.267966526634605
0.0423657334649617 -0.225913551515022 0.267404372181797
0.0424512546191402 -0.22268976176114 0.26739925706959
0.0528482857345834 -0.215598195804392 0.266777399456905
0.0632960580575681 -0.205198764040754 0.265953576370681
0.070250623587499 -0.201419503061395 0.265370578911384
0.0825274676395225 -0.1981990458007 0.264341417728029
0.0847768021169198 -0.193541422498758 0.264152857237833
0.103361872777222 -0.176561703038719 0.26221722220444
0.107594489305791 -0.172370314531598 0.26176034384198
0.116539620051209 -0.160376539767011 0.260794785856896
0.130760980286413 -0.150004157084879 0.259006482190341
0.142405862472346 -0.140103081100955 0.257467292886043
0.138516519768531 -0.14095963342831 0.257981375776267
0.152833899883519 -0.130895370956334 0.261514170801904
0.152833899883519 -0.135047263978005 0.273055947546286
0.152833899883519 -0.129477933661231 0.268270749561455
0.152833899883519 -0.1283034709837 0.281496190441994
0.155427919718165 -0.131716192933035 0.296595238643964
0.156458060087935 -0.129858251474935 0.30149463523325
0.158063975945781 -0.131681052260593 0.309132447426137
0.159537467817834 -0.127308704908825 0.316140444844872
0.161163681527033 -0.123115343786552 0.3238747945841
0.163707057751598 -0.118973103798305 0.335971212864154
0.164490191230822 -0.11791000505911 0.339695832935033
0.167616098961871 -0.121232071293133 0.354562798763531
0.169060776194314 -0.114001131068148 0.361433752385933
0.170139720809256 -0.117673327050654 0.366565264286256
0.17322443599757 -0.114345289911843 0.3812363164225
0.173810715126568 -0.106747760476629 0.384024687841851
0.174157105480188 -0.112047920502908 0.385672136837044
0.177166491002607 -0.110081752756441 0.399984917499822
0.178977445468889 -0.110653022094933 0.408597903065509
0.182170895436198 -0.106396668397527 0.423786102981781
0.181243703356776 -0.108520444252373 0.419376333357332
0.183319368126133 -0.103073263148352 0.429248293713338
0.186402420191531 -0.110929022274709 0.443911435957901
0.188220124053129 -0.105012429298821 0.452556521968693
0.188865067676987 -0.093041896776921 0.455623904515515
0.191276114421939 -0.0950581629803819 0.467090957497303
0.192636337244604 -0.0991346876176903 0.473560241930382
0.193838068896504 -0.0939091919976253 0.47927573481789
0.195531117858056 -0.0868951613502005 0.487327956195813
0.198344955207383 -0.0876571203220039 0.500710700447629
0.199807065440963 -0.0874470073055052 0.507664566252502
0.202328819646465 -0.0948995007555255 0.519658149181608
0.202941096556404 -0.0859429813477305 0.522570167283494
0.21147945781582 -0.0806375912677267 0.529021723302443
0.211021757743525 -0.0823607952917589 0.528780683149715
0.22147541784916 -0.0719822173674825 0.531553684512329
-0.0722604869512196 -0.319002327976283 0.269827422236221
-0.0682995173049329 -0.314372524215941 0.269874751186635
-0.0577305170820148 -0.30479929231105 0.270001038366833
-0.0618566198574561 -0.30095551522441 0.269951736268836
-0.0505746647051468 -0.296553690208876 0.270086542425829
-0.0429161174463861 -0.293085170395634 0.270168846707092
-0.0278321842834908 -0.281484744243167 0.26998861136361
-0.0281040124624669 -0.280128498673379 0.269991859392136
-0.0215392622498234 -0.27108347433368 0.269913418312036
-0.0173629832893968 -0.260312188156391 0.269863516667367
-0.00386522693094734 -0.260225652127791 0.269543464635914
0.00738431766475135 -0.25094239831522 0.269140057521026
0.0123247776689664 -0.246419641004533 0.268962893307882
0.0213487104300003 -0.232510004376971 0.26863929632588
0.0256914215476619 -0.233434276085024 0.268401680710252
0.0304893112767296 -0.21945402866918 0.268114713765582
0.050136175459773 -0.213426707943337 0.266939613689228
0.0437419272812771 -0.210982174276133 0.267322060549591
0.0527754905465956 -0.202645972300057 0.266781753415388
0.0624404687623758 -0.198547897114071 0.266025299957604
0.0680634646387089 -0.190928902076319 0.265553927260715
0.0786816070202328 -0.181365702736927 0.264663814139452
0.0982057159713839 -0.165166031798552 0.262773789628429
0.0936048488310052 -0.164595254590486 0.263270417808848
0.106798944361427 -0.16220240407225 0.261846216792906
0.120473862796393 -0.142137453015445 0.260366205797662
0.125634683382494 -0.145212102541451 0.259684062370129
0.135578367204852 -0.139146079160139 0.258369732904162
0.148974722258926 -0.127303817171408 0.25659903861232
0.148090945035206 -0.114927670491856 0.256715853916109
0.152833899883519 -0.108876408627424 0.262472287263203
0.152833899883519 -0.120052323410416 0.269809649875375
0.153364589988429 -0.117672699755289 0.286781944323012
0.153847879995973 -0.11828602440289 0.289080494582847
0.158006021911132 -0.112850000218945 0.308856815281209
0.158103121468582 -0.114288959961048 0.309318625394232
0.160051718304076 -0.114463800183598 0.318586244613782
0.161633198175497 -0.110077444497943 0.326107838093121
0.164720278212271 -0.115582007147461 0.340790137561114
0.164946725210448 -0.109878952606951 0.341867130253644
0.166544364691001 -0.0988735605189438 0.349465579602521
0.169405895147848 -0.10225941849997 0.363075154541853
0.169925646295281 -0.104797445509461 0.365547115716988
0.173130324766275 -0.10488265705139 0.380788718930785
0.17457006160466 -0.0971800192713832 0.387636175804104
0.175775495970246 -0.100092707238633 0.393369278973991
0.17771520328786 -0.0994592603823493 0.402594619223744
0.179465322537582 -0.0949249923934632 0.410918269606312
0.181389162362432 -0.0963089194750369 0.420068143305862
0.182298914844963 -0.0929152834495566 0.424394969378124
0.185211852343419 -0.0885155138154472 0.438249038652129
0.185027063653396 -0.0883429148243714 0.437370174854336
0.187263915426477 -0.0821525795093932 0.448008748265665
0.190415822828798 -0.088315570864123 0.462999369767208
0.190533197206598 -0.0830853776903786 0.463557607890029
0.192218659442537 -0.082486382194258 0.471573746440134
0.193354254257072 -0.075288815478301 0.476974689383849
0.196057227018508 -0.0841442947781383 0.48983015638324
0.198304006609678 -0.0743904276142273 0.500515946969545
0.200623804009625 -0.0788010494876997 0.511549013726912
0.200738694635306 -0.0780293812176543 0.512095439006534
0.204076872471114 -0.0692791809925061 0.524378268614146
0.215532271795712 -0.062244261507015 0.530427336540018
0.222464709424776 -0.0585303179371953 0.531590678667117
0.221763454212819 -0.0571214454727085 0.531598451200809
-0.0840809064820151 -0.316800047672988 0.269495290010616
-0.073517100182937 -0.301960210445173 0.26981240717914
-0.0668506984555901 -0.305772296235209 0.269892062875843
-0.0605407161663888 -0.29614835572993 0.269967459777499
-0.0601479123679062 -0.295506712586913 0.26997215332306
-0.0440936410288345 -0.27849308036783 0.270163983071833
-0.0344107100913424 -0.27336464704031 0.270067217045946
-0.0355456906749405 -0.26925811516134 0.270080778735269
-0.0207313918090974 -0.261024008429588 0.269903765205993
-0.0187473535088173 -0.253596893441808 0.269880058270894
-0.00417856223102565 -0.245894201348828 0.269554700796483
0.00192962373957733 -0.243516492519696 0.269335662091525
0.0111240055982786 -0.235838702921265 0.26900595282843
0.0150294443297808 -0.227863938853347 0.26886590433512
0.0164691555415116 -0.226612634678307 0.268814276489988
0.028345707659443 -0.223161475068716 0.268242925003308
0.0333169745852123 -0.208626383499688 0.267945588182041
0.0466227893229657 -0.201505966969357 0.267149753092604
0.0478754579035321 -0.198999570427734 0.267074829637596
0.0550136274349117 -0.191321654754504 0.266647888041054
0.0643593366683744 -0.18073186216253 0.265864442300989
0.0698842605298166 -0.174086776047712 0.265401290927957
0.0854523596980179 -0.166386398420198 0.264096225611932
0.0918062442147272 -0.152884823665783 0.263464563327642
0.105473710626341 -0.14853315134487 0.261989265570104
0.110921005777641 -0.145213687012399 0.261401272003534
0.120977146014035 -0.128973120540534 0.260299683171391
0.13310283610797 -0.12753683045349 0.258696941966988
0.136254848242266 -0.118108534099129 0.258280317454463
0.143513819044497 -0.109858833872538 0.257320846157063
0.152833899883519 -0.101183043930646 0.261040024260846
0.152833899883519 -0.101506152966337 0.270314587478609
0.152833899883519 -0.101830197369364 0.283123587945615
0.154213212740407 -0.10573919162853 0.290818034489605
0.15513079819551 -0.0994682987680989 0.29518211455193
0.156703186741119 -0.0968602950886291 0.302660469253348
0.158727267290594 -0.0965295393781589 0.312287092606391
0.160463273847756 -0.0901064999654868 0.320543622351984
0.161296431993297 -0.094579768505505 0.324506162114898
0.164168402769353 -0.0937303783341404 0.338165391708908
0.164598939450682 -0.0912346987280059 0.340213044640457
0.167129623995134 -0.0893443651304998 0.352249100686313
0.168119814669089 -0.0880117999057246 0.356958494622404
0.169269522556242 -0.0875882463307131 0.362426560010669
0.172824160377993 -0.0896077103928401 0.37933258653978
0.174742604150066 -0.0874626998465692 0.388456796355704
0.17591243123281 -0.0838165210468336 0.394020549595015
0.177245910184627 -0.0771825944638223 0.400362638906471
0.179191382903321 -0.0729395419122008 0.409615399677945
0.179519344375229 -0.0777019598337977 0.411175200035288
