ply
format ascii 1.0
element vertex 859
property float x
property float y
property float z
end_header
0.281433941216719 0.071315962458567 0.300446782406568
0.284819794892358 0.0769669574468006 0.320462599555874
0.275139861322253 0.0761216374904165 0.317468477332288
0.254853211570548 0.0746528040139077 0.312265871003704
0.235749913726085 0.0704409280617109 0.297347411672158
0.240906617333453 0.0755006451049769 0.315268923083178
0.235557039618543 0.0744104368046173 0.311407406652869
0.204388577757853 0.0700823714205335 0.296077404499541
0.217277608566952 0.0765441227465102 0.318964919578629
0.186652982743405 0.0728428102651712 0.30585487541947
0.197839350639648 0.076933195948798 0.320343016372362
0.19358600807885 0.0785304150309881 0.326000364354987
0.182418292269743 0.077299043626626 0.321638848387636
0.165791860255732 0.0751388499641463 0.313987445148858
0.155984881581865 0.0762313025169324 0.317856910718442
0.14272258693868 0.0744258684097893 0.311462065379003
0.155250625764964 0.0797896168762236 0.330460455708949
0.138616411818981 0.0782266543390796 0.324924444365843
0.105271778814251 0.0747740590428536 0.312695356163905
0.0992288363979634 0.075347119773417 0.314725136551658
0.111580823583329 0.0798213859582805 0.330571493405996
0.105201497087913 0.0803024828380745 0.332193025718383
0.0951629977770056 0.0810495784419792 0.333869845050667
0.0751956484000538 0.0795512961965434 0.329554845160149
0.0688614403362493 0.0797574490224353 0.330017644662235
0.0436047518741453 0.0794867095201632 0.322952513831198
0.0198535747610057 0.0769115617355004 0.299542225588728
-0.0122246927978877 0.0770405433209023 0.293142712448781
-0.00938174279662372 0.0810056367147319 0.30340325062195
-0.0212717001857267 0.0770730247193891 0.301242189288459
-0.0160539462873196 0.0831786984356918 0.322853407056473
-0.0155941528096489 0.083982816201357 0.325864501873926
-0.022378368611644 0.0825112376850972 0.324680001139943
-0.0442137730620878 0.0792561143822539 0.322809219237741
-0.0416117533339909 0.0825989171963551 0.334833952962597
-0.0593847508640648 0.0791845924391504 0.326594806800793
-0.0541529929981701 0.084005780094527 0.337883842475872
-0.076587090294282 0.0821849990629867 0.335708034020545
-0.0853724451154428 0.0806454179556645 0.333031889298647
-0.0923984146407888 0.0825996926144273 0.336315474755853
-0.121768661197756 0.0794283623379039 0.329180892588043
-0.111046072232625 0.0844974820454921 0.338357717582934
-0.119818642992449 0.086643929720679 0.34014923592204
-0.134181222483306 0.0886639198317575 0.341351877024747
-0.144662997298657 0.0875556591421523 0.340795587504456
-0.164248102767798 0.086409047008357 0.339982720715647
-0.168981008149109 0.0880194195258361 0.341124360768537
-0.185706070582469 0.0869956093880861 0.34039855189691
-0.204155259086503 0.0853767697380188 0.339131189826453
-0.219034193523814 0.0833723198771947 0.337177272955241
-0.225816609615106 0.0867162458772035 0.340200502954893
-0.24011403959329 0.0891519421890014 0.341414282131149
-0.258643437863346 0.0848894946080081 0.338702554476244
-0.272990239341578 0.0839904640756874 0.337866758795172
-0.288846496400281 0.0839316976450995 0.337801209976867
-0.295130774309997 0.0922813493626635 0.341673352878531
-0.321112801479182 0.0843124331172008 0.338194937856864
-0.324138312175318 0.0903880291008832 0.341570777128984
-0.336982303721018 0.0908986557647921 0.341598441710538
-0.352078677344268 0.092486474635186 0.341684466095351
-0.368660732226077 0.0931990176909255 0.341703514032092
-0.388583787187804 0.0875447414093562 0.339677089696601
-0.389638120567706 0.0890792167562025 0.340350252397855
0.332853938073197 0.0768895893790466 0.32004466143045
0.342000020164176 0.0839065336960631 0.337773141790545
0.321902354262472 0.0779951114825487 0.324100647373506
0.301053159898897 0.0780503680091139 0.324300038406563
0.311164877114519 0.0848412425624995 0.338660109189894
0.297029601747445 0.0786538908039111 0.326437715387564
0.293433470632067 0.0830871284785058 0.33685916687005
0.281249065342802 0.0848332065837376 0.338653040278803
0.25525044725876 0.0782825134319189 0.325122297202507
0.264041635097775 0.0819405163288292 0.335348807860683
0.257191542892012 0.0835512610035503 0.337376866145802
0.251960257341191 0.0846661282071069 0.338506068487984
0.238013437650737 0.0807057553585018 0.333156988301349
0.231069686675367 0.0865339905092636 0.340071296808094
0.216930975531808 0.0838395336144599 0.337698409053989
0.212492339274274 0.0850111803064526 0.338809596245372
0.196040700226473 0.0844959376286717 0.338356359024691
0.185723535580358 0.0881643905178438 0.341227134933636
0.185434358504467 0.0872337925446187 0.340567406884479
0.169153068316645 0.0849047321648232 0.338715958311366
0.16306747255955 0.0874457282512873 0.340717654289191
0.149772112507947 0.0847624823611367 0.33859082716745
0.140033472917441 0.0870494427579108 0.34043671594312
0.128482983755475 0.0901711103219259 0.341544606684591
0.117114729836063 0.0838134848813843 0.337669353968382
0.112300478872004 0.0848917292035646 0.33870452015557
0.100147878661446 0.0916455056444105 0.341638904324152
0.0890228220115911 0.0869178093954304 0.340343397212657
0.071858380887882 0.0845608220421325 0.338413435102606
0.0626903030784534 0.0853834113412991 0.339137032164328
0.0593676980093352 0.0855101567856303 0.339248524778197
0.0397097002881895 0.0885748799888561 0.341340491192135
0.0396072005997018 0.0862484276692767 0.339868852980838
0.0247883751080387 0.0885656423627496 0.341245807492401
-0.00611297062578424 0.0903771044267155 0.330964423949178
-0.0041663053620817 0.0932205191455277 0.330132909759042
-0.00838681633696248 0.0894892035232169 0.337269552463934
-0.0165399878188255 0.0886362598287044 0.340566684430369
-0.0385637856877747 0.0949675448651736 0.341700708364557
-0.0434936508662672 0.0886694720440011 0.341352587005326
-0.0617579570544029 0.0901019968643506 0.341535768907777
-0.0700317626945074 0.0910225685726743 0.341605155022281
-0.0777486399366637 0.0960170624600287 0.341680491290778
-0.10021904450575 0.0966818795661351 0.34164833853477
-0.105174136088821 0.0890628290441192 0.34140288692516
-0.11687945086339 0.0929293970264115 0.341703941769905
-0.135775444108791 0.097624520907423 0.341602749279061
-0.139418963931108 0.094868375089211 0.341700865691753
-0.15568283750228 0.0991526656344008 0.341523616742245
-0.166960835060244 0.0989098869323806 0.341537569437521
-0.175369190472942 0.0919819935425921 0.341657134466757
-0.195671257341013 0.0940848735686858 0.341702108672247
-0.207350827163301 0.0941119401338978 0.341702065732684
-0.215802779002593 0.0924445641720616 0.341682195482579
-0.232902278813888 0.0972121266539016 0.341622694030318
-0.242364157853115 0.102490609364822 0.34128364109263
-0.247428096221608 0.0998382060189461 0.341484218162364
-0.272205551574637 0.0943612123941857 0.341701670276455
-0.276379451290096 0.102511387863861 0.34128189088761
-0.288515309441283 0.101510108226756 0.341366230215695
-0.30920517762036 0.101026360197918 0.341406977058239
-0.31558596511909 0.104701621767587 0.341112269346162
-0.333143187430418 0.0984826393486371 0.341561247830598
-0.345506513082883 0.104315365700575 0.341140017756993
-0.354884405367782 0.103574253263139 0.341193258842745
-0.372301307799296 0.101151536331319 0.341396433279466
-0.489090892944392 0.0986976698481178 0.273809523809524
-0.489144996833997 0.0998017712292482 0.273809523809524
0.347700346207248 0.0899690257132688 0.341518765426874
0.337273041804414 0.0899668352189184 0.341518485320786
0.334575284095568 0.0904697793680752 0.34157520617097
0.329103924115101 0.0915029111409942 0.341631178880991
0.318160163835131 0.0935532097711264 0.34170295212655
0.310082749683473 0.0923801948161696 0.341678708098504
0.300193585941706 0.088677205574103 0.341353575918563
0.286248784447006 0.08609448028049 0.339759715186216
0.276879105295901 0.0861902248135951 0.339827591278643
0.262806632874007 0.0877478922719645 0.340931867177702
0.256148146500024 0.0957767928531775 0.341692111524334
0.249745530670456 0.0870077716641436 0.340407174089185
0.242928404927829 0.0880465051796173 0.341143562578602
0.237128853388498 0.0895897444635824 0.341470265421921
0.22879282452112 0.094777020261015 0.34170101062098
0.210169053009695 0.0938631459393943 0.341702460430489
0.199051970105739 0.097491363174927 0.341609189227799
0.188767305964373 0.0912459921633489 0.341617259600013
0.175521552328647 0.0910664037582034 0.341607529912099
0.168475279736845 0.0904478272928248 0.34157401685788
0.156018421282636 0.0927227856439838 0.34169726888384
0.15343613267611 0.0939371103398653 0.341702343090185
0.139857646440753 0.09404457781529 0.341702172599162
0.128336568455116 0.0943345089672989 0.341701712639919
0.119678812878389 0.0940320722695478 0.341702192438497
0.110298684388817 0.0953691462339331 0.341700071246882
0.0993771234622878 0.0927671747558663 0.341699673784118
0.0894709640839277 0.0933589124474667 0.341703260368177
0.0808003118281126 0.0950343705835598 0.341700602349365
0.0691688708566708 0.098565720412648 0.341557229755317
0.0572749878817637 0.103067711013387 0.34123503093072
0.0431929876176527 0.100134045908534 0.341467215996212
0.0319340642243684 0.102690750461795 0.341266782899359
0.0234832076919047 0.0984093407618176 0.341465819277056
0.0147484640159359 0.0961628946971102 0.340913147359983
-0.00200687686281232 0.104313560177463 0.334132246480351
-0.0143052594379832 0.097258064955312 0.340823004607993
-0.0259268109518132 0.102020831370788 0.341312766327588
-0.0254269456129842 0.0971505643755678 0.341614258381097
-0.0429462454104549 0.0983790947879938 0.341566255588316
-0.0534906524803974 0.100149481491717 0.341466328900323
-0.0725429830728647 0.107366398441701 0.340920833342323
-0.0779541769277315 0.103226114831782 0.341221688332794
-0.0845593301270993 0.102012404777068 0.341323921002581
-0.0981923768360228 0.101791824458272 0.34134250082303
-0.110432857446346 0.104463315075442 0.341129389160094
-0.123857138096937 0.108031592823927 0.340873046165429
-0.144435745726121 0.108343510489411 0.340850638182056
-0.16019124068681 0.100569213435787 0.341442206554069
-0.161943288271991 0.102142566817996 0.341312957253128
-0.179047180376336 0.105739420655468 0.341037714478651
-0.190457546577546 0.105894745510024 0.341026556031588
-0.204324211753016 0.105097796644437 0.34108380837381
-0.215034188482027 0.1052778369518 0.341070874383016
-0.233850932561039 0.110789225143854 0.34067493946609
-0.253488684062485 0.108051214566169 0.340871636550897
-0.256968199875678 0.105188460852594 0.341077295109915
-0.27359004785262 0.10912605170204 0.340794420877229
-0.274299315914473 0.113740348140558 0.340454918927385
-0.289525493470621 0.106254324916429 0.341000724056514
-0.312737033123299 0.113264722171944 0.340491378382368
-0.321700688945692 0.108827409639922 0.34081587514899
-0.336500463696014 0.107971097442234 0.340877392118407
-0.355891828434449 0.106300943556378 0.340997375000578
-0.373701492891863 0.107821656740746 0.340887253925865
-0.383415278143872 0.112959260051343 0.340282760328427
-0.396980677238031 0.108024516300926 0.339033029708093
0.353858838141859 0.0974681775463113 0.341610310561551
0.338329680970538 0.0988453961297657 0.341541275777943
0.33086178216838 0.102161227519433 0.341311385433466
0.323343596278632 0.0958183412608875 0.341690102105799
0.314280067574985 0.0976240014842777 0.341602774400084
0.30270592185649 0.0994903915726175 0.341504207349808
0.297749361837692 0.103584270365114 0.341192539219976
0.286696092219032 0.10162448141768 0.341356596385429
0.276670910164956 0.100691657182737 0.341435169609413
0.261013855269255 0.101430734779495 0.341372915963574
0.266984381351817 0.104701125028849 0.341112305031583
0.250802068305943 0.103136899806416 0.341229203051975
0.240446964836994 0.101840890297503 0.341338367931718
0.235681163309003 0.105320576565124 0.341067803994094
0.219200450121943 0.1024308802928 0.341288672164486
0.203724414156211 0.100443487624468 0.341449432121711
0.204373894070593 0.0993320697754019 0.341513306236052
0.194650674880381 0.101589010508036 0.341359584154854
0.1787626884015 0.107029001680198 0.340945071729111
0.171960716013907 0.100379062682578 0.341453134677063
0.159110416164999 0.0995983300335129 0.341498004036087
0.146423047253539 0.106730042133881 0.340966548808752
0.13211967012823 0.107530766690005 0.340909025223122
0.135100198439127 0.103115428340845 0.341231011626635
0.124629268426677 0.105799928342081 0.341033367641695
0.108255611278038 0.101560855761576 0.341361955672571
0.102325087474474 0.109133399256347 0.340793893033208
0.089212074374143 0.109331034510424 0.340779695031692
0.0765966565962307 0.106789074009632 0.340962307993189
0.0611316526833585 0.108706374292925 0.340824570257806
0.0484834211991257 0.104771571879794 0.341107244170852
0.0360845279119859 0.111865062004266 0.340597651972793
0.0335559139699054 0.107628092723269 0.340902033377592
0.0205894400011717 0.106363324139638 0.340745925906845
0.00590299684702065 0.113920848897788 0.33828253762366
-0.00915708609315389 0.106614440916201 0.339546662846864
-0.0103976772080457 0.111076285257554 0.339443021497094
-0.015665611436086 0.108116686550209 0.34028230960427
-0.0351117090993604 0.108112955709549 0.340867201103126
-0.0457214500647798 0.109703225963926 0.340752957014502
-0.0536244196778029 0.10816561774229 0.340863417893373
-0.0698592313254532 0.108078168708795 0.340869700180994
-0.0851136692385889 0.115305769662791 0.340334920400636
-0.0945250533325023 0.112718200334837 0.340533272411776
-0.0981213634704347 0.109920543762116 0.340737345030483
-0.117220219442874 0.111508422362883 0.340623272756861
-0.118926803234846 0.109927088812758 0.340736874837858
-0.142208912733876 0.119285478397933 0.34002985292946
-0.150993272535401 0.119122454972042 0.340042349608888
-0.169073366131274 0.118441651465397 0.340094537097461
-0.185758049932333 0.115356238281463 0.340331051691919
-0.190406798234294 0.117360698124889 0.340177398362944
-0.211068977235916 0.117456323764618 0.340170068109894
-0.216240747121262 0.115376636093022 0.34032948808282
-0.228854724063293 0.118543566176505 0.340086724751065
-0.253744619625746 0.120646820308638 0.339925498273945
-0.257091104855957 0.119018815635297 0.340050294157718
-0.272524584044463 0.124695935920671 0.339595497432056
-0.279871639828038 0.119350369229581 0.340024878675505
-0.299930674586947 0.119419275609433 0.34001959660678
-0.317026558016108 0.116281779827519 0.340260103630713
-0.323352522053227 0.120328892524302 0.339949869259773
-0.344910099542436 0.122537207820504 0.339771409558868
-0.361531240028479 0.118384154203173 0.340098944591967
-0.364411778728757 0.119053812997356 0.340047611409444
-0.381648096853324 0.125804310845498 0.339366092708563
-0.482998742480291 0.130365980044767 0.273809523809525
0.354478343915445 0.101945236487085 0.341329578691239
0.34654244642497 0.103244767800357 0.341220117164482
0.333915965452834 0.108839561861022 0.340815002140506
0.323987278205504 0.106009773903114 0.341018292458841
0.315650986577885 0.104208241488178 0.341147713498004
0.298810685050414 0.110739987349309 0.340678476680566
0.299369447602979 0.107833196902803 0.340887298812822
0.278462558325276 0.105132304169604 0.341081329373305
0.2788961567209 0.110736819387684 0.340678704265084
0.270669505345729 0.111196251560415 0.340645698925448
0.255375538275684 0.106463627047 0.340985687913387
0.246989686598891 0.105550245292046 0.34105130472655
0.239951035575226 0.112137988935135 0.340577748939139
0.221883308272442 0.110962201787451 0.340662512924786
0.216364882191638 0.112483262138009 0.34055128177034
0.213203294085259 0.115689879377085 0.340305476190772
0.203397631314437 0.111777767008676 0.34060392319442
0.199998852243875 0.112298454278278 0.340565448351407
0.175711059716453 0.111578914023574 0.340618208677024
0.174986587390813 0.11359200105251 0.340466290581448
0.164824318653126 0.116840008248699 0.340217312224577
0.150268700838184 0.111862706168635 0.340597821214653
0.133596330149555 0.114141972945027 0.34042413208553
0.124968401059542 0.112409310949285 0.340556950552564
0.111402801682434 0.116418876473639 0.340249594387469
0.107456626010367 0.114728451004892 0.340379175182769
0.0927953674966007 0.120186434123645 0.339960789512216
0.088765620323374 0.112696857881003 0.340534908433117
0.0761347829390893 0.120564961399943 0.339931773228202
0.0625817806836851 0.119144939238038 0.340040626061105
0.0537557046580288 0.113306388115554 0.340488184449118
0.0419983684417243 0.123167129340411 0.339720078020504
0.03695911372652 0.120492624781261 0.339937318244384
0.0140655387156918 0.120869353668994 0.339124872507602
0.0107598355347694 0.115281218120886 0.33916493778055
-0.00984166417143912 0.124616672077501 0.338289738089908
-0.00825509639015064 0.119246504506289 0.338391519927445
-0.019530078222259 0.116415961306302 0.3399443675449
-0.0333995173320953 0.12499279997466 0.339571306341429
-0.0384145801351527 0.126087178403644 0.339482126774551
-0.0570800386942521 0.119466296840347 0.340015992160082
-0.0699964497890554 0.1209123321321 0.339903818702071
-0.0770789494653025 0.127461302855367 0.339370151044589
-0.0971219631099711 0.127782301436885 0.339343993260672
-0.110848778327799 0.127242279202996 0.33938799901558
-0.116379976781464 0.125541356698992 0.339526605121277
-0.13672268250023 0.125284731925353 0.339547517161899
-0.145157891991208 0.124104196964962 0.339643717519713
-0.158599376454922 0.120987672418718 0.339897679313766
-0.175390607784956 0.124448744631673 0.339615640749491
-0.174403263469185 0.122635557956508 0.339763395125927
-0.194826634662455 0.12726269508159 0.33938633535047
-0.207651804724799 0.129783938441765 0.339177963498094
-0.213689145421463 0.1305226537225 0.339114180873027
-0.231500889310232 0.130125531294577 0.339148469470524
-0.241549197463839 0.125669106570548 0.33951619493965
-0.261071438497837 0.131767504003123 0.339006697217573
-0.276053618308762 0.128883152914679 0.339254286212921
-0.293925974471236 0.133284341757345 0.338875729446516
-0.299989576489309 0.13265179376539 0.338930345307944
-0.317433650887823 0.132257826039487 0.33896436152015
-0.323906451997383 0.133804822016738 0.338830789808599
-0.34705690276739 0.128226522922156 0.339307794192228
-0.346235941090818 0.138976479676788 0.338315962593376
-0.365610400442413 0.137771091703124 0.338484897366395
-0.397006920206908 0.13372932453724 0.336883705982463
-0.485458984576926 0.144598026673749 0.273809523809524
-0.492034588919394 0.144357359161746 0.273299432351563
0.347576926022202 0.114624361891364 0.340387154209565
0.345295166712267 0.114572110251726 0.340391159597052
0.331203110313754 0.112909962019696 0.340518572780179
0.319512669159134 0.114871750099244 0.340368190486339
0.313543331522257 0.113294015480265 0.340489132882486
0.299253838517701 0.119121822403457 0.340042398098893
0.295347617557507 0.119288223995927 0.340029642463646
0.28347352922658 0.115698765827097 0.340304794993475
0.274987800801839 0.121598167804616 0.33984793078743
0.262329518701641 0.118128188367101 0.340118565839529
0.260890958877072 0.117753417643082 0.340147294162292
0.248708121377293 0.122632356292925 0.339763656025598
0.231828928442669 0.118890399726105 0.340060137972751
0.23353518161527 0.116164163630495 0.340269119585946
0.212880554696433 0.117587699791828 0.340159997384859
0.202335349098338 0.116772790875773 0.340222464821248
0.200153662814609 0.121569965214512 0.33985022898219
0.183210350518361 0.117219265131327 0.340188240012059
0.179321306923542 0.121010470837266 0.339895821498372
0.168095412853206 0.120438440441299 0.339941471784421
0.152059886146461 0.126243828798537 0.339469361524435
0.152202884077206 0.118913334670332 0.3400583798779
0.13606862721735 0.123610411936563 0.339683955460993
0.129219929998728 0.127407367600459 0.339374546162899
0.115893365310145 0.122594661656783 0.339766727715642
0.108446001298715 0.125151133020957 0.339558403974097
0.0950824760090009 0.129986259448262 0.339160494568945
0.0835750721727644 0.130549271423072 0.339111882630579
0.0759432655796505 0.129148172217631 0.339232690112317
0.0636157691473258 0.125598858381896 0.339521919379087
0.0532895981749778 0.131175474875789 0.339057814573397
0.0426121725068804 0.12679595244801 0.339424369639892
0.0354829146060981 0.123675116920695 0.339678682730548
0.0209602580071065 0.126065117331067 0.339253278420134
0.00551587935253066 0.133452248555615 0.33651355285591
-0.004211574330113 0.131869452104498 0.336049634309251
-0.0116792092837364 0.134325180386851 0.337686820899037
-0.0237198511152635 0.132979188334696 0.338818048861688
-0.0405087574424401 0.133317219133686 0.338872890727156
-0.0519692841497726 0.13572336783361 0.338665137504252
-0.0604159704281041 0.135645373624594 0.338671871729901
-0.0798308575722591 0.134813244227223 0.338743719976098
-0.0850471132561289 0.134845290293498 0.338740953034242
-0.0914144362266256 0.134162875371767 0.338799874537868
-0.109479721806114 0.131506279638116 0.339029252018004
-0.114744576522112 0.132151391444391 0.338973551363721
-0.130561891860845 0.135842649513118 0.33865483840954
-0.143868159637983 0.135750060916403 0.338662832753103
-0.158521039480608 0.139795245439096 0.33820121281054
-0.174907201663209 0.133837662029395 0.338827954315319
-0.182476043823319 0.14166124276909 0.337863301433959
-0.191711968110453 0.136552972608008 0.33859350724066
-0.205317986272248 0.142401997436431 0.337717687777675
-0.213459220270844 0.139201945119526 0.338284363677322
-0.224425105770351 0.138303003174472 0.33841035012879
-0.246094995590023 0.145104362698225 0.336976522890382
-0.25666282718362 0.144717449537032 0.33711733644791
-0.265944525215789 0.138825591015131 0.338337109595309
-0.286687072397868 0.147240876511625 0.336042002241432
-0.370315162380419 0.151793825564561 0.273809523809524
-0.321295324843526 0.148209895025264 0.335272502951965
-0.336769769890808 0.143299195429057 0.337497244850221
-0.345064788789652 0.146390891136595 0.336501100273305
-0.344427814092044 0.14086100448197 0.338020608067348
-0.441226651795242 0.153765119689872 0.273809523809524
-0.388252396506858 0.145307966447905 0.335973013393007
-0.486636811886915 0.153324933608899 0.273809523809524
-0.494429660921584 0.146641639540512 0.272030997898152
0.349066419445126 0.120445350086492 0.339940942120537
0.339876887552098 0.128143863193867 0.339314530032932
0.335475604429995 0.127944908302664 0.33933074262499
0.319887232067597 0.125176308333467 0.339556352468505
0.313978971927445 0.129076363987277 0.339238541677655
0.306042993711698 0.12770535442139 0.339350263579359
0.290966149653186 0.126412891528993 0.339455584808193
0.28659528432994 0.125902817675268 0.339497150106034
0.269728193001371 0.130882897846362 0.339083076445538
0.268353831230998 0.123552271938063 0.339688693218744
0.249993113740392 0.13268158604133 0.338927772964287
0.252140445257622 0.131162259127526 0.339058955655946
0.245487611804123 0.124685166945199 0.339596374982767
0.228681000884833 0.132744071522399 0.3389223778031
0.221994030861587 0.133921812743983 0.338820688520746
0.207601746158472 0.127994669932597 0.339326687610301
0.200675099108779 0.131008956438656 0.339072192214308
0.191026185029137 0.129489999462101 0.33920334296461
0.180461388624332 0.135474313883568 0.338686641478965
0.16901996793604 0.130070072436965 0.339153257934515
0.153766272078369 0.130337839864913 0.339130138188779
0.151042756147356 0.134127754506513 0.338802906965975
0.130461252972085 0.137675165403224 0.3384966141559
0.12715026444387 0.133738672441601 0.33883650133733
0.111789608447323 0.137561006885969 0.338506470903275
0.107478911633555 0.132349428043075 0.338956452361639
0.0923881267200933 0.132996898052236 0.338900548093901
0.0840240175157498 0.131349816379294 0.339042761468308
0.0801161006895124 0.138466784424412 0.33838739623437
0.0663664084604626 0.134242461777173 0.338793002837784
0.0534757118309703 0.136392183654421 0.338607390182855
0.0432595957306436 0.141500493785976 0.337894900623552
0.0343305632348958 0.142993984394401 0.337579001875209
0.022610377508809 0.136247460634685 0.338473117508393
-0.0125594117940613 0.143900563395454 0.320433357386687
-0.00433136294933782 0.139403523241782 0.33474807724485
-0.0178768584019748 0.135862150311566 0.338248122749991
-0.019855487050274 0.138261989260133 0.338110536270182
-0.0388124806359266 0.143013953674746 0.337573652694587
-0.0409497173394929 0.14659680451896 0.336391503701573
-0.0613863791910355 0.13780886676681 0.338479603202234
-0.0808076807433156 0.142549556218819 0.337688681448362
-0.0764617156343791 0.146385160213035 0.336503218073889
-0.16478161064346 0.15264964774518 0.273809523809525
-0.097916029469509 0.142878086043216 0.337610047621653
-0.201820677718096 0.152127007345969 0.273809523809524
-0.126611058066814 0.141291154707955 0.337936051398427
-0.227569733622269 0.155343149081282 0.273809523809524
-0.232149736709805 0.155217550036281 0.273809523809525
-0.173400694724515 0.143524315946238 0.337436941710235
-0.18146611584222 0.144588465904988 0.337151887354759
-0.278318784865385 0.154907461128469 0.273809523809524
-0.292228291462706 0.156123891762334 0.273809523809524
-0.295917241535151 0.155656538963057 0.273809523809525
-0.316582540668665 0.156131478475792 0.273809523809524
-0.319005553788286 0.154772157654731 0.273809523809524
-0.330290432463718 0.15282131916805 0.273809523809524
-0.34486537954357 0.155291936465912 0.273809523809524
-0.368762679527823 0.153874192583761 0.273809523809524
-0.370461755999613 0.154603938049029 0.273809523809525
-0.394552433567221 0.156338778388727 0.273809523809524
-0.407262279315186 0.155074732967864 0.273809523809524
-0.431932564453802 0.156359650577901 0.273809523809525
-0.429214968635536 0.157771969593379 0.273809523809525
-0.446117043920204 0.156294963466194 0.273809523809524
-0.464128693427402 0.15734371292694 0.273809523809525
-0.488100848016486 0.158637924042257 0.273809523809524
0.34431493288248 0.128638262616035 0.339274242025451
0.343996585269114 0.136142689233871 0.338628932188953
0.326801597572686 0.137209777508746 0.33853679697377
0.320426743280128 0.130539238777867 0.339112748875618
0.309544163059553 0.1353993497108 0.338693114083295
0.311483851412994 0.13402132054643 0.338812096754717
0.288357630060116 0.138265241823492 0.338415642371119
0.285815150476853 0.135295590792141 0.338702072901908
0.278535451043633 0.137187544422763 0.338538716637035
0.265917116014406 0.133558840467051 0.338852028504165
0.260999602592368 0.135503367464422 0.33868413291619
0.251562925340784 0.13525129981278 0.338705897101845
0.235302577284719 0.14028189055759 0.338133009639089
0.232907576186844 0.13792931105249 0.338462722970718
0.213128893177552 0.137887805509232 0.338468539960502
0.208278690173803 0.135941765966375 0.338646280433631
0.203807192225584 0.142156716337143 0.337765903846043
0.182951385159449 0.13711463254004 0.338545012041231
0.175115494616119 0.140248976368106 0.338137622553147
0.168438541918611 0.144320929190875 0.337223552541588
0.164755207572672 0.138663549584231 0.338359819654598
0.150105360161989 0.144904151285592 0.337050508844306
0.142722406401799 0.138999348683632 0.338312757508736
0.130032355797248 0.142951212115759 0.337590459305828
0.115526978989593 0.144988618050775 0.337019295068255
0.113368320061886 0.144628765462735 0.337141092293062
0.08989911278906 0.145937520959592 0.336668638300159
0.0856590820336108 0.141640204867596 0.337867436953979
-0.00464354295549887 0.154973151515354 0.273809523809524
0.0556930234466244 0.144471839812095 0.337183128041721
-0.0214253739558517 0.152906706377665 0.273809523809524
-0.0332904546583789 0.152148899477355 0.273809523809524
-0.034261821744834 0.154269878898499 0.273809523809524
-0.0548047717991797 0.155748290372487 0.273809523809525
-0.0679313309857491 0.148026502253929 0.273809523809524
-0.0767291193765119 0.151376989059633 0.273809523809524
-0.0919004176870758 0.159189694444956 0.273809523809524
-0.0929976732923872 0.154744474596564 0.273809523809524
-0.0370446202483286 0.147045336990086 0.336148110485652
-0.111246835370586 0.154300834197724 0.273809523809525
-0.124711641357976 0.152132090630427 0.273809523809525
-0.143956152191926 0.153101391038339 0.273809523809524
-0.163534036392178 0.1532799991937 0.273809523809524
-0.173931993256273 0.159932492224196 0.273809523809524
-0.178830253468012 0.153536463895209 0.273809523809524
-0.203843696745004 0.155705712362253 0.273809523809524
-0.212321848706939 0.15725550502206 0.273809523809525
-0.219337334224787 0.165237765550985 0.273809523809524
-0.235757415148197 0.162505985459026 0.273809523809525
-0.249457872009875 0.166240913265614 0.273809523809524
-0.258567570127672 0.158609500434823 0.273809523809524
-0.264804296292546 0.159366168111636 0.273809523809525
-0.290435571734189 0.167903661629441 0.273809523809525
-0.29291864657644 0.160073365210471 0.273809523809524
-0.300722620804027 0.166845620563532 0.273809523809525
-0.32932485941977 0.163012634970928 0.273809523809525
-0.340719608896572 0.172196940321123 0.273809523809524
-0.343956091672371 0.169541139015098 0.273809523809524
-0.365902078596385 0.16458727143052 0.273809523809524
-0.382954153975694 0.171616316921393 0.273809523809524
-0.387162533012251 0.171858177452521 0.273809523809524
-0.411254529551889 0.173602608488744 0.273809523809524
-0.419174218234917 0.167794295135728 0.273809523809525
-0.441520170787112 0.169291657535513 0.273809523809525
-0.449028549418489 0.175998688144669 0.273809523809524
-0.4605419478222 0.175402433636236 0.273809523809525
0.346800629575154 0.143491692752942 0.337445680500536
0.333139478316105 0.141456625830596 0.337903523955484
0.332955536930279 0.143348941425297 0.337483919366554
0.322515591703055 0.140156153153825 0.338150631699562
0.30445157750116 0.142855054827629 0.337616217004324
0.304112333064358 0.148198443120312 0.335283383193296
0.292638970836096 0.140731703901892 0.338046025295284
0.226434130403532 0.152086617544784 0.273809523809524
0.274061291099094 0.146871835923822 0.336242259706059
0.197979074885872 0.153920461179254 0.273809523809524
0.248293978846443 0.147937426204022 0.335531370497826
0.178319387766273 0.153726605541582 0.273809523809525
0.172681768395186 0.155414690945548 0.273809523809525
0.158448908587947 0.152206548072518 0.273809523809524
0.214773555133491 0.145414257129048 0.336862004767871
0.143287140003837 0.152350326318818 0.273809523809524
0.126010051765178 0.156430735399904 0.273809523809524
0.12371413359188 0.154619474031151 0.273809523809524
0.109310635724095 0.156951240005625 0.273809523809524
0.168379824172011 0.146860802929613 0.336248246688306
0.0878803541416345 0.154914409771535 0.273809523809524
0.0874320241861748 0.15647168996791 0.273809523809524
0.0587193222302647 0.153409347230884 0.273809523809524
0.0557767498308859 0.154110347957729 0.273809523809525
0.0491200429905827 0.158387834811258 0.273809523809524
0.0355609708029379 0.159583336577638 0.273809523809524
0.0299245499171508 0.159505488307887 0.273809523809524
0.0141846641583665 0.159537897263622 0.273809523809524
0.00632046083141709 0.155842027595914 0.273809523809524
-0.0154658703755836 0.162819621997031 0.273809523809524
-0.0147027634821114 0.160924792985286 0.273809523809525
-0.0254420832152827 0.165810274399248 0.273809523809525
-0.0415682985908826 0.159219288180265 0.273809523809525
-0.0538627524582928 0.161976147989964 0.273809523809524
-0.0593987658890138 0.158170423467833 0.273809523809525
-0.0739042796650433 0.162498302425737 0.273809523809524
-0.0925924047421167 0.164444873542682 0.273809523809524
-0.0895770011358558 0.167746971343256 0.273809523809525
-0.110828298409178 0.163442795567741 0.273809523809524
-0.128030282270333 0.164016063081138 0.273809523809524
-0.132594789768436 0.170429983869292 0.273809523809525
-0.146163972013383 0.171739690230931 0.273809523809524
-0.153728477449755 0.166993743090502 0.273809523809524
-0.170089559181157 0.169947542965951 0.273809523809525
-0.18546708995409 0.168852437439156 0.273809523809524
-0.197293473071655 0.174609875853961 0.273809523809524
-0.208551610418153 0.171479551396821 0.273809523809525
-0.221026575427831 0.169333605243106 0.273809523809524
-0.238547879272266 0.174818821202765 0.273809523809524
-0.249305728422332 0.168774399518136 0.273809523809525
-0.263250857839647 0.17564247872233 0.273809523809524
-0.268191423590442 0.175481954694148 0.273809523809524
-0.294145669139671 0.174979766178397 0.273809523809524
-0.30373411830273 0.177161820677924 0.273809523809525
-0.313873779687185 0.178417121628048 0.273809523809524
-0.318790730162001 0.178733192015321 0.273809523809525
-0.326360366050672 0.176822804745955 0.273809523809524
-0.351046963849773 0.17744078419481 0.273809523809525
-0.359910241146986 0.179354959283373 0.273809523809524
-0.375528921314849 0.179037629486081 0.273809523809524
-0.387522233776034 0.185180335709281 0.273809523809525
-0.415822273386136 0.182262359697377 0.273809523809525
-0.420602755763891 0.186836849893528 0.273809523809525
-0.437885974107829 0.179176059737571 0.273809523809524
-0.455252037444277 0.182724308230745 0.273809523809524
-0.466977558673788 0.187288985950131 0.273809523809524
-0.489720967656367 0.180144982392375 0.273809523809524
0.287270807113196 0.156752031090953 0.273809523809525
0.270903569587802 0.156328361057099 0.273809523809524
0.266026821714134 0.152686175556907 0.273809523809525
0.257427698810001 0.15686539980817 0.273809523809525
0.250748462203018 0.156928694287459 0.273809523809524
0.240017902190405 0.155830868648187 0.273809523809525
0.220973174354896 0.155159398678437 0.273809523809524
0.210969104745552 0.157684101272042 0.273809523809524
0.210234929131726 0.161390436535183 0.273809523809524
0.202125414140672 0.154240891479977 0.273809523809525
0.190207371345392 0.154730939975452 0.273809523809524
0.173610078479969 0.160495184599579 0.273809523809524
0.172928397853493 0.158488588233579 0.273809523809525
0.160259686072666 0.161217688662742 0.273809523809524
0.145542119921685 0.164594852635578 0.273809523809525
0.142439926424089 0.163134312220798 0.273809523809525
0.131658630978759 0.165706375755007 0.273809523809525
0.117211856735487 0.160662139857207 0.273809523809524
0.114265506164897 0.166210029184433 0.273809523809525
0.103833157911652 0.167756197609561 0.273809523809525
0.0861337657099073 0.16777487045078 0.273809523809524
0.0768439500847995 0.164041212047618 0.273809523809524
0.0618492945618332 0.164538403215306 0.273809523809524
0.0555676972119859 0.167463135643786 0.273809523809525
0.040470761979958 0.163440635758382 0.273809523809524
0.0302611976074987 0.172270093054093 0.273809523809524
0.0205934125326463 0.166113821007506 0.273809523809524
0.0165194161310221 0.171813642447212 0.273809523809525
0.000993761321435043 0.166212457990204 0.273809523809524
-0.00580964372388314 0.169674936251618 0.273809523809525
-0.0167762138656849 0.174872907185372 0.273809523809524
-0.0241709989553125 0.168317573833712 0.273809523809525
-0.0485200341779596 0.170184668845926 0.273809523809525
-0.0496086627868456 0.174298571638205 0.273809523809525
-0.0647926229259404 0.176948101967848 0.273809523809524
-0.0772655256770954 0.177072845945576 0.273809523809525
-0.0885440216097685 0.177193647313599 0.273809523809524
-0.093841240933501 0.17100761266435 0.273809523809524
-0.106218714942627 0.174213410667271 0.273809523809524
-0.124883295198692 0.173515956911551 0.273809523809524
-0.141441674695612 0.173950302047066 0.273809523809525
-0.148780094916081 0.180735975036196 0.273809523809525
-0.16250488028836 0.181577095470588 0.273809523809525
-0.177132597789483 0.176211847232645 0.273809523809525
-0.188860735909903 0.184087248461018 0.273809523809524
-0.19813319964026 0.18264956778948 0.273809523809524
-0.207221923365188 0.180896717881053 0.273809523809525
-0.220432732714364 0.185275334437884 0.273809523809525
-0.228961044580208 0.187843347907632 0.273809523809524
-0.245079697482328 0.185828444691987 0.273809523809525
-0.25405201339859 0.187175289667975 0.273809523809524
-0.27414302888808 0.18035723394434 0.273809523809524
-0.28400798161071 0.190142367544626 0.273809523809524
-0.292821021957068 0.184580545481287 0.273809523809525
-0.306377998169346 0.190322603004844 0.273809523809524
-0.325201060316741 0.188406186736081 0.273809523809525
-0.339854485847793 0.184451525198356 0.273809523809524
-0.348208575862415 0.191598179548703 0.273809523809525
-0.359658504329791 0.192872755527878 0.273809523809525
-0.382458367901714 0.192544298554148 0.273809523809525
-0.390897911152056 0.196173719843284 0.273809523809524
-0.409477284186336 0.195779166546821 0.273809523809524
-0.418258115676094 0.192998322666288 0.273809523809524
-0.430821308780731 0.19432846442253 0.273809523809524
-0.453088916110581 0.190824507849591 0.273809523809525
-0.461281392797165 0.19358392441498 0.273809523809525
-0.472398909183653 0.194463895162081 0.273809523809524
0.291369559459177 0.16033315757708 0.273809523809524
0.270639600277032 0.165398682191736 0.273809523809525
0.264119453007787 0.163265448996233 0.273809523809525
0.257907111121974 0.167902901515659 0.273809523809525
0.248781738947953 0.164651314700815 0.273809523809524
0.236378683843243 0.164757264516897 0.273809523809524
0.228445773730507 0.163604073757067 0.273809523809525
0.220694013347868 0.168790836982978 0.273809523809524
0.204513471391462 0.172309363199356 0.273809523809525
0.190053034353911 0.172117215997381 0.273809523809525
0.190863750100407 0.165231073025558 0.273809523809524
0.181986581453389 0.168214182066894 0.273809523809525
0.17238585877609 0.174177205507843 0.273809523809524
0.156883046541225 0.171078542905797 0.273809523809524
0.155738781990142 0.167792208390403 0.273809523809524
0.145266083195094 0.170923653310108 0.273809523809525
0.132185156193915 0.172207178876685 0.273809523809524
0.11421836644372 0.172550153254963 0.273809523809524
0.106494076725287 0.176625260659403 0.273809523809525
0.100415039535389 0.176926303236259 0.273809523809525
0.0938575528675533 0.174419306664888 0.273809523809524
0.0775859455653603 0.173297295225903 0.273809523809524
0.0744215053299304 0.179700568617866 0.273809523809525
0.0556298197893381 0.178890820987778 0.273809523809525
0.0496990990101796 0.18034503676509 0.273809523809525
0.0385220099027595 0.178811122261185 0.273809523809524
0.0302460516856866 0.18284810821693 0.273809523809524
0.0187819135603991 0.179702234425177 0.273809523809524
-0.00613867186268424 0.175407927137222 0.273809523809524
-0.00713041810060362 0.180069883374641 0.273809523809524
-0.00939277068061772 0.176065918099542 0.273809523809524
-0.0240583287190959 0.177813115448543 0.273809523809524
-0.0380005098652658 0.18521246452504 0.273809523809524
-0.0554001542228948 0.180071804927078 0.273809523809524
-0.0552852773167933 0.186765983206681 0.273809523809525
-0.0723400907820703 0.185300428730017 0.273809523809524
-0.0853962500663841 0.185239255433992 0.273809523809524
-0.0934289541810327 0.181083259254548 0.273809523809524
-0.110350117755208 0.190843467424861 0.273809523809525
-0.123991478015418 0.183320081076345 0.273809523809524
-0.124477727926695 0.183419104755318 0.273809523809524
-0.146255818503818 0.190837828799316 0.273809523809525
-0.159788393314493 0.186575491348602 0.273809523809524
-0.173859315563327 0.19210756246753 0.273809523809524
-0.181133028196069 0.195484048208625 0.273809523809525
-0.188258631489203 0.187481253029334 0.273809523809524
-0.206523505538217 0.197856302421834 0.273809523809525
-0.220162987892186 0.193042749324499 0.273809523809524
-0.224530502635277 0.193077268859857 0.273809523809524
-0.249884762790355 0.189898191096529 0.273809523809525
-0.25186415889772 0.200149669688859 0.273809523809524
-0.264729480487743 0.198988016059962 0.273809523809525
-0.286256485009256 0.198796565199864 0.273809523809524
-0.30388266725865 0.202194555086557 0.273809523809524
-0.315067180350904 0.199552071498183 0.273809523809525
-0.321843537541831 0.194342139149712 0.273809523809525
-0.333886882265329 0.201297879075237 0.273809523809524
-0.344159096723361 0.198481039421298 0.273809523809524
-0.356613313765099 0.196489392153577 0.273809523809525
-0.380434790452652 0.202388017318579 0.273809523809524
-0.400857099367425 0.205556532817792 0.273809523809524
-0.39858006853049 0.208002889164732 0.273809523809524
-0.42319320363292 0.202159565259315 0.273809523809525
-0.439600091256346 0.204706237292811 0.273809523809524
-0.45300505392773 0.208960977727797 0.273809523809524
-0.462713190760732 0.203545530131271 0.273809523809524
-0.473711491591637 0.206493001993974 0.273809523809525
0.278578277759476 0.174391866963734 0.273809523809524
0.268624486635643 0.170397590225868 0.273809523809524
0.259419466137122 0.17674240113086 0.273809523809524
0.258288179283275 0.169446638321356 0.273809523809524
0.24621301245499 0.169856931101006 0.273809523809524
0.23697802155758 0.17264064752086 0.273809523809525
0.224812559318901 0.175150855106082 0.273809523809524
0.222470859695872 0.172443531996425 0.273809523809525
0.210982139712063 0.172920930832005 0.273809523809524
0.19285272714002 0.176395442208116 0.273809523809525
0.189203923473388 0.177740205947606 0.273809523809524
0.181649488425942 0.179607864761586 0.273809523809524
0.177034934335175 0.1755179934317 0.273809523809524
0.161970140919702 0.182609404754559 0.273809523809524
0.14833290542911 0.18254474524631 0.273809523809525
0.146837297346168 0.182474973853251 0.273809523809524
0.129191374739676 0.181945747944693 0.273809523809524
0.128698107361007 0.181449147850902 0.273809523809524
0.110238202514549 0.179521938204985 0.273809523809524
0.0979743473977766 0.183497061586205 0.273809523809524
0.0812132634464996 0.186444065033277 0.273809523809525
0.0785114526330931 0.183692824676806 0.273809523809524
0.0760746558427061 0.182550312730311 0.273809523809524
0.059984221414582 0.181482090270003 0.273809523809524
0.0524598610080552 0.186240595392149 0.273809523809524
0.043255140605504 0.191575497239239 0.273809523809524
0.022072907209072 0.190085109286746 0.273809523809524
0.0196891945292388 0.190554874398023 0.273809523809525
0.0013055049428803 0.185052059927233 0.273809523809524
-0.0114495469256907 0.194835658436782 0.273809523809525
-0.0143165287972136 0.194209217394649 0.273809523809524
-0.0198459000248161 0.188914452749407 0.273809523809524
-0.0372255029752905 0.190675642866266 0.273809523809524
-0.0503883167174784 0.188227660345313 0.273809523809525
-0.0574047634675292 0.19167893991305 0.273809523809525
-0.0820923655976778 0.194987809899842 0.273809523809524
-0.0891421926866712 0.196661649678453 0.273809523809524
-0.104078554482702 0.192968778412392 0.273809523809524
-0.116810502872526 0.202179263463124 0.273809523809525
-0.125472955939688 0.202412750923148 0.273809523809524
-0.142575542207249 0.201769642696735 0.273809523809524
-0.138892736259021 0.199508317901185 0.273809523809524
-0.164808457098879 0.19839060297239 0.273809523809525
-0.174583715988659 0.203995919193304 0.273809523809524
-0.18707589470879 0.206264280163081 0.273809523809524
-0.191687683233867 0.202088288860357 0.273809523809525
-0.214585536857422 0.202087563141694 0.273809523809524
-0.22588502215417 0.203896691695001 0.273809523809524
-0.230764777403764 0.199333006291502 0.273809523809524
-0.243440847201636 0.208283536307079 0.273809523809524
-0.256095173055658 0.207934583749534 0.273809523809525
-0.261108902933227 0.202822942861667 0.273809523809525
-0.290371857993932 0.207970032750203 0.273809523809524
-0.298269585603158 0.211497556592731 0.273809523809524
-0.311999216615919 0.209479221174156 0.273809523809524
-0.329918334293102 0.208182980063162 0.273809523809525
-0.334489560691766 0.213996114517741 0.273809523809524
-0.34780142169329 0.208741480167009 0.273809523809524
-0.363634640582519 0.214920389989148 0.273809523809525
-0.374677757519717 0.213498183362182 0.273809523809524
-0.390769807358722 0.217268641905032 0.273809523809524
-0.411029511497573 0.212357754622309 0.273809523809525
-0.419215073306522 0.211865885838184 0.273809523809524
-0.437801083964326 0.211721058200369 0.273809523809525
-0.439184164772105 0.218484707602391 0.273809523809525
-0.468280329341872 0.224704262081304 0.273020429637421
-0.476436759859841 0.215921139221069 0.273809523809524
-0.488127290445523 0.222720594639213 0.273809523809525
0.281881028088259 0.178589062060034 0.273809523809524
0.272942076948317 0.180613146761073 0.273809523809524
0.261502164784926 0.183675653856336 0.273809523809525
0.254633201805974 0.184130275441196 0.273809523809524
0.242035452516685 0.179370219959174 0.273809523809524
0.240191709250763 0.182422435533218 0.273809523809524
0.223421363105425 0.183588335853702 0.273809523809524
0.222167839704034 0.183705875913344 0.273809523809524
0.2071428061147 0.185571461644697 0.273809523809524
0.20017480146136 0.186072513685958 0.273809523809525
0.182256186841587 0.183668214813126 0.273809523809524
0.176986600406238 0.188597644802286 0.273809523809524
0.167302090811056 0.187801487618256 0.273809523809524
0.159328742435779 0.185285170120746 0.273809523809524
0.143436509480677 0.187611421138923 0.273809523809525
0.13955125715924 0.192333691818868 0.273809523809524
0.126971821543148 0.191859205492572 0.273809523809525
0.114249722689414 0.19561145908396 0.273809523809525
0.112719554828884 0.190723392329417 0.273809523809524
0.103148930710418 0.194605734523178 0.273809523809524
0.0887145259935993 0.193429948018511 0.273809523809525
0.0776489131109382 0.198893868346174 0.273809523809525
0.0659202061537865 0.196947672252395 0.273809523809525
0.0616095987334151 0.199742850719612 0.273809523809524
0.0456290144638522 0.198810591382414 0.273809523809525
0.0430173680567738 0.192948815237531 0.273809523809525
0.0280089717175296 0.195869461375294 0.273809523809525
0.0137227262628398 0.19853173205797 0.273809523809525
-0.000980176026493145 0.203140228510439 0.273809523809524
-0.0143060155487671 0.195958137616447 0.273809523809524
-0.00878412825259484 0.200095773420469 0.273809523809524
-0.034793987715118 0.202140851460037 0.273809523809524
-0.0417597569020708 0.199467185172704 0.273809523809524
-0.0495103207863925 0.208200900989411 0.273809523809524
-0.0611139185300953 0.203239990168596 0.273809523809524
-0.0797624943106681 0.209222639146063 0.273809523809525
-0.0873550289731223 0.201148049642487 0.273809523809525
-0.0963440939804569 0.207749491688065 0.273809523809524
-0.111004486422119 0.202472889753273 0.273809523809525
-0.112607885529883 0.205460620027376 0.273809523809524
-0.130708999779622 0.20343128117672 0.273809523809525
-0.150838939601302 0.214942406098353 0.273809523809524
-0.154520275566657 0.213616174681449 0.273809523809525
-0.168507880460595 0.209757190149395 0.273809523809525
-0.186193432638958 0.215721704185535 0.273809523809525
-0.196596349991928 0.209949619886436 0.273809523809524
-0.204734395735463 0.210164637473026 0.273809523809525
-0.212395323618721 0.211537425365757 0.273809523809525
-0.236134936994207 0.210614334628978 0.273809523809524
-0.235509073753187 0.213961287336662 0.273809523809525
-0.262011084478909 0.223022347162617 0.273809523809524
-0.271720469843676 0.220795674935404 0.273809523809525
-0.275015980583624 0.215828649935569 0.273809523809524
-0.286289118034347 0.21987823336373 0.273809523809524
-0.311852713547446 0.221543535782557 0.273809523809525
-0.326201696722359 0.226039186320969 0.272313451351701
