ply
format ascii 1.0
element vertex 842
property float x
property float y
property float z
end_header
-0.133412993841159 -0.0144914666008017 0.151041666666664
-0.163306746953683 -0.00632587499501963 0.151041666666665
-0.166049371223387 -0.0125632541651357 0.151041666666664
-0.180279068466295 -0.00625656922658549 0.151041666666664
-0.192478375984437 -0.00976484596555806 0.151041666666664
-0.204472987609726 -0.0124416496234112 0.151041666666664
-0.211580098597627 -0.0143340398967621 0.151041666666664
-0.218805417369834 -0.00626889927135503 0.151041666666664
-0.241409470597618 -0.0114589668689211 0.151041666666664
-0.247497855469986 -0.0120690827867135 0.151041666666664
-0.259853885811123 -0.00567934455776341 0.151041666666664
-0.267214147434473 -0.0105098250202404 0.151041666666664
-0.287608394138327 -0.0108368006146318 0.151041666666664
-0.304146569496555 -0.0116503213340113 0.151041666666665
-0.309269915811145 -0.0115917990187182 0.151041666666664
-0.319151317571489 -0.00694914974044757 0.151041666666664
-0.34478881490244 -0.00604494416555993 0.151041666666664
-0.34792229319846 -0.00924555395494359 0.151041666666664
-0.367650677386802 -0.0166492196686059 0.151041666666664
-0.380322127959064 -0.00665633762321907 0.151041666666664
-0.386138234339441 -0.00696374277529257 0.151041666666664
-0.408394641798154 -0.0157082791723406 0.151041666666665
-0.421561137385352 -0.0111573972031384 0.151041666666664
-0.422155877095224 -0.0103446385174225 0.151041666666664
-0.447021890440791 -0.0157784825255307 0.151041666666664
-0.458333333333327 -0.0101290292170819 0.156309049958022
-0.458333333333327 -0.0134042847402421 0.166832055478016
-0.458333333333327 -0.0164000901864043 0.17755704289731
-0.458333333333327 -0.0132199189844276 0.180661828119903
-0.458333333333327 -0.00605260884685029 0.199458559166175
-0.458333333333328 -0.010001427877048 0.210166649757921
-0.458333333333327 -0.00772229583335563 0.21563191777837
-0.466322027252742 -0.0132760163116407 0.218749999999997
-0.494897571560957 -0.0117795850478302 0.218749999999997
0.1655983221965 -0.000192021061637266 0.151041666666664
0.15588400205569 -0.00050236095931468 0.151041666666664
0.141487797630224 0.00202215321433278 0.151041666666664
0.131542486762397 -0.00430453849570401 0.151041666666664
0.127490721962233 0.000707631378185442 0.151041666666664
0.116146061139663 0.00284474417548182 0.151041666666664
0.103293946841443 0.00046976290264884 0.151041666666665
0.0870912773357045 -0.00379128833358286 0.151041666666664
0.0811138914523158 0.00454905528859523 0.151041666666664
0.0764916713810236 0.00397113474661098 0.151041666666664
0.0699806089375441 0.00108798550515868 0.151041666666664
0.0534649331195057 0.00239790359003816 0.151041666666664
0.0404499560924958 -0.000635194634721585 0.151041666666664
0.0261097712862509 0.00432003467263661 0.151041666666664
0.0242184522754467 0.00482810742305641 0.151041666666664
0.00331502830925788 0.000597782980375201 0.151041666666664
-0.00027780137158957 -0.00474635588321696 0.151041666666664
-0.00847679468970668 0.00472672030126637 0.151041666666664
-0.0134843362637513 0.00194042257457281 0.151041666666664
-0.0251114522242113 -0.00395859261912533 0.151041666666664
-0.0392424498985554 -0.00209355673579033 0.151041666666664
-0.0573106613571286 -0.00235586132912145 0.151041666666664
-0.065759256975617 -0.000204242680501302 0.151041666666665
-0.080288396833166 -0.00379069882602952 0.151041666666664
-0.0875029974010386 0.00408661592147872 0.151041666666664
-0.103208200751483 -0.00425684038941795 0.151041666666664
-0.101992978510773 0.00128073557143805 0.151041666666664
-0.115522784418294 0.00241721912744913 0.151041666666664
-0.129043782392782 0.00223622781118454 0.151041666666664
-0.141027703795185 0.00479404490083562 0.151041666666664
-0.14932749220809 -0.000373424854961506 0.151041666666664
-0.1696893334016 0.00108709802009083 0.151041666666664
-0.174746536652541 0.0024718889911054 0.151041666666664
-0.183054001501326 -5.17471958075149e-005 0.151041666666664
-0.197171033666874 -0.00129664494751245 0.151041666666665
-0.218943266583629 -0.00332851206342939 0.151041666666664
-0.236122517654559 0.00312984469532905 0.151041666666664
-0.237065909143925 -0.00289197848860421 0.151041666666664
-0.241447934449445 -0.00403481189114014 0.151041666666664
-0.259648336754043 0.00520705137778773 0.151041666666664
-0.277211645505903 -0.000552344106179846 0.151041666666664
-0.288934117379747 -0.00547976724824132 0.151041666666664
-0.301181821464839 -0.00270847950197319 0.151041666666664
-0.302015330547201 0.00495017176602143 0.151041666666664
-0.322540019055952 0.00203111866461667 0.151041666666664
-0.345351644714927 0.000221901413916514 0.151041666666664
-0.355746564055159 -0.000150925954062021 0.151041666666664
-0.354398462788362 -0.00120487841380151 0.151041666666664
-0.370314485952357 -0.00199235326617575 0.151041666666664
-0.38763507019963 0.00388327927883484 0.151041666666664
-0.40872385263502 -0.00140498105133705 0.151041666666664
-0.423190100604687 -0.00442273384873322 0.151041666666664
-0.422348183454909 0.00219968526131289 0.151041666666664
-0.445125832742044 0.00153567026852623 0.151041666666664
-0.457186716236205 0.00489483499543887 0.151041666666664
-0.458333333333327 -0.000700788422800602 0.160225024760162
-0.458333333333327 0.000737092406823321 0.179148151365993
-0.458333333333327 -0.00582585315652589 0.183195546128139
-0.458333333333327 -0.000891410789824962 0.200304154824949
-0.458333333333327 -0.00172565511917391 0.213808330786031
-0.458333333333327 -0.00218342005718572 0.214929645841816
-0.486148460800053 -0.00213499726804478 0.218749999999997
-0.495506596782235 0.00437303792832436 0.218749999999997
0.154661058551694 0.0113373210042873 0.151041666666664
0.144996674568312 0.00769772739743219 0.151041666666664
0.14581440520109 0.0124957374361822 0.151041666666664
0.14055034177444 0.0141518125211648 0.151041666666664
0.122938507101928 0.0096612358462253 0.151041666666664
0.117838672780808 0.0143405274124078 0.151041666666665
0.100409637790286 0.00576979011090018 0.151041666666664
0.0892485053119745 0.00711993580290907 0.151041666666664
0.0737968835372247 0.0130191692951719 0.151041666666664
0.0729246710996204 0.0110484112082925 0.151041666666664
0.0582281210173667 0.0136567934142793 0.151041666666664
0.0575061517445232 0.00851152521211541 0.151041666666664
0.0442733304039223 0.00812530652727958 0.151041666666664
0.0355803240595036 0.0114097257309775 0.151041666666664
0.0221257010717813 0.0116018137610287 0.151041666666664
0.0152629098703305 0.0105601294835849 0.151041666666664
-0.00513648026803447 0.00593379710548614 0.151041666666664
-0.00953221561141975 0.00689119393031396 0.151041666666664
-0.0225828014672585 0.0087637529039048 0.151041666666665
-0.0274725415027 0.0104036762803037 0.151041666666664
-0.0426263515954157 0.00506943278407434 0.151041666666664
-0.0532850498206149 0.0144377359838171 0.151041666666665
-0.0590873637793307 0.013844729494141 0.151041666666664
-0.0690713219369469 0.0124869670085798 0.151041666666664
-0.0811577857982166 0.00970033860777503 0.151041666666664
-0.0924676904800373 0.0142350670348227 0.151041666666664
-0.108781190985311 0.0143507114270394 0.151041666666664
-0.115842801337406 0.0147796225639353 0.151041666666665
-0.126702777160394 0.00853067999869055 0.151041666666664
-0.133416703132525 0.00954480341395274 0.151041666666665
-0.159668981681669 0.0125471443580365 0.151041666666664
-0.165841707703825 0.0122150027002716 0.151041666666664
-0.172128418907603 0.00908305437959778 0.151041666666664
-0.188332445168901 0.0115187296663199 0.151041666666664
-0.203330732075876 0.00743475636549171 0.151041666666664
-0.214870014949374 0.00537133637386076 0.151041666666664
-0.227287375401255 0.0127939165451615 0.151041666666664
-0.242544971666473 0.011775476066809 0.151041666666664
-0.250735429675273 0.0111522453499231 0.151041666666664
-0.259971300378636 0.0100103223739128 0.151041666666664
-0.273807378821662 0.0147419546318443 0.151041666666664
-0.281325500673122 0.00597243917285601 0.151041666666664
-0.297711429117992 0.00908452675568639 0.151041666666664
-0.316554884307613 0.0158043923985957 0.151041666666664
-0.334993597099548 0.0109250257081511 0.151041666666664
-0.348100947033799 0.0148689602512534 0.151041666666664
-0.345565730303619 0.0092355673709384 0.151041666666664
-0.370309000329836 0.0158868019325401 0.151041666666665
-0.382543292742086 0.0068745171720004 0.151041666666664
-0.385617176368191 0.00766231949547335 0.151041666666664
-0.399329016744892 0.00566572466367771 0.151041666666664
-0.414750849299603 0.0104534257823343 0.151041666666664
-0.423676680717194 0.00928438703014267 0.151041666666664
-0.442793565975399 0.0146632761339759 0.151041666666664
-0.45456245906221 0.0138448749405305 0.151041666666664
-0.458333333333326 0.0163794863383549 0.164949624832593
-0.458333333333327 0.0107931456452699 0.166942466245094
-0.458333333333327 0.0106938023661372 0.181659700158029
-0.458333333333327 0.0152679112864936 0.198434480443155
-0.458333333333327 0.0114441456255976 0.209676600000951
-0.460857106464273 0.008937283849676 0.218749999999997
-0.477332336662084 0.0142191510848682 0.218749999999996
-0.487794247193073 0.0152011643778841 0.218749999999997
-0.499491821877672 0.0108333770903609 0.218749999999997
0.161310487974468 0.0183462972347219 0.151041666666664
0.144322935307447 0.0213730786585929 0.151041666666664
0.136870309722367 0.0151508320562935 0.151041666666664
0.126190371581653 0.0193576342377118 0.151041666666664
0.125255942807308 0.0213989477484475 0.151041666666664
0.114855809788723 0.0201392063305011 0.151041666666664
0.101572631895517 0.0158053999042997 0.151041666666665
0.0971205610567267 0.0151937516764621 0.151041666666664
0.0856891153003449 0.0220914137993712 0.151041666666664
0.0798501839589048 0.0146447046965068 0.151041666666664
0.0687997265261328 0.0161449725397713 0.151041666666664
0.052614833738637 0.019494219754888 0.151041666666664
0.043686087307835 0.0167625847257801 0.151041666666664
0.0407581617436743 0.0245936176527873 0.151041666666664
0.0243014377691576 0.0209275601296098 0.151041666666664
0.0117133155543476 0.0174789728296495 0.151041666666664
0.00330167178483841 0.0240677739381693 0.151041666666664
-0.00423868822579634 0.0183223692735541 0.151041666666664
-0.0218756414183241 0.0191233047090318 0.151041666666664
-0.0242879255386965 0.018818074819232 0.151041666666664
-0.0503758083523317 0.0241875235511682 0.151041666666664
-0.0538900297986511 0.0160217966148112 0.151041666666665
-0.0567392818496828 0.0234589395802429 0.151041666666664
-0.0717807396688538 0.0235618402833979 0.151041666666664
-0.0839140865629648 0.0156161549886098 0.151041666666664
-0.101776712848842 0.018554007520774 0.151041666666664
-0.112126637385409 0.019904111454953 0.151041666666664
-0.116968156039774 0.0210429034807968 0.151041666666664
-0.128634311116202 0.0220450955026486 0.151041666666664
-0.145066988804983 0.0250470133555833 0.151041666666665
-0.158059014630139 0.0235219507704893 0.151041666666665
-0.164886790159157 0.0227281385954616 0.151041666666664
-0.185188763991392 0.0228779332105174 0.151041666666665
-0.182240568854147 0.02564787024956 0.151041666666664
-0.205476145818248 0.0265532147244186 0.151041666666665
-0.214591444594932 0.0185156237875246 0.151041666666664
-0.230855595781945 0.0263703653817815 0.151041666666664
-0.245809259745002 0.018121962349736 0.151041666666664
-0.248562572087264 0.0256626140973001 0.151041666666664
-0.266533444055476 0.02292107235579 0.151041666666664
-0.27533243301294 0.0209067830267012 0.151041666666664
-0.288454998169005 0.023113200988673 0.151041666666664
-0.306684645789916 0.0164427772160335 0.151041666666664
-0.307755889095971 0.027279001656658 0.151041666666664
-0.33334063123914 0.0169179379859812 0.151041666666664
-0.347285908530398 0.0216644979494313 0.151041666666664
-0.360665596478396 0.0253503556338535 0.151041666666665
-0.366447776878715 0.0191488606465754 0.151041666666664
-0.372542610683614 0.0256999748653698 0.151041666666664
-0.386063423984492 0.0221878817393256 0.151041666666664
-0.402871617015939 0.0243264325992532 0.151041666666665
-0.425787986795285 0.0250615628115216 0.151041666666664
-0.434020078879375 0.0191273981790837 0.151041666666664
-0.44388372224763 0.0220752308585926 0.151041666666664
-0.458333333333326 0.0244333111200553 0.15316839723943
-0.458333333333326 0.0240860576543771 0.166676503976066
-0.458333333333326 0.0190964007091915 0.177599360425527
-0.458333333333326 0.0207054428221867 0.180578849064534
-0.458333333333326 0.0211871791289698 0.194354499873429
-0.458333333333326 0.025255430730769 0.211855959116844
-0.467145870467038 0.022061938680882 0.218749999999997
-0.471381247770564 0.0189407284079395 0.218749999999997
-0.497200643548276 0.0203747259941016 0.218749999999997
0.162222709244299 0.0258719611231812 0.151041666666664
0.15200101526561 0.0322526040842119 0.151041666666664
0.133076523172442 0.0312105520320071 0.151041666666664
0.129162964833672 0.0243202233916069 0.151041666666664
0.12136421303721 0.0310918449897355 0.151041666666664
0.119613441596534 0.0247577357609802 0.151041666666664
0.108572028280038 0.0244176056223758 0.151041666666664
0.0899881039650822 0.0339029316197868 0.151041666666664
0.0838901926242962 0.029937583989963 0.151041666666664
0.0745307589707789 0.0279023862862482 0.151041666666664
0.0595856982123397 0.0278655226324582 0.151041666666664
0.0529807471359326 0.0267092421262349 0.151041666666664
0.0346126753522478 0.0312779871893837 0.151041666666664
0.0326794665728083 0.0252407602247408 0.151041666666664
0.0217554404153528 0.0261644833217839 0.151041666666664
0.0126654713882124 0.0252619812950821 0.151041666666664
-0.00154200166693967 0.0327711114325436 0.151041666666665
-0.0098755296403976 0.0338089970846557 0.151041666666664
-0.0220406760434392 0.026912867297477 0.151041666666664
-0.0385548221492566 0.0337186529238048 0.151041666666664
-0.041161024328566 0.0285090142321554 0.151041666666664
-0.0525165632581759 0.0341696653334857 0.151041666666664
-0.0578683612582222 0.0271858864093748 0.151041666666664
-0.0815770300916107 0.0284049650718631 0.151041666666665
-0.0934284088633931 0.0301645764645668 0.151041666666664
-0.0969055782693512 0.0261404794447 0.151041666666664
-0.116853500600648 0.0274959156374375 0.151041666666664
-0.128279471948922 0.0325878182217697 0.151041666666664
-0.129846314900522 0.0303397483762581 0.151041666666664
-0.14087153572167 0.0346450663301921 0.151041666666664
-0.150230230053958 0.0276548894277134 0.151041666666664
-0.16186989757874 0.0352654279587437 0.151041666666664
-0.179206969212011 0.0335235847143435 0.151041666666664
-0.190893843050215 0.0320738572359091 0.151041666666664
-0.191661373530518 0.030168573263386 0.151041666666664
-0.219406651861834 0.0346923234393093 0.151041666666665
-0.228550469626847 0.0300908882695527 0.151041666666664
-0.234325325166929 0.0271750174998311 0.151041666666664
-0.248821640444946 0.0299492331189197 0.151041666666664
-0.262729066924626 0.0345786485346361 0.151041666666664
-0.278894757069369 0.038014022213903 0.151041666666664
-0.292824641463079 0.0360037875773477 0.151041666666664
-0.303607656938437 0.0326221546735584 0.151041666666664
-0.309831820446985 0.0314257456000629 0.151041666666664
-0.325049907020331 0.031576085615587 0.151041666666664
-0.339429275083062 0.03535657588414 0.151041666666664
-0.349569553873537 0.0287830593587611 0.151041666666664
-0.375086662350636 0.0280137733493212 0.151041666666664
-0.377879006051071 0.0339742999395996 0.151041666666664
-0.388979263069674 0.0373805779580373 0.151041666666664
-0.400631633504397 0.0362483947919896 0.151041666666664
-0.41464420783144 0.0335774014021867 0.151041666666664
-0.432889720590016 0.0350319572729169 0.151041666666664
-0.444575436323164 0.0379831382314158 0.151041666666664
-0.458333333333325 0.0371073985029634 0.154804967217175
-0.458333333333326 0.0339048052933925 0.167770414368331
-0.458333333333325 0.0322040524045644 0.171907681950692
-0.458333333333325 0.0295563184208719 0.19009911243243
-0.458333333333325 0.038536029350583 0.194136168210846
-0.458333333333325 0.0399208739442349 0.215192562126058
-0.462243642600851 0.0293306225949943 0.218749999999997
-0.480497825077582 0.0344211956346881 0.218749999999996
-0.491047643736858 0.0321635576876324 0.218749999999997
0.164046024049952 0.0386713901710409 0.151041666666664
0.144559298191918 0.0418078738440202 0.151041666666664
0.137982786039312 0.0358042083981754 0.151041666666665
0.130910137900581 0.0366022560369496 0.151041666666664
0.129383087361785 0.0420845254342104 0.151041666666664
0.114290733547012 0.0343126683176481 0.151041666666664
0.103449699300675 0.038481239496579 0.151041666666664
0.0999451476837774 0.0404746273451263 0.151041666666664
0.0860338122193876 0.0361784664360527 0.151041666666665
0.0723152884122893 0.0397390001608454 0.151041666666664
0.0588886196329437 0.0416960014039832 0.151041666666664
0.0513298965416086 0.042909898294842 0.151041666666664
0.0404579941038002 0.038577299908782 0.151041666666665
0.0303002014313269 0.0395433239318708 0.151041666666664
0.0269332441920495 0.0410805589696093 0.151041666666664
0.0166478832427823 0.0419277116617809 0.151041666666665
0.00443737613312736 0.0394743868894582 0.151041666666664
-0.0175168491337842 0.0407122591251679 0.151041666666664
-0.0210512932522492 0.0409250959533583 0.151041666666665
-0.025185518457993 0.0383873283508194 0.151041666666664
-0.0372754354649817 0.0426255203077828 0.151041666666664
-0.057741996642105 0.044288599459265 0.151041666666664
-0.072678826202444 0.0412078032352406 0.151041666666665
-0.079821041082446 0.0378709382020055 0.151041666666665
-0.087804261462157 0.0447335218628101 0.151041666666664
-0.0994915900657675 0.0454788627907099 0.151041666666664
-0.0988421731114797 0.039407681604391 0.151041666666664
-0.122933719365359 0.0378319286361955 0.151041666666665
-0.13022907573708 0.0426788442623714 0.151041666666664
-0.150452930108777 0.0445019769567157 0.151041666666664
-0.145486274122258 0.0455193053366708 0.151041666666665
-0.158879255058269 0.0449479450442015 0.151041666666665
-0.18216866887812 0.0401614509238802 0.151041666666664
-0.191386400404802 0.0460316617979245 0.151041666666664
-0.207288956584671 0.0461763665921129 0.151041666666664
-0.216310682529305 0.0426945680815609 0.151041666666664
-0.225199191960679 0.0419993823937958 0.151041666666664
-0.229352802281573 0.0450513157846987 0.151041666666664
-0.246162861972832 0.0474215907493914 0.151041666666664
-0.261717331263871 0.0401604488693474 0.151041666666664
-0.280873397203555 0.0439263118232278 0.151041666666665
-0.294742000465936 0.0441230413848215 0.151041666666664
-0.296509707474412 0.0484219085457901 0.151041666666664
-0.312920214288469 0.0464158199807436 0.151041666666664
-0.326925650579484 0.0456776064057739 0.151041666666664
-0.333265993721061 0.0434928252088641 0.151041666666664
-0.354724577700879 0.0431567798116991 0.151041666666665
-0.367528992278594 0.0397223458757951 0.151041666666664
-0.38005480058804 0.0506675821261302 0.151041666666665
-0.389280197197711 0.0460715190869381 0.151041666666664
-0.403247960069426 0.0438410725865181 0.151041666666664
-0.413092442063416 0.0410009612477879 0.151041666666664
-0.435430194813726 0.0515509199739562 0.151041666666664
-0.453286671354514 0.040394908175111 0.151041666666664
-0.458333333333325 0.048089520493654 0.152739012764359
-0.458333333333325 0.0419208170977326 0.161296194517848
-0.458333333333325 0.0433873496499091 0.178880484785589
-0.458333333333325 0.0404847762825811 0.184530949966921
-0.458333333333325 0.0430829209277118 0.199123710234514
-0.458333333333325 0.0416804758667926 0.210853192253308
-0.468599923582591 0.0516209252683866 0.218749999999997
-0.479970189613987 0.0432336097250517 0.218749999999997
-0.494065728027896 0.0523210227577032 0.218749999999997
0.15874828888727 0.042922308745497 0.151041666666664
0.154315183666278 0.0496653048663506 0.151041666666665
0.137274562056956 0.0448439922115574 0.151041666666664
0.135288138412572 0.0501187099558958 0.151041666666664
0.122938405013874 0.0482349760468251 0.151041666666664
0.112160774769549 0.0443813741606774 0.151041666666664
0.103872245870975 0.0445098003127014 0.151041666666664
0.096923340743923 0.0482035841891403 0.151041666666664
0.0780028498557153 0.0534642750009779 0.151041666666664
0.0740774189561585 0.0494382373597308 0.151041666666664
0.0619141859464834 0.0516621716794091 0.151041666666664
0.0593590094495139 0.0502589076314993 0.151041666666665
0.0384684237703426 0.0521289782977519 0.151041666666665
0.0340692086408218 0.0524057485943173 0.151041666666664
0.0276305329390181 0.0526219366451851 0.151041666666665
0.0112813172597287 0.047425835440056 0.151041666666664
-0.00157901822085347 0.0477361076934986 0.151041666666664
-0.00300283810968239 0.0499165639360367 0.151041666666664
-0.0206579822877109 0.052410554086137 0.151041666666664
-0.0311340021467297 0.0550175974578286 0.151041666666664
-0.0449324424103021 0.0490670877337986 0.151041666666664
-0.0508693666519874 0.0460754280579067 0.151041666666664
-0.0656558370223452 0.0503292400312057 0.151041666666665
-0.0728386127235498 0.0531968764683253 0.151041666666664
-0.085204784752225 0.0543499132660253 0.151041666666664
-0.102098926089252 0.0496261813441145 0.151041666666664
-0.108286769810525 0.0529115632110273 0.151041666666665
-0.116712710309408 0.052391631744489 0.151041666666664
-0.128567067803652 0.0521241386568454 0.151041666666664
-0.137591279336137 0.0522105486771903 0.151041666666664
-0.156128294364032 0.0567973156675001 0.151041666666664
-0.162500517461408 0.0521058319515928 0.151041666666664
-0.176258884238161 0.0530583518235177 0.151041666666665
-0.193814013578249 0.0527725985256001 0.151041666666664
-0.192626055666148 0.0561840778087994 0.151041666666664
-0.205399163736404 0.0569290356999723 0.151041666666664
-0.226325921834517 0.0550499793479866 0.151041666666664
-0.231927728344761 0.0562136001168504 0.151041666666664
-0.250571446247933 0.0497136974051533 0.151041666666664
-0.256267154866221 0.0568123489031532 0.151041666666665
-0.271613133681981 0.0498995465062615 0.151041666666664
-0.289608766543613 0.0592323761250002 0.151041666666664
-0.298866069763477 0.0584659947979583 0.151041666666664
-0.317324560032978 0.0586136404653949 0.151041666666664
-0.329395119156573 0.0566876348119738 0.151041666666665
-0.345282276213356 0.0598154633436351 0.151041666666664
-0.343970724551584 0.0505341373228323 0.151041666666664
-0.361753443482383 0.0530896051152955 0.151041666666664
-0.378760460384783 0.0521205336859663 0.151041666666664
-0.393231929725773 0.0559645345182316 0.151041666666664
-0.406294441467985 0.0576158609889572 0.151041666666664
-0.415434648908445 0.0578907723926743 0.151041666666664
-0.433432832096542 0.0574121111938382 0.151041666666664
-0.444274287210439 0.0626052150677017 0.151041666666664
-0.458333333333324 0.0580214223098608 0.157248673090183
-0.458333333333324 0.0528534356040253 0.171620407540612
-0.458333333333324 0.0601058262980595 0.182679485086478
-0.458333333333324 0.0519079200995749 0.195053977443968
-0.458333333333324 0.0556547297233753 0.20651719430118
-0.458333333333324 0.0562872861580609 0.215269149517265
-0.461825471167432 0.0563406929914503 0.218749999999997
-0.476245207456819 0.0562153985638561 0.218749999999997
-0.488025314939975 0.0595510789819697 0.218749999999996
0.15463303165255 0.0613183618409776 0.151041666666664
0.151881924405432 0.0607386069848961 0.151041666666664
0.140963426202682 0.0540220142672792 0.151041666666664
0.135545541956789 0.053156728256763 0.151041666666664
0.122506962936278 0.0579715116372293 0.151041666666664
0.114336515016543 0.0545963084688406 0.151041666666664
0.102518528519381 0.0551921219372339 0.151041666666664
0.0899766348272938 0.0586583482239073 0.151041666666664
0.0809022759463631 0.0555685169775232 0.151041666666664
0.0716462637473828 0.0635049947513189 0.151041666666664
0.061489077769356 0.0593246135221841 0.151041666666664
0.0589549779031232 0.0605736866240341 0.151041666666665
0.0393279715733384 0.0641742928549515 0.151041666666664
0.0251433759125286 0.0609164551582448 0.151041666666664
0.0266305190479068 0.0637588562603359 0.151041666666664
0.00751760892392922 0.0584832441214952 0.151041666666665
0.00894036304568612 0.06433135923233 0.151041666666665
-0.0101825995737609 0.0578824102688365 0.151041666666664
-0.0193743011080893 0.0585783350358577 0.151041666666665
-0.0309194441813198 0.0635881685554816 0.151041666666664
-0.044576501433975 0.0648317876756774 0.151041666666664
-0.0508416178978786 0.0563119794657327 0.151041666666664
-0.0542279113036682 0.0621244773936735 0.151041666666664
-0.0768885488552995 0.0578236805106832 0.151041666666664
-0.0891068993033529 0.0575881574917018 0.151041666666664
-0.10141195275505 0.0569983815803718 0.151041666666665
-0.101666901491605 0.0625681464247682 0.151041666666664
-0.120750452846668 0.0609751285857146 0.151041666666664
-0.132942160779819 0.0648006288482605 0.151041666666664
-0.133583065215637 0.0605505626878175 0.151041666666664
-0.149906151898418 0.0606345786855636 0.151041666666664
-0.157662648434621 0.0611109494830593 0.151041666666665
-0.179827996338947 0.0623253200067114 0.151041666666664
-0.185600171925821 0.0663022498073905 0.151041666666664
-0.19989107802336 0.0596456193588427 0.151041666666664
-0.213184896742169 0.0649933807158297 0.151041666666664
-0.223689498812708 0.0593572106300049 0.151041666666664
-0.237959334062799 0.067491682584455 0.151041666666664
-0.247022147917905 0.0650988906774864 0.151041666666664
-0.256941877719229 0.0647413536807578 0.151041666666664
-0.273985701415887 0.0664864839453863 0.151041666666664
-0.289782173366845 0.0651042870859911 0.151041666666664
-0.293497580206302 0.0675159254559071 0.151041666666664
-0.308085370467673 0.0611606179327327 0.151041666666665
-0.328044896601571 0.0675854997918605 0.151041666666664
-0.336406161018109 0.0645063736024771 0.151041666666664
-0.348929730077645 0.0613391085185654 0.151041666666664
-0.369683413830072 0.0730889167114228 0.151041666666664
-0.376530362455961 0.0638839356066937 0.151041666666664
-0.381947632955991 0.0634058057599014 0.151041666666664
-0.40104538900743 0.0633091323077647 0.151041666666664
-0.411966597744008 0.0723788559542124 0.151041666666664
-0.428197363061457 0.0639498491223126 0.151041666666665
-0.436497643422052 0.0700715560726814 0.151041666666664
-0.458333333333324 0.0658737357525474 0.159409280268349
-0.458333333333324 0.0726045552918614 0.16704290865189
-0.458333333333324 0.0634797635387807 0.174329793743517
-0.458333333333324 0.0648960026131486 0.185035947143158
-0.458333333333324 0.0636827916028953 0.200564480482438
-0.458333333333324 0.0717736184647131 0.208040395835688
-0.461977268869653 0.0641339883607925 0.218749999999997
-0.472140404753501 0.0646644134387475 0.218749999999997
-0.486142900283442 0.0749775997057436 0.218749999999997
0.159443367767862 0.0675903447556536 0.151041666666664
0.149865429468558 0.0618066213690218 0.151041666666665
0.138211713491094 0.0690333407788422 0.151041666666664
0.134513098194149 0.0669939176396047 0.151041666666665
0.126253995390912 0.0635436768997516 0.151041666666664
0.116500539722791 0.0657335836086618 0.151041666666664
0.101472668089193 0.0650316608645994 0.151041666666664
0.0965073059278228 0.0678022732002892 0.151041666666664
0.0843513154074457 0.0634651351051503 0.151041666666665
0.0735982150371741 0.0650463065109941 0.151041666666664
0.0553031027351108 0.0677471046533801 0.151041666666664
0.0548912186163224 0.0644886024889314 0.151041666666665
0.0354962668703452 0.0689522654671168 0.151041666666664
0.0333423946889786 0.0678103625662102 0.151041666666664
0.0174059104945686 0.0685068333884409 0.151041666666664
0.012330974503001 0.0667550757703985 0.151041666666664
0.00980494503643349 0.0678596427541346 0.151041666666664
-0.00614970928031346 0.0724286336479227 0.151041666666664
-0.0219341740822518 0.0712308164911774 0.151041666666665
-0.0260377132414685 0.0675268737332524 0.151041666666664
-0.049022814601266 0.0755136844023077 0.151041666666664
-0.0521855965835096 0.0668785394840008 0.151041666666664
-0.0552894162467857 0.0713279583942623 0.151041666666664
-0.0649500557347507 0.0700210395966724 0.151041666666664
-0.0914499580691867 0.0707325050427285 0.151041666666664
-0.0994890672265675 0.076099138177249 0.151041666666664
-0.10646048023358 0.0771967847685811 0.151041666666664
-0.114713950279808 0.0733427712865867 0.151041666666664
-0.13007181313529 0.0718712735157223 0.151041666666664
-0.141740226592511 0.0722859503070387 0.151041666666664
-0.148088577686123 0.0760041274673398 0.151041666666664
-0.168116716939865 0.0703087899082186 0.151041666666664
-0.168240670675899 0.0750872245125582 0.151041666666664
-0.182630905671394 0.0729534067867748 0.151041666666664
-0.206765117527774 0.0746999609420087 0.151041666666664
-0.203438956528358 0.0785196947231497 0.151041666666664
-0.213782859654497 0.0785079122816726 0.151041666666664
-0.241942554386014 0.0810363647611372 0.151041666666665
-0.252765883266507 0.0724808552551851 0.151041666666664
-0.257048183478629 0.0741808339870387 0.151041666666664
-0.269329782547531 0.0717229196733563 0.151041666666664
-0.290825767827887 0.0752841708402393 0.151041666666664
-0.291640972452499 0.0761646568448897 0.151041666666664
-0.302230054612981 0.0739449133829322 0.151041666666664
-0.325626770180183 0.080828264762684 0.151041666666664
-0.338595017289579 0.081303544833511 0.151041666666664
-0.344686059837838 0.0734066720022302 0.151041666666664
-0.356106985144497 0.0764619985841313 0.151041666666664
-0.383966499728185 0.0794886602922302 0.151041666666664
-0.387524603094591 0.0812550497112357 0.151041666666664
-0.405449245059034 0.0809811678212981 0.151041666666664
-0.406736253764258 0.0821215948911685 0.151041666666664
-0.434361347998941 0.0745576216763725 0.151041666666664
-0.434723236898407 0.0848557962562364 0.151041666666664
-0.458333333333324 0.080761096076117 0.15189606921217
-0.458333333333324 0.0767967553281055 0.159323104390466
-0.458333333333324 0.0837975244080572 0.180256382967271
-0.458333333333324 0.0765909085492211 0.187372352631434
-0.458333333333323 0.0758924030819675 0.20427186183935
-0.458333333333324 0.0782751960348799 0.201394027775818
-0.458575420919602 0.0831545575975723 0.218749999999997
-0.468278671815378 0.0826190865482159 0.218749999999997
-0.495302302010296 0.0846097351259618 0.218749999999997
0.157065012167844 0.0792651852685858 0.151041666666664
0.145676572866231 0.0751346280374891 0.151041666666664
0.136308112611692 0.0751452027190526 0.151041666666664
0.128015013250454 0.080320764391506 0.151041666666664
0.125786286324056 0.0746816569401199 0.151041666666664
0.114693345948859 0.0782854442777388 0.151041666666664
0.10055663565823 0.0725641779364885 0.151041666666664
0.0951790002442236 0.0760565748924354 0.151041666666665
0.0842726532070449 0.0763860023062048 0.151041666666665
0.077584305658815 0.0740387354463755 0.151041666666664
0.0629833935404849 0.0799859750038752 0.151041666666664
0.0563971417516242 0.0788424750874889 0.151041666666664
0.0381280985965084 0.0799618494455981 0.151041666666664
0.0411137124202796 0.0832177241715719 0.151041666666664
0.0198802546778882 0.0772408114276232 0.151041666666664
0.00974410215485782 0.0773076351236133 0.151041666666664
-0.00482659635927451 0.0771591231977832 0.151041666666664
-0.0112666448634405 0.0823322798204729 0.151041666666664
-0.0239431099577331 0.0774356456340098 0.151041666666665
-0.0244930631620761 0.0853979194592356 0.151041666666665
-0.0347137482926114 0.0855865731038263 0.151041666666664
-0.0496747102703683 0.0792042182701849 0.151041666666664
-0.0588646207098709 0.079932264542205 0.151041666666664
-0.0798441362103576 0.0789573217070465 0.151041666666664
-0.0805098546987875 0.084077065297326 0.151041666666664
-0.09976621331604 0.0848445126387157 0.151041666666664
-0.105766768646217 0.078446758493449 0.151041666666664
-0.112389794368261 0.0788263854136368 0.151041666666665
-0.123318934467618 0.0812437845588351 0.151041666666664
-0.13648484441589 0.0811163771364379 0.151041666666664
-0.157816580577776 0.0825721472439348 0.151041666666664
-0.162019476059509 0.0826109307727447 0.151041666666664
-0.176947904609421 0.0826299112502298 0.151041666666664
-0.186947825458977 0.0826197533406577 0.151041666666664
-0.19862316497099 0.0842127346246169 0.151041666666665
-0.218066333183547 0.090697377357382 0.151041666666664
-0.221048875609858 0.0887784178367364 0.151041666666664
-0.233948946533915 0.0862855918522516 0.151041666666664
-0.252930522723645 0.0864566587364127 0.151041666666665
-0.254015167664932 0.0895805149688196 0.151041666666664
-0.271084904577346 0.0912528600624836 0.151041666666664
-0.277054344803468 0.0887637794265617 0.151041666666664
-0.2960652233614 0.0856452199569871 0.151041666666664
-0.308001520610662 0.0902966265556785 0.151041666666664
-0.329529120932642 0.0906948043946896 0.151041666666664
-0.331828489712919 0.090152942638186 0.151041666666664
-0.354505615746349 0.0920807301776058 0.151041666666664
-0.368490395520717 0.0948299516230462 0.154956491300157
-0.381971136788965 0.0883255823980162 0.151041666666664
-0.385071202141929 0.0868320838413995 0.151041666666664
-0.40115447952787 0.0873468445604867 0.151041666666664
-0.408470481912503 0.0963765501608089 0.160562910999541
-0.422228658895455 0.0880301938029034 0.151041666666664
-0.430330309518908 0.0956861456128259 0.158060194513098
-0.453246081661136 0.0878954706030807 0.151041666666664
-0.458333333333323 0.0899344867479696 0.163090503499699
-0.458333333333323 0.0886758524319673 0.174206291413875
-0.458333333333323 0.0907347866557315 0.179467313737343
-0.458333333333323 0.0951522396992387 0.199816296271737
-0.458333333333323 0.0909788645254881 0.211358590184141
-0.458333333333323 0.0891694562805045 0.213982272269124
-0.477565686044963 0.0963084043704172 0.218749999999997
-0.490254566780039 0.0879175895799747 0.218749999999997
0.163645213154246 0.0884216808202273 0.151041666666664
0.148709230518084 0.0869776693789328 0.151041666666664
0.137799205652816 0.0859285076514383 0.151041666666664
0.12781368887719 0.0867664150767341 0.151041666666665
0.122480085104515 0.0875665070617665 0.151041666666664
0.10704465793918 0.0909501142399766 0.151041666666664
0.11037417439531 0.0861032520782217 0.151041666666664
0.093577653124784 0.0904358470754974 0.151041666666664
0.0845651811005536 0.0863111069684933 0.151041666666664
0.0682730058046967 0.0915469777590155 0.151041666666665
0.067070335266827 0.0852855631135059 0.151041666666664
0.0536350053513261 0.0833457819432302 0.151041666666665
0.0413131723887311 0.0884920473371308 0.151041666666664
0.0327688509735697 0.093366320614651 0.151041666666664
0.0213722679690293 0.084534560415994 0.151041666666664
0.0181676071740536 0.092138286610752 0.151041666666664
0.00568473077138833 0.0890923815070276 0.151041666666664
-0.00937245224905217 0.0883141765456722 0.151041666666664
-0.0205652690427702 0.0918871825658308 0.151041666666664
-0.023967358280633 0.0952248002143535 0.1563878174437
-0.0377792135560916 0.0894433652348936 0.151041666666664
-0.0532628458809611 0.0913525541657471 0.151041666666665
-0.0598556025270474 0.0904906849044617 0.151041666666664
-0.0700031118672396 0.0876530198710278 0.151041666666664
-0.0724680681485399 0.0961600814918829 0.159778212074736
-0.102415577032539 0.0911965240169142 0.151041666666665
-0.104493993654588 0.0925157175092059 0.151041666666664
-0.108868821167719 0.096939054248429 0.16260198831721
-0.131398244738392 0.0943030560079427 0.153046494695444
-0.133325001903206 0.0962896805761611 0.160248008755235
-0.156564566555867 0.0913268896606315 0.151041666666665
-0.162446023853971 0.090983000255152 0.151041666666665
-0.173506459386275 0.0946745424607744 0.154393133086953
-0.172745927276051 0.0974267363468813 0.16436983592409
-0.186541711951593 0.0966004028138229 0.161374376866751
-0.214931018763271 0.0920432695603294 0.151041666666665
-0.20446773204372 0.098930245747112 0.169820057499922
-0.219045278681896 0.0973279041378613 0.164011569166385
-0.24427388327457 0.0973357888186594 0.164040151134274
-0.252234075452252 0.0982544306239934 0.167370227678609
-0.259309523959452 0.0970633164637826 0.163052438847843
-0.271332866850355 0.0957789694311184 0.158396680854434
-0.302475173407385 0.0943181037950996 0.15310104292386
-0.304994733851921 0.0959648044720859 0.159070332877936
-0.31641642537758 0.096967956311586 0.162706758296122
-0.330092191242906 0.0956963147398572 0.158097057598603
-0.322068795058648 0.102711494537384 0.183527084364639
-0.352628565992897 0.0982498528509344 0.167353633251254
-0.358349441889184 0.0999343302058933 0.173459863662979
-0.37013162712439 0.100386942217705 0.175100582205795
-0.400466283484177 0.0962679120769899 0.160169097945698
-0.391169616702539 0.100639711737889 0.176016871716457
-0.372076456251807 0.10651623163394 0.197319256339647
-0.392023640655121 0.105708551522743 0.194391415936554
-0.420286452148835 0.101583373697979 0.179437646321779
-0.418513246170856 0.107196309459259 0.199784538456421
-0.457431523239304 0.100258156928394 0.174633735532029
-0.433974487945383 0.10666659791552 0.197864334110364
-0.458333333333322 0.101434143601999 0.196046692816258
-0.458333333333323 0.105348293807959 0.212656242396809
-0.458333333333322 0.099188850132452 0.216519058831015
-0.474017096687664 0.102777036540238 0.218749999999997
-0.487616122427972 0.100392456674656 0.218749999999997
0.157401990491137 0.0935705679116166 0.151041666666664
0.151887863123343 0.0902290191895003 0.151041666666664
0.15441623338428 0.0959276772833575 0.158935746818869
0.151579072963372 0.0980516012848152 0.166634971324152
0.134384500202363 0.0967265586945132 0.161831691934305
0.11972734655037 0.0934175839510658 0.151041666666664
0.0967445281264945 0.0931975834074913 0.151041666666664
0.0920518887913718 0.0927537266081028 0.151041666666664
0.0938059688807601 0.0959381369066883 0.158973662953433
0.0962482857446176 0.0995938005958641 0.172225443826696
0.0623867232073633 0.0937464051750576 0.151041666666664
0.0739447649082425 0.101041137795121 0.177472041173996
0.0762380212389438 0.100201979803002 0.174430093452566
0.0530387752449206 0.0978051477662239 0.165741577319243
0.0514607583376737 0.0990342034401766 0.170196904137321
0.0172025514736412 0.0955693243702255 0.157636717508742
0.0172136283045442 0.0964982234398307 0.161003976636061
-0.00213793363010704 0.0973036927354801 0.163923802832787
0.0034926699723585 0.101585892509371 0.179446777013144
0.0101829888033259 0.104419601116666 0.189718970714588
-0.0324941776398385 0.0967595486425063 0.161951280495752
-0.0317401037353384 0.0983740810809883 0.16780396058525
-0.0318102893618076 0.10267649254214 0.183400202131926
-0.0283258522558519 0.104862853978357 0.191325762338212
-0.0403005792053344 0.105197405150877 0.192538510338594
-0.0750171631667442 0.0988825210067049 0.169647055315966
-0.0658893085418487 0.103199141427884 0.185294804342741
-0.0875900763931248 0.103082220483006 0.184870965917555
-0.0879384446889588 0.103747756396281 0.187283533603176
-0.0945703563786419 0.105067021072605 0.192065868054849
-0.122783065277731 0.100448453525679 0.175323560697238
-0.119619254575592 0.105516323630948 0.193694589828841
-0.15590688769166 0.0998967361690262 0.173323585279367
-0.122084841406733 0.109158833590569 0.206898688432465
-0.173520769496012 0.100509580685303 0.175545146650868
-0.164521917597039 0.104280634294098 0.189215215982753
-0.15568480147176 0.110139586509616 0.210453917764004
-0.191824059281464 0.105027012573156 0.191920837244331
-0.196190607722708 0.106782668376411 0.198285089531131
-0.20195605976759 0.108859389548439 0.205813203779732
-0.228011599609239 0.104122995988266 0.1886437771241
-0.241364725224458 0.103096580952941 0.184923022621047
-0.249427205802079 0.104282518732204 0.189222047070872
-0.229059792086286 0.111923967632359 0.216922299333938
-0.250947416364214 0.113598933427658 0.222994050341893
-0.290457925789648 0.106144887984257 0.195973135609559
-0.288925632106411 0.110204692278508 0.21068992617622
-0.292283552473229 0.111057363283649 0.213780858569855
-0.280049446683291 0.114464127739865 0.226130379723638
-0.331889680393723 0.106403637427614 0.196911102341721
-0.33229143309219 0.108712989713698 0.205282504378775
-0.353250374694625 0.108719173491072 0.205304920571753
-0.356156037152067 0.113344495957521 0.222071714512629
-0.356627385064547 0.115124509429187 0.22852426334742
-0.356707372264025 0.115971529367032 0.231594710622106
-0.367273422507451 0.117026232236687 0.235418008524603
-0.412931225282883 0.112122404082448 0.21764163146548
-0.389778027742957 0.118310114100157 0.240072080279678
-0.423967639651389 0.113535376650971 0.222763657026375
-0.455201339683628 0.109654752818381 0.208696395633231
-0.433946425621963 0.118242003353061 0.239825178821451
-0.479160283897571 0.112324356600373 0.218749999999997
-0.49080977662202 0.116030381031146 0.218749999999997
-0.496155134626282 0.117538504888117 0.218749999999996
0.179950889268807 0.0999545188334308 0.173533047437888
0.193190430344426 0.104837135795133 0.19123253392406
0.18991337074928 0.105888286082505 0.195042953715786
0.160354016425429 0.101400901414914 0.17877618429576
0.171120293724432 0.107317617181528 0.20022427894974
0.15183497056959 0.1055299839995 0.193744108664885
0.13743366635672 0.102075837996828 0.181222829405196
0.129967236322942 0.102773675132154 0.183752489020753
0.118946197920915 0.102974647325027 0.184481013219916
0.132987542785093 0.10943095791444 0.207885139106539
0.109492651893457 0.107125342270667 0.199527282397859
0.109642326826004 0.108953653510969 0.206154910643953
0.073603639494872 0.10246398941515 0.182629878296603
0.0869299484313008 0.108632850619224 0.204992000161375
0.0629524315061749 0.104363019838037 0.189513863579567
0.0704291864116322 0.110058218835249 0.210158959944462
0.0637261835650003 0.110775556840392 0.212759310213104
0.0670175139698386 0.112306124342214 0.218307617407209
0.0367370856541992 0.106316897121182 0.196596668730964
0.0165160523405757 0.106158130972323 0.196021141441346
0.00608774444132913 0.106531950116798 0.197376235840066
-0.00241261977640908 0.107277390969878 0.200078458932481
-0.0132991013128828 0.108488063848318 0.204467148116824
-0.00701842415261633 0.110894679574537 0.213191130124368
-0.0310727150751168 0.109701645072637 0.208866380054979
-0.0338644975886839 0.111618205912678 0.215813913100123
-0.047621990904532 0.109399888556904 0.207772512685443
-0.0565613164181312 0.109754130817379 0.209056640879662
-0.0678369380931276 0.108507228631756 0.204536620456777
-0.0726915241607779 0.110990621306695 0.213538918903432
-0.0704096803681608 0.113718894030772 0.223428907528209
-0.0917311101532436 0.113686856172022 0.223312770290239
-0.0866287292891485 0.115952790187772 0.231526781097331
-0.0971412701957647 0.118087179758486 0.239263943291169
-0.131927222407935 0.112241377243018 0.218072909172592
-0.140289640820972 0.11179200874466 0.216443948366042
-0.150429873118843 0.11197673429093 0.21711357847127
-0.164901113831175 0.111823574475814 0.216558374141472
-0.169397230673319 0.112910367442941 0.220497998647306
-0.153076953159712 0.118554650154565 0.240958523476945
-0.157167592367672 0.12111989119079 0.250257522233261
-0.204088141824539 0.113981813361466 0.224381990101955
-0.188720167221047 0.120140961944271 0.246708903714623
-0.200584094705099 0.120757045259118 0.248942205730943
-0.240942625518719 0.116228499924772 0.232526228893934
-0.251712025959085 0.115433149138831 0.229643082294894
-0.24243979368075 0.119930213522305 0.24594494068499
-0.251785193222235 0.11966149333007 0.244970829988137
-0.274905909224139 0.119069894159358 0.2428262829943
-0.261399446832107 0.123540187500798 0.259031096357023
-0.284271076024981 0.121605729339437 0.252018685522087
-0.320858499935203 0.118654395657614 0.241320100925473
-0.302630655597168 0.122851986173841 0.256536366546799
-0.309823231672045 0.124968255723973 0.264207843666026
-0.33382355189913 0.122090955147186 0.253777629075167
-0.348428225976994 0.121155033551169 0.250384913289605
-0.335866314195625 0.127981554450444 0.275131051549478
-0.370286966483347 0.125718993177651 0.266929266935598
-0.401331168470994 0.12036847120005 0.24753362476679
-0.398451698849514 0.123222368753609 0.257879003398441
-0.418472893400714 0.122093081955659 0.253785338755869
-0.404914881625646 0.128201968954622 0.275930054127113
-0.438859557023446 0.123592317578109 0.259220067887248
-0.457678178525548 0.122470368978936 0.255153004215244
-0.435893984581811 0.12976457197167 0.281594490063907
0.226288884630237 0.111226910459453 0.214395467082228
0.21648717952371 0.112152582296217 0.217751027490493
0.197590263036743 0.109408768757372 0.207804703412178
0.191237382998648 0.110692954537243 0.212459876864211
0.199358611147608 0.114515430301631 0.226316351510118
0.176475112125257 0.109578232157236 0.208419008236684
0.164641029840348 0.111281799421266 0.214594439568789
0.160980067325075 0.113338570540037 0.222050234874334
0.167319005080082 0.116732637940969 0.234353729202713
0.130735212919716 0.111331065622133 0.214773029546925
0.152159512736327 0.118628116154123 0.241224837725393
0.129722840017722 0.115142911705985 0.228590971600888
0.113981007721913 0.113694062219738 0.22333889221324
0.0974057816971999 0.111227084753301 0.214396098897405
0.105005078530486 0.116104512829441 0.232076775673415
0.0980260690321471 0.116674459523725 0.234142832440192
0.0970494710209103 0.120030278814836 0.24630767737047
0.063692926544895 0.114508874082328 0.226292585215123
0.0825670077723319 0.117999735278835 0.238946957052463
0.0749152834661415 0.121327687044639 0.251010782203503
0.0627206076326444 0.120751033950978 0.24892041473898
0.0415704033612029 0.117497859247182 0.237127656437713
0.0223603302355669 0.115724465291263 0.230699103347506
0.0200891292132627 0.117950012583803 0.238766712282963
0.0136378064024669 0.11941418026506 0.244074320127516
0.00302593411123389 0.118645347253176 0.241287300459436
0.0098012444550738 0.123793491387566 0.2599493229466
-0.0178011238308236 0.119622521430159 0.244829556850997
-0.00633972273118147 0.124279483773577 0.261711045345887
-0.0199930746774739 0.123645367437302 0.259412373626889
-0.0573103745084209 0.11800105839138 0.238951753335417
-0.0664757459516073 0.119495965869926 0.244370792945144
-0.0636921529355683 0.121322396822723 0.250991605149033
-0.0744832982996977 0.121090411625233 0.250150658808129
-0.0665501350601988 0.124342982172676 0.261941227042614
-0.0993175051850107 0.121303316010184 0.250922437203574
-0.109745882808586 0.121412226041899 0.251317236068537
-0.11589505198986 0.124669217307912 0.263123829407836
-0.112120791696021 0.12809158887816 0.275529926349983
-0.145966378317212 0.120945601612711 0.249625722512726
-0.163009641254706 0.122267788019177 0.254418648236164
-0.145566335697365 0.12714431605444 0.272096062363994
-0.171568501687093 0.1245205074148 0.262584756045297
-0.163770599827227 0.12821060532473 0.275961360968793
-0.163046068941188 0.130883710523002 0.285651367312528
-0.19737432313764 0.125734409824357 0.266985152279934
-0.182966213408633 0.131823992759774 0.289059890420825
-0.226922509785093 0.125534935083215 0.266262056343292
