ply
format ascii 1.0
element vertex 851
property float x
property float y
property float z
end_header
0.245350873281736 0.08927596110885 0.333628267642716
0.245663347129312 0.0933273914177296 0.336008249120305
0.248462899064497 0.0912073494231704 0.357331255198956
0.248039001053292 0.0932908097574825 0.354102602872117
0.250179595940647 0.0855633862957657 0.370406611103345
0.251071444141792 0.0933241798984971 0.377199442618711
0.253521126760563 0.0876389473865547 0.398144071179808
0.253521126760563 0.0807026007110814 0.406338482801672
0.253521126760563 0.0831568704703734 0.422645601476663
0.253521126760563 0.0831960549840309 0.422392235554621
0.253521126760563 0.0797956562993638 0.442011662059954
0.253521126760563 0.0802132888004095 0.450782754802725
0.253521126760563 0.0833285808602085 0.458133257511821
0.253521126760563 0.0829348805806396 0.4603724268815
0.253521126760563 0.0924591911428958 0.468932668142269
0.253521126760563 0.0861158104798152 0.486532765614203
0.253521126760563 0.0800628193826853 0.494643268544287
0.253191327820635 0.0782250954992123 0.511127027318241
0.252251043124249 0.0825829886424191 0.51332353477679
0.250778219193345 0.0931805271888365 0.516171823443978
0.247742734948441 0.0998610481231478 0.520483193302053
0.240214330173562 0.0943398536844005 0.527021444005774
0.235312901925844 0.103012323219367 0.529446927097149
0.236640994730779 0.115273501422489 0.52897470473828
0.23018382746757 0.122213007886129 0.530956259724224
0.214581644558554 0.128848915708337 0.530112881887118
0.000884686511973298 0.383412344395066 0.269373133396131
0.00212769718829795 0.387477058775066 0.269328559205021
-0.0172850691564076 0.403947193009756 0.269862585684687
-0.0150395613857716 0.401384554455466 0.269835754495502
-0.0271050614230669 0.4223564446528 0.269979923096625
-0.0404375567059786 0.436825004138489 0.270139230807739
-0.0426834025190917 0.444826317880031 0.270166066036135
-0.058084700118461 0.450818654264179 0.269996806294168
-0.0651718314085954 0.451762892855407 0.26991212337171
-0.0585932941247556 0.456815579048846 0.286565078124634
-0.0614125406787465 0.456815579048846 0.289489110509175
-0.0650579429411156 0.456815579048846 0.302035757484315
-0.059810665250406 0.456815579048846 0.322340619658397
-0.0653360645903739 0.456815579048846 0.324961881419354
-0.0578999455632921 0.456815579048846 0.334570030587719
-0.0692589409805884 0.45981860444914 0.340595985114909
-0.0722191526598536 0.472815604406067 0.340595985114909
-0.0862672315705923 0.488306924344021 0.340595985114909
0.215509739501081 0.112306384035265 0.106340940338068
0.217049530201367 0.113691105295398 0.118068876530072
0.218991171323333 0.106724198540684 0.132857537860441
0.219524077810647 0.110866043465949 0.136916461763775
0.219899062688232 0.113721430669324 0.139772563386206
0.223848049441512 0.0972851007591545 0.169850329576722
0.2233960456887 0.105576916791996 0.166407607672675
0.226314460381709 0.102806400005505 0.188635941234539
0.227657797575303 0.0995038013302544 0.198867573941431
0.227052276255533 0.110791347733557 0.194255573492384
0.230741188980844 0.095576517446122 0.222352465526007
0.232729452603581 0.0985271162274231 0.237496230776708
0.232803248897001 0.0957047068404626 0.238058306012179
0.233968523675613 0.0938038949933767 0.246933712421095
0.237166156122668 0.0867594370245063 0.271288729825455
0.237513297971201 0.092186644722991 0.273932762841379
0.238563322034442 0.0913942336927904 0.281930353170689
0.240598745315602 0.0889331829636713 0.297433313644941
0.24385233014362 0.0799400890006895 0.32221449673118
0.244450523416734 0.0830638168404625 0.326770682540237
0.246521314008555 0.0785478279595904 0.342543020899838
0.248134481344128 0.0781119277938626 0.354829835968345
0.248621343936279 0.0767735701976841 0.358538062946182
0.24981019598323 0.0800809704607467 0.367593047461797
0.253521126760563 0.0630059556176812 0.398386930531091
0.253521126760563 0.0686729643868345 0.401919952230137
0.253521126760563 0.0667943176104434 0.406367167528752
0.253521126760563 0.0727542038377252 0.415911407446033
0.253521126760563 0.0727944115124346 0.430918092119319
0.253521126760563 0.071984033912559 0.437685743732165
0.253521126760563 0.0683089685731701 0.442431318401077
0.253521126760563 0.0635646130351872 0.459176719875371
0.253521126760563 0.0663693023233304 0.468168509572431
0.253521126760563 0.0764367800447996 0.463451936980715
0.253521126760563 0.0695752657750006 0.480136588652774
0.253521126760563 0.0714538299981108 0.488781700826296
0.253521126760563 0.0696222143842281 0.501250643925168
0.250603061401525 0.0660678675773114 0.51647007669133
0.25163299249851 0.0762314243932253 0.514636417987097
0.248272212346712 0.0799637326270579 0.519832015234763
0.243866746384002 0.0814425550866903 0.5243728013459
0.240930313367595 0.0869202025818303 0.526623867900838
0.232414460992516 0.102293799640998 0.530477509153983
0.227711650049341 0.100864269828001 0.53139681291196
0.213638559666226 0.11966226696081 0.529800922140038
0.00522092409500039 0.358292141046893 0.269217636515528
0.00342606419729198 0.374816945540678 0.269281999943469
-0.0173448718525019 0.383077545292158 0.269863300256898
-0.0172893764956985 0.395817098625039 0.269862637152349
-0.0331801476786948 0.402085851782697 0.270052513265657
-0.0330020289710863 0.418086434227699 0.270050384955613
-0.050930555875746 0.420056584899226 0.27008228994296
-0.0561291066403727 0.434638250643463 0.27002017334694
-0.0710730798735622 0.447921431880486 0.269841610360776
-0.0789155018587543 0.453272370901216 0.269680520706719
-0.0727875823300688 0.456815579048846 0.277366788325817
-0.0738748393475308 0.456815579048846 0.288118172231019
-0.0730068384811913 0.456815579048846 0.296860843742466
-0.0802101992543105 0.456815579048846 0.307012052756955
-0.0823411313993048 0.456815579048846 0.31309009470771
-0.0831340400137037 0.456815579048846 0.3330959807715
-0.0864951709697138 0.462435280015691 0.340595985114909
-0.0937522542294285 0.480303067797018 0.340595985114909
-0.0905506287670443 0.475538061049571 0.340595985114909
-0.106440839220383 0.497359493521002 0.340595985114909
0.213082975574181 0.110884631060138 0.0878573032551488
0.214292728740248 0.104830204853116 0.0970714827777735
0.214694366979367 0.105062428635415 0.100130591811091
0.218041511408313 0.101283654109914 0.125624378908785
0.218830676809358 0.0954364247961889 0.131635118853292
0.220427868933651 0.0946304746722585 0.143800257476738
0.221546380094629 0.096831095860561 0.152319485137721
0.223581848334006 0.0917992689067598 0.167822788039754
0.22567266300966 0.0850456461236756 0.183747641398599
0.228293710215394 0.0832160912633458 0.203711052256563
0.227976005278457 0.0837437393631645 0.20129122777809
0.228871180201939 0.087595763934842 0.208109397534094
0.233585644316447 0.0760786082937276 0.244017481862813
0.23321857818005 0.0792172585290352 0.241221693951436
0.234372644273295 0.0811038974625867 0.250011728532382
0.236201493734066 0.0715848987378163 0.26394130336143
0.237881277924549 0.0797015924025885 0.276735510910973
0.240180927986632 0.067841002757389 0.294250975309503
0.241229882301997 0.0692088814274528 0.302240417820515
0.241733873791379 0.0754162718604582 0.306079108382606
0.24612237721107 0.0634446039377634 0.339504487607833
0.244402483966674 0.075982713345523 0.326404786314929
0.248853839147235 0.0580497504251099 0.360308880888213
0.24956011567631 0.0621242180791289 0.365688291262207
0.25113564511539 0.0499312149957582 0.377688434350952
0.251651140787244 0.0565470318012128 0.381614747417813
0.253034891127584 0.056928487602586 0.392154190014891
0.253521126760563 0.0615553060616207 0.408792720994545
0.253521126760563 0.0556496534231474 0.4174094234174
0.253521126760563 0.0547469525667889 0.426568300797717
0.253521126760563 0.0563373536729904 0.435760056257501
0.253521126760563 0.0567540000147867 0.442495358297957
0.253521126760563 0.0561561327186861 0.447854000006443
0.253521126760563 0.0550325201724124 0.463480176777808
0.253521126760563 0.0602321270203565 0.467166765177559
0.253521126760563 0.0610793739593653 0.478333504164838
0.253521126760563 0.0578705533321118 0.490461081419947
0.253521126760563 0.0583642905188046 0.498722198206513
0.253521126760563 0.0627170505893263 0.502258059818897
0.251961764466142 0.0600803960493903 0.513999290462887
0.247720462502713 0.0614143080364209 0.52051058508159
0.24079067892561 0.0705204135865518 0.526701405080512
0.239487464418101 0.0730790800347373 0.527425063054762
0.229712327504571 0.0871174824439784 0.531040283148347
0.227193676190587 0.0931622686782687 0.531489118194323
0.2138605869152 0.102337768846845 0.52987436575577
0.000837105300852624 0.347216855111294 0.269374839651788
-0.00583726465245324 0.362016858127903 0.269614181636136
-0.00763106535042388 0.359040326306879 0.269678507081322
-0.0159481329053774 0.373871710992938 0.269846610861555
-0.0238375864629761 0.387622149091853 0.26994088059588
-0.0361820413270488 0.402566882844055 0.270088382380626
-0.0467969959917564 0.398996952485977 0.270131681144674
-0.0510400964058532 0.410029536507933 0.270080981061858
-0.0638771815729146 0.428506250007236 0.269927592921681
-0.0675400397634692 0.431866372261969 0.269883826054183
-0.0801985368815434 0.450419003233112 0.269634511248074
-0.0899518853192828 0.456815579048846 0.272929870663021
-0.0958295638854167 0.456815579048846 0.274888337352625
-0.0879536085535743 0.456815579048846 0.291775847327229
-0.0971119105481116 0.456815579048846 0.303237955163933
-0.0911942775205516 0.456815579048846 0.316293420994626
-0.0866458829681919 0.456815579048846 0.319515246625653
-0.0903017369386354 0.456815579048846 0.33586965578105
-0.0933853853688153 0.456815579048846 0.338148774096309
-0.109985343579922 0.479618014390878 0.340595985114909
-0.112739033569985 0.486317955640809 0.340595985114909
-0.122214849363212 0.490405521032529 0.340595985114909
0.214792128806725 0.0862955809603226 0.100875202408528
0.215830018676182 0.0847375620319906 0.108780371702677
0.217567286749905 0.0871695960539446 0.122012409740864
0.218063780889794 0.0882584693986934 0.125793996154682
0.22119200193982 0.0808984404754297 0.149620336229585
0.222164051262848 0.0861879840506874 0.157024025856904
0.223666950505173 0.0854405732177407 0.168470975376552
0.22517272360754 0.079785834163172 0.179939813875782
0.227052545363697 0.0661094979949463 0.194257623175741
0.228877647047022 0.0632662107477972 0.208158652765005
0.23082613470811 0.0716910057865734 0.222999461295609
0.232352735842009 0.0633030857739215 0.234626938124561
0.232968517144744 0.0736427563658168 0.239317084535606
0.235316338052013 0.0617342904701879 0.25719944594069
0.237348429853745 0.0568876660302295 0.272677031941553
0.239636721793585 0.0588762896591883 0.290105986314464
0.240033506322706 0.0579579207694186 0.293128126686301
0.241412213361732 0.0519225618002551 0.303629156584813
0.244307729783647 0.0507137917352707 0.32568308367556
0.244726364977877 0.0511901982313812 0.328871651345665
0.246948751491953 0.0473291827301755 0.34579863189322
0.246369798390178 0.051831515670428 0.341388990352644
0.249505302078287 0.0424398457792963 0.365270799209592
0.249399903589185 0.051587514969222 0.364468023381228
0.251355831063637 0.0464614178253539 0.379365497831687
0.253521126760563 0.0423215741353559 0.401219889250858
0.253521126760563 0.0398588549326942 0.407958838446252
0.253521126760563 0.0510830353699671 0.413648385291664
0.253521126760563 0.0421465699476559 0.42398432896099
0.253521126760563 0.0350137748282777 0.437155351845621
0.253521126760563 0.0368090548620014 0.447154644782136
0.253521126760563 0.0447598901149552 0.453193152306181
0.253521126760563 0.0492200321497614 0.459766360366292
0.253521126760563 0.0501479307255779 0.464026442800948
0.253521126760563 0.0426880439128347 0.477810469900952
0.253521126760563 0.0336218751978563 0.496110424262141
0.253521126760563 0.0463665740339788 0.494683582823755
0.252833168326155 0.0435637120578635 0.511963688814488
0.251193251208345 0.0505303414377372 0.515453148691975
0.247242730650567 0.0466188103859552 0.521073399352155
0.241904441003801 0.0563528395176458 0.525934366989166
0.237576703710791 0.0606978444433993 0.528486083489051
0.233026903037578 0.0686131312660685 0.530259746640614
0.218533963737924 0.0759415366914447 0.531096522929662
0.2185572992207 0.0860357116863597 0.531100149736621
0.00533127176519794 0.325189774933316 0.269213679463321
0.0046073478453846 0.333535781227441 0.269239639275063
-0.00475258782752379 0.346512436716145 0.269575285275061
-0.0082215787314298 0.350380249418497 0.269699682809576
-0.0215476035759552 0.355110633561924 0.269913517981119
-0.0300676686131843 0.36994448318496 0.270015322784408
-0.0446544546582897 0.394744283818277 0.270157282005471
-0.0445178995032616 0.391213569636087 0.270158913679716
-0.060759893623445 0.409134233723204 0.269964840863464
-0.0686609232119684 0.413280183781346 0.26987043280912
-0.0757625223065558 0.429499335973459 0.269785577013337
-0.0896317029297987 0.439017597274101 0.269296239216935
-0.0897715758962635 0.445417706515053 0.269291223391682
-0.104042140837079 0.456815579048846 0.274973581925729
-0.0967554232289742 0.456815579048846 0.287831374816113
-0.101974212051172 0.456815579048846 0.288780741675855
-0.107497773434155 0.456815579048846 0.295436178288777
-0.100410146554614 0.456815579048846 0.323340767203564
-0.103511671177419 0.456815579048846 0.324129313114614
-0.114036856540502 0.456815579048846 0.328478225696819
-0.114574843417437 0.472097650509362 0.340595985114909
-0.123740006023934 0.4808077634444 0.340595985114909
-0.13065242430688 0.487747539250558 0.340595985114908
-0.132588299256948 0.494178112604294 0.340595985114909
0.214194905837964 0.0746000314389739 0.0963264069983983
0.214622901635825 0.0720191465963943 0.0995862704375126
0.217044736824384 0.0655100450361652 0.118032367399716
0.216936120448324 0.0767646299572179 0.117205082283887
0.220066418159074 0.0611284846933699 0.141047239407466
0.221598691168266 0.0612970633876025 0.152717916517806
0.222084460389274 0.0623987427462696 0.156417815748882
0.22410167451783 0.0671741244910686 0.171782084789426
0.225913386390827 0.0634098790107687 0.185581129842016
0.227094720955195 0.0562732379802143 0.194578856864097
0.228684057435601 0.0567982229412638 0.206684162362019
0.231859608127029 0.0517088778717995 0.230870992349126
0.231728955625122 0.050043779716993 0.229875867358819
0.233283397996018 0.0573368236912978 0.24171539914495
0.236069253003955 0.0453680798370364 0.262934081506901
0.237018649140177 0.0409020493788168 0.270165231366734
0.23746636336025 0.0471059219140286 0.273575281709477
0.240007642319638 0.0422940455962402 0.292931131485848
0.242047669530161 0.0360587986063002 0.308469158147865
0.242014947267308 0.0402226408074012 0.30821992647584
0.245297151589369 0.0330213108701641 0.333219092174854
0.246490193696893 0.0323727832413327 0.342305990614244
0.248308983011848 0.0365710978785389 0.356158941556553
0.250402114386091 0.0283479841650004 0.372101440231241
0.24958631505783 0.0305797268849213 0.365887840898845
0.252896154741859 0.0298493806033938 0.39109749349179
0.253521126760563 0.0315300695180898 0.398396528469665
0.253521126760563 0.022086429552724 0.411406212207638
0.253521126760563 0.0251297076447876 0.418391533853308
0.253521126760563 0.0232934349581942 0.429101264815015
0.253521126760563 0.0198076971214553 0.437960626398913
0.253521126760563 0.025761015721223 0.440585730211025
0.253521126760563 0.0251183180630605 0.453835042009135
0.253521126760563 0.0257607179513066 0.462874985348766
0.253521126760563 0.0264901921009212 0.473326526891007
0.253521126760563 0.0215420592632408 0.482491634432677
0.253521126760563 0.03535706193558 0.481347424545608
0.253521126760563 0.0313515204641395 0.495685092597374
0.253521126760563 0.026906514193027 0.509042823629892
0.250991258469963 0.0345607103996367 0.515802921904443
0.246214883303881 0.0338761824486177 0.522204910531894
0.242776716205878 0.0389887313842756 0.525240226820781
0.238617314124645 0.0437194719738379 0.527908246134008
0.236412839176754 0.0462148130071158 0.529055828703044
0.229655936950642 0.0578708892476087 0.531050332199886
0.222571710834141 0.0663715270649383 0.531589492690821
0.000973397850283535 0.309632139234853 0.269369952219796
0.0013494352468877 0.32655067167208 0.26935646757071
-0.00338938574946778 0.328366786325768 0.269526401036891
-0.0135112196727789 0.333250821098146 0.269817492601166
-0.027511730101774 0.350471858800076 0.269984782311273
-0.0304577626163511 0.358735022782586 0.270019983951087
-0.0385168594066648 0.368736415796737 0.270116280723452
-0.0474870814205205 0.373999599569553 0.27012343543164
-0.0582636481080185 0.392545818324485 0.269994668075175
-0.0709327524852563 0.39705774480358 0.269843287108793
-0.0792212652306064 0.418113770794279 0.269669556074451
-0.086732319033497 0.418023053374322 0.269400210722857
-0.0964462146328765 0.426496780716883 0.269051871768801
-0.101329058979612 0.440032932583865 0.268876773645174
-0.113426282444765 0.456815579048846 0.270279448502043
-0.124652265575297 0.4556858599146 0.267662528011516
-0.127382307847332 0.456815579048846 0.279268712946269
-0.128507523199269 0.456815579048846 0.288737722034079
-0.117775341336941 0.456815579048846 0.310606347132589
-0.116600582718394 0.456815579048846 0.319910019910812
-0.126513524329926 0.456815579048846 0.324892159112802
-0.124574978010708 0.456815579048846 0.337736955503389
-0.12805787908553 0.464351792986293 0.340595985114909
-0.139802609437141 0.481996690108779 0.340595985114909
-0.159229801487851 0.498678805356139 0.340595985114909
-0.157656028701043 0.499638322671653 0.340595985114909
0.215041486657242 0.055143537466013 0.102774455962464
0.215504423719865 0.0594061060216308 0.106300452275046
0.218392454429171 0.0474614481437601 0.128297363850759
0.220465500086059 0.0435514289764905 0.144086878089652
0.221875310081473 0.0455266129673206 0.154824806085969
0.223988839622278 0.0479823673562003 0.170922668990238
0.22487767292295 0.0485842548797239 0.177692537280564
0.225925731853303 0.0404945844033778 0.18567516002167
0.22803681049197 0.0420792659991972 0.20175435543829
0.230492295740276 0.0345695321634326 0.220456750710052
0.229477771098419 0.0436247729012782 0.21272954449774
0.231381845541239 0.0371666917748011 0.227232076280834
0.235380702358784 0.0294919556455405 0.257689681712806
0.23502381028325 0.0393100340960289 0.254971385331019
0.237986779518429 0.028589518988986 0.277539072044929
0.238427142388971 0.0263801995585683 0.280893130259522
0.239900833039911 0.0299896490027408 0.29211761026045
0.240924704801263 0.0298609438358074 0.299916009538809
0.243379047471748 0.019361997331692 0.318609702277314
0.245363525984361 0.0251606947596125 0.333724637940978
0.247326812598372 0.0136427771925178 0.348678163852946
0.248088463841988 0.0206252911281871 0.354479340067376
0.248725971687305 0.0232091345761661 0.359334968387758
0.249590302495965 0.0198458132042965 0.365918211532987
0.251407741313641 0.0136545259665237 0.379760876307245
0.253223425338126 0.012260010736776 0.393590175562035
0.253521126760563 0.00762015011614967 0.409506779481935
0.253521126760563 0.0076961652694253 0.418343841846177
0.253521126760563 0.00494780642758371 0.428397063576235
0.253521126760563 0.0061318985308982 0.442397986955665
0.253521126760563 0.017104511220705 0.442047147200284
0.253521126760563 0.00528117248887238 0.453857664683164
0.253521126760563 0.0185832739084601 0.454224237430006
0.253521126760563 0.00614305987655273 0.475208200428925
0.253521126760563 0.00981825205497309 0.482428522292773
0.253521126760563 0.0120078820367901 0.492785169563196
0.253521126760563 0.0145763999498092 0.500149099655813
0.251960698750324 0.0112001502322935 0.514001779977766
0.247715603407142 0.0182058983087523 0.52051656104293
0.247440575859494 0.0193863133437614 0.52084892428592
0.245503670196046 0.0238270062272131 0.522935425117662
0.241745559062533 0.0255762407704869 0.526060802244006
0.235243730473892 0.0334053333502191 0.529471521994497
0.227693613708561 0.0422823662658224 0.531400027069394
0.213028359683401 0.0599138512844062 0.529599076225784
0.00271941576848879 0.298266270178953 0.269307340258491
0.00511773511157172 0.303253976044678 0.269221336858216
-0.0106779561114769 0.307477496759681 0.269783638418332
-0.0156505757365017 0.312870615094292 0.269843055401718
-0.0253759013785048 0.330288860093696 0.269959261658311
-0.0301309745052853 0.340596742515173 0.27001607921571
-0.0341278465920377 0.351739325999674 0.270063837158259
-0.0471335083871054 0.35132928177678 0.270127660215484
-0.0537986148832143 0.36301045958562 0.270048019995277
-0.0649864303179896 0.384168275511826 0.269914338697706
-0.0824322254121329 0.387227261963735 0.269554411485989
-0.0900497596407826 0.401867403292366 0.26928124776104
-0.096806050327697 0.414138433772398 0.269038968110502
-0.105939335823399 0.422211823752887 0.268711449754543
-0.119849284952335 0.432269357098901 0.267949799448026
-0.128895692949942 0.445631533904136 0.267408724056571
-0.136084072654709 0.456215702046001 0.266978779335559
-0.127728132937424 0.456815579048846 0.280999434604618
-0.133713285452409 0.456815579048846 0.286717442583387
-0.12510006023053 0.456815579048846 0.299171235065481
-0.129857288263677 0.456815579048846 0.31091135098214
-0.125652605278812 0.456815579048846 0.328004872713745
-0.140271368580637 0.456815579048846 0.331524392104233
-0.148061817168316 0.463069022912827 0.340595985114909
-0.155799137650432 0.476479822146711 0.340595985114908
-0.153935973284667 0.485618478445479 0.340595985114909
0.217880237259722 0.0345155549154719 0.124396021753658
0.218411010787424 0.0348708070690535 0.128438699803429
0.21875386993865 0.0399769773304307 0.131050113320656
0.221208046231941 0.0383594406534139 0.149742538834263
0.223363680306232 0.0303161419954103 0.166161094207989
0.225040726234029 0.0332807167353894 0.178934445565814
0.224344488533011 0.0330062579482672 0.17363149671017
0.228642235071528 0.0191045679085798 0.20636561905795
0.229787125128681 0.0255003874326011 0.215085763642964
0.231714437355265 0.0260757229785255 0.229765287821958
0.231409917798282 0.0296636111570491 0.227445890820248
0.235593150222969 0.0137589157149551 0.259307807471604
0.235183594019679 0.0209082341474658 0.256188390645448
0.238333991302845 0.00971909825164244 0.280183637732971
0.237442349987718 0.0214800232488439 0.273392381981122
0.239415720669794 0.0159566358559313 0.288422713985506
0.241273565541247 0.011506160700262 0.302573134625789
0.242760857791642 0.0138183734814213 0.31390121227183
0.243739052420877 0.0103733368108779 0.321351708104083
0.245431200515177 0.0143378541828246 0.334240086293201
0.247919926295781 0.00371299374538206 0.353195660676718
0.248967389508022 0.00545428610157743 0.361173746084269
0.250793528892862 -0.00524991823586783 0.375082679408212
0.253186859991082 -0.00840679844690214 0.393311672738965
0.252061502792311 0.00456735778606413 0.384740301696169
0.253521126760563 -0.00255523769379886 0.407633043418708
0.253521126760563 -0.000609982951745461 0.409752143163939
0.253521126760563 -0.00718995867194995 0.426153522191981
0.253521126760563 -0.00298122616125 0.438529884793672
0.253521126760563 -0.00317719168893444 0.44516328153975
0.253521126760563 0.00470625930311576 0.450367987627353
0.253521126760563 -0.000773680925561048 0.467838548028321
0.253521126760563 -0.000585783168744424 0.471208727023837
0.253521126760563 -0.00918974407854163 0.488005995540825
0.253521126760563 0.00484003792945727 0.483405921220778
0.253521126760563 -0.000564593234283255 0.495479949757912
0.252203970902729 0.00125891890634377 0.513433495606799
0.250821377112807 0.00193751409810501 0.516097090637966
0.250489456242425 0.00656739040064455 0.516649897566353
0.245317720984284 0.0123667276085779 0.52311533197117
0.23897490576435 0.0169013698404419 0.527709680172605
0.235272038335945 0.0254959405527218 0.529461456729974
0.220001141778822 0.0375655040035075 0.531324552132181
0.220113347100833 0.041780749682549 0.531341991113261
0.00470203293718215 0.27800929311999 0.269236243880753
-0.00471378436078791 0.290303963712962 0.269573893788106
-0.00596405839373809 0.297616796344089 0.269618728442181
-0.0186958453558229 0.302969067027587 0.269879442808762
-0.0274336733228336 0.317250201784479 0.269983849624141
-0.0337017279907961 0.326651650819484 0.270058745539806
-0.03813592479686 0.330866917639464 0.270111729000801
-0.04421263382222 0.337754424820646 0.27016256124725
-0.062627060714802 0.351686116182765 0.269942530402498
-0.0700414741485807 0.35495073354796 0.269853936841552
-0.0758001518522705 0.377491507748554 0.269785127384316
-0.0736860044870354 0.371339912113106 0.269810388970431
-0.0933405032439962 0.387840849144251 0.2691632421501
-0.107862063937732 0.402690689921305 0.268642500990021
-0.111934238726147 0.41335536152161 0.26842320687519
-0.122287871015698 0.431803265715436 0.267803944992956
-0.137544258197677 0.445004092781821 0.266891444067852
-0.142114442757995 0.448451923228005 0.266606132966217
-0.149974364031043 0.456815579048846 0.266414678569323
-0.141953721710316 0.456815579048846 0.281257855318749
-0.145483622198422 0.456815579048846 0.291745487054084
-0.156611626269432 0.456815579048846 0.297428909892697
-0.143107405184321 0.456815579048846 0.318026708285878
-0.155901017069698 0.456815579048846 0.324585362418821
-0.151074054572014 0.456815579048846 0.331022903537272
-0.155227986812259 0.458653106182584 0.340595985114909
-0.164570597920353 0.467457879624481 0.340595985114909
-0.176694344374913 0.482032854245113 0.340595985114909
0.219225932992082 0.0195747694597278 0.134645618455364
0.219819053776121 0.0220876898620871 0.139163169255007
0.221036750555741 0.0175692723333912 0.148437851930996
0.22470617464484 0.00746394399986567 0.176386307244017
0.224841975826006 0.0125119240994763 0.177420647552229
0.224224183884878 0.0218390125491306 0.17271518695675
0.22896730159833 0.0137604316335561 0.208841513660887
0.228748615825841 0.00770646371328364 0.207175876386045
0.230036166002506 0.0160115916073808 0.216982602919154
0.232282901353156 0.0109510220411995 0.234095038283163
0.233174804036413 0.013178865527554 0.2408882847658
0.233755971240475 0.014694519403115 0.245314790189466
0.237391402633666 -0.00225509801566299 0.273004337477829
0.239123142754157 -0.0051296506944521 0.286194271428252
0.241161834448953 -0.00663886386480643 0.301722126030372
0.240827715866856 0.00493413165220062 0.299177285740926
0.241390097010967 0.00518600870100552 0.303460705670986
0.243922298900189 0.000118809515977062 0.322747419233125
0.247045926080725 -0.0121733670615428 0.34653876974208
0.247672959032642 -0.00538506243988859 0.351314615218358
0.250145501772751 -0.0146986951899062 0.370146930209358
0.251424768631717 -0.0181651810284979 0.379890566205932
0.252613971084341 -0.0189032760479874 0.388948219613729
0.252808654864477 -0.0108632540609786 0.390431043838239
0.253521126760563 -0.0192538340361452 0.404024049217334
0.253521126760563 -0.0122595296548932 0.413202680555057
0.253521126760563 -0.0185786372832002 0.421777020189102
0.253521126760563 -0.0133704795566544 0.42803553672844
0.253521126760563 -0.00826075579187156 0.444669410161615
0.253521126760563 -0.0148760485751429 0.453411346524746
0.253521126760563 -0.0161506203110994 0.455821086346055
0.253521126760563 -0.0119267007348117 0.472690163867532
0.253521126760563 -0.0227900680317168 0.489771443458107
0.253521126760563 -0.0125647069508397 0.48433612501079
0.253521126760563 -0.0141818603193178 0.494904624870151
0.253521126760563 -0.0118355002269976 0.503298786915579
0.250902804831238 -0.0174309749196093 0.51595608935798
0.248029711439521 -0.00542236362309562 0.520130255107847
0.243727733982842 -0.00118890781306897 0.524483424795151
0.240536722780096 -0.00198469059159874 0.526842423607204
0.235757523344232 0.00335501347908047 0.529288835603681
0.226664698117782 0.0126993589430342 0.531544127064987
0.220632949264564 0.0281134280190795 0.531422747820164
0.213433189390464 0.0286565165633678 0.529732988426111
0.00315959415044871 0.266043452152855 0.269291555522532
-0.00155061526036759 0.27617730473637 0.26946046298121
-0.0109516978711489 0.280895806362767 0.269786909311909
-0.0253090587978522 0.302971181775618 0.269958462967721
-0.02865515527645 0.308807414010161 0.269998444903575
-0.0351986152997687 0.314159007734482 0.270076631590835
-0.0441675003825724 0.320467402760028 0.270163100539018
-0.0564201414238734 0.331009557097218 0.270016695821973
-0.0683980574875857 0.338239308763846 0.269873573746807
-0.0766110923976911 0.359801916756114 0.2697631565116
-0.0927083735532005 0.369291971813541 0.269185910233473
-0.0930934334600404 0.373188059973036 0.269172102038416
-0.096144911025298 0.387102095426257 0.269062676474539
-0.111516704770078 0.398929494041785 0.268448180030146
-0.120381843732766 0.405956745903668 0.267917946534618
-0.136225642797009 0.42145421037148 0.266970311873094
-0.137202082325677 0.429447228553553 0.266911909974755
-0.151622029094438 0.441052702625809 0.26580911715634
-0.17041321394531 0.452209181760452 0.264233862314311
-0.169409611770881 0.456815579048846 0.270192041595707
-0.164770831238131 0.456815579048846 0.276852395423749
-0.172749925869799 0.456815579048846 0.291124587004799
-0.169626348485617 0.456815579048846 0.306554918026893
-0.167782220609664 0.456815579048846 0.313630954729148
-0.165255175113537 0.456815579048846 0.329093041897975
-0.168205026371627 0.456815579048846 0.33765383169537
-0.171013383895067 0.468626381541809 0.340595985114909
-0.184614409233829 0.487488444703255 0.340595985114909
-0.187950332005959 0.480248725077314 0.340595985114909
-0.197271620263867 0.492468265844722 0.340595985114909
0.218888351070755 0.0089463921020051 0.13207439937204
0.220766296931148 0.0077426652008396 0.146377920765327
0.221847164860185 0.0109958329219421 0.154610435808686
0.226051358331354 -0.00552388501313357 0.186632003908531
0.226037611106471 -0.0038095262877203 0.186527297095964
0.227533380737524 -0.00320081800288388 0.197919943374229
0.22823438303984 -0.00289001897757872 0.203259182187974
0.229911251379986 0.000254413118533037 0.216031180935572
0.231791211092832 -0.00219200743484734 0.230350040993439
0.23321259504232 -0.000189543100816936 0.241176122915381
0.234954775925091 -0.00805147552525403 0.254445579747581
0.237955126379377 -0.0125301174708198 0.277297983437884
0.238868430050809 -0.0128257521760346 0.284254232219285
0.239624350200945 -0.0133984020779414 0.290011757112374
0.242630588313744 -0.0162444810314955 0.312909004613822
0.24284353353508 -0.0151813193161394 0.314530918532226
0.244633670651905 -0.0209585291214904 0.32816563776852
0.245645340581335 -0.0205185947438106 0.335871100840565
0.247057900186576 -0.0181416401520356 0.346629971454987
0.248480264189942 -0.0158596557447617 0.357463518033866
0.249861144516206 -0.0223632396563297 0.367981100944458
0.250618141726202 -0.0172470991327868 0.373746829348134
0.252942613141244 -0.0225899640473787 0.391451347521083
0.253521126760563 -0.0331345234398386 0.404475987054647
0.253521126760563 -0.0287365590915192 0.41444419021723
0.253521126760563 -0.0295802538204835 0.426140891570701
0.253521126760563 -0.0340450263914706 0.429814763362207
0.253521126760563 -0.0337698235954801 0.447210095730011
0.253521126760563 -0.0242001104294175 0.44161321158918
0.253521126760563 -0.0242636397754592 0.459162217741901
0.253521126760563 -0.0380244030272137 0.480997013169217
0.253521126760563 -0.0325096603225365 0.483898347431104
0.253521126760563 -0.0298373945789238 0.489843853660229
0.253521126760563 -0.0228881339469598 0.494577729815682
0.253521126760563 -0.0237990427404381 0.501452700539622
0.250946573318607 -0.0268614000169883 0.515880299284759
0.249773081676563 -0.0218505088164828 0.517764680566168
0.246982457076865 -0.018649127442846 0.521368705607042
0.240161858773834 -0.0160737815991363 0.527050580687889
0.233364930882124 -0.00462360031017869 0.530139556014235
0.230600858685967 -0.00297750028363613 0.530881942876535
0.227006467760577 0.00717709466157086 0.531522479582548
0.212996820149656 0.00931990792005477 0.529588643373927
0.00605069999921196 0.245313621536544 0.26918788086625
-0.00573110225195986 0.252357289802637 0.269610374667124
-0.0152532625635687 0.276393469071155 0.269838307974411
-0.0286578372768231 0.285287544391139 0.26999847695034
-0.0336011545030081 0.289183610895006 0.270057543804361
-0.039064047665648 0.298807459981004 0.270122818982589
-0.05097026782795 0.30450101555183 0.270081815431619
-0.0570270920665473 0.31386331703901 0.270009443472312
-0.0665486178832014 0.325479895467616 0.269895672385056
-0.0740154377685311 0.331324285568481 0.269806452628364
-0.0793969144867115 0.338731059257739 0.269663257316395
-0.0895855933297883 0.357768896452445 0.26929789270082
-0.0991625805790665 0.374365867249988 0.268954463261283
-0.105092402510618 0.378719621898057 0.268741820666122
-0.127125875692967 0.38818375860278 0.267514578730092
-0.137549354324883 0.402394220220385 0.266891139263003
-0.133692412448185 0.40020355081933 0.267121827104664
-0.152037727049551 0.41876780615415 0.265774269422052
-0.155025880412342 0.424736707603428 0.265523774145102
-0.165727689547652 0.450835760761553 0.264626647285212
-0.17568871125052 0.456815579048846 0.265919751017676
-0.182449593164706 0.456815579048846 0.275867163998812
-0.181934772040145 0.456815579048846 0.284253229491088
-0.177938968188777 0.456815579048846 0.296004436010478
-0.178317112634517 0.456815579048846 0.30755322744059
-0.184183759900228 0.456815579048846 0.323377015219897
-0.180400670306458 0.456815579048846 0.337841704459595
-0.186774482991298 0.456815579048846 0.334966562577201
-0.191708286465589 0.474983027122909 0.340595985114909
-0.211210133592628 0.483702805826112 0.340595985114909
-0.221559019764751 0.49291973735805 0.340595985114909
0.22307221924406 -0.0117547019073416 0.163941158252425
0.223454040002712 -0.00722006538230552 0.166849325897169
0.223574386043125 -0.00385897014742923 0.167765950918133
0.226630503072573 -0.0138407482128943 0.191043105085908
0.228155070918758 -0.0165471949187385 0.202655095220098
0.229689414254737 -0.0187027711288647 0.214341541136182
0.230606056928834 -0.0158451404007324 0.221323221692303
0.233875368042558 -0.0286700003394706 0.246224185262507
0.232325641199518 -0.0132422562300304 0.234420569662782
0.235712867256991 -0.0285697643833303 0.26021964161623
0.237241435834214 -0.0267640354765239 0.271862103631001
0.239057930451508 -0.0298919417743826 0.285697576829268
0.239064785189072 -0.019812588784844 0.285749786473571
0.240109021557677 -0.0220408906315291 0.293703294374414
0.242675692842828 -0.030139635216741 0.313252546784176
0.243887067101658 -0.0251507524208997 0.32247907348651
0.245833754334851 -0.0310035645078899 0.337306168917357
0.247068082731664 -0.0396798153664102 0.346707527605337
0.248815544558166 -0.0370075024118887 0.360017207158128
0.250557268560205 -0.0381170377988113 0.373283184122531
0.252077027316683 -0.0431697511701231 0.384858545449175
0.252805912637106 -0.0442138362899201 0.39041015744918
0.253521126760563 -0.0377982987460145 0.400484572280948
0.253521126760563 -0.043648898300151 0.413330391442122
0.253521126760563 -0.0434190062509051 0.422412921877471
0.253521126760563 -0.0485819564010276 0.433354197019295
0.253521126760563 -0.0412214390571311 0.433336274447764
0.253521126760563 -0.0428706275399402 0.451451366258242
0.253521126760563 -0.0372670098706361 0.451818758057107
0.253521126760563 -0.0436448144649582 0.463286587458244
0.253521126760563 -0.0471367209945299 0.483954413989311
0.253521126760563 -0.0487652556679182 0.49152431969231
0.253521126760563 -0.0469137179051395 0.500105316554139
0.253187437400416 -0.0399837572522269 0.511136115349835
0.251740800686173 -0.0423228312844599 0.514431327190124
0.250001840882845 -0.0420678250405195 0.517421723611303
0.241720690795109 -0.0295358630276502 0.526080591942596
0.240411852026118 -0.0301276182798487 0.526911762703988
0.231889543142121 -0.0179813220914286 0.530652293482864
0.230440257607608 -0.0164389459495994 0.530910562714457
0.223360416404407 -0.00658039333107371 0.53158075087969
0.206207834698937 0.00593408805415057 0.525998224026054
-0.000460968836389592 0.238301952090206 0.269421388410999
-0.00703612712886456 0.242661272642782 0.269657172678898
-0.0105537370225797 0.258876082924766 0.269782154145636
-0.0210693948466213 0.262148080390755 0.269907803946612
-0.0231944845469071 0.265449287941888 0.269933196280822
-0.0333969318807394 0.280807139421159 0.270055103583095
-0.047028158376771 0.282510725278785 0.270128919024781
-0.0507056874358227 0.295589296982099 0.270084976857578
-0.0571586484955094 0.30316539776912 0.270007871526991
-0.0654148511985185 0.319841188402945 0.269909219569709
-0.0729855307266693 0.330631227310374 0.269818758811867
-0.0843379675297686 0.334457506481321 0.269486071836961
-0.09734085473608 0.346056234020462 0.26901979009831
-0.107750349506757 0.367454957210952 0.26864650705408
-0.119650522759568 0.365441258946763 0.267961687628538
-0.130684113688793 0.383593510813254 0.267301756688791
-0.143341298130862 0.401414134201426 0.266503286345213
-0.14023204734069 0.401114471740978 0.266730684508578
-0.162255744830263 0.417719229071435 0.264917698529226
-0.16312040943925 0.431100938327516 0.264845214163665
-0.182038954098512 0.434963791356606 0.263072733853336
-0.186126699248595 0.441367171485578 0.26263149324065
-0.19682283185545 0.456476440963383 0.261476928087609
-0.194027270494237 0.456815579048846 0.274094777270533
-0.193818134684664 0.456815579048846 0.292971946904863
-0.196435913037504 0.456815579048846 0.294705780355733
-0.197932107917577 0.456815579048846 0.309827813512725
-0.187333265888232 0.456815579048846 0.326436441353209
-0.197134253695291 0.456815579048846 0.334423803081839
-0.20348568532333 0.465756625340369 0.340595985114909
-0.21439097773395 0.480109856760111 0.340595985114909
-0.22596113957311 0.490497264911426 0.340595985114909
0.222420724728681 -0.0203085993682054 0.158978999366558
0.224357507684928 -0.0180396241526657 0.173730658098098
0.225303887288312 -0.020755889265277 0.180938832299856
0.22883660266647 -0.0352117643260391 0.207846035033217
0.229282071686448 -0.0315313458784315 0.211238984634
0.231296740774125 -0.0283813281726626 0.226583869171807
0.232854783343907 -0.0344226719702644 0.238450822154068
0.233016200434678 -0.0291649781196564 0.239680268039481
0.236766135407292 -0.0408992821717772 0.268241940788128
0.237491805122022 -0.0363985837281471 0.273769060876101
0.239160633451603 -0.0431931620043941 0.286479822254969
0.240160173034346 -0.0435003576327461 0.294092893593569
0.240948393572811 -0.0394760086950776 0.300096436918408
0.243878771951735 -0.0474450311578258 0.322415892828914
0.243907706831757 -0.0453343164610458 0.322636277603653
0.247014819598805 -0.0532244783535218 0.346301844791793
0.247200236019306 -0.0506347152382102 0.347714083447462
0.248864899177001 -0.0500784209720476 0.360393120469186
0.251122318813801 -0.0573717543020529 0.377586933533556
0.251682105410005 -0.0541904773995829 0.381850591886729
0.253521126760563 -0.0607447352054713 0.399768873090476
0.253521126760563 -0.0574075313832382 0.410127635152
0.253521126760563 -0.0581554365055465 0.411823492805574
0.253521126760563 -0.0578702301860099 0.423255253217274
0.253521126760563 -0.0532092404470689 0.43170677152645
0.253521126760563 -0.0538970128834523 0.436885696262076
0.253521126760563 -0.0522224197368496 0.454866118303575
0.253521126760563 -0.055335278918644 0.463328811753651
0.253521126760563 -0.0540854140464326 0.460088635693265
0.253521126760563 -0.0533186514500935 0.477360521635061
0.253521126760563 -0.0499561635351422 0.483864864117887
0.253521126760563 -0.0585937836985268 0.497925671469945
0.253229209209267 -0.0585506703506653 0.511038536297394
0.250391129764261 -0.0560366618023915 0.516805534453634
0.248963276271162 -0.0541591247866606 0.518917730267151
0.241199966351393 -0.0505951678639991 0.526474133125112
0.239204005189554 -0.047393255372449 0.527582464257657
0.238160283444207 -0.0355574320911883 0.528162029294393
0.232802444574113 -0.0315785147387168 0.530339556052043
0.221680259777764 -0.0252458517184248 0.531585521099519
0.206804294826786 -0.00864257642654554 0.526451652434818
0.209413957694815 -0.0045117174166526 0.527933961917281
-0.00238064243211551 0.228865031275474 0.269490227640906
-0.0109344396249625 0.242350144908486 0.26978670309607
-0.0225197262529986 0.246224508856022 0.269925133709106
-0.0280610243993727 0.258851195280193 0.269991345735105
-0.0369389059375813 0.26875541597674 0.270097426026708
-0.0417809572283037 0.274551032978875 0.270155282871346
-0.0490975451825133 0.279357889636154 0.270104192274953
-0.0566498121360623 0.291325151500919 0.270013951525824
-0.0714846379156741 0.30105127576368 0.269836692723957
-0.0801030982026694 0.309988372415113 0.269637933665913
-0.0859328601565535 0.326860246251994 0.269428879207726
-0.101610731930792 0.334723495817671 0.268866672892063
-0.110580219843259 0.341089794990954 0.268504192200778
-0.118331816017681 0.352996243771115 0.268040560896996
-0.130380954193583 0.364788082643124 0.267319888984238
-0.13182256673149 0.37580527234014 0.267233664587938
-0.141994977560683 0.381896615453342 0.266616147668963
-0.156335483773222 0.390366152774475 0.265413990805108
-0.172631629026601 0.404285734677034 0.264047893780333
-0.183340875746298 0.424620498598667 0.262932201436454
-0.186454292746389 0.42783401543546 0.262596132045084
-0.193383070408736 0.437406219427609 0.261848223849089
-0.211335743554748 0.45504489848835 0.259803241326734
-0.206963368432673 0.456815579048846 0.271837422008626
-0.215664983687461 0.456815579048846 0.284081680213404
-0.212668674812526 0.456815579048846 0.286168082515731
-0.213477409642812 0.456815579048846 0.300273937189706
-0.21391894599217 0.456815579048846 0.304608313972964
-0.214767577894935 0.456815579048846 0.324945941440653
-0.20769975520512 0.457101317081154 0.340595985114909
-0.216146398580215 0.468543420200591 0.340595985114909
0.224695076818303 -0.0382951795076441 0.176301779780983
0.22684994373403 -0.0413140675045092 0.192714492031563
0.228276861140036 -0.0474228125817137 0.203582719957466
0.228289569179847 -0.041271728628792 0.203679511735725
0.23206853957918 -0.0525483873677754 0.232462335080878
0.232363662145743 -0.0536588860648718 0.234710159170763
0.232702385513114 -0.0407237883548252 0.237290072167075
0.235185976328798 -0.0492152144421221 0.256206535689015
0.236594627351001 -0.0479378294333551 0.266935636275304
0.239679993111249 -0.0651194494102846 0.290435565686783
0.238487190075044 -0.0470147619855984 0.281350488152784
0.2429372247682 -0.0619979417466611 0.315244525130564
0.244236684358691 -0.0679312915956912 0.32514196064471
0.244293339628802 -0.0538212294797578 0.325573479936696
0.247547695319534 -0.0686538624853924 0.350360534359034
0.247486441678191 -0.0661892254890644 0.349893991213225
0.247825630789106 -0.0570483373192663 0.352477451581634
0.249667400819823 -0.0643294706006303 0.366505436941319
0.251820906045436 -0.066947722091687 0.382907777772732
0.253521126760563 -0.0794557689716875 0.403380071248409
0.253521126760563 -0.0786992666286055 0.412571304730048
0.253521126760563 -0.0738548618554576 0.414725138750729
0.253521126760563 -0.0645455258599638 0.414818266921765
0.253521126760563 -0.0694181335699746 0.429526873358956
0.253521126760563 -0.0683106609630459 0.443140143194504
0.253521126760563 -0.0699457893176393 0.446158123375656
0.253521126760563 -0.0728336945721521 0.465824898938242
0.253521126760563 -0.0699675762663727 0.466081517700737
0.253521126760563 -0.0785332661899521 0.478994067976648
0.253521126760563 -0.0776367359547652 0.492887642243326
0.253521126760563 -0.073073857869934 0.495833579397398
0.253521126760563 -0.0660980806355437 0.497879195975087
0.252980291148494 -0.0655376177754865 0.511620009524766
0.251325802775597 -0.0619657815244152 0.515220805745207
0.244884822900995 -0.0624000402716211 0.523534163174147
0.242450544644782 -0.0550217234869784 0.525499788002622
0.239672567410716 -0.0488383330224727 0.527322277783503
0.232212101759292 -0.046358121049704 0.530549460868574
0.223816677402546 -0.0387055356571183 0.531575693799301
0.217591422150941 -0.0330379142383608 0.53095003286477
0.210039996349969 -0.0182870789113329 0.528263654793002
-0.00516566954641742 0.208843485345421 0.269590098328427
-0.0154803543142238 0.217527852412737 0.26984102145499
-0.0147213541580645 0.220442163320928 0.269831952291637
-0.0238845762379509 0.23968112770667 0.269941442068682
-0.033431058222289 0.247486484300446 0.270055511352928
-0.0440152739951125 0.258056387756743 0.270164919466147
-0.0508914581483734 0.260136349834099 0.270082757115033
-0.0604515381981138 0.273618557166086 0.269968525349824
-0.0677767598082503 0.28774158594672 0.26988099752676
-0.0777934842893888 0.295516190093351 0.269720756101731
-0.0833849531915209 0.306084250490117 0.269520246799456
-0.0909401948996166 0.311541726528729 0.269249316875686
-0.103310868371343 0.320724587575247 0.268805706234207
-0.112986334907928 0.335102558299207 0.268360279871062
-0.118340585467745 0.338390071934558 0.268040036386756
-0.135485487567758 0.360639976610739 0.267014581353369
-0.143149803618777 0.36097710240408 0.266519339226379
-0.147535681129557 0.368507797726946 0.266151673491609
-0.16347026005005 0.383139516568051 0.264815886376566
-0.170936719573029 0.402819575702599 0.264189977121257
-0.19158815878312 0.415736006187841 0.262041970737978
-0.193439664137348 0.426745104891319 0.261842114991866
-0.203467473269821 0.428408687861041 0.26075969021169
-0.211616303920241 0.442091812106038 0.25976615760988
-0.228563457149079 0.456815579048846 0.265697265733313
-0.218378297509193 0.456815579048846 0.26892897661083
-0.22941688382355 0.456815579048846 0.282682251221466
-0.223309854558503 0.456815579048846 0.291672289987461
-0.232010357185615 0.456815579048846 0.307651582326982
-0.224911164519674 0.456815579048846 0.308002176153425
-0.23129160079401 0.456815579048846 0.328269139936346
-0.223570192765175 0.45754837215678 0.340595985114908
0.226180903997035 -0.0485471079840972 0.187618698594224
0.227095616283955 -0.051958368848965 0.194585676205563
0.230532207642194 -0.0643280440526984 0.220760742829827
0.230342187178968 -0.0634598205810428 0.219313437122978
0.231146683753191 -0.0582590510216249 0.225440948146012
0.2347315675973 -0.068216741277094 0.252745496076877
0.233967222053478 -0.057630640793209 0.246923798514395
0.236390092777284 -0.061445445676642 0.26537778271172
0.238770961371111 -0.0712561257514416 0.283511854403906
0.240515226766163 -0.0708897159410011 0.296797188086784
0.242662289831852 -0.076264058262232 0.313150461703731
0.243413132217256 -0.0709816032729279 0.318869311404949
0.244448576556668 -0.0719957830845421 0.32675585412841
0.246288875072664 -0.0766199934562769 0.340772631581237
0.247083203772511 -0.0725308920480363 0.346822698194543
0.249475137882483 -0.0784901232273839 0.365041051255139
0.24994706106678 -0.0832088381818027 0.368635491065647
0.251771599231663 -0.0742124283796354 0.382532228572673
0.252495980160427 -0.0828616980217749 0.388049532521624
0.253521126760563 -0.0862799771882528 0.414575319960662
0.253521126760563 -0.0808831786220246 0.410972364559506
0.253521126760563 -0.0789495784509878 0.420028391783847
