ply
format ascii 1.0
element vertex 858
property float x
property float y
property float z
end_header
-0.432297956160292 -0.217374818153967 0.540758845706981
-0.432062103137188 -0.210302527111074 0.540800432958436
-0.425047141297578 -0.208912040246792 0.5420373599994
-0.418086970596591 -0.205731450969329 0.542543000875676
-0.412334832412796 -0.187280822202833 0.539222002346847
-0.406338791212918 -0.18069926846394 0.535760186346025
-0.398207858034357 -0.171137920423067 0.53106578988662
-0.381203515426063 -0.160138170030963 0.521248328104328
-0.282065106355914 -0.0514962582550884 0.392544570284397
-0.277600392095981 -0.03549747677064 0.392544570284397
-0.274845647120366 -0.0349546389491164 0.392544570284397
-0.259226234878523 -0.0231599450372283 0.392544570284397
-0.254664999457286 -0.018717081973235 0.392544570284397
-0.254368267475963 -0.0130530153724606 0.392544570284398
-0.245645309397452 -0.00708667277592264 0.392544570284397
-0.236083673984692 0.000995302721711249 0.392544570284397
-0.23287572530308 0.0126880135017001 0.392544570284397
-0.223212868132736 0.0130538040312064 0.392544570284397
-0.212704474786372 0.0234138873368961 0.392544570284397
-0.207978715236841 0.0349062526389801 0.392544570284397
-0.208685583893431 0.0401945103898648 0.392544570284397
-0.190082076957964 0.0492236422003169 0.392544570284397
-0.188553706053245 0.0605499632284858 0.392544570284398
-0.186838759141039 0.0667465964979923 0.392544570284397
-0.176473373656168 0.0676823308014496 0.392544570284397
-0.162485043832281 0.0860538398764264 0.392544570284397
-0.153851436339325 0.0920937319017473 0.392544570284397
-0.146309340125712 0.103458226523863 0.392544570284397
-0.144579157816332 0.108251309020291 0.392544570284398
-0.13703186607496 0.114271703662512 0.392544570284397
-0.148576619362498 0.110057928411896 0.415141732382257
-0.143081026226056 0.108907510633743 0.419481365935034
-0.139733467530663 0.108124558940093 0.433974259621138
-0.137171321686782 0.108124558940093 0.436545077037317
-0.150393775405973 0.108124558940093 0.452259910314716
-0.147189980628466 0.108124558940093 0.466416661640461
-0.142547325878892 0.108124558940093 0.467473225480001
-0.141634033329875 0.108124558940093 0.485127022687783
-0.146371003162507 0.108124558940093 0.493186805249389
-0.148209504990391 0.108124558940093 0.504215818933977
-0.141260531385471 0.108124558940093 0.507163399625074
-0.142237854086622 0.108124558940093 0.519531937272139
-0.141507124783207 0.108124558940093 0.535332744253054
-0.139660030658919 0.108124558940093 0.537099996812945
-0.145077709333106 0.108124558940093 0.546158491115819
-0.145076878342334 0.108124558940093 0.557933889052401
-0.148528940215284 0.108124558940093 0.577816105673597
-0.140047590245452 0.108124558940093 0.575790411800988
-0.137091597128522 0.108124558940093 0.584409303340376
-0.149544244946375 0.108124558940093 0.597144104036785
-0.150178956715588 0.109024121192297 0.616919543732669
-0.137462375258326 0.108144112247259 0.613599952869983
-0.145680280135942 0.11341186345319 0.633471090395023
-0.145632397391861 0.113868377851645 0.63519316496522
-0.140016256245276 0.114769958574166 0.638594129404652
-0.132608601767437 0.125643295614105 0.641452017945939
-0.120982013444155 0.131913792902174 0.642555858229499
-0.110326034808342 0.144781288974177 0.64407548397722
-0.100089186750062 0.154564687402404 0.642353242694101
-0.0961903873228863 0.169795559388657 0.63967204385455
-0.0770128102465446 0.184914872602729 0.63035269944335
-0.0691715157471669 0.187021135414597 0.63035269944335
-0.0550070474488782 0.207336910625025 0.63035269944335
-0.0563280324746908 0.210841500317377 0.63035269944335
-0.0394388107820623 0.225065154534146 0.63035269944335
-0.0272224056498454 0.235082358210648 0.63035269944335
-0.456856253704512 -0.229814150089622 0.478015247895737
-0.450297277487057 -0.229814150089622 0.483649442452773
-0.459698820770165 -0.229814150089622 0.495274824684647
-0.461641352968355 -0.229814150089622 0.506738755894811
-0.453068892272868 -0.229814150089622 0.508163472186933
-0.453094624298939 -0.229814150089622 0.514080346399133
-0.455950861818247 -0.229814150089622 0.535144075612438
-0.459073423946751 -0.229814150089622 0.53451396995891
-0.453935505456229 -0.227267239403983 0.536943561969698
-0.446380913841844 -0.218702254500725 0.538275640299548
-0.437453580971661 -0.215898570248679 0.539849769950326
-0.43498760232423 -0.212111407459803 0.54028458851972
-0.43507838490981 -0.200723145456698 0.540268581100503
-0.424284585642039 -0.192171805783055 0.542171819135763
-0.416375967920703 -0.1928080523577 0.541555153020169
-0.40414669974763 -0.172089658892383 0.534494581748453
-0.402308769740892 -0.164944793206923 0.533433452364311
-0.40002837753968 -0.159726861003331 0.532116867313083
-0.384373010373108 -0.150841971584642 0.5230782368652
-0.280436365567074 -0.0338972715349419 0.392544570284397
-0.276036663810802 -0.0259893711302018 0.392544570284397
-0.272070167487861 -0.0165979937108095 0.392544570284397
-0.264141014763706 -0.0146329664323027 0.392544570284397
-0.252957890289144 -0.00608884022014926 0.392544570284397
-0.247841792060376 0.00169698828499834 0.392544570284397
-0.248308930475344 0.00801787214307051 0.392544570284397
-0.242534026255633 0.0203246137751196 0.392544570284397
-0.234744825365702 0.0298126443368985 0.392544570284397
-0.221452855141417 0.0396516478053198 0.392544570284397
-0.215287950800029 0.0449512426850918 0.392544570284397
-0.214439625051239 0.0486001998998951 0.392544570284397
-0.204527848380291 0.0618876206803182 0.392544570284398
-0.189838315047123 0.0652649812006659 0.392544570284398
-0.193564161624084 0.0722614882592447 0.392544570284397
-0.178801309098335 0.0796295527915381 0.392544570284398
-0.168629651424706 0.0881326894340957 0.392544570284397
-0.169839826603924 0.0901356053598112 0.392544570284397
-0.158167923764662 0.107994746835824 0.392544570284397
-0.151671725180889 0.113334313116751 0.392544570284397
-0.148783701339201 0.114791956523769 0.397283917921977
-0.153628031152122 0.111969997133587 0.407928980860644
-0.158111158061027 0.108124558940093 0.430261431359705
-0.151546835042189 0.108124558940093 0.438925191160028
-0.165275523394066 0.108124558940093 0.456820710946823
-0.157325280719206 0.108124558940093 0.460632020436768
-0.162882449383586 0.108124558940093 0.469277417550096
-0.158210519044319 0.108124558940093 0.4824898357278
-0.155792201753836 0.108124558940093 0.488118115663985
-0.153747703160621 0.108124558940093 0.493591510838133
-0.15369956002028 0.108124558940093 0.500070281371578
-0.156918762162721 0.108124558940093 0.521774326561372
-0.1568105277466 0.108124558940093 0.531641226310187
-0.155019022334479 0.108124558940093 0.539689414830389
-0.158296497127497 0.108124558940093 0.551056184236787
-0.155566629557058 0.108124558940093 0.557664923341811
-0.157159233919859 0.108124558940093 0.569053540846848
-0.156878767266999 0.108124558940093 0.585854286169598
-0.158949387131289 0.108124558940093 0.588493979346454
-0.15979321666893 0.108124558940093 0.601484478191234
-0.158936997132133 0.108124558940093 0.611023326334007
-0.157772196712001 0.109221773005217 0.617665130645011
-0.151743279535573 0.111113305817066 0.624800416114653
-0.153160775788545 0.112525726010377 0.630128381465945
-0.14589339696733 0.119937063458177 0.640447509271157
-0.136817979428162 0.130222063646977 0.642258051083595
-0.137141109126617 0.128153189057648 0.641893852359247
-0.131770313655289 0.134767798474136 0.643058269150851
-0.11963062989107 0.142254531932122 0.644376212147005
-0.108172541892072 0.158652336283293 0.641633664757538
-0.0995830560072763 0.167131067390665 0.64014109335214
-0.0810062309874923 0.187888412189901 0.63035269944335
-0.0712045544315461 0.207802064971206 0.63035269944335
-0.0665124182516378 0.212353433328758 0.63035269944335
-0.0561529985194645 0.228012725204439 0.63035269944335
-0.464363625934339 -0.229814150089622 0.487398806230723
-0.467872043543238 -0.229814150089622 0.494581361405047
-0.464347136352218 -0.229814150089622 0.494484871295331
-0.469460133150761 -0.229814150089622 0.511445657336972
-0.462105536500835 -0.229814150089622 0.516869388929977
-0.462686016924686 -0.229814150089622 0.525363614225789
-0.464449862314874 -0.229832070458565 0.535089597170721
-0.465807633835876 -0.226568006822822 0.534850185417932
-0.453323921757997 -0.215354302982055 0.537051400676658
-0.450304830591415 -0.216230149454932 0.537583747906544
-0.443580170111952 -0.203708390097897 0.538769486985178
-0.443644883847911 -0.202373473400501 0.538758076207506
-0.438365456908505 -0.195590468638463 0.539688981619602
-0.427685345319013 -0.186915623766335 0.541572173449806
-0.431457164254888 -0.188909895518617 0.540907100005065
-0.422216079719211 -0.183146469047445 0.542536552539712
-0.415683874795913 -0.172817816376254 0.541155572868267
-0.406064528079783 -0.156959330646979 0.53560184045228
-0.393246105020987 -0.148606070384277 0.528201120448698
-0.287343966295159 -0.0278095036249607 0.392544570284397
-0.379654413063721 -0.125525821101409 0.520353953438428
-0.27345663770511 -0.0141542388634788 0.392544570284397
-0.267401336101552 -0.00112870332497238 0.392544570284397
-0.263722213345628 -0.000733039475753855 0.392544570284397
-0.262168595923205 0.00395975766192341 0.392544570284398
-0.250421494039175 0.0191561800171751 0.392544570284397
-0.244338215917586 0.0309306404165679 0.392544570284397
-0.239295036517741 0.0303688041636819 0.392544570284397
-0.228007294185745 0.0383383737399434 0.392544570284397
-0.223662827060644 0.0404643057087717 0.392544570284397
-0.214998078013334 0.0557674762793346 0.392544570284398
-0.214930104352695 0.0641328855786014 0.392544570284397
-0.203602434826134 0.0752191059448977 0.392544570284397
-0.19405358515036 0.0827225442162167 0.392544570284397
-0.190926960127064 0.0903041900753003 0.392544570284397
-0.186373874696597 0.0881632396347818 0.392544570284397
-0.168413227767754 0.105757840381148 0.392544570284397
-0.169516112734361 0.108218221448172 0.392544570284397
-0.164007548310035 0.113677282649258 0.40148871746358
-0.170570690019171 0.111036737142236 0.411449446598258
-0.17385085718148 0.108124558940093 0.42801892270704
-0.171706952558098 0.108124558940093 0.440720564842603
-0.176682060790865 0.108124558940093 0.449427918628097
-0.171479938590083 0.108124558940093 0.456456981182306
-0.16979258505917 0.108124558940093 0.470284975398961
-0.176220483655614 0.108124558940093 0.48225076033677
-0.169309711789303 0.108124558940093 0.486899643113144
-0.167832163298211 0.108124558940093 0.488774184324698
-0.176361775458946 0.108124558940093 0.513573432500449
-0.173244766572665 0.108124558940093 0.518208074839326
-0.174507360502507 0.108124558940093 0.525566153840538
-0.165088199639299 0.108124558940093 0.530634700257223
-0.16247542433965 0.108124558940093 0.539092642753344
-0.174967419530682 0.108124558940093 0.557059297400223
-0.176874148257226 0.108124558940093 0.569423499017162
-0.172843380397674 0.108124558940093 0.577895240727239
-0.169018796552532 0.108124558940093 0.586973979979339
-0.172743448909546 0.108124558940093 0.598366006284199
-0.17690915031699 0.108124558940093 0.608554358913261
-0.164279327275657 0.108124558940093 0.611244944902466
-0.170095345676956 0.110803177518457 0.623630542703561
-0.169032278600644 0.11202526149598 0.62824051721359
-0.167754443607303 0.113934319545641 0.635441911805914
-0.1574928264059 0.122837038460012 0.640958012518552
-0.156856318582652 0.128014818458592 0.641869493997497
-0.143200758946183 0.140725052803193 0.644106967046048
-0.139749934600633 0.143383481071802 0.644321550054668
-0.124390195956093 0.157989398890919 0.641750366346832
-0.116224200460184 0.161242204726639 0.641177751775592
-0.0966683246721873 0.188528894636745 0.63035269944335
-0.0873500137713382 0.197313421100453 0.63035269944335
-0.0731902411199865 0.211286496709727 0.63035269944335
-0.068571112068999 0.223601533857153 0.63035269944335
-0.0608597270851423 0.228217099948752 0.63035269944335
-0.479997310045022 -0.229814150089622 0.489850804210719
-0.475120882353501 -0.229814150089622 0.504731400052895
-0.480309756302767 -0.229814150089622 0.509382836601837
-0.480116071100282 -0.229814150089622 0.5149046998709
-0.47855275011137 -0.225976333318903 0.521915922061294
-0.47322364065092 -0.221984312483528 0.528266907406114
-0.470653606841497 -0.225836425549105 0.531329754431582
-0.46775168009888 -0.22054399107451 0.534507397610018
-0.464535703349649 -0.213866847175792 0.535074461080238
-0.459023220848776 -0.210567220737784 0.536046460475826
-0.449041713909953 -0.19518444343648 0.537806469457269
-0.446979156568833 -0.193066480227749 0.538170153965767
-0.436488674121447 -0.189510267988985 0.54001990906189
-0.432838826870396 -0.183096802696923 0.540663475607715
-0.432155041059407 -0.176267814929835 0.540784045495217
-0.425588863283227 -0.171487922963879 0.541941839797287
-0.422732793721592 -0.161600643304599 0.542445441919782
-0.412575594295593 -0.150495846923922 0.539361006284689
-0.4096239101598 -0.149154354969238 0.537656850654327
-0.386447661091115 -0.129108210665018 0.524276037015716
-0.389118553390981 -0.129171721004892 0.52581807740402
-0.286695466024782 -0.0101101546217271 0.392544570284397
-0.274859484799783 -0.0035577293361541 0.392544570284397
-0.273036128248497 0.00574348677492333 0.392544570284397
-0.270901163550484 0.0132372249866488 0.392544570284397
-0.255293676317635 0.018212804500984 0.392544570284397
-0.24929237637208 0.0345964350691906 0.392544570284397
-0.239374045742942 0.0380337044951901 0.392544570284397
-0.23598279266336 0.0432702740357676 0.392544570284397
-0.225159977592536 0.0570257941315372 0.392544570284397
-0.223877463253832 0.0688742312015451 0.392544570284397
-0.217329808902197 0.0763296066161732 0.392544570284397
-0.213246536732403 0.0784283560415599 0.392544570284397
-0.202262022762552 0.0833255515332101 0.392544570284397
-0.198613020440197 0.0942012255643679 0.392544570284397
-0.191030266826737 0.106935385841883 0.392544570284397
-0.174659407928059 0.116425158604925 0.392544570284397
-0.176438207004389 0.115846237780736 0.392544570284397
-0.17665927106366 0.11097562470452 0.411679976402511
-0.179570223829651 0.108124558940093 0.425444764736747
-0.187668799203638 0.108124558940093 0.441003865823721
-0.181383291409027 0.108124558940093 0.441837996042878
-0.183297116098253 0.108124558940093 0.448533635268616
-0.182880000769468 0.108124558940093 0.463803248418486
-0.18136862248988 0.108124558940093 0.474845225906177
-0.180895575253014 0.108124558940093 0.490079131610891
-0.186459453768003 0.108124558940093 0.497516076666827
-0.179047667588602 0.108124558940093 0.499791318793328
-0.177050770910872 0.108124558940093 0.514120533335764
-0.18179878402542 0.108124558940093 0.525956233868808
-0.182609131357226 0.108124558940093 0.53744456507866
-0.182263521884077 0.108124558940093 0.537359699479123
-0.189883451437013 0.108124558940093 0.554914517781426
-0.176058463512212 0.108124558940093 0.562251245000594
-0.179255031898718 0.108124558940093 0.5688760110167
-0.180583458135098 0.108124558940093 0.58244178906134
-0.181915483595364 0.108124558940093 0.592274994952359
-0.188659530761752 0.108124558940093 0.608058940959089
-0.186710338918991 0.108124558940093 0.612344057652536
-0.18549664086138 0.110893186807035 0.623970077902158
-0.179983436622038 0.111544460228433 0.626426827132919
-0.175007481455316 0.114703396500876 0.638343042354298
-0.170832969288877 0.12120706887712 0.640671077367492
-0.163539595436579 0.122101435158363 0.640828519031867
-0.16044892700472 0.138917878565388 0.643788837297886
-0.151870775776832 0.150683256152978 0.643036518672729
-0.14823521225688 0.151685502406078 0.642860086128803
-0.129165229536386 0.169365594847667 0.639747733574048
-0.117642846847684 0.184656133174363 0.629039378744506
-0.101949734265775 0.202299726001939 0.63035269944335
-0.0921814932326369 0.207407285887715 0.63035269944335
-0.0908560549404842 0.21147573621915 0.63035269944335
-0.0734992604432118 0.230355433731178 0.63035269944335
-0.486272293656914 -0.229814150089622 0.50269421652185
-0.488869993348062 -0.229814150089622 0.504630864276162
-0.484745998344789 -0.225789237057079 0.514535096229289
-0.485394793325088 -0.22018708137734 0.513761892480662
-0.48070151687645 -0.220215078644289 0.519355121549363
-0.478763193997977 -0.213306371144698 0.521665124803391
-0.475896336678133 -0.212228444131426 0.52508171231377
-0.469823997605551 -0.215921126547062 0.532318444218969
-0.46461836559383 -0.209372612904799 0.535059885496304
-0.457008421380447 -0.196959857062548 0.536401723982809
-0.455944938279562 -0.192236390972326 0.536589244747023
-0.453792754554128 -0.188070727079312 0.536968732805259
-0.44272566987784 -0.180520986938175 0.538920158431473
-0.435998179632751 -0.174396256983385 0.540106396474136
-0.4379830770824 -0.169655714697179 0.539756405499823
-0.430983014225411 -0.161296520904093 0.540990705448165
-0.425527377031171 -0.158695962343878 0.541952681482467
-0.422008114755983 -0.154676625428452 0.542573222373771
-0.418012516928555 -0.148548542362321 0.542500015030394
-0.412672425330581 -0.140165317574759 0.539416911708806
-0.39277415651582 -0.122903892107434 0.527928640852197
-0.38143918666749 -0.108170587718717 0.521384392959007
-0.281575135080979 0.0104940304116382 0.392544570284397
-0.271460839810652 0.0150174230113712 0.392544570284398
-0.271985704399114 0.0269957616009568 0.392544570284398
-0.268414857376334 0.0327900534594147 0.392544570284397
-0.261602345370793 0.0300765669414955 0.392544570284397
-0.248209697939391 0.0470928708331158 0.392544570284398
-0.242036348328272 0.0555979213289176 0.392544570284397
-0.24196786170944 0.0611981161702834 0.392544570284397
-0.22264358803766 0.0681359595824516 0.392544570284397
-0.21717497751923 0.081662023535438 0.392544570284397
-0.209855481132931 0.0902847235075831 0.392544570284397
-0.209496568927494 0.0915850545441886 0.392544570284398
-0.200500200819728 0.107101535160355 0.392544570284397
-0.197599128810254 0.110136110069163 0.392544570284397
-0.191649051281633 0.113384102075388 0.402594660260665
-0.182748228567645 0.11419235374568 0.399545753911946
-0.191102012556226 0.108124558940093 0.424371621653643
-0.199219162894608 0.108124558940093 0.433129421050138
-0.19529848837562 0.108124558940093 0.446357804297328
-0.199482206518185 0.108124558940093 0.460060055622584
-0.191773239452568 0.108124558940093 0.457675014437815
-0.197153537550964 0.108124558940093 0.471513933335036
-0.199148822618705 0.108124558940093 0.492405804649257
-0.204214472224751 0.108124558940093 0.498488127494688
-0.198256425962008 0.108124558940093 0.504526580029911
-0.200654153884484 0.108124558940093 0.51983457095427
-0.201227950076309 0.108124558940093 0.521969787344382
-0.191609546997986 0.108124558940093 0.533543534801262
-0.198026449717711 0.108124558940093 0.544234419483704
-0.196147291604884 0.108124558940093 0.550391126921296
-0.203949952223328 0.108124558940093 0.564554487237617
-0.196036741239711 0.108124558940093 0.567666133495168
-0.197018352631156 0.108124558940093 0.581953598653578
-0.192812212094826 0.108124558940093 0.590937951778514
-0.193013147603282 0.108124558940093 0.593512508795809
-0.202159818541566 0.108340736705197 0.614341664369203
-0.195678065653672 0.109976554594051 0.620512335869167
-0.190433767544486 0.112302178102982 0.629285108684522
-0.190473406112778 0.113716333594112 0.634619619967893
-0.187375406861715 0.115632139433125 0.639689682843967
-0.180096588187864 0.127434568680368 0.641767348497657
-0.16892899680043 0.132660155079378 0.642687245677651
-0.168559459810573 0.138641758651775 0.643740229943519
-0.158819026783115 0.153873495305808 0.642474918160153
-0.133472011929371 0.184656133174363 0.627011156222847
-0.129997856533707 0.184656133174363 0.628486099416576
-0.124896455896179 0.193168871990551 0.63035269944335
-0.121757190839048 0.198368347801493 0.63035269944335
-0.102596848937264 0.215372554621603 0.63035269944335
-0.0968531765341364 0.225121696663993 0.63035269944335
-0.49435252776149 -0.221287347071204 0.503086480284574
-0.491434981806541 -0.224621129403736 0.506563476157943
-0.489092988205717 -0.216290185134768 0.509354555445559
-0.484401123422425 -0.217263235139788 0.514946102157013
-0.485995828301725 -0.211891070454125 0.513045606887978
-0.478157367259109 -0.207405411843261 0.522387120995928
-0.478289498535465 -0.204484259273237 0.522229653072635
-0.473181629467375 -0.194267498662793 0.528316974385033
-0.472673201475516 -0.19541352430199 0.528922895270906
-0.469858954929107 -0.196277088472406 0.532276783703034
-0.461399983508103 -0.187263867054183 0.535627373092246
-0.451741235874536 -0.181122521347465 0.537330470899898
-0.457737573135128 -0.174041334566276 0.536273154855428
-0.446794715765398 -0.164170807367595 0.538202675855756
-0.441395385688475 -0.162755851369377 0.539154723426068
-0.442079465698108 -0.158610369640978 0.539034101663406
-0.426712253290777 -0.150976435152961 0.541743755829097
-0.42077444231527 -0.13832126627268 0.542790752110426
-0.420969626107939 -0.139793540474268 0.542756335941581
-0.410150600181409 -0.127941602250201 0.537960935280082
-0.402540316785718 -0.115389221334859 0.533567136112971
-0.391245356525795 -0.103483569953715 0.527045987766418
-0.286918193132513 0.0150870934520023 0.392544570284397
-0.286600827061403 0.0196817933709086 0.392544570284397
-0.273587225977868 0.0270619229139374 0.392544570284397
-0.275544735314086 0.0290989931903664 0.392544570284397
-0.264405486835358 0.0360416280433942 0.392544570284397
-0.255926075636735 0.0556314583820375 0.392544570284397
-0.253271209596925 0.0636771010075109 0.392544570284398
-0.24144549021177 0.0681445482345631 0.392544570284397
-0.230982167119134 0.0756097760683505 0.392544570284397
-0.230604352481599 0.0828093220712563 0.392544570284397
-0.226064883282417 0.0943877255911301 0.392544570284397
-0.2115576954682 0.106326128180816 0.392544570284397
-0.20811104033192 0.10115354566267 0.392544570284398
-0.203627693554734 0.113483813062819 0.402218528080815
-0.203943507853988 0.110667871748913 0.412840889487722
-0.205760339376954 0.11044407631047 0.413685096011708
-0.213173741849219 0.108124558940093 0.438252197206341
-0.213052865275037 0.108124558940093 0.44332848248135
-0.210546660469515 0.108124558940093 0.451632264608482
-0.210545665464025 0.108124558940093 0.465476093119571
-0.211060561486915 0.108124558940093 0.471837076319296
-0.205533202374699 0.108124558940093 0.477770425783937
-0.204935490857297 0.108124558940093 0.490749334617226
-0.212248753986 0.108124558940093 0.49644108503217
-0.207269082512011 0.108124558940093 0.507395950684126
-0.21156081323213 0.108124558940093 0.520228915432526
-0.211232933019635 0.108124558940093 0.528594525659491
-0.210185853607351 0.108124558940093 0.547447765419401
-0.210212006262449 0.108124558940093 0.541865774142627
-0.207246133343694 0.108124558940093 0.564696382134698
-0.210663642797885 0.108124558940093 0.565422922950949
-0.203264854019196 0.108124558940093 0.581365118141532
-0.216656650718838 0.108124558940093 0.594350253685196
-0.211324396104881 0.108124558940093 0.59692584737974
-0.211041947330788 0.108124558940093 0.607593364723342
-0.20730761505296 0.1098153082467 0.619904078527777
-0.206558284996446 0.111653575507699 0.626838434408133
-0.201655319956764 0.112489978012338 0.62999353200979
-0.198248236350688 0.115864498952766 0.639730586744609
-0.196768054147171 0.118750323676984 0.640238599017886
-0.188444828811928 0.130937226660096 0.642383946320754
-0.181336661391695 0.142702417980889 0.644441442439731
-0.172897912123997 0.147698061387194 0.643562023761938
-0.141589557668366 0.184656133174363 0.625197441250218
-0.145373783420662 0.184656133174363 0.62939544324541
-0.140702056825734 0.195997421567594 0.63035269944335
-0.135089088693434 0.199378811592443 0.63035269944335
-0.120766548898093 0.208897078933784 0.63035269944335
-0.117590753574204 0.214835530480119 0.63035269944335
-0.106919933073242 0.23270126681872 0.63035269944335
-0.499039259867788 -0.218420793806018 0.497501050459367
-0.49361465427518 -0.213054453732253 0.503965843662765
-0.49316066847298 -0.20414240633196 0.504506882873523
-0.487909871082611 -0.201874388034624 0.510764539527479
-0.485174608278382 -0.202368709612387 0.514024298801109
-0.486018363366009 -0.201635757392328 0.513018750644159
-0.481267258526902 -0.196894667048675 0.518680896904957
-0.478207328414487 -0.192800662385371 0.522327579609515
-0.47295838311937 -0.188554875458542 0.528583029022301
-0.469796256711609 -0.186744258761775 0.532351504528987
-0.471224270174766 -0.181372708531337 0.530649664353998
-0.46312201110709 -0.175266535162306 0.53532373316502
-0.451945915053971 -0.16257182763032 0.537294380438174
-0.452490110920289 -0.161316624955197 0.537198424024152
-0.45038281079402 -0.157187926385456 0.537569997892864
-0.44249244342402 -0.152987410956559 0.538961282547897
-0.435569164221936 -0.145569546119797 0.540182043466201
-0.431672759615645 -0.135136005173872 0.540869084726047
-0.430208385808728 -0.135242650068455 0.54112729333805
-0.41991938440438 -0.125337098837324 0.542941521890184
-0.405292932322839 -0.111359155624985 0.535156359434303
-0.401467138369153 -0.106703176482246 0.532947536265279
-0.388573027408416 -0.0926548954619637 0.525503117831136
-0.388025283414715 -0.0815514493469362 0.525186877688926
-0.377994673272014 -0.071621802536512 0.519395702222901
-0.272548956267232 0.042552565307489 0.392544570284397
-0.267037587375888 0.0535013665998715 0.392544570284397
-0.268624339304319 0.056840435553177 0.392544570284397
-0.25672806945885 0.0689353532910405 0.392544570284397
-0.250549310097894 0.0735762019076299 0.392544570284397
-0.247359907929464 0.0857010444102366 0.392544570284397
-0.236547686412018 0.0862944980088524 0.392544570284397
-0.22914379699994 0.103014654874223 0.392544570284397
-0.223968273303377 0.110502402204595 0.392544570284397
-0.224458783344189 0.114202620485619 0.39950702546915
-0.22221728679681 0.110534069527634 0.413345621438082
-0.218450703577252 0.112402180999344 0.406298686509823
-0.222914212022566 0.108124558940093 0.433104670576389
-0.223049243375349 0.108124558940093 0.439860392212051
-0.220240136646698 0.108124558940093 0.455828336093044
-0.223041585404431 0.108124558940093 0.461793164042523
-0.224493733854327 0.108124558940093 0.477811683089275
-0.225634615875863 0.108124558940093 0.481363477969727
-0.220678691424099 0.108124558940093 0.488281809247486
-0.21892291128861 0.108124558940093 0.493213509747515
-0.227464668042016 0.108124558940093 0.512376404383813
-0.223626060782965 0.108124558940093 0.519607690921724
-0.222520820469437 0.108124558940093 0.527787443596564
-0.223736758850315 0.108124558940093 0.533406253599028
-0.220955219142973 0.108124558940093 0.549142074120837
-0.225578410862895 0.108124558940093 0.555902242226291
-0.220527244312865 0.108124558940093 0.564908619204853
-0.223269307328946 0.108124558940093 0.582176947057022
-0.226387572792186 0.108124558940093 0.591358870050555
-0.227669603836927 0.108124558940093 0.600763526860512
-0.22240307511434 0.108316154309869 0.614248934067569
-0.218625168318937 0.109364090761505 0.618201985100907
-0.216097769183817 0.11155798819313 0.62647785764602
-0.211897435899125 0.111667893375918 0.626892444614256
-0.214263733190074 0.121104983261689 0.640653106509758
-0.206104361876432 0.117546264186097 0.640026639852801
-0.199462123636885 0.130920408454613 0.642380985692297
-0.197350789694709 0.143962913078947 0.644219548512894
-0.180891632081973 0.157631260606568 0.641813411978971
-0.182638716615758 0.156322461223474 0.642043809253028
-0.172609626653457 0.16859116111254 0.639884062658411
-0.151836238592398 0.188786749047791 0.63035269944335
-0.153423263963161 0.192702160876086 0.63035269944335
-0.133135639287444 0.211071191595106 0.63035269944335
-0.123414414816883 0.216411090260652 0.63035269944335
-0.114892372621835 0.233629218517242 0.63035269944335
-0.118069277481035 0.230817060281455 0.63035269944335
-0.5 -0.206146818846799 0.494051613294569
-0.496876790591323 -0.207323677947491 0.50007818098847
-0.496441173835952 -0.194010568678979 0.500597328821678
-0.49464971192431 -0.194386311826031 0.502732309990871
-0.491490769715625 -0.190485696021692 0.50649699071687
-0.485900511472764 -0.191412965321998 0.513159201061328
-0.481957927089548 -0.185140548934972 0.517857790164132
-0.478137208116026 -0.180940053652616 0.52241114572712
-0.475389146309137 -0.176396144947623 0.52568615825815
-0.472894363656403 -0.173654867716522 0.528659324447288
-0.472067183260091 -0.168117524187707 0.529645119656316
-0.465856951024966 -0.168056886733792 0.534841489466882
-0.463491079419349 -0.16177022497336 0.535258656463845
-0.456173914773327 -0.154188216416397 0.536548870013224
-0.450792138906364 -0.149479235081142 0.537497822302695
-0.443808596073492 -0.138619694833959 0.538729209325063
-0.439739733475642 -0.133158782994053 0.53944665958186
-0.435164470940496 -0.128783915188283 0.540253401810631
-0.436350760464399 -0.121020949018375 0.540044226960635
-0.421582235018548 -0.116471125321284 0.542648316462018
-0.424998582746661 -0.109364277227144 0.54204592218207
-0.4058226828077 -0.0959102361624667 0.535462211019341
-0.401486809051726 -0.0894015146736542 0.532958893139157
-0.40056961122143 -0.0849801151770423 0.532429348724935
-0.383763295119304 -0.0634889658460402 0.522726217599288
-0.282392923236426 0.0538937658689313 0.392544570284397
-0.277373995909033 0.0537187456747917 0.392544570284397
-0.2768588119846 0.0666051750506425 0.392544570284397
-0.258817971416416 0.0808176447256199 0.392544570284397
-0.260154340114202 0.077744393865266 0.392544570284397
-0.253409652231413 0.0873002265720369 0.392544570284398
-0.242189083832031 0.0991059223664425 0.392544570284397
-0.23702606824555 0.104815883644973 0.392544570284397
-0.224857337597159 0.117426738204594 0.392544570284397
-0.228666687042753 0.118028449744394 0.392392649975725
-0.232003892405091 0.111532814953748 0.409578129971807
-0.229800735305771 0.108124558940093 0.43045264118522
-0.237715099033252 0.108124558940093 0.441716917226425
-0.227679729856595 0.108124558940093 0.442456862815435
-0.236448843718428 0.108124558940093 0.452154144200225
-0.229605563856117 0.108124558940093 0.461874295611946
-0.231592132063512 0.108124558940093 0.470708026112724
-0.234814990916434 0.108124558940093 0.492848824912705
-0.235985841349102 0.108124558940093 0.489175116536404
-0.240070439911651 0.108124558940093 0.508710260178154
-0.238323227337414 0.108124558940093 0.522646304403651
-0.237257703188544 0.108124558940093 0.532697142811688
-0.241462736985245 0.108124558940093 0.539680194563002
-0.234164072987805 0.108124558940093 0.543515462198734
-0.231949924871617 0.108124558940093 0.561637771163492
-0.23557103168018 0.108124558940093 0.564603177851987
-0.242160530116279 0.108124558940093 0.57514475023044
-0.241616014324949 0.108124558940093 0.586872101021066
-0.236991780834529 0.108124558940093 0.587209635080036
-0.241035843189567 0.108124558940093 0.610003624092625
-0.230940116638947 0.108124558940093 0.609120413711992
-0.23388119569884 0.109511816283007 0.618759238858529
-0.230323371037721 0.110400914580197 0.622113116793547
-0.230076502735112 0.114234675740843 0.636574922654001
-0.228300319771778 0.124819616639141 0.641307019871381
-0.219154449863093 0.126040494266243 0.641521939652729
-0.212802515939618 0.129870645533137 0.642196188450918
-0.19888773628579 0.141185209113915 0.644187971637737
-0.192535636025113 0.158235416614908 0.641707058095232
-0.192999637774118 0.16455288534543 0.64059494909422
-0.17206241355113 0.18622155514732 0.63035269944335
-0.15849270376108 0.193491171238475 0.63035269944335
-0.154952715311766 0.202094158367277 0.63035269944335
-0.148577872079162 0.210492132255478 0.63035269944335
-0.138323549810126 0.22070379564 0.63035269944335
-0.128117495922121 0.23022932762694 0.63035269944335
-0.5 -0.190834329714868 0.474211405903099
-0.499758435440381 -0.194636211028064 0.496643970387025
-0.5 -0.192519683395247 0.494452668432711
-0.495871095310025 -0.18681000036054 0.50127672195301
-0.491643586980883 -0.187439666957414 0.506314870191988
-0.489458918879329 -0.182245446479366 0.50891845625064
-0.484876805844624 -0.178205572594876 0.514379205921424
-0.483246305883053 -0.169700670847865 0.516322360108351
-0.478488494984545 -0.170335589414237 0.521992498339531
-0.474275441962537 -0.169893516052325 0.527013419414299
-0.477257073595116 -0.15958143825766 0.52346004920438
-0.474573272475884 -0.161124482151056 0.526658478830033
-0.464469852584647 -0.153309534592829 0.535086072346809
-0.461954128622316 -0.150790004537536 0.535529662357383
-0.455957501202596 -0.143831308322066 0.536587029564735
-0.451295846570872 -0.137189271886746 0.537409005051053
-0.447461896392054 -0.125206188896423 0.538085033910271
-0.445757059400455 -0.127751852200187 0.538385642669599
-0.43371096085308 -0.117765296740831 0.540509694855775
-0.430770609246938 -0.116021577320044 0.541028158176707
-0.430904569353896 -0.107717315634983 0.541004537395511
-0.426063396988786 -0.0994072497361741 0.541858166701741
-0.415536035764947 -0.090009214420397 0.541070217963942
-0.401563051014305 -0.0785857335710113 0.533002911456776
-0.391827973873093 -0.0679807958752404 0.527382362048715
-0.3772875568735 -0.0499970939375925 0.518987448379871
-0.285408938597432 0.0651927574300681 0.392544570284397
-0.282743936771555 0.0722204560028612 0.392544570284397
-0.26496861686411 0.0873826163616866 0.392544570284397
-0.264299172952096 0.08352110775672 0.392544570284397
-0.250090716807239 0.0954019730126736 0.392544570284397
-0.254114568027526 0.103033621666762 0.392544570284397
-0.248682548742045 0.108073549287879 0.392544570284397
-0.244409975964908 0.11293627652641 0.404283958544335
-0.249752251049176 0.109420838046213 0.417544979949854
-0.255993133861876 0.108124558940093 0.433350322161792
-0.252857715318608 0.108124558940093 0.435503340985378
-0.250769746415693 0.108124558940093 0.445619126334422
-0.254144310368407 0.108124558940093 0.460542577009686
-0.241998872854679 0.108124558940093 0.465809520246309
-0.251688732685343 0.108124558940093 0.473090375739508
-0.248371768457854 0.108124558940093 0.49034717610599
-0.250671132513084 0.108124558940093 0.497302393456144
-0.250883495229812 0.108124558940093 0.508322007206265
-0.24780774000834 0.108124558940093 0.514324865121912
-0.243344046610397 0.108124558940093 0.523536807009052
-0.248355301973871 0.108124558940093 0.539729040108369
-0.248494887829135 0.108124558940093 0.5456649881386
-0.252157132517075 0.108124558940093 0.554333210009568
-0.248725955827619 0.108124558940093 0.562099028861621
-0.249317316861774 0.108124558940093 0.580172359598473
-0.247953589199655 0.108124558940093 0.582971537311562
-0.240239293996017 0.108124558940093 0.592034003657063
-0.251544414156709 0.108124558940093 0.598295871865438
-0.250569628473531 0.108161091613024 0.613664002841027
-0.244817938368656 0.109904842394212 0.620241821387841
-0.242797017973564 0.113272242702988 0.632944409650216
-0.23628441409136 0.113778997943758 0.634856003931573
-0.239577721425556 0.122545620529869 0.640906712145414
-0.238931305252483 0.12774243260531 0.641821543976356
-0.223469932509767 0.138163894161824 0.643656108054957
-0.215956955357831 0.142535177529937 0.644425616189784
-0.202125712704493 0.155951136140071 0.642109176251295
-0.197987132803737 0.160616591913202 0.641287882853505
-0.179459131815881 0.186388581356129 0.63035269944335
-0.173844205709251 0.198640054129166 0.63035269944335
-0.166761242035707 0.199344063652952 0.63035269944335
-0.158711974160478 0.217276516729712 0.63035269944335
-0.153739558053823 0.226289590380918 0.63035269944335
-0.144302618246054 0.229739520927281 0.63035269944335
-0.5 -0.184121106246564 0.474292927417942
-0.5 -0.173646150366801 0.47607560989865
-0.5 -0.184754973391435 0.491666827749202
-0.5 -0.179769667574481 0.495392233938423
-0.496795979799884 -0.168847588578506 0.500174487539487
-0.49458813655351 -0.171108988112664 0.502805692660238
-0.492635146028993 -0.169401797716861 0.505133176134133
-0.485928648654224 -0.165474847135129 0.513125668474238
-0.485545462286129 -0.16269694939323 0.513582332205048
-0.48164812622868 -0.155296924052434 0.518226996453059
-0.476407512776804 -0.148600891588544 0.52447251636173
-0.477711058782025 -0.147891196470533 0.522919010726898
-0.474126069403987 -0.142336815866831 0.527191434697587
-0.466613873827518 -0.137005856496622 0.534708023554479
-0.462990627137687 -0.13586939630873 0.535346899703659
-0.459901765913589 -0.135185718902837 0.535891549277131
-0.453610727425188 -0.120042371179133 0.537000829099311
-0.450341100802082 -0.118718984588404 0.537577352489808
-0.446912560341059 -0.1081016275902 0.538181896677537
-0.436936668883809 -0.103901479402822 0.539940915498069
-0.432064935939317 -0.0945493009831368 0.540799933458989
-0.423855230623832 -0.088735651410571 0.542247526009776
-0.424437124287893 -0.0833206473986581 0.542144922456898
-0.412213057224926 -0.0750020567561826 0.539151695409349
-0.405459291346467 -0.0626205633523832 0.535252406861377
-0.392335348645419 -0.0487847306041893 0.527675295010098
-0.384408575545823 -0.0439963288226831 0.523098770427241
-0.283337817565966 0.0793766219517954 0.392544570284397
-0.275888772222217 0.0844025962337597 0.392544570284397
-0.270764716582851 0.0943090131582409 0.392544570284397
-0.270597876517926 0.1022582711892 0.392544570284397
-0.255681740782489 0.115391890799166 0.392544570284397
-0.252637468109883 0.113321233757999 0.402831813636359
-0.257807375501278 0.109721784118636 0.416409743952757
-0.261083547946312 0.108124558940093 0.423566574743103
-0.257962313395403 0.108124558940093 0.440420806549004
-0.262119728804056 0.108124558940093 0.442720478203298
-0.264839604558876 0.108124558940093 0.457401005163674
-0.2658917791162 0.108124558940093 0.464252303936734
-0.259166222967971 0.108124558940093 0.46674927292699
-0.261792672968664 0.108124558940093 0.480462347111631
-0.256859023099493 0.108124558940093 0.492713711468234
-0.264771215391018 0.108124558940093 0.50699176031973
-0.262227061968466 0.108124558940093 0.507210162205072
-0.257780813916283 0.108124558940093 0.5243929470686
-0.258404582784872 0.108124558940093 0.530732298937806
-0.255872297862089 0.108124558940093 0.537238526734272
-0.25297799152122 0.108124558940093 0.550234776930136
-0.25659431387846 0.108124558940093 0.5547459878336
-0.262937366924722 0.108124558940093 0.572216492383657
-0.260693563551953 0.108124558940093 0.577675884247793
-0.259147662560532 0.108124558940093 0.596179315754158
-0.265946908494656 0.108124558940093 0.603441540337483
-0.261891965735035 0.108124558940093 0.606878110089453
-0.260605258182889 0.109826269263483 0.61994542593835
-0.258769778579055 0.111900911305032 0.62777144043889
-0.259813594155125 0.11276382869118 0.631026558112937
-0.259568222575536 0.115090115761996 0.63959426655793
-0.246537579921359 0.12060909766064 0.6405658122367
-0.237564836387599 0.131494320791223 0.642482015567167
-0.233590244108923 0.136867287636517 0.643427857176469
-0.228136289014059 0.150538607479492 0.643061982208621
-0.216115537084219 0.160683417830555 0.641276119011473
-0.205573775249647 0.166794033195077 0.640200423881273
-0.196020291309689 0.191033126126563 0.63035269944335
-0.180301750890433 0.197905487080863 0.63035269944335
-0.177282849987238 0.209475441049808 0.63035269944335
-0.168621031035165 0.222807201183099 0.63035269944335
-0.152014044697624 0.231829609323692 0.63035269944335
-0.5 -0.173139265076779 0.470012821568259
-0.5 -0.163196284255434 0.470106465524865
-0.5 -0.163517707766123 0.477440108641897
-0.5 -0.165447385777914 0.48756959108894
-0.5 -0.163769100945295 0.488988805095867
-0.498384964754728 -0.166063336052874 0.498280809010973
-0.494258887675752 -0.158821104213913 0.503198076193164
-0.493159867275611 -0.155701958716797 0.504507837703366
-0.48649954725241 -0.14839956932776 0.512445298018842
-0.483022565979519 -0.144764875978208 0.516589002942194
-0.484451125195329 -0.139875610369862 0.514886512364518
-0.480264979451246 -0.135909194485167 0.519875366594151
-0.476747730720455 -0.1383065172953 0.524067060405119
-0.469020435568375 -0.129837696783187 0.533276092163646
-0.469966106808129 -0.126721892511302 0.532149085066257
-0.459810579307235 -0.117105530294355 0.53590762793611
-0.459909756439748 -0.11267450545952 0.535890140331779
-0.45323272033076 -0.109947040536567 0.537067481948958
-0.449792619630004 -0.10420289918752 0.537674064518856
-0.441223728634371 -0.0954298827216747 0.539184991196136
-0.436257700804684 -0.0933668051254725 0.540060635889458
-0.429106379472587 -0.0821462863808285 0.541321606788023
-0.426321174128378 -0.0749671095644553 0.541812713637021
-0.41465752612371 -0.068562021114126 0.540563010186087
-0.404796288713765 -0.056678391771143 0.534869622112914
-0.402258714921346 -0.0538542063668739 0.533404553200771
-0.385628166233685 -0.0314026942069841 0.523802901439179
-0.383761309777925 -0.030062282833019 0.522725071361908
-0.282649057009426 0.0921705325539204 0.392544570284397
-0.274301905161874 0.0967913154720071 0.392544570284398
-0.269120415459436 0.113542552378075 0.392544570284397
-0.268858951466955 0.117443621791675 0.392544570284397
-0.277188946368221 0.108604450530717 0.42062457652911
-0.271773951642348 0.108124558940093 0.423579113036562
-0.274982551448412 0.108124558940093 0.443772163828799
-0.27735532530544 0.108124558940093 0.449952195930477
-0.277053684786684 0.108124558940093 0.455898315301829
-0.2689188419162 0.108124558940093 0.461913972700271
-0.271890095575134 0.108124558940093 0.474188129620939
-0.277488691930709 0.108124558940093 0.481280364878939
-0.271862253165114 0.108124558940093 0.490737796099179
-0.273195522409819 0.108124558940093 0.504664666895599
-0.2739002294295 0.108124558940093 0.513662546787236
-0.272592073542672 0.108124558940093 0.515774494579684
-0.267473218699023 0.108124558940093 0.52451041429069
-0.273370036711444 0.108124558940093 0.533799066227732
-0.275164078336731 0.108124558940093 0.550765009604847
-0.271540150939679 0.108124558940093 0.559379456210133
-0.275099852833138 0.108124558940093 0.568602312017228
-0.273494193419769 0.108124558940093 0.577635176306332
-0.267777398191432 0.108124558940093 0.590839596347112
-0.271553362506934 0.108124558940093 0.598089224927682
-0.27404253147346 0.108124558940093 0.607434013113533
-0.275032335464534 0.108124558940093 0.61236411409284
-0.268956776322818 0.111189291102194 0.625087049630859
-0.27148466134154 0.114284839984137 0.636764153416501
-0.268377701474715 0.114029731271401 0.635801826207705
-0.262970625301272 0.121349404520013 0.64069613372414
-0.261172276432474 0.129883095338786 0.642198380078849
-0.253764141638933 0.132256356721225 0.642616162177622
-0.238930787309044 0.150980567550437 0.642984180830577
-0.237048527012585 0.160699176176421 0.64127334495765
-0.208878226045324 0.184656133174363 0.626303675149882
-0.209755077834917 0.184656133174363 0.626554013106408
-0.198127494152962 0.197526911150119 0.63035269944335
-0.191136015606922 0.203765032566728 0.63035269944335
-0.187733684825072 0.216317890435381 0.63035269944335
-0.177536058614112 0.226378184690534 0.63035269944335
-0.5 -0.148193495086601 0.449492278137734
-0.5 -0.151738816748645 0.4533809501092
-0.5 -0.151135028377324 0.46887976694718
-0.5 -0.148703198560289 0.481853632084825
-0.5 -0.153135844929095 0.490060746589627
-0.5 -0.153436549845848 0.491535755068863
-0.5 -0.148087280874072 0.494357423700612
-0.49373211785381 -0.151257293752034 0.503825856020934
-0.490611863567724 -0.142733522449055 0.507544430276185
-0.488785878979625 -0.136604570608092 0.509720553969072
-0.487296450823142 -0.132103978257381 0.511495585325472
-0.481898197366339 -0.126913291101115 0.517928973276351
-0.476789793259334 -0.123637497009393 0.524016932223297
-0.473827694715791 -0.12649106176345 0.527547023804182
-0.473043876391186 -0.119608962029156 0.528481142108472
-0.467476916101828 -0.116713860863805 0.534555845916025
-0.463783005063857 -0.112700634646049 0.535207182096357
-0.461945872208842 -0.107370706339783 0.535531118185842
-0.455999352756395 -0.0992685452574469 0.536579650006616
-0.445130069297435 -0.0934111871208299 0.538496197941399
-0.441139528628314 -0.0865818353879774 0.539199837928979
-0.433499450178433 -0.075236158815999 0.540546989894423
-0.430501314452176 -0.0698888595247315 0.541075642114788
-0.421391042464441 -0.0653302243099222 0.542682028867818
-0.420345406017424 -0.057424929776076 0.542866402785439
-0.406596696817581 -0.0441659109122463 0.535909088216302
-0.402011671981428 -0.0338174637260408 0.533261922892909
-0.396701927547801 -0.0205058107450495 0.530196340514826
-0.378100269238658 -0.0073755572337379 0.519456668082669
-0.280120096198711 0.109532433222023 0.392544570284397
-0.274813611753496 0.109763662933553 0.392544570284398
-0.27792250612735 0.111960088727343 0.40796635758848
-0.286275108202425 0.109748679873944 0.416308287139084
-0.286310141409822 0.108124558940093 0.429205826645659
-0.28098858710201 0.108124558940093 0.435669186043525
-0.285941850878644 0.108124558940093 0.454934983596092
-0.285325116043911 0.108124558940093 0.468919757906237
-0.284800301817967 0.108124558940093 0.474027074696108
-0.281555788334622 0.108124558940093 0.478956934740275
-0.283509793540253 0.108124558940093 0.489462292197012
-0.282728985016762 0.108124558940093 0.495172123491312
-0.283437439228983 0.108124558940093 0.504660545863604
-0.282302718425845 0.108124558940093 0.510162005610048
-0.281841810163104 0.108124558940093 0.52733587028614
-0.27718054451176 0.108124558940093 0.535646403504985
-0.284928130284197 0.108124558940093 0.547005925309693
-0.289378318851415 0.108124558940093 0.561578353567682
-0.278599776778383 0.108124558940093 0.557981491209269
-0.290679576464439 0.108124558940093 0.584502306474028
-0.282418711641982 0.108124558940093 0.585742624787241
-0.289122242292328 0.108124558940093 0.60246534957101
-0.289375712082346 0.108124558940093 0.608005609173113
-0.287594633568042 0.108124558940093 0.609582000879315
-0.287112048099038 0.11055251825944 0.622684999830875
-0.277788249401685 0.112929327148596 0.631650855365962
-0.277758746158987 0.112646501910457 0.630583975214848
-0.274621136181736 0.123817792897406 0.641130661705138
-0.271133298155948 0.126330119892834 0.641572924513912
-0.265226508410881 0.134565842973942 0.643022717486229
-0.262556565822824 0.138844386622578 0.64377589998793
-0.253570075688647 0.146431036093094 0.643785067245678
-0.223952522665867 0.184656133174363 0.62848101381407
-0.223999024949414 0.184656133174363 0.627976147219522
-0.21184574108381 0.191973108269874 0.63035269944335
-0.203701566697313 0.201607750083919 0.63035269944335
-0.201285644653301 0.211069632591888 0.63035269944335
-0.190844848909453 0.230676385618592 0.63035269944335
-0.174261587298108 0.233831156652871 0.63035269944335
-0.422143428350111 -0.0408289277267088 0.312485640688977
-0.5 -0.135245967228604 0.449680202392176
-0.5 -0.134357163966283 0.45946035587346
-0.5 -0.13802372147559 0.47184229768743
-0.5 -0.132472799686006 0.474207808130647
-0.5 -0.138912334172846 0.479455333300017
-0.498993033787535 -0.136569365464158 0.497556140556581
-0.496123053444622 -0.138858096804933 0.500976449940922
-0.491677690708729 -0.131583308899469 0.506274226951807
