ply
format ascii 1.0
element vertex 845
property float x
property float y
property float z
end_header
-0.163583726023737 0.0115687222002547 0.241666666666666
-0.144108370344552 -0.00284810777483386 0.241666666666666
-0.144576323379436 -0.00637346986757857 0.241666666666666
-0.13782633114997 -0.0145339509241938 0.241666666666666
-0.125519771464395 -0.0303381407906455 0.241666666666666
-0.116198484891303 -0.0288575512170649 0.241666666666666
-0.117121263803405 -0.036312017943863 0.241666666666666
-0.104722830009157 -0.0429728225712023 0.241666666666666
-0.0970120735494957 -0.0592042533874775 0.241666666666666
-0.0952271361957152 -0.0596837850580504 0.241666666666666
-0.0935877725208935 -0.0669477777320596 0.241666666666666
-0.0843738560213339 -0.0688277256165412 0.241666666666666
-0.0739170044150941 -0.0850419990419656 0.241666666666666
-0.0623821333582626 -0.0921946195355634 0.241666666666666
-0.0550844355727785 -0.0993368912459025 0.241666666666666
-0.0482569520049421 -0.108729459803649 0.241666666666666
-0.0369627876662582 -0.121872598543502 0.241666666666666
-0.030018217674936 -0.131971820156761 0.241666666666666
-0.0281184880388625 -0.136879439634838 0.241666666666666
-0.0180580516161314 -0.136068170694605 0.241666666666666
-0.0091882474773202 -0.152943168123166 0.241666666666666
-0.000918885713157536 -0.161786398275826 0.241666666666666
0.0135888173144421 -0.17343003158163 0.241666666666666
0.00894683975952213 -0.177095816593956 0.241666666666666
0.0261374182739944 -0.189229722506422 0.241666666666666
0.0278128146780946 -0.191361803785928 0.241666666666666
0.0423020613138565 -0.202864539453922 0.241666666666666
0.0448876452205345 -0.211211545579149 0.241666666666666
0.062696310767367 -0.220351431606211 0.241666666666666
0.0678327693168174 -0.233376135325939 0.241666666666665
0.0764690620092165 -0.237109893279542 0.241666666666666
0.0767955751619903 -0.246504149416468 0.241666666666666
0.0874561691398589 -0.253024606707264 0.241666666666666
0.105286113547797 -0.271040203292025 0.241666666666666
0.10372903661366 -0.272891671476392 0.241666666666665
-0.396126016795145 0.283333333333329 0.472612994767399
-0.399102705038367 0.283333333333329 0.475504556102894
-0.399650980513021 0.277616099490462 0.483333333333331
-0.392505985418512 0.2738629895982 0.483333333333331
-0.383006409134649 0.259821669345267 0.483333333333331
-0.378573769147801 0.252117912101837 0.483333333333331
-0.373863197109967 0.250250609463881 0.483333333333331
-0.364668312355649 0.239945160445028 0.483333333333331
-0.360337418966064 0.237542109364215 0.483333333333331
-0.354408108916414 0.23726966680183 0.483333333333331
-0.352784364376607 0.231567116428626 0.483333333333331
-0.345537780756535 0.217414131277923 0.483333333333331
-0.159245551191648 0.0264705722251524 0.241666666666666
-0.157517779038107 0.0228012956519859 0.241666666666666
-0.154417127684669 0.0134855271216817 0.241666666666666
-0.139468085671238 0.00745519580651181 0.241666666666665
-0.134115030777838 0.000899720725865757 0.241666666666666
-0.12521762923482 -0.0102309204402554 0.241666666666666
-0.120359651058967 -0.0144045057801335 0.241666666666666
-0.107935588022526 -0.0304582929394703 0.241666666666666
-0.10658386918873 -0.0336189001284827 0.241666666666666
-0.0963110295026431 -0.0415782822506898 0.241666666666666
-0.095373598741116 -0.0469005856691917 0.241666666666665
-0.0904337684664157 -0.0514691184049112 0.241666666666666
-0.0783591998914439 -0.0647505103462221 0.241666666666666
-0.0654181918250126 -0.0760390437992806 0.241666666666665
-0.0646421174508822 -0.0745270281258558 0.241666666666666
-0.0580673921174906 -0.0862919082681347 0.241666666666666
-0.052545254011248 -0.0956892148472775 0.241666666666666
-0.0472778968578195 -0.102197837843925 0.241666666666666
-0.0368970514740194 -0.109817413695442 0.241666666666665
-0.02771592657719 -0.122535471628782 0.241666666666666
-0.0256177722336306 -0.125874525338402 0.241666666666666
-0.00980590669971518 -0.139479939744442 0.241666666666666
-0.00258863485795395 -0.141490520985826 0.241666666666666
0.00335266956258024 -0.154641465323189 0.241666666666666
0.0114105064831743 -0.160864925836675 0.241666666666666
0.0145167288627436 -0.167380270416688 0.241666666666666
0.0314401034807939 -0.185444339297727 0.241666666666666
0.0329036506625903 -0.181750949125491 0.241666666666666
0.0480400114169414 -0.198709808661771 0.241666666666666
0.0574551457411544 -0.199863143120393 0.241666666666665
0.0625998934322024 -0.205314497714942 0.241666666666666
0.0730899374752903 -0.219968650380656 0.241666666666665
0.0842910884552662 -0.237593521124913 0.241666666666666
0.0827366774322402 -0.240959531819031 0.241666666666666
0.101572967075859 -0.252716056491438 0.241666666666666
0.104853534057109 -0.26135225749512 0.241666666666666
0.11268466308756 -0.27073821730445 0.241666666666666
-0.391795991214152 0.283333333333329 0.476194843967995
-0.389246958696348 0.283333333333329 0.473764843560561
-0.39192356468599 0.283333333333329 0.481661543195626
-0.383119292222193 0.282898533489416 0.483333333333331
-0.380281858891355 0.271197684446208 0.483333333333331
-0.37586395872946 0.262728002127098 0.483333333333331
-0.370610231940371 0.260975468090198 0.483333333333331
-0.360168709365142 0.253012172812583 0.483333333333331
-0.352054501096191 0.249963664387104 0.483333333333331
-0.348165267937311 0.236866739653627 0.483333333333331
-0.334972339330336 0.232448364123792 0.483333333333331
-0.332932917184707 0.223361499564317 0.483333333333331
-0.155878481302837 0.0316673728079345 0.241666666666666
-0.150344243628118 0.0301405630650351 0.241666666666666
-0.141580456264773 0.0195007288628485 0.241666666666665
-0.13654107330232 0.0185671668222753 0.241666666666666
-0.124883472911668 0.00459482370250772 0.241666666666665
-0.119347861636369 0.0013025819596233 0.241666666666666
-0.108824209794439 -0.0110533854110737 0.241666666666666
-0.108557408664944 -0.00923555237743459 0.241666666666666
-0.0984980668949667 -0.026589852804404 0.241666666666666
-0.0946815199447117 -0.0319740505537212 0.241666666666665
-0.0904486543976226 -0.0353323058134859 0.241666666666666
-0.0756765752880097 -0.0429040365455967 0.241666666666665
-0.0676458326834165 -0.0525084033242008 0.241666666666666
-0.0628559574160407 -0.0636561333344223 0.241666666666666
-0.0614223388743278 -0.0679788534382109 0.241666666666666
-0.045660948652535 -0.0804949348640034 0.241666666666666
-0.0434589562792673 -0.0827122795767696 0.241666666666666
-0.0402715288324507 -0.0915853093976452 0.241666666666666
-0.0264115374953007 -0.105499990296198 0.241666666666665
-0.0184866279091921 -0.108062851650235 0.241666666666666
-0.0122057590251147 -0.121483298996995 0.241666666666666
-0.00706632786844786 -0.126858407282514 0.241666666666666
0.00604100179440081 -0.13471693084603 0.241666666666666
0.0105037360065877 -0.144375078202264 0.241666666666665
0.0192720397239361 -0.151150191067329 0.241666666666665
0.0282061914330763 -0.156831545362694 0.241666666666665
0.031595099047571 -0.163132186670384 0.241666666666666
0.0468590785700258 -0.179807333316049 0.241666666666666
0.0565901836691345 -0.189324508639838 0.241666666666666
0.0578203438317526 -0.191956622180969 0.241666666666666
0.0677937963791063 -0.213419245777573 0.241666666666666
0.0746798209231158 -0.214571158302171 0.241666666666665
0.086943757598118 -0.229661931334829 0.241666666666666
0.0953458689981831 -0.23825439983812 0.241666666666666
0.102257219828285 -0.245195178726948 0.241666666666666
0.111516171649711 -0.257436243258164 0.241666666666666
0.125962537263982 -0.262612215599679 0.241666666666666
0.129104956295513 -0.277195330926484 0.241666666666666
0.134075574397593 -0.270496995862518 0.241666666666666
-0.372537525643572 0.283333333333329 0.455736543573332
-0.375555670450341 0.283333333333329 0.470193889306209
-0.381612982671716 0.283333333333329 0.478370004293618
-0.375427634711741 0.28333333333333 0.482414355533633
-0.370917808296612 0.279549389867739 0.483333333333331
-0.359974020618283 0.264932839895408 0.483333333333331
-0.360462259234506 0.260242604584422 0.483333333333331
-0.348956861892528 0.252763181638591 0.483333333333331
-0.34752592283948 0.246970029693809 0.483333333333331
-0.342085780273764 0.243618011227427 0.483333333333331
-0.336042101628004 0.236747054926614 0.483333333333331
-0.33325028999486 0.231628359282654 0.483333333333331
-0.326784185433166 0.224489210536814 0.483333333333331
-0.136926683541157 0.0315448824822587 0.241666666666666
-0.132492510833741 0.0281467894298544 0.241666666666666
-0.133139083517509 0.0279727992787211 0.241666666666666
-0.125629980570133 0.0163807598682904 0.241666666666666
-0.119666171555806 0.00958955822979984 0.241666666666665
-0.1039491715941 -0.00204238300598284 0.241666666666666
-0.101482606635333 -0.00755642258484567 0.241666666666666
-0.0875828413564679 -0.0242282051684153 0.241666666666666
-0.0817166140769161 -0.0293575702596741 0.241666666666666
-0.0780787862965378 -0.0245665307552796 0.241666666666665
-0.0735382863121008 -0.0431351989314606 0.241666666666666
-0.062833520310036 -0.0540350366451833 0.241666666666666
-0.0608236744809589 -0.0522622846642971 0.241666666666666
-0.0520556171712605 -0.0639094148701635 0.241666666666666
-0.0400313551697042 -0.0701040865262353 0.241666666666666
-0.0412206621128186 -0.0725502379504435 0.241666666666666
-0.0276592287081831 -0.0897110437753398 0.241666666666666
-0.0239918581603252 -0.095463189280714 0.241666666666666
-0.00822735819200638 -0.105934396972834 0.241666666666665
-0.00310280786896027 -0.114572364065642 0.241666666666666
0.00973437109582945 -0.123804289607434 0.241666666666666
0.010245935686328 -0.129827602630501 0.241666666666666
0.0144506317985847 -0.134473936941123 0.241666666666666
0.0344798241285452 -0.145080359894354 0.241666666666666
0.0351238636478364 -0.15301235820753 0.241666666666666
0.0415017313642001 -0.163020269074125 0.241666666666666
0.047899148209219 -0.17051216496297 0.241666666666666
0.0614173735635268 -0.184074630135244 0.241666666666666
0.0658705775329762 -0.186719944768912 0.241666666666666
0.0780518980697357 -0.202229782265959 0.241666666666666
0.0937763640578002 -0.206955045982484 0.241666666666666
0.0930729848927336 -0.218066224931195 0.241666666666666
0.103338469581935 -0.220526548437303 0.241666666666666
0.111388390559889 -0.239125772671419 0.241666666666665
0.115508605627381 -0.237505904755386 0.241666666666666
0.131600560656325 -0.252416272394951 0.241666666666666
0.134109179058858 -0.259506152455691 0.241666666666666
0.14577600621785 -0.272363641042543 0.241666666666666
-0.37284864921423 0.283333333333329 0.458395414482498
-0.37321911999207 0.283333333333329 0.459804535312511
-0.370564352131082 0.28333333333333 0.47523271482402
-0.36366804179641 0.28333333333333 0.472236788490839
-0.364532220245021 0.278275129493821 0.483333333333331
-0.364031647819599 0.27811186904742 0.483333333333331
-0.355429173324694 0.267654579770951 0.483333333333331
-0.345037687168301 0.260543487090019 0.483333333333331
-0.345084454273466 0.260805205931411 0.483333333333331
-0.335700420329445 0.24872546019383 0.483333333333331
-0.333510679268998 0.249894314010081 0.483333333333331
-0.320780196574612 0.241406744435777 0.483333333333331
-0.319423573142198 0.233116331664441 0.483333333333331
-0.304505545860537 0.223655648863841 0.483333333333331
-0.308150188514859 0.219543810373159 0.483333333333331
-0.121431580550396 0.0263054921943639 0.241666666666666
-0.116804969083286 0.0254086727296628 0.241666666666666
-0.10297089920034 0.00857812374376741 0.241666666666666
-0.0968575866442856 0.00916402611385827 0.241666666666666
-0.097973601907469 -0.00489808343911461 0.241666666666666
-0.0954286761740056 -0.0108540138947282 0.241666666666666
-0.0758516951734424 -0.0238595225357865 0.241666666666666
-0.0710098072421803 -0.0247269192073846 0.241666666666666
-0.061383023667156 -0.0312562987965574 0.241666666666665
-0.0620069619164731 -0.0421862144802556 0.241666666666666
-0.0548143520690094 -0.0519494227447209 0.241666666666665
-0.0472411796509145 -0.0508390928672197 0.241666666666666
-0.0292647601216574 -0.0639873676086535 0.241666666666666
-0.0279038251076185 -0.0687948504338746 0.241666666666665
-0.0183924192102501 -0.080563901664673 0.241666666666666
-0.0122827899184973 -0.096246324288731 0.241666666666666
0.00192164189911715 -0.0935014217211716 0.241666666666666
0.00413128330992088 -0.105387327148074 0.241666666666665
0.0145898912817288 -0.111167509693048 0.241666666666665
0.0189799060513439 -0.118005989257912 0.241666666666666
0.0231400250279732 -0.128810004379488 0.241666666666666
0.0381015316017631 -0.13503585933218 0.241666666666666
0.0445343905002645 -0.145194493593674 0.241666666666666
0.0509846089432452 -0.158416582486163 0.241666666666666
0.0659245872432701 -0.166953502945001 0.241666666666666
0.0634003647673335 -0.170905344286621 0.241666666666666
0.0746934024509922 -0.181737035859035 0.241666666666666
0.0796742103548975 -0.188315743596153 0.241666666666666
0.0896356984346332 -0.200193507716281 0.241666666666666
0.10554711497268 -0.212030555559036 0.241666666666666
0.113508404553001 -0.214124032129581 0.241666666666666
0.119267205436967 -0.225824887036321 0.241666666666666
0.131365299275381 -0.230306521685286 0.241666666666666
0.144207747849336 -0.247262395062306 0.241666666666666
0.142302814830569 -0.250696139112842 0.241666666666666
0.155648729135765 -0.25882959289231 0.241666666666666
0.171691519523277 -0.282010499522753 0.241666666666666
-0.354996049416327 0.28333333333333 0.445754845515411
-0.354454767604117 0.283333333333329 0.454356686367327
-0.354606679127774 0.28333333333333 0.459267238050263
-0.351370691356459 0.283333333333329 0.469831993515747
-0.348944835416613 0.28333333333333 0.472879703285409
-0.357773462467748 0.283333333333329 0.482561401766882
-0.348529276973063 0.276163507640931 0.483333333333331
-0.343408949174788 0.272659133234046 0.483333333333331
-0.339076614103238 0.265913935412313 0.483333333333331
-0.329222981638132 0.255861672186876 0.483333333333331
-0.322895581439784 0.250591472270461 0.483333333333331
-0.320999452809508 0.239692280071138 0.483333333333331
-0.31298919125763 0.24060481618651 0.483333333333331
-0.306501964121789 0.234454878275651 0.483333333333331
-0.297457577640169 0.223115147390088 0.483333333333331
-0.111497772347348 0.031458094472306 0.241666666666666
-0.114445581073356 0.0286955005656865 0.241666666666666
-0.100952583590859 0.0160417136324903 0.241666666666666
-0.0916949941780699 0.015388346396878 0.241666666666666
-0.0841701292218216 0.00586774109057134 0.241666666666665
-0.08775147149447 -0.00175853560814049 0.241666666666665
-0.0695671723149845 -0.00830150446788996 0.241666666666666
-0.0648470103053438 -0.0118127776173096 0.241666666666666
-0.0588383073324325 -0.0297283743140056 0.241666666666666
-0.0484311922621358 -0.0379325711038209 0.241666666666666
-0.0438969072694573 -0.0485151534654736 0.241666666666665
-0.0425206439323552 -0.044918435679372 0.241666666666666
-0.0302886560311205 -0.0573467208474388 0.241666666666666
-0.0275939292296224 -0.0574923479859249 0.241666666666666
-0.0107358072665614 -0.0706704586473941 0.241666666666666
-0.00347389269836694 -0.0863256711880104 0.241666666666665
0.0045208162249077 -0.0892490114723571 0.241666666666665
0.00767036977116494 -0.0920391726226639 0.241666666666666
0.0185911392157243 -0.101366622149362 0.241666666666665
0.026182430984266 -0.119584485426746 0.241666666666666
0.0287773042072773 -0.116655549122275 0.241666666666666
0.0405114463761197 -0.130697619200774 0.241666666666666
0.0532271230017977 -0.143035596824344 0.241666666666666
0.0593804889968364 -0.14766506716777 0.241666666666666
0.0627660186111578 -0.155298096149209 0.241666666666666
0.0735958336841883 -0.167959417126247 0.241666666666666
0.0832244279838263 -0.172612201108426 0.241666666666666
0.0929610447641971 -0.188704872471207 0.241666666666666
0.0947663031559295 -0.183957012668812 0.241666666666666
0.110790752510715 -0.203699168706659 0.241666666666666
0.118791216231708 -0.209576760067113 0.241666666666666
0.129423160449129 -0.223808678858213 0.241666666666665
0.140247320943874 -0.233752418956489 0.241666666666666
0.143094629322152 -0.234112769931876 0.241666666666666
0.155962230431091 -0.251193954593308 0.241666666666666
0.157150739494311 -0.256985467923183 0.241666666666666
0.170330743242139 -0.264647507148574 0.241666666666666
-0.341506339415435 0.283333333333329 0.437815701979359
-0.340898451957289 0.28333333333333 0.435163090632608
-0.347548155384502 0.283333333333329 0.456188236364557
-0.341312086042501 0.283333333333329 0.45892286341049
-0.33860215416222 0.283333333333329 0.466628985404241
-0.335315701123794 0.28333333333333 0.474826457744767
-0.346665252100914 0.280148384109309 0.483333333333331
-0.335218246969586 0.274017265647494 0.483333333333331
-0.328045033184533 0.265346251625357 0.483333333333331
-0.326727903409536 0.260685609018115 0.483333333333331
-0.318172752920409 0.250681231792307 0.483333333333331
-0.313683281299326 0.251490667112708 0.483333333333331
-0.308868442186837 0.248599926318328 0.483333333333331
-0.299118583534178 0.233997303059674 0.483333333333331
-0.292884937832538 0.225270462729884 0.483333333333331
-0.286031583836905 0.224460564843702 0.483333333333331
-0.277875953894573 0.218298069584833 0.483333333333331
-0.0970929108648068 0.0336848334383166 0.241666666666666
-0.0916169117391861 0.0174149724618985 0.241666666666666
-0.0814739392138095 0.0143369610977441 0.241666666666666
-0.0768816814004784 0.00886494725675883 0.241666666666666
-0.0603741466155559 -0.00641536578193167 0.241666666666666
-0.0575843025216333 -0.0065968478248737 0.241666666666665
-0.0483046645128638 -0.0184659819283681 0.241666666666666
-0.0503970289477754 -0.0243087593781334 0.241666666666666
-0.032910376552384 -0.0337881062799014 0.241666666666666
-0.0325834694122562 -0.0385187199004521 0.241666666666666
-0.026581692036244 -0.0488895525658815 0.241666666666666
-0.0142304631702725 -0.0574446848494046 0.241666666666666
-0.00784135998753203 -0.0650861689333877 0.241666666666666
0.00132906761166643 -0.0703822628231613 0.241666666666666
0.0116583900311126 -0.0896836876786217 0.241666666666666
0.0209118703108429 -0.090183166075515 0.241666666666665
0.0227384003318387 -0.0984748644005222 0.241666666666665
0.0268988794418203 -0.105170751539481 0.241666666666666
0.0414520281715592 -0.114028442221848 0.241666666666666
0.0520659735223535 -0.1292995442545 0.241666666666665
0.061497410353149 -0.136624061569431 0.241666666666666
0.0677514407615951 -0.140855563357394 0.241666666666666
0.0741261666290676 -0.158607948160347 0.241666666666666
0.0849635033922254 -0.156007122405989 0.241666666666666
0.0948004165563756 -0.163596331944673 0.241666666666666
0.101302728431918 -0.169119841637874 0.241666666666666
0.108052345057225 -0.182594869938117 0.241666666666666
0.121870017708685 -0.191292510547168 0.241666666666665
0.126090580326577 -0.199918372701245 0.241666666666666
0.132361027188535 -0.212317245354207 0.241666666666666
0.146276347780443 -0.220650231113178 0.241666666666666
0.150388405221912 -0.225958788299335 0.241666666666665
0.160664791487399 -0.241274374581074 0.241666666666665
0.173945714189414 -0.249254279125218 0.241666666666666
0.184963764356684 -0.260705186366092 0.241666666666666
0.187657953571479 -0.267386138975698 0.241666666666666
0.202571112146054 -0.276450427795415 0.241666666666666
-0.328943015579903 0.28333333333333 0.423780836454967
-0.333133153327256 0.28333333333333 0.433434107903062
-0.333304708556247 0.28333333333333 0.436898782645269
-0.325294268335363 0.283333333333329 0.445471994444985
-0.327643561960109 0.28333333333333 0.453865683679749
-0.329642014198326 0.283333333333329 0.464600558447473
-0.328503646883082 0.28333333333333 0.477921922575332
-0.330819194996037 0.283333333333329 0.480035479668942
-0.321799583693978 0.269356840417894 0.483333333333331
-0.313525193400142 0.263746523530551 0.483333333333331
-0.30977894294697 0.257852808503661 0.483333333333331
-0.302005708766711 0.256687332493162 0.483333333333331
-0.30002314800007 0.248663756432972 0.483333333333331
-0.286190347458096 0.237530715333325 0.483333333333331
-0.281493902658612 0.230645057654749 0.483333333333331
-0.284864334599983 0.235915375492988 0.483333333333331
-0.268790925228514 0.22516903801789 0.483333333333331
-0.0927820581972878 0.0334619384204074 0.241666666666666
-0.0776899846640622 0.0202180459135349 0.241666666666666
-0.0815059733662646 0.0247711248963249 0.241666666666665
-0.0673330189786421 0.00958245259659537 0.241666666666666
-0.0560306651709084 0.000316684304290169 0.241666666666666
-0.0505509106034623 -0.00384116855029821 0.241666666666666
-0.0413263562964353 -0.0128544187178491 0.241666666666666
-0.0391966859582758 -0.013509109246272 0.241666666666665
-0.0289425997308607 -0.0291186727195865 0.241666666666666
-0.021239379201583 -0.0398586276541306 0.241666666666666
-0.0211962935214898 -0.0430641536957033 0.241666666666666
-0.00935240780184695 -0.0468934934637991 0.241666666666666
0.00757186869553367 -0.0657083493476574 0.241666666666666
0.00635392110799522 -0.0673967482409364 0.241666666666666
0.0178469071284143 -0.081022281158389 0.241666666666666
0.0272754248446783 -0.0839885721040679 0.241666666666665
0.0320833283737794 -0.0979140212493676 0.241666666666666
0.0461991155298585 -0.0997065786582085 0.241666666666666
0.0555555475911725 -0.106754394621154 0.241666666666666
0.0563729648870442 -0.111580491552967 0.241666666666666
0.0631819283979184 -0.120820703196256 0.241666666666666
0.0754461727075757 -0.13389354297658 0.241666666666665
0.0851694602083582 -0.134597596295723 0.241666666666666
0.0868208445429274 -0.145476653771041 0.241666666666666
0.0984880229146767 -0.155186535219817 0.241666666666665
0.101428577056637 -0.169550193009663 0.241666666666666
0.114705076526567 -0.174787381260112 0.241666666666666
0.120825563131344 -0.186729426793148 0.241666666666666
0.136110147785638 -0.188583314155431 0.241666666666666
0.146961572709643 -0.204603627112999 0.241666666666666
0.157147395557877 -0.216222229735561 0.241666666666666
0.160431360125781 -0.220031943374438 0.241666666666666
0.176103002925286 -0.23378158170587 0.241666666666666
0.179949886453724 -0.244557864512061 0.241666666666666
0.184202496809882 -0.252136117195115 0.241666666666666
0.18970786856481 -0.255251093268872 0.241666666666665
0.200970786742248 -0.262795042617981 0.241666666666666
0.216594948544628 -0.280452875814372 0.241666666666666
-0.32054547362392 0.28333333333333 0.416697901154901
-0.32756567766275 0.28333333333333 0.429353106249309
-0.317232628459697 0.28333333333333 0.433749128323475
-0.315615080580042 0.28333333333333 0.441660742295978
-0.322012010994932 0.28333333333333 0.45850733173266
-0.319932744708503 0.28333333333333 0.465292683853876
-0.319822848075972 0.28333333333333 0.468576312371506
-0.31803402432133 0.28333333333333 0.470164599517817
-0.315538014999996 0.282469899697584 0.483333333333331
-0.307400456760474 0.26740391225408 0.483333333333331
-0.303617800963458 0.267493358352914 0.483333333333331
-0.300024251694402 0.25745646428622 0.483333333333331
-0.289101366890432 0.252614806483899 0.483333333333331
-0.28409425617976 0.245313006601162 0.483333333333331
-0.280803850436464 0.243569802319342 0.483333333333331
-0.273124517031471 0.235331290438459 0.483333333333331
-0.267326443612284 0.22372473104735 0.483333333333331
-0.265363282315865 0.223970671886273 0.483333333333331
-0.250876209383894 0.219086888011837 0.483333333333331
-0.0680662272083694 0.0222152088488665 0.241666666666666
-0.0579820222908865 0.0159282889623692 0.241666666666666
-0.0517286605367558 0.0170840394572653 0.241666666666666
-0.0440835332621942 0.00633284257580518 0.241666666666665
-0.0438093111090637 -0.000971946781709761 0.241666666666666
-0.0284007608041306 -0.0069858461577146 0.241666666666666
-0.0216802647855573 -0.0162133263575207 0.241666666666666
-0.0133518198013394 -0.0232700002308138 0.241666666666666
-0.00287382503721495 -0.039179665175112 0.241666666666666
-0.00127391946289835 -0.0449128769819215 0.241666666666666
0.00572128862100269 -0.0523169224235801 0.241666666666666
0.0127750390116661 -0.0634793214210327 0.241666666666665
0.0177942512988265 -0.0643907949722704 0.241666666666665
0.0275438500291101 -0.071098356130502 0.241666666666665
0.0347847426554427 -0.0879863372255881 0.241666666666665
0.0460692176052859 -0.0885434860708334 0.241666666666666
0.0521952414624543 -0.0956479871468971 0.241666666666666
0.0692462736677999 -0.114643508725042 0.241666666666666
0.0653132560559555 -0.115158649340634 0.241666666666666
0.0755200483522119 -0.118713635435745 0.241666666666666
0.0920065348609923 -0.137185962471682 0.241666666666666
0.0934644893822008 -0.141638422350466 0.241666666666666
0.108777088127496 -0.155987050551859 0.241666666666666
0.118162978404816 -0.154457382630625 0.241666666666666
0.124497835547071 -0.169974657050808 0.241666666666666
0.133673577043366 -0.18313973392698 0.241666666666666
0.142544796042399 -0.18040301050108 0.241666666666666
0.142821734229421 -0.189313139290241 0.241666666666666
0.161378408131554 -0.201547110061444 0.241666666666666
0.169257992811278 -0.217155287294648 0.241666666666666
0.176301812361867 -0.224162998388364 0.241666666666666
0.185941836298259 -0.229267899432129 0.241666666666666
0.198176393172268 -0.250480192457599 0.241666666666665
0.203393926693414 -0.25704236443459 0.241666666666666
0.215494896062611 -0.264585448877284 0.241666666666666
0.221933696398066 -0.274716021565479 0.241666666666666
0.236020181041797 -0.279103776358697 0.241666666666665
-0.311360889077894 0.28333333333333 0.412340084564286
-0.30740555054598 0.28333333333333 0.41798347426862
-0.308207794852178 0.28333333333333 0.428229929450103
-0.312803542004651 0.28333333333333 0.44165419539227
-0.300905255586396 0.28333333333333 0.439860100851927
-0.309613613076104 0.28333333333333 0.452882160247907
-0.307199997836824 0.28333333333333 0.45981304538459
-0.307296386264793 0.28333333333333 0.472061480519094
-0.308712470417759 0.28333333333333 0.476735173850962
-0.302868331847681 0.278797116244912 0.483333333333331
-0.30037850699078 0.271670216814285 0.483333333333331
-0.28718679151054 0.265531272399381 0.483333333333331
-0.290620727415445 0.258754083228524 0.483333333333331
-0.276079249834791 0.25231429606088 0.483333333333331
-0.269885602905824 0.24472775476542 0.483333333333331
-0.271182427893382 0.240529075298266 0.483333333333331
-0.266635973046776 0.241528431455001 0.483333333333331
-0.257839188846325 0.229878753708221 0.483333333333331
-0.245916159033341 0.225490083969952 0.483333333333331
-0.0613372317755332 0.0280236528733273 0.241666666666666
-0.0501914412355651 0.0243789856359109 0.241666666666665
-0.0434207607068007 0.0142550949929341 0.241666666666665
-0.0347041060291821 0.00887302174747166 0.241666666666665
-0.0333092419982722 0.00598987456217708 0.241666666666666
-0.0273185227600641 0.00120971766553187 0.241666666666666
-0.0153085371437253 -0.0154788304103603 0.241666666666666
-0.00871089608989172 -0.0173499589668491 0.241666666666666
-0.00187049703459647 -0.0236424875897516 0.241666666666666
0.00401561653966568 -0.0366959876171431 0.241666666666666
0.0162996914683323 -0.0438234859145513 0.241666666666666
0.0198872064752058 -0.0564394020289267 0.241666666666666
0.0301867975980637 -0.0518841212863109 0.241666666666666
0.0398863991584386 -0.0628127605709307 0.241666666666666
0.0457259912487573 -0.0835670407293476 0.241666666666666
0.053382661551087 -0.0848001189210452 0.241666666666666
0.0620121623798068 -0.0939841153712988 0.241666666666666
0.080734965602535 -0.102551437918813 0.241666666666665
0.0817816486403897 -0.109696429595349 0.241666666666666
0.0909981004470483 -0.125056948526648 0.241666666666665
0.0946279966355387 -0.124542163317216 0.241666666666666
0.107482529486091 -0.138355583630012 0.241666666666665
0.109894530622899 -0.142085616735598 0.241666666666665
0.12678120060275 -0.155937648615998 0.241666666666666
0.124636871102102 -0.154429530015555 0.241666666666666
0.142493833160326 -0.170949684430994 0.241666666666666
0.147013595927529 -0.182648336092123 0.241666666666666
0.156638890807329 -0.190192354031751 0.241666666666666
0.168910755901879 -0.193413905069024 0.241666666666665
0.183555521726951 -0.213531311031527 0.241666666666666
0.192439294863081 -0.2158605389876 0.241666666666666
0.190971674851025 -0.222572836844626 0.241666666666666
0.209471311235679 -0.237290013929257 0.241666666666666
0.210898965995485 -0.247053941467317 0.241666666666666
0.221212727145288 -0.245731072233175 0.241666666666666
0.231760472683036 -0.258745180451029 0.241666666666666
0.24063690579421 -0.272705906440422 0.241666666666666
0.244722791725076 -0.274227488809572 0.241666666666666
-0.287989046176842 0.28333333333333 0.39295154151613
-0.294182893798104 0.28333333333333 0.405084233463316
-0.290273225699179 0.28333333333333 0.415440093914803
-0.295509944848903 0.28333333333333 0.422118306835234
-0.299917475601257 0.28333333333333 0.435048235820697
-0.2916193381351 0.28333333333333 0.435582706845008
-0.301608234299466 0.28333333333333 0.456072711772446
-0.288740726601555 0.28333333333333 0.456082896034425
-0.298427996277163 0.28333333333333 0.478108589421681
-0.296502928626649 0.28333333333333 0.478367377472419
-0.293076770632248 0.274833971981464 0.483333333333331
-0.285847021643533 0.281005546088542 0.483333333333331
-0.275722686816371 0.2671819568411 0.483333333333331
-0.2759173092942 0.262091652445792 0.483333333333331
-0.265196777955402 0.25050420343089 0.483333333333331
-0.260540388333607 0.249570320028617 0.483333333333331
-0.254066585302267 0.239777156336271 0.483333333333331
-0.249021346783306 0.229108123246021 0.483333333333331
-0.23903765873637 0.225034968777435 0.483333333333331
-0.238363142217777 0.219879846189934 0.483333333333331
-0.0455905980482825 0.0290141568085163 0.241666666666666
-0.0353488983422556 0.0184094831237529 0.241666666666666
-0.0301067633890023 0.0123832455337443 0.241666666666666
-0.0179547231883243 0.00363717522342019 0.241666666666665
-0.0084574560924791 -0.000142057975617774 0.241666666666666
-0.00849457940236053 -0.00647020071866271 0.241666666666666
-0.00371929068208596 -0.0176532216902692 0.241666666666666
0.00908360914488901 -0.0239147643054288 0.241666666666665
0.0147970125655779 -0.0289810924688541 0.241666666666666
0.0198236162052626 -0.0324161807699737 0.241666666666666
0.0388356936416681 -0.0524695696562807 0.241666666666666
0.0399035659178916 -0.0540529175173234 0.241666666666666
0.0479226095548119 -0.057616936570677 0.241666666666666
0.0549653177720366 -0.0716381488891146 0.241666666666666
0.0606998517743029 -0.0751476514352081 0.241666666666666
0.066745330260815 -0.0840597781304976 0.241666666666666
0.082257031103663 -0.0944085851444101 0.241666666666666
0.0839600790177052 -0.0954423627845654 0.241666666666666
0.096946773347382 -0.110763201818543 0.241666666666666
0.109878484780049 -0.120393314618784 0.241666666666666
0.120910005382198 -0.126078103559381 0.241666666666666
0.12213439043698 -0.142402788252744 0.241666666666666
0.125526529421992 -0.140820736756815 0.241666666666666
0.139058211311853 -0.150325590350447 0.241666666666666
0.151105902784072 -0.16666644670907 0.241666666666666
0.157220970991652 -0.173496189121845 0.241666666666665
0.169464894688372 -0.176245069015656 0.241666666666666
0.174819209076699 -0.186413029050786 0.241666666666665
0.183106279417421 -0.195564095604191 0.241666666666666
0.189644492333393 -0.204135727679246 0.241666666666666
0.201022487417867 -0.21490018150008 0.241666666666666
0.214710504278665 -0.230974798131212 0.241666666666666
0.222074352499121 -0.241802182102378 0.241666666666666
0.225313012792563 -0.236904905958307 0.241666666666666
0.234267785189766 -0.256510630872088 0.241666666666666
0.251714302635691 -0.268163195658265 0.241666666666666
0.254443476822277 -0.27165473915941 0.241666666666665
-0.289487205457211 0.28333333333333 0.395951931946116
-0.287205859016681 0.28333333333333 0.402638768655518
-0.280435667863147 0.28333333333333 0.404121858276068
-0.283700681083392 0.28333333333333 0.413846410513404
-0.285983979853664 0.28333333333333 0.43065257933674
-0.282905605166103 0.28333333333333 0.426427677934547
-0.282526098037119 0.28333333333333 0.437822561549626
-0.285580289023968 0.28333333333333 0.447465569203305
-0.290185261694328 0.28333333333333 0.466573501546011
-0.27848121726881 0.28333333333333 0.467866383059808
-0.287009131205743 0.282231571458098 0.483333333333331
-0.282156034406259 0.281949526276327 0.483333333333331
-0.277082813661511 0.274793263956031 0.483333333333331
-0.266901545103806 0.265253426752229 0.483333333333331
-0.261826915050919 0.266697100895203 0.483333333333331
-0.251908537123546 0.258013766856144 0.483333333333331
-0.248070746364323 0.247144237053483 0.483333333333331
-0.238411068863024 0.245446556094098 0.483333333333331
-0.239490278573756 0.23913729483848 0.483333333333331
-0.225650562895035 0.232770851952492 0.483333333333331
-0.222678758632141 0.225540935301306 0.483333333333331
-0.0367158306448881 0.0272932357704429 0.241666666666666
-0.0190748279281983 0.0164891174250257 0.241666666666666
-0.02339270214711 0.0173621733847599 0.241666666666665
-0.0101454209118537 0.00196526079725558 0.241666666666666
-0.00148684061210851 -0.00190048251342637 0.241666666666666
0.00607759589417734 -0.00674984511472747 0.241666666666666
0.0130535909089713 -0.0134676291418852 0.241666666666666
0.020877773792874 -0.0189938121038028 0.241666666666666
0.0341361477856967 -0.029657585413988 0.241666666666665
0.0396203494738193 -0.0353855687915398 0.241666666666666
0.0453989487078498 -0.0499357831478951 0.241666666666666
0.0522633969606031 -0.05393624482412 0.241666666666666
0.0603716730846282 -0.0609724484285953 0.241666666666666
0.0761531654289391 -0.0736739703014243 0.241666666666665
0.0792204668936462 -0.0807993270569955 0.241666666666666
0.0918167962673595 -0.0918792413241689 0.241666666666666
0.0927478407867491 -0.0906374188686326 0.241666666666665
0.0979455249721282 -0.100536376190877 0.241666666666666
0.108600160933741 -0.115248183480197 0.241666666666665
0.114148624079599 -0.120368513485873 0.241666666666666
0.129594603712882 -0.134237740587303 0.241666666666666
0.130165662550596 -0.134809107521426 0.241666666666666
0.137395748367642 -0.146076400276664 0.241666666666666
0.157577032557389 -0.15601371748441 0.241666666666666
0.161836930002301 -0.160662794100803 0.241666666666666
0.164994945589565 -0.170196908282689 0.241666666666666
0.182780666351896 -0.187627890193088 0.241666666666665
0.196092015502276 -0.197750009102607 0.241666666666666
0.199493584482084 -0.198724510631515 0.241666666666666
0.206913951940729 -0.211884359260015 0.241666666666666
0.211156351495491 -0.211440763094571 0.241666666666666
0.218418163040403 -0.227211880969103 0.241666666666666
0.231068038603862 -0.233123066231452 0.241666666666666
0.253381950981668 -0.249365484310433 0.241666666666666
0.251236634472006 -0.257389752248066 0.241666666666666
0.270649258735972 -0.267867663495377 0.241666666666666
0.272655951017869 -0.279849029136077 0.241666666666666
-0.277575953576648 0.28333333333333 0.384964562246605
-0.270141628935554 0.28333333333333 0.398130876360931
-0.266273400902811 0.28333333333333 0.392883233128193
-0.271842284392095 0.28333333333333 0.41055362847754
-0.267472336743676 0.28333333333333 0.410999909969038
-0.269855478181225 0.28333333333333 0.43263810118801
-0.274210718622184 0.28333333333333 0.435861732511014
-0.268514510264901 0.28333333333333 0.44318902612005
-0.270655056226406 0.28333333333333 0.460993402191926
-0.271704459058137 0.28333333333333 0.46597807670434
-0.269497570208456 0.28333333333333 0.468469591837911
-0.268671357540931 0.28333333333333 0.474333494078531
-0.267741918026043 0.28193834974669 0.483333333333331
-0.266686355898161 0.280422480263583 0.483333333333331
-0.254458314520026 0.269314058660871 0.483333333333331
-0.250550387144684 0.260792241725561 0.483333333333331
-0.242988510007031 0.252173887160415 0.483333333333331
-0.234298550788721 0.248363651956654 0.483333333333331
-0.226493261952194 0.234638596931296 0.483333333333331
-0.218788190772556 0.234394546199625 0.483333333333331
-0.215026894413107 0.228589664873088 0.483333333333331
-0.212456446590187 0.224917713903994 0.483333333333331
-0.0164469506134067 0.0326713863513663 0.241666666666666
-0.0135997441427833 0.0289097452922631 0.241666666666666
-0.00249008949489075 0.018896183580913 0.241666666666665
0.0107351364054219 0.00389871476485916 0.241666666666666
0.0193631583860073 0.00315666280740373 0.241666666666666
0.0223188290821508 -0.00881161486035406 0.241666666666666
0.0212407677591186 -0.00964849037923219 0.241666666666666
0.0376941663933743 -0.0157678471958574 0.241666666666666
0.036897655511878 -0.0277846795288774 0.241666666666666
0.0478278390400236 -0.0368632625426353 0.241666666666666
0.0629548825504945 -0.0463706132167326 0.241666666666666
0.0664741308764529 -0.0510584729694192 0.241666666666666
0.0737537070428566 -0.0631282723412671 0.241666666666666
0.0860204157773097 -0.0715065093504832 0.241666666666666
0.0911300329822078 -0.0863060244981799 0.241666666666666
0.0979417397245294 -0.0827871573286442 0.241666666666666
0.113127872478119 -0.0990709855251826 0.241666666666666
0.122040769131914 -0.103607577651845 0.241666666666666
0.134832051613513 -0.117797218538045 0.241666666666666
0.1417976321751 -0.12621071895516 0.241666666666666
0.145849328494042 -0.135099828699232 0.241666666666666
0.149452046772601 -0.144408785513564 0.241666666666665
0.165513506595592 -0.146815960716048 0.241666666666665
0.169444422387255 -0.161985274317381 0.241666666666666
0.183401354205563 -0.166276910973248 0.241666666666666
0.184098271038249 -0.171265318480716 0.241666666666666
0.200109188526937 -0.18597947560641 0.241666666666666
0.203070351125731 -0.193271929374918 0.241666666666666
0.209474424786702 -0.19574095069552 0.241666666666666
0.232612638660989 -0.217745285764573 0.241666666666666
0.238151634283927 -0.224998652986565 0.241666666666666
0.24094197478337 -0.23071419126405 0.241666666666666
0.260720567265726 -0.24787315501226 0.241666666666666
0.265153441332012 -0.240997487959962 0.241666666666665
0.269602887474937 -0.258795361684359 0.241666666666665
0.285643168361546 -0.265750403223654 0.241666666666666
-0.254447934419634 0.28333333333333 0.375276933087586
-0.253259448320988 0.28333333333333 0.379827084213787
-0.254006684346459 0.28333333333333 0.3914093289489
-0.261296796339018 0.28333333333333 0.407023040688741
-0.261206751789187 0.28333333333333 0.41213172802069
-0.264559254157939 0.28333333333333 0.420834195441186
-0.261475277709281 0.28333333333333 0.426532490128139
-0.259023481253363 0.28333333333333 0.43478992542826
-0.259224555258075 0.28333333333333 0.446508748718213
-0.261162140284201 0.28333333333333 0.451182681134523
-0.262806231523833 0.28333333333333 0.459632385276779
-0.263800864015 0.28333333333333 0.476216906318456
-0.257900810167275 0.28333333333333 0.48047430897637
-0.258267805506827 0.282784849488362 0.483333333333331
-0.253640855402206 0.277663192636993 0.483333333333331
-0.249298756633114 0.267033365044923 0.483333333333331
-0.235511569534378 0.261837798940951 0.483333333333331
-0.228770179660085 0.253145043138664 0.483333333333331
-0.220958001081352 0.244808883089191 0.483333333333331
-0.219439092311337 0.239002532236877 0.483333333333331
-0.211903666671535 0.238054774744508 0.483333333333331
-0.204519698405271 0.227741797964782 0.483333333333331
-0.192270833662146 0.219697870632395 0.483333333333331
-0.00485203683232912 0.0298917877989144 0.241666666666666
0.00665804283793879 0.0198883945445159 0.241666666666666
0.0177420617711836 0.00755938343726951 0.241666666666666
0.021732347878194 0.00543035808484383 0.241666666666666
0.035265241825265 -0.00295064986757138 0.241666666666666
0.0355161707682274 -0.00862509921725912 0.241666666666666
0.0404564341201481 -0.0152002779968202 0.241666666666666
0.0515831771742599 -0.0228710729298147 0.241666666666666
0.0531035673814608 -0.0313856184645394 0.241666666666665
0.0759679913515806 -0.0459202460595248 0.241666666666666
0.0809046333498618 -0.0533235765592403 0.241666666666666
0.0840309810094413 -0.0574632712397542 0.241666666666666
0.0940586109454034 -0.0637367516945258 0.241666666666666
0.10793238619471 -0.068785304289216 0.241666666666666
0.109865372599693 -0.0769042758250449 0.241666666666665
0.112794121078849 -0.0834824787689541 0.241666666666666
0.123769928000318 -0.0929152318443208 0.241666666666666
0.131503136414723 -0.10743843704761 0.241666666666666
0.147103921818936 -0.116538340450589 0.241666666666666
0.155451784333381 -0.130428034848548 0.241666666666666
0.164097625875126 -0.130037807557514 0.241666666666666
0.171581180613488 -0.144268070730212 0.241666666666666
0.171025975704984 -0.149475431685419 0.241666666666666
0.196819261213384 -0.161505690964498 0.241666666666666
0.189316256580994 -0.162448337211081 0.241666666666666
0.198714413572317 -0.176803440024163 0.241666666666666
0.21442487905428 -0.187475891918415 0.241666666666666
0.230765034993912 -0.201455008671148 0.241666666666666
0.237152337820383 -0.200734414425678 0.241666666666666
0.246419601745742 -0.219267407990409 0.241666666666666
0.258717415921885 -0.230453240405496 0.241666666666666
0.269139883051978 -0.233591076665378 0.241666666666666
0.264617419487447 -0.237158764269387 0.241666666666666
0.278837919078446 -0.250494599436761 0.241666666666666
0.296364025482688 -0.266000753868023 0.241666666666666
0.295285522943012 -0.265995110129277 0.241666666666666
-0.241078455765931 0.28333333333333 0.360358770394051
-0.244982131949701 0.28333333333333 0.375329725666154
-0.240785772352685 0.28333333333333 0.378075679579987
-0.247001574206927 0.28333333333333 0.397505087458608
-0.242318777843928 0.28333333333333 0.399129235913634
-0.245053031163968 0.28333333333333 0.411773552659375
-0.247007940442051 0.28333333333333 0.420532974451868
-0.249426842761749 0.28333333333333 0.424157455265758
-0.246957296038785 0.28333333333333 0.434681903001688
-0.241348281695099 0.283333333333331 0.434995628642349
-0.241730881147784 0.28333333333333 0.447755428257842
-0.241496199122913 0.283333333333331 0.459749342773739
-0.240674382398861 0.283333333333331 0.463287084531202
-0.239611034625347 0.28333333333333 0.472860040738281
-0.242329826146811 0.281624286142055 0.483333333333331
-0.237368340163719 0.272817867850048 0.483333333333331
-0.232599063261982 0.267272550609632 0.483333333333331
-0.222934070421519 0.261388241324262 0.483333333333331
-0.212492405487713 0.253968402416735 0.483333333333331
-0.204522715914086 0.2463479699377 0.483333333333331
-0.201578484242734 0.243684794357976 0.483333333333331
-0.197196255341695 0.232439845868153 0.483333333333331
-0.184143817253638 0.228835504132074 0.483333333333331
0.00461469531542224 0.032809210128321 0.241666666666665
0.012863606149868 0.0284854878564993 0.241666666666666
0.019300136553021 0.026831981196543 0.241666666666666
0.0330235768788874 0.0144630999853721 0.241666666666665
0.0366635416418398 0.00631124978786125 0.241666666666666
0.0467702227287639 -0.000753603106747849 0.241666666666665
0.0449306380872295 -0.00137365682807786 0.241666666666666
0.0544675133605204 -0.00854859357660089 0.241666666666666
0.0635649526861368 -0.0284848102227413 0.241666666666666
0.0761305476950278 -0.0325575566605941 0.241666666666666
0.0872690489872098 -0.0440670975291644 0.241666666666666
0.0871861972170239 -0.0461773240431804 0.241666666666666
0.0971977170735757 -0.053874918453826 0.241666666666666
0.105955448571221 -0.0638885245646256 0.241666666666666
0.108922869943793 -0.0684167749497852 0.241666666666666
0.120700197945439 -0.0829741510324878 0.241666666666666
0.134821725119492 -0.090545316791177 0.241666666666666
0.136127751152207 -0.0995170135067935 0.241666666666666
0.147636122449095 -0.102591272330994 0.241666666666666
0.167419395199458 -0.121289530838645 0.241666666666666
0.162502608632778 -0.11883920939861 0.241666666666665
0.178491552995919 -0.124316623688284 0.241666666666666
0.188437342461734 -0.138313663337302 0.241666666666666
0.193640197781599 -0.150092400460175 0.241666666666666
0.197731278509688 -0.154064173873051 0.241666666666666
0.207966761815779 -0.168600279565724 0.241666666666666
0.224172175761421 -0.181134597081269 0.241666666666666
0.231154438338895 -0.190193663828476 0.241666666666666
0.244688135266616 -0.195736895005511 0.241666666666666
0.252127746705168 -0.200506397451568 0.241666666666666
0.259646179769845 -0.216687973465314 0.241666666666666
0.262790942597658 -0.224071763831442 0.241666666666666
0.274446492867142 -0.231323956528623 0.241666666666666
0.290726445067694 -0.236264207860485 0.241666666666666
0.301394591661126 -0.254723902187655 0.241666666666666
0.309604501797214 -0.257273423414298 0.241666666666666
0.324250721050773 -0.275717136042419 0.241666666666666
0.328173089233349 -0.276651261113454 0.241666666666666
-0.228393006917364 0.28333333333333 0.356198306690101
-0.235694142774812 0.28333333333333 0.360807988192258
-0.230866130737882 0.28333333333333 0.371031901364701
-0.232431340038893 0.28333333333333 0.382860956232067
-0.235348437479941 0.28333333333333 0.400797253402626
-0.23819995240876 0.28333333333333 0.398356959437224
-0.241205387362258 0.28333333333333 0.412731872078496
-0.236506860491729 0.28333333333333 0.422170798953923
-0.23253891994871 0.28333333333333 0.429812940688467
-0.229864099431743 0.28333333333333 0.430649390840577
-0.234042479649418 0.283333333333331 0.44795698973497
-0.22852021832722 0.283333333333331 0.447870326812527
-0.2321120158584 0.283333333333331 0.454087284340252
-0.232793551930247 0.283333333333331 0.471695617559506
-0.234057648510507 0.28333333333333 0.473685332801249
-0.232376150039556 0.276329739401743 0.483333333333331
-0.224739401863007 0.278002144492622 0.483333333333331
-0.213533565519114 0.271193376483861 0.483333333333331
-0.206833653123375 0.25759109326953 0.483333333333331
-0.203295106886908 0.254229507921766 0.483333333333331
-0.189919655232954 0.240714061481685 0.483333333333331
-0.191960008529361 0.234161789009577 0.483333333333331
-0.181883076777019 0.229623487105367 0.483333333333331
-0.176771615090064 0.225941182579334 0.483333333333331
-0.167107641239849 0.219574421391713 0.483333333333331
0.029512383549901 0.0319227403461958 0.241666666666666
0.0358691049224635 0.025204059570934 0.241666666666666
0.0487739964494431 0.0133410637573532 0.241666666666666
0.0505353158731603 0.00469674362032302 0.241666666666666
0.0634204543638026 -0.00583280172691433 0.241666666666666
0.0654893415956752 -0.00697136311441156 0.241666666666665
0.0731422662416631 -0.0176012084022126 0.241666666666665
0.0861282638703052 -0.0235473883965495 0.241666666666666
0.0961900264533202 -0.0375436425978819 0.241666666666666
0.10224482811965 -0.0435612380825511 0.241666666666666
0.105007790045092 -0.0449033899902974 0.241666666666666
0.114024264940044 -0.0556142937441461 0.241666666666666
0.123904211553831 -0.072364092537128 0.241666666666666
0.130998434193245 -0.0789990263081004 0.241666666666666
0.146022280926338 -0.0842441781015191 0.241666666666666
