ply
format ascii 1.0
element vertex 852
property float x
property float y
property float z
end_header
-0.483031227161282 0.0238726990637321 0.349999999999999
-0.490868854779311 0.0134550311120417 0.349999999999998
-0.487031935554936 0.000870437620781172 0.349999999999998
-0.494852924442572 -0.0117754283743121 0.349999999999998
-0.489342006794259 -0.0234289190328162 0.349999999999998
-0.498050640159547 -0.0409167861370469 0.349999999999998
-0.493287762033886 -0.0458966234595642 0.349999999999999
-0.438002753100912 0.283333333333329 0.277416369359919
-0.436274450412377 0.283333333333328 0.278928055237194
-0.437522613051761 0.283333333333328 0.29116460280152
-0.434599620440265 0.283333333333329 0.305710921070135
-0.434779395473751 0.283333333333329 0.306978751621113
-0.434889340874337 0.283333333333328 0.318829471221973
-0.430361496891586 0.283333333333329 0.331132724039784
-0.431561623089397 0.283333333333329 0.335808895328236
-0.436188189125346 0.28074849577053 0.349999999999998
-0.434471580056286 0.282458147524157 0.349999999999998
-0.441163373399815 0.27395086408527 0.349999999999998
-0.442369569692208 0.2499666257603 0.349999999999999
-0.442781670618912 0.249860310339113 0.349999999999998
-0.432727554768945 0.283333333333329 0.39341312185805
-0.446543581281916 0.229088984145427 0.349999999999998
-0.442579594346664 0.225830504446266 0.349999999999998
-0.449534213709575 0.211482536226314 0.349999999999998
-0.451097188088268 0.193646168768336 0.349999999999998
-0.432553398404665 0.283333333333329 0.43885781033458
-0.448842724182892 0.186339399551729 0.349999999999998
-0.430592981234106 0.283333333333329 0.454323124288649
-0.433333333333334 0.283333333333328 0.460489890334757
-0.431929984076592 0.283333333333329 0.47313650268599
-0.455489224532009 0.14526254434477 0.349999999999998
-0.462672336689416 0.125843105739086 0.349999999999998
-0.463600685054358 0.116110939389977 0.349999999999998
-0.463912171696558 0.110179705716301 0.349999999999998
-0.468015735370715 0.0969703416093159 0.349999999999998
-0.466852070506166 0.0856069181322712 0.349999999999999
-0.468430782656842 0.0749081902969879 0.349999999999998
-0.468677324208942 0.0692578831021073 0.349999999999998
-0.46879271568022 0.0572411180155713 0.349999999999998
-0.477321192635193 0.0450948945029521 0.349999999999998
-0.477088365029831 0.0364391546733479 0.349999999999999
-0.474051630778793 0.0237849719839948 0.349999999999998
-0.478307475061313 0.0191027486933906 0.349999999999998
-0.47691016628701 -0.00166298856553977 0.349999999999999
-0.477468177081979 -0.00453602063699039 0.349999999999998
-0.483607045518899 -0.0192058756132136 0.349999999999998
-0.48453113995287 -0.0344072745526014 0.349999999999998
-0.490473412611232 -0.0419518100924632 0.349999999999998
-0.492356660874463 -0.0541360647040335 0.349999999999999
-0.492810694376159 -0.0702200899996165 0.349999999999998
-0.498092454113625 -0.0881036321733814 0.349999999999998
-0.490679799388208 -0.100340179424311 0.349999999999998
-0.426665995284161 0.283333333333329 0.273175881661707
-0.427417682331535 0.283333333333328 0.291619719479687
-0.428791011651182 0.283333333333329 0.291659557282408
-0.423955009756931 0.283333333333329 0.304972691140209
-0.426062938346593 0.283333333333329 0.311438438716571
-0.425212217788474 0.283333333333328 0.321803773006545
-0.429626034008844 0.283333333333329 0.330830959314248
-0.424061414956037 0.283333333333329 0.332742357470647
-0.426849904788538 0.283333333333329 0.341262668689573
-0.423295302518121 0.283333333333329 0.351688555318278
-0.424279751222734 0.283333333333329 0.3616745153398
-0.425787631705637 0.283333333333328 0.37749571038512
-0.425977655470088 0.283333333333329 0.38338536973319
-0.428265735427964 0.283333333333328 0.398104291156623
-0.429526767941407 0.283333333333328 0.399045910400992
-0.425974054375528 0.283333333333329 0.415651900251257
-0.422231356805319 0.283333333333329 0.415075493114644
-0.42411929853082 0.283333333333329 0.427893624032073
-0.426053592548744 0.283333333333329 0.440971671930162
-0.421485647381491 0.283333333333329 0.445076204509002
-0.422401365880871 0.283333333333329 0.458534608772652
-0.429315002595344 0.283333333333329 0.463109321626504
-0.421960455018668 0.283333333333329 0.480446250046802
-0.423771255738964 0.283333333333329 0.481022365751099
-0.430375814338005 0.272334716770769 0.483333333333331
-0.431561060807883 0.261026895452919 0.483333333333331
-0.427236249588546 0.263379276393912 0.483333333333331
-0.431881652101308 0.248904443459405 0.483333333333331
-0.45876575178463 0.0917264592516347 0.349999999999998
-0.457986682428166 0.0780484363849638 0.349999999999998
-0.458207133768871 0.0738990929549483 0.349999999999998
-0.457456194238675 0.0594799388273245 0.349999999999998
-0.465955455080437 0.0449488831535295 0.349999999999998
-0.46225754320442 0.0369269621149397 0.349999999999998
-0.46405517198489 0.025688869505626 0.349999999999999
-0.473726625358673 0.0116912172849066 0.349999999999998
-0.472498136753323 -0.00522985373442358 0.349999999999998
-0.471639302863588 -0.0117791368960185 0.349999999999998
-0.478079122200416 -0.0314952137054493 0.349999999999998
-0.47244862832031 -0.0328348630947635 0.349999999999998
-0.474287818224181 -0.0453508945221142 0.349999999999998
-0.479196430278016 -0.0572113325237994 0.349999999999998
-0.479196584625432 -0.0741745292432115 0.349999999999998
-0.482739153745831 -0.0856076825631154 0.349999999999999
-0.479972879977388 -0.0991056715535449 0.349999999999998
-0.486536144433122 -0.111987604209368 0.349999999999998
-0.490808760785807 -0.122709421636086 0.349999999999998
-0.486508395178179 -0.132949946862838 0.349999999999998
-0.492529635239542 -0.141305907466024 0.349999999999998
-0.492462046675999 -0.15181346257264 0.349999999999998
-0.492709389005486 -0.174736135144779 0.349999999999998
-0.498703821250608 -0.188138208343737 0.349999999999998
-0.419640308857308 0.283333333333329 0.272629391660842
-0.412890028279978 0.283333333333329 0.279306636988225
-0.412323705984434 0.283333333333329 0.298876897240596
-0.416262877156403 0.283333333333329 0.298346917065036
-0.415847333093278 0.283333333333329 0.31230583205045
-0.417395881915678 0.283333333333329 0.317835171353662
-0.412983440663862 0.283333333333329 0.32539610100305
-0.415032973000916 0.283333333333328 0.336099209467935
-0.415518949206445 0.283333333333329 0.352430388973789
-0.419141637603755 0.283333333333329 0.359928624195794
-0.41308966317858 0.283333333333329 0.364372622904724
-0.417302411595988 0.283333333333329 0.372482335379263
-0.411862775072445 0.283333333333329 0.382533139796786
-0.416616420219357 0.283333333333329 0.393278286773411
-0.419013211540305 0.283333333333329 0.402507432008835
-0.413439842432393 0.283333333333329 0.414073860957127
-0.414248387761126 0.283333333333329 0.422951603615844
-0.41981316968555 0.283333333333329 0.433754718187213
-0.41545023104554 0.283333333333328 0.437131328300683
-0.413029435983264 0.283333333333329 0.448362936960183
-0.419927663609619 0.283333333333329 0.452232125332274
-0.419306401210038 0.283333333333329 0.464904221421623
-0.412701848718702 0.283333333333329 0.470959342963122
-0.419241265846499 0.282425966970058 0.483333333333331
-0.413808686563521 0.283243228458031 0.483333333333331
-0.423645778209692 0.267391259325179 0.483333333333331
-0.417373666471685 0.260833668879814 0.483333333333331
-0.421690915389101 0.241381450357003 0.483333333333331
-0.420842466050194 0.234287728799993 0.483333333333331
-0.429140005739079 0.233063280265956 0.483333333333331
-0.429877773337849 0.221387295760307 0.483333333333331
-0.454229505589431 0.0531743426154417 0.349999999999998
-0.453778236867799 0.0386033613995371 0.349999999999998
-0.458369951187343 0.0333790911369378 0.349999999999998
-0.46147217305732 0.0201493718056924 0.349999999999998
-0.463475610363156 0.00507425209983787 0.349999999999998
-0.458000700295044 0.00659101463929008 0.349999999999998
-0.46458400424222 -0.0142132194214687 0.349999999999998
-0.462294046167964 -0.015780360804846 0.349999999999998
-0.466119470533446 -0.0312603849066126 0.349999999999998
-0.466187484830393 -0.0414015505206639 0.349999999999999
-0.469970034206959 -0.0549180255291792 0.349999999999998
-0.473660729733122 -0.0663472159505757 0.349999999999998
-0.473452751576036 -0.0874266882876981 0.349999999999998
-0.469342191012745 -0.0970532567613761 0.349999999999998
-0.481873918027382 -0.110384739190557 0.349999999999998
-0.478546522833229 -0.113319927410202 0.349999999999998
-0.480743716244284 -0.125957031318973 0.349999999999998
-0.479315109876439 -0.144945911296334 0.349999999999998
-0.480458278853742 -0.149124189964707 0.349999999999998
-0.484597989205228 -0.170920856530847 0.349999999999998
-0.485720758907264 -0.175875264188469 0.349999999999998
-0.490934209817419 -0.18945256972384 0.349999999999998
-0.496685903853148 -0.20654593824697 0.349999999999998
-0.490269457272136 -0.221571654293201 0.349999999999998
-0.490339076839858 -0.235310432193463 0.349999999999998
-0.407539335427479 0.283333333333328 0.269852870749224
-0.404099534746221 0.283333333333329 0.282096649943555
-0.406687264882895 0.283333333333328 0.290111052468918
-0.403868204590731 0.283333333333329 0.305231081066498
-0.406371538566924 0.283333333333329 0.315420187488325
-0.408924338864036 0.283333333333329 0.314695088332619
-0.406318643890077 0.283333333333329 0.331119487605197
-0.405858463331964 0.283333333333329 0.339371853628928
-0.407998689750938 0.283333333333329 0.352434591629664
-0.408414824791122 0.283333333333329 0.354513295002789
-0.406371803678602 0.283333333333329 0.36963230489439
-0.409525472053923 0.283333333333329 0.368036665084925
-0.409213733731756 0.283333333333328 0.384233527180242
-0.408909619696749 0.283333333333329 0.396782738103135
-0.405185425215947 0.283333333333329 0.402521551170925
-0.411048267672385 0.283333333333329 0.414478855051745
-0.407665080367716 0.283333333333329 0.413742952566378
-0.406257125795247 0.283333333333329 0.42797169975928
-0.405713958022395 0.283333333333329 0.437267823653845
-0.411589177571509 0.283333333333329 0.443691435249046
-0.402630154124322 0.283333333333329 0.462572438435976
-0.409245946345654 0.283333333333329 0.462988377479321
-0.404458264311986 0.283333333333329 0.476577256523429
-0.405630653224071 0.283333333333329 0.479688333886528
-0.404726420736787 0.282807704578302 0.483333333333331
-0.414315610804535 0.266641909694633 0.483333333333331
-0.411184387803343 0.250159160994706 0.483333333333331
-0.414877450903407 0.249429215554714 0.483333333333331
-0.414047060369375 0.232816183184323 0.483333333333331
-0.4135531719565 0.229696896651615 0.483333333333331
-0.440562350528444 0.0629534330442345 0.349999999999998
-0.439518286345054 0.0584513287526365 0.349999999999998
-0.445286719508255 0.0531893053353665 0.349999999999998
-0.447236526572371 0.0319396681011181 0.349999999999998
-0.449111190228868 0.0310788271616124 0.349999999999998
-0.444489516623847 0.00459738603141463 0.349999999999998
-0.448675830347769 -0.000732537724684343 0.349999999999998
-0.45151996084482 -0.0199199381657205 0.349999999999998
-0.454478051068737 -0.0209453332295017 0.349999999999998
-0.457193568851455 -0.0355088018349654 0.349999999999998
-0.458585646109317 -0.0433650017995024 0.349999999999998
-0.460389685832588 -0.0665185597531335 0.349999999999998
-0.463369984574756 -0.062231396338921 0.349999999999998
-0.466649529110318 -0.081103718684092 0.349999999999998
-0.459826306789884 -0.0938190537357168 0.349999999999998
-0.466476971054967 -0.105990921727795 0.349999999999998
-0.472056708648877 -0.119502340596671 0.349999999999999
-0.468569508788238 -0.128361179238086 0.349999999999998
-0.47053396615797 -0.139708488745791 0.349999999999998
-0.477927517179291 -0.156755518019225 0.349999999999998
-0.472104602160667 -0.166233323105173 0.349999999999998
-0.478651062186263 -0.178415342508614 0.349999999999998
-0.475161544891729 -0.193359272531211 0.349999999999998
-0.483764465261064 -0.201350541193174 0.349999999999998
-0.486331153593811 -0.213252413703387 0.349999999999998
-0.479837199539836 -0.226334189364836 0.349999999999999
-0.490363518449577 -0.239573775252412 0.349999999999998
-0.401305409071529 0.283333333333329 0.272885798196752
-0.402922390884986 0.283333333333329 0.28247668441868
-0.401183615408873 0.283333333333329 0.293240356741588
-0.397412493266329 0.283333333333329 0.299876056227452
-0.399990010698316 0.28333333333333 0.316277409697932
-0.397860544312997 0.283333333333329 0.317715597603701
-0.400586417959574 0.283333333333329 0.330012864674121
-0.396452369627384 0.283333333333329 0.338171635723999
-0.398919471348829 0.283333333333329 0.342257759824538
-0.394448265160602 0.283333333333329 0.358014185640507
-0.399401706501834 0.283333333333329 0.362092513820487
-0.39828359131702 0.283333333333329 0.367831139725627
-0.397034983892779 0.283333333333329 0.38471695316335
-0.397615127848252 0.283333333333328 0.395709410547591
-0.395348042409714 0.283333333333329 0.402700255685182
-0.397294336962659 0.283333333333329 0.409211660855481
-0.400855654085485 0.283333333333329 0.421958066315062
-0.394208434221511 0.283333333333329 0.431717051150987
-0.401751912626121 0.283333333333329 0.434636525097694
-0.40259794285505 0.283333333333329 0.443404900372578
-0.396396202910862 0.283333333333328 0.455908868966006
-0.396230196184114 0.283333333333329 0.462928153355387
-0.398030320629879 0.283333333333329 0.47074193649854
-0.398453942844143 0.279600082225363 0.483333333333331
-0.403884297985734 0.277828723635307 0.483333333333331
-0.397172367330844 0.259104374579963 0.483333333333331
-0.406708716060961 0.251061095651065 0.483333333333331
-0.400540795847949 0.243727548360768 0.483333333333331
-0.405943730103457 0.234606509144678 0.483333333333331
-0.409314088557224 0.226442640786281 0.483333333333331
-0.434608637000193 0.0647093786148944 0.349999999999998
-0.433333333333331 0.0426083312675413 0.334388248004368
-0.435249745491908 0.0522730303813931 0.349999999999999
-0.435211664320802 0.029301422023718 0.349999999999998
-0.436201622932991 0.0314576770137437 0.349999999999998
-0.443223487331595 0.00823785827907187 0.349999999999999
-0.441198010089811 -0.0044831593644452 0.349999999999998
-0.436569668781055 -0.00627308586392163 0.349999999999998
-0.443004702197897 -0.0259018165720138 0.349999999999999
-0.448401678846795 -0.0424503920646647 0.349999999999998
-0.447655521339037 -0.0456442229647221 0.349999999999998
-0.447318247041985 -0.0601808765841538 0.349999999999998
-0.451761214874837 -0.0714585567753511 0.349999999999998
-0.457177516012702 -0.088148866193023 0.349999999999998
-0.453429969628816 -0.0902706360637788 0.349999999999998
-0.460367089285859 -0.103335826364572 0.349999999999998
-0.461635028404649 -0.118799507612674 0.349999999999998
-0.456635715145752 -0.134572820463168 0.349999999999999
-0.461662474407554 -0.13764912592602 0.349999999999998
-0.461977919963963 -0.158249522286252 0.349999999999998
-0.465701114817001 -0.161937583870766 0.349999999999998
-0.469083777304294 -0.182238468636398 0.349999999999998
-0.468854453947594 -0.188266288438226 0.349999999999998
-0.467534565916491 -0.201975162816252 0.349999999999998
-0.473055108247267 -0.219692893141519 0.349999999999999
-0.473515634833314 -0.228783012160573 0.349999999999998
-0.470749702678414 -0.243685155848765 0.349999999999998
-0.385252237823235 0.283333333333329 0.269269473362717
-0.392041221286422 0.28333333333333 0.283395879303852
-0.389923256303877 0.28333333333333 0.291053500629861
-0.388926637740439 0.283333333333329 0.295172800507727
-0.390310958033114 0.28333333333333 0.312756871548858
-0.386120285735654 0.28333333333333 0.318530541991836
-0.391999802099252 0.283333333333329 0.32930320390468
-0.392984430941103 0.28333333333333 0.339087250722845
-0.39081299012214 0.28333333333333 0.349302524274792
-0.389413946471069 0.28333333333333 0.351887484467214
-0.388011001807221 0.283333333333329 0.371485110505243
-0.387229907083725 0.283333333333329 0.377273972267172
-0.387779284990444 0.283333333333329 0.386408576241414
-0.386072884078392 0.283333333333329 0.3926671670773
-0.3888556686314 0.283333333333329 0.395646797227566
-0.390430413305582 0.283333333333329 0.411831836227693
-0.389969744780567 0.283333333333329 0.426047166947373
-0.391468804875252 0.283333333333329 0.434068750906951
-0.390018831881341 0.28333333333333 0.435664889340809
-0.387832974662881 0.28333333333333 0.444647687302407
-0.390566461446682 0.28333333333333 0.457657208251083
-0.390043338614573 0.283333333333329 0.46400906804134
-0.388014964792858 0.28333333333333 0.474146344943669
-0.393046685561757 0.283333333333329 0.47635503804085
-0.392095872894026 0.268773876421241 0.483333333333331
-0.390246659649531 0.258799845031793 0.483333333333331
-0.392135197001398 0.253722458001073 0.483333333333331
-0.391255437308389 0.249968448070856 0.483333333333331
-0.394246176971204 0.23682703942003 0.483333333333331
-0.398584686577634 0.229343312158698 0.483333333333331
-0.433333333333331 -0.0454864768905609 0.251473737871432
-0.433333333333331 0.00283520697220323 0.302145832549793
-0.433333333333331 -0.0486294159731114 0.268085148011968
-0.433333333333331 -0.000935836354735341 0.316499532208181
-0.433333333333331 0.00187221527581325 0.329288408076517
-0.433333333333331 -0.0633466979758825 0.290249592322573
-0.433333333333331 -0.0480950613573762 0.308601836243702
-0.433333333333331 -0.0327245377509799 0.326724902561599
-0.433333333333331 -0.0463682851188295 0.329336139814852
-0.436085845205942 -0.0276548950415319 0.349999999999998
-0.433333333333331 -0.0555443555718762 0.344938933473148
-0.442730977566917 -0.0625021883726047 0.349999999999998
-0.443176286065488 -0.0697210144697068 0.349999999999998
-0.442187689318472 -0.0874770458384852 0.349999999999999
-0.444333639603051 -0.094332591506313 0.349999999999998
-0.449108478547805 -0.102109215751253 0.349999999999999
-0.451777709895888 -0.117381354625676 0.349999999999998
-0.449206269649707 -0.139263927412997 0.349999999999998
-0.452631495805408 -0.143774546842544 0.349999999999998
-0.447763112313786 -0.159144953812057 0.349999999999998
-0.456572255007627 -0.171369706134572 0.349999999999998
-0.455647994352202 -0.17595877654696 0.349999999999998
-0.458939228555842 -0.201948592321159 0.349999999999998
-0.457316352056277 -0.201713126391975 0.349999999999998
-0.465486898788703 -0.208236223263058 0.349999999999998
-0.467647790380442 -0.235741443708228 0.349999999999998
-0.465333541621922 -0.248278836993275 0.349999999999998
-0.382683522227792 0.283333333333329 0.281389958385772
-0.382133993155947 0.283333333333329 0.282317068106017
-0.379323174200789 0.283333333333329 0.288971172777348
-0.381399713926049 0.283333333333329 0.301709749069117
-0.379579859405355 0.283333333333329 0.308984826606849
-0.382761235752118 0.283333333333329 0.320597712276672
-0.378091407389695 0.283333333333329 0.324480315021352
-0.382960070160579 0.28333333333333 0.344613434955437
-0.379736316764161 0.28333333333333 0.339232713265066
-0.378510517776097 0.283333333333329 0.353607645357019
-0.383905291229456 0.28333333333333 0.361854190863977
-0.380890143601735 0.283333333333329 0.377003346904826
-0.379582857944092 0.28333333333333 0.379697376295944
-0.378854465784092 0.28333333333333 0.395007415288473
-0.377305765289375 0.283333333333329 0.401951227985152
-0.376585303392126 0.283333333333329 0.410023366357095
-0.377441868218892 0.283333333333329 0.419771279200141
-0.385438686834517 0.28333333333333 0.424679753351191
-0.378537052177022 0.28333333333333 0.437379432648993
-0.3795820384176 0.283333333333329 0.446118217008592
-0.376777244795508 0.28333333333333 0.462408529369425
-0.378827426966342 0.28333333333333 0.464427452258962
-0.384373456573267 0.28333333333333 0.468887279064464
-0.37877351962685 0.281933269499438 0.483333333333331
-0.378373445752614 0.267556839450837 0.483333333333331
-0.3859319134704 0.266094427689286 0.483333333333331
-0.384073407112651 0.250629466937836 0.483333333333331
-0.388210232550632 0.241883015701916 0.483333333333331
-0.38611972018969 0.235705963808108 0.483333333333331
-0.388623371161965 0.231082880406066 0.483333333333331
-0.39251841889133 0.21675368313564 0.483333333333331
-0.424127128846248 -0.0663342735891899 0.241666666666666
-0.433085446995348 -0.0730568587940982 0.241666666666665
-0.428202158449647 -0.084169639862594 0.241666666666666
-0.433333333333331 -0.0695929894367181 0.269502509629506
-0.432217147440413 -0.114336452306564 0.241666666666666
-0.43135105207392 -0.118210908083259 0.241666666666666
-0.433333333333331 -0.117656539595248 0.257638300234751
-0.433333333333331 -0.118476516490408 0.260666652117399
-0.43333333333333 -0.118682634676972 0.282953832129243
-0.43333333333333 -0.0871485096589202 0.316392454818146
-0.43333333333333 -0.105877905459998 0.306612729977934
-0.43333333333333 -0.0772512042496783 0.349779354023698
-0.43333333333333 -0.105976831046917 0.332968062316946
-0.435658586573003 -0.101598187396716 0.349999999999998
-0.433951695361836 -0.114700284896535 0.349999999999998
-0.437789257857146 -0.125883470351902 0.349999999999998
-0.434834933018387 -0.130284516892308 0.349999999999998
-0.434500518615336 -0.140032595857918 0.349999999999998
-0.439978578011865 -0.159626935363598 0.349999999999998
-0.44514334157431 -0.159153333597566 0.349999999999998
-0.448811887491272 -0.181057038084728 0.349999999999998
-0.446642533782187 -0.190088754166236 0.349999999999998
-0.454664287773128 -0.208826973927866 0.349999999999998
-0.450304111666339 -0.215626526628801 0.349999999999999
-0.452232395627383 -0.235089790632053 0.349999999999998
-0.456477481034985 -0.243032158105288 0.349999999999998
-0.369914045635984 0.28333333333333 0.273879875511129
-0.368597186708528 0.283333333333329 0.289237747304503
-0.372888215351127 0.283333333333329 0.297079320014114
-0.372882394327522 0.283333333333329 0.295651855673135
-0.375182164773511 0.283333333333329 0.310514864546134
-0.373008375531586 0.283333333333329 0.314740708229579
-0.368307041500126 0.283333333333329 0.330552345181066
-0.375324579335353 0.283333333333329 0.339640692560148
-0.368648148434053 0.28333333333333 0.348463145246183
-0.373109005625499 0.28333333333333 0.351817553214735
-0.373280552156203 0.283333333333329 0.362883331689752
-0.371730408066097 0.283333333333329 0.378517203836813
-0.372171899592133 0.283333333333329 0.37484285771019
-0.372230239618848 0.283333333333329 0.387393406977999
-0.366139071877273 0.28333333333333 0.400845405615842
-0.372822586249849 0.283333333333329 0.406607288053908
-0.373428041902732 0.283333333333329 0.415702268497864
-0.371915859578828 0.283333333333329 0.433442277662337
-0.371774226474419 0.283333333333329 0.429989828835663
-0.374442151206496 0.283333333333329 0.444012894652293
-0.375681221675965 0.28333333333333 0.452062146313261
-0.372095916175258 0.283333333333329 0.461305919683091
-0.373460817066682 0.283333333333329 0.473968464419647
-0.373326506438065 0.283333333333329 0.482674361237771
-0.368581730217542 0.278960265632676 0.483333333333331
-0.374285187543192 0.265204548809197 0.483333333333331
-0.376914779765468 0.252859203761636 0.483333333333331
-0.379417774689275 0.2482621014016 0.483333333333331
-0.38185369727347 0.239815284223485 0.483333333333331
-0.37841328103894 0.225212662653086 0.483333333333331
-0.416271803858044 -0.057218231651141 0.241666666666666
-0.421033868915469 -0.0728546876594438 0.241666666666666
-0.423019373299681 -0.0756628603652307 0.241666666666666
-0.421846456232487 -0.0853307869904139 0.241666666666666
-0.419261971843465 -0.102902091585016 0.241666666666666
-0.420281280874079 -0.112652169125825 0.241666666666666
-0.423450438492918 -0.125434591014476 0.241666666666666
-0.429283356060414 -0.126909856376186 0.241666666666666
-0.43333333333333 -0.134238927707606 0.25754079514959
-0.432654250014242 -0.152924681106839 0.241666666666666
-0.43333333333333 -0.157323329027892 0.257663031813552
-0.431733455900282 -0.177402824722786 0.241666666666666
-0.43333333333333 -0.133639594584737 0.288869974261685
-0.43333333333333 -0.210705937283758 0.241706408932893
-0.43333333333333 -0.195282195206007 0.271873009753982
-0.43333333333333 -0.197771092992617 0.269614338955854
-0.43333333333333 -0.156880320373592 0.320481469916229
-0.43333333333333 -0.143151676236997 0.334412392238927
-0.43333333333333 -0.156553133182982 0.346008017668982
-0.43333333333333 -0.160666666147764 0.339884547420663
-0.433333333333329 -0.183643118018653 0.339113479196349
-0.438318235866148 -0.177514061915985 0.349999999999998
-0.441346109485116 -0.19846566981883 0.349999999999998
-0.44116098702883 -0.211172531829419 0.349999999999998
-0.445538954127239 -0.222617166040581 0.349999999999998
-0.442470378341033 -0.224895721406496 0.349999999999999
-0.444625821331031 -0.243920872199617 0.349999999999998
-0.363288971010766 0.283333333333329 0.279735978809081
-0.360230683044367 0.283333333333329 0.276418428793772
-0.365238035259895 0.283333333333329 0.292611394237063
-0.366236445022231 0.283333333333329 0.298786318567847
-0.359753660487244 0.28333333333333 0.313146076803471
-0.360802751175261 0.28333333333333 0.319393764275018
-0.364922028460355 0.283333333333329 0.323893585637711
-0.366180824748148 0.283333333333329 0.334247395100325
-0.358606995552034 0.283333333333329 0.34015576485869
-0.363479488611031 0.283333333333329 0.356095706645004
-0.358541127683138 0.283333333333329 0.356081913048486
-0.357971217300835 0.283333333333329 0.375620343213479
-0.363068792407342 0.283333333333329 0.381433883193559
-0.358140160543077 0.283333333333329 0.39631404461828
-0.362675185836278 0.28333333333333 0.405009585699792
-0.364859019759634 0.28333333333333 0.405832503740729
-0.366088003710016 0.283333333333329 0.416550041027125
-0.362071307780086 0.283333333333329 0.430157199039012
-0.363133093320511 0.283333333333329 0.431026441846677
-0.359272994696827 0.283333333333329 0.443535833864325
-0.367029064178708 0.283333333333329 0.455216994983039
-0.360522699152174 0.283333333333329 0.467139110824955
-0.360335639155175 0.28333333333333 0.472412979013004
-0.363234541370972 0.283333333333329 0.478894743999417
-0.36204943883407 0.279070021299861 0.483333333333331
-0.36767068063129 0.267999447562274 0.483333333333331
-0.36759776789935 0.254716509864761 0.483333333333331
-0.362636944082047 0.251523118780319 0.483333333333331
-0.368427188552959 0.23503737093823 0.483333333333331
-0.371189924335243 0.219457200743524 0.483333333333331
-0.409988342279529 -0.0572101936248338 0.241666666666666
-0.409554186271897 -0.0676631352449207 0.241666666666666
-0.413087714384943 -0.0733500950568591 0.241666666666666
-0.412107298705227 -0.0857260111326869 0.241666666666666
-0.41138535643625 -0.0929788566014947 0.241666666666666
-0.411973489320389 -0.106669004913701 0.241666666666666
-0.415929156995679 -0.117589492772024 0.241666666666665
-0.413431706387059 -0.126948124449705 0.241666666666666
-0.422950536505245 -0.148784380367169 0.241666666666666
-0.424902964121705 -0.1632097750365 0.241666666666665
-0.427042596375135 -0.169004531962565 0.241666666666666
-0.423561459415346 -0.186535385218554 0.241666666666666
-0.424254645453649 -0.200962163252971 0.241666666666666
-0.424208566003224 -0.197481239110504 0.241666666666666
-0.432169740183315 -0.221069098117077 0.241666666666666
-0.426633895627841 -0.233142090268284 0.241666666666665
-0.43333333333333 -0.217685033354994 0.268640899588453
-0.431051390085769 -0.256167111632427 0.241666666666666
-0.431951599978613 -0.275930319095763 0.241666666666666
-0.433333333333329 -0.220424180666114 0.299994884768778
-0.433333333333329 -0.215971529485059 0.322985694315928
-0.433333333333329 -0.221449080926536 0.325235564888168
-0.433333333333329 -0.219947323080041 0.339180336332559
-0.433800446307561 -0.24541003871801 0.349999999999998
-0.357030010576511 0.283333333333329 0.275239310650405
-0.357602146442302 0.283333333333329 0.287772731036086
-0.355252406545594 0.283333333333329 0.300739855724221
-0.350550793170146 0.28333333333333 0.293607958599149
-0.355372296546595 0.283333333333329 0.310715530961574
-0.356253334561226 0.283333333333329 0.315281524601814
-0.352701001109804 0.28333333333333 0.330530089517891
-0.357491637334117 0.283333333333329 0.334912228430536
-0.349900019755314 0.28333333333333 0.343969728191773
-0.356192458374719 0.283333333333329 0.359616609058603
-0.350393128442319 0.28333333333333 0.365973413926273
-0.34825401137433 0.28333333333333 0.375150998788805
-0.352227680581577 0.283333333333329 0.37938380783576
-0.351391434220148 0.283333333333329 0.392190601119826
-0.351020636802323 0.283333333333329 0.405155294165963
-0.354257104504326 0.283333333333329 0.407747050193955
-0.349499713918786 0.283333333333329 0.412250574983701
-0.35311745971729 0.28333333333333 0.42251254545983
-0.351528482451535 0.283333333333329 0.434992590162869
-0.352883397742633 0.283333333333329 0.446803299931581
-0.355777354773502 0.283333333333329 0.456079893385911
-0.357852786597894 0.283333333333329 0.466680547092692
-0.352223560246431 0.283333333333329 0.469566926405622
-0.349579413111705 0.281591433994 0.483333333333331
-0.349660066568586 0.274583627402455 0.483333333333331
-0.35206342806198 0.265597844207077 0.483333333333331
-0.354046703762182 0.258716847570988 0.483333333333331
-0.36203168038786 0.240257799250665 0.483333333333331
-0.359440310023235 0.230885142297476 0.483333333333331
-0.361432914401312 0.223814192229561 0.483333333333331
-0.398908574501651 -0.0552497581648297 0.241666666666666
-0.3962751169563 -0.0724644731163855 0.241666666666666
-0.40438329657142 -0.0780958895168078 0.241666666666666
-0.405879207850515 -0.0945503127510794 0.241666666666666
-0.400930313655342 -0.104353499132227 0.241666666666666
-0.403224813737244 -0.110062892658354 0.241666666666665
-0.408264938290292 -0.124248685111281 0.241666666666666
-0.411364640655906 -0.141320756991543 0.241666666666666
-0.410141101679384 -0.139704218755133 0.241666666666666
-0.406790919791218 -0.155638886445921 0.241666666666666
-0.410445431142012 -0.179734379677734 0.241666666666665
-0.410596034113889 -0.180226767209556 0.241666666666666
-0.41259699108247 -0.189273999143228 0.241666666666666
-0.420125638566584 -0.20700342467134 0.241666666666665
-0.41662442562151 -0.220763668803647 0.241666666666665
-0.424729484794596 -0.227764033407401 0.241666666666666
-0.424999864171542 -0.250039164421122 0.241666666666666
-0.420468591599476 -0.255936173451077 0.241666666666666
-0.43068539453961 -0.279010568608454 0.241666666666666
-0.344440413432311 0.28333333333333 0.273141435996193
-0.339469789509112 0.28333333333333 0.291941765683297
-0.342346797049642 0.28333333333333 0.288888804570784
-0.344614971089881 0.28333333333333 0.29901465714665
-0.345971466123583 0.28333333333333 0.308014361741068
-0.34570093010728 0.28333333333333 0.31775586173412
-0.346236388337584 0.28333333333333 0.328380570600251
-0.342305584310845 0.28333333333333 0.342442487155203
-0.34781507442873 0.28333333333333 0.347443102582821
-0.345411631144497 0.28333333333333 0.35642506030954
-0.342484428966938 0.28333333333333 0.364153171704463
-0.347432240390771 0.28333333333333 0.375385064591965
-0.349065303769672 0.28333333333333 0.377440712403834
-0.341361565795681 0.28333333333333 0.385506344387224
-0.348601627042101 0.28333333333333 0.396272171881265
-0.343445159714064 0.28333333333333 0.406870320284091
-0.339784761432872 0.28333333333333 0.421149714226434
-0.345721146808975 0.28333333333333 0.427832288682032
-0.340526607411944 0.28333333333333 0.434259265296961
-0.346754634205027 0.283333333333329 0.445917645797935
-0.342820880108463 0.28333333333333 0.453309927824508
-0.347679699268781 0.283333333333329 0.460987716850524
-0.341640080251593 0.28333333333333 0.470691073204948
-0.342011816281087 0.28333333333333 0.474535076665448
-0.341072845780153 0.271891734379624 0.483333333333331
-0.349353339611455 0.258140448952885 0.483333333333331
-0.3505605322655 0.263158855208241 0.483333333333331
-0.353416990452482 0.244632208550606 0.483333333333331
-0.353337519417708 0.232378086412731 0.483333333333331
-0.349540128057718 0.217869585764748 0.483333333333331
-0.389685733616157 -0.058155235765961 0.241666666666666
-0.390972339474427 -0.0736541569896804 0.241666666666666
-0.393499330844375 -0.0806779951725645 0.241666666666666
-0.388770779731241 -0.0875519659527796 0.241666666666666
-0.392473358077059 -0.103176671389249 0.241666666666666
-0.389759902040792 -0.104903068553283 0.241666666666666
-0.393853953030927 -0.130498943303591 0.241666666666666
-0.393348562119182 -0.129262156951033 0.241666666666666
-0.39967637767063 -0.146915441181012 0.241666666666666
-0.404131978336957 -0.155490289541057 0.241666666666665
-0.405183505280976 -0.16812663162647 0.241666666666666
-0.398668129165317 -0.188240406582718 0.241666666666666
-0.410188925104222 -0.196198037042831 0.241666666666666
-0.401671183176932 -0.212878159585013 0.241666666666666
-0.402753484861476 -0.21823427108483 0.241666666666666
-0.413105005438037 -0.232681470890125 0.241666666666666
-0.412741064613977 -0.238738404465014 0.241666666666666
-0.408308320013044 -0.260914033667486 0.241666666666665
-0.419806868095356 -0.272939552562271 0.241666666666666
-0.418361439883 -0.276379668917509 0.241666666666666
-0.334740285097551 0.28333333333333 0.275545867529949
-0.331277031295811 0.28333333333333 0.280073862617124
-0.336704843244331 0.28333333333333 0.293906762409492
-0.335205427910359 0.28333333333333 0.296851875587671
-0.336623589264821 0.28333333333333 0.311954500979504
-0.336703061155806 0.28333333333333 0.318801762516053
-0.334354792325152 0.28333333333333 0.324676267460982
-0.331172560987315 0.28333333333333 0.334978556558294
-0.333349508814239 0.28333333333333 0.342956091671967
-0.332707998929624 0.28333333333333 0.357812303992727
-0.333637419427491 0.28333333333333 0.360688259261957
-0.337763568836574 0.28333333333333 0.37617957895158
-0.333292592508571 0.28333333333333 0.380510224630612
-0.335141538145234 0.28333333333333 0.38367319644512
-0.333860484149865 0.28333333333333 0.39865480352469
-0.335619467722961 0.28333333333333 0.408856708529211
-0.337056350724257 0.28333333333333 0.423208996441819
-0.335639293307299 0.28333333333333 0.425805615669495
-0.332948666713227 0.28333333333333 0.442078639822457
-0.338381461494629 0.28333333333333 0.4482353522116
-0.336761183474416 0.28333333333333 0.453174760996453
-0.337346783469727 0.28333333333333 0.462666848342887
-0.331650305366766 0.28333333333333 0.477130270881588
-0.333586958572697 0.28333333333333 0.48209562515525
-0.33964626793523 0.273580794493842 0.483333333333331
-0.338653851435689 0.262844950953188 0.483333333333331
-0.340929061131754 0.257059432555588 0.483333333333331
-0.338369597880168 0.24789129602166 0.483333333333331
-0.339176070197794 0.23467924364034 0.483333333333331
-0.345051929581702 0.223569280121038 0.483333333333331
-0.382063574470285 -0.0587471557486981 0.241666666666666
-0.376273683261855 -0.0642092858715823 0.241666666666666
-0.376620812751248 -0.0745589650879371 0.241666666666666
-0.385246179127833 -0.0869815051569897 0.241666666666665
-0.381676726814275 -0.102856297811863 0.241666666666666
-0.38104609900102 -0.113547244677107 0.241666666666666
-0.382059503983118 -0.127177970092916 0.241666666666666
-0.382852544898334 -0.140059692949424 0.241666666666666
-0.384957076433072 -0.137786982141755 0.241666666666666
-0.39112697533134 -0.16133228153042 0.241666666666666
-0.389875573383946 -0.174318491280682 0.241666666666666
-0.391826750332286 -0.182158873209489 0.241666666666666
-0.393483696269484 -0.187573401269931 0.241666666666666
-0.39390770170734 -0.201214907001534 0.241666666666666
-0.398541704641823 -0.215023851809702 0.241666666666666
-0.397166891825996 -0.233472565533519 0.241666666666666
-0.404870230955553 -0.251208526955211 0.241666666666666
-0.402656482747243 -0.251617203654645 0.241666666666666
-0.407545328522376 -0.261998856390903 0.241666666666666
-0.402697017550305 -0.28160662247024 0.241666666666666
-0.323924113562136 0.28333333333333 0.273577093806053
-0.326066927655437 0.28333333333333 0.279922561668095
-0.327474954240808 0.28333333333333 0.288266341101379
-0.328365750043628 0.28333333333333 0.304563281291109
-0.325093537830772 0.28333333333333 0.309373264398549
-0.325881345409541 0.28333333333333 0.320336161724305
-0.329905064143045 0.28333333333333 0.327869991192666
-0.32329477701695 0.28333333333333 0.329185007151388
-0.329862164625369 0.28333333333333 0.345563787249813
-0.328823951195935 0.28333333333333 0.360441671792861
-0.322704292285391 0.28333333333333 0.362274220452045
-0.326659423176586 0.28333333333333 0.372409727488672
-0.328044618582016 0.28333333333333 0.379826119504314
-0.324180511919066 0.28333333333333 0.389307408045374
-0.329660918326433 0.28333333333333 0.396974245355207
-0.326123100445485 0.28333333333333 0.416840963578478
-0.328752104779897 0.28333333333333 0.413404235521061
-0.329241657905014 0.28333333333333 0.428583813659137
-0.324605126433289 0.28333333333333 0.441787004178223
-0.322816900507147 0.28333333333333 0.440199092159946
-0.324273642674677 0.28333333333333 0.45325979575204
-0.321138195794011 0.28333333333333 0.471314048241832
-0.32743039776995 0.28333333333333 0.474680017506517
-0.32314664940853 0.28333333333333 0.48090399785524
-0.329857332611491 0.277156334229078 0.483333333333331
-0.328585159492765 0.260273398802405 0.483333333333331
-0.332374930384532 0.249681527995681 0.483333333333331
-0.333590697473023 0.248970208313309 0.483333333333331
-0.33696789393276 0.228021280183071 0.483333333333331
-0.329061520882554 0.221909136085095 0.483333333333331
-0.362968894133565 -0.0561087995666869 0.241666666666666
-0.367252269781434 -0.0659795315445614 0.241666666666666
-0.36816544963218 -0.0762179540656726 0.241666666666666
-0.365890537640454 -0.0880725936853948 0.241666666666666
-0.372097803648065 -0.0942573304517231 0.241666666666666
-0.376362975538268 -0.115642473681871 0.241666666666666
-0.377357621743962 -0.121237027541013 0.241666666666666
-0.380332059104582 -0.130524768506611 0.241666666666666
-0.380080940571466 -0.147547161496498 0.241666666666666
-0.377742648188605 -0.153748296318992 0.241666666666666
-0.384138970948817 -0.17413590473237 0.241666666666666
-0.380133282675792 -0.176176913682693 0.241666666666666
-0.388428564323314 -0.195964951697058 0.241666666666666
-0.384215303261161 -0.215474161908196 0.241666666666666
-0.391671848493716 -0.217692435379513 0.241666666666665
-0.390199695410539 -0.222916001080634 0.241666666666665
-0.390048637649391 -0.251280598821632 0.241666666666666
-0.391569128288478 -0.264201303579392 0.241666666666666
-0.392541315442109 -0.267682321290575 0.241666666666666
-0.39562768789965 -0.28209892513855 0.241666666666666
-0.317682906875907 0.28333333333333 0.273693485061358
-0.3203860190535 0.28333333333333 0.285229178290552
-0.318255822386084 0.28333333333333 0.299534212469071
-0.313550599167237 0.28333333333333 0.303904145975822
-0.31881326115218 0.28333333333333 0.304717248558165
-0.314203339881678 0.28333333333333 0.316252270531088
-0.316249922243172 0.28333333333333 0.328705716247722
-0.318585946783508 0.28333333333333 0.334818596351199
-0.31629683166508 0.28333333333333 0.342595320137101
-0.318520308314135 0.28333333333333 0.360889603496754
-0.321367482780545 0.28333333333333 0.362655252263339
-0.316981997204947 0.28333333333333 0.371129628066242
-0.313986169035232 0.28333333333333 0.389531487435211
-0.317949539530106 0.28333333333333 0.395584625046405
-0.313614050844924 0.28333333333333 0.40096807668174
-0.316784441219596 0.28333333333333 0.409895416257897
-0.315507618902018 0.28333333333333 0.423706351068592
-0.320715555946652 0.28333333333333 0.429471773889799
-0.318517238235446 0.28333333333333 0.438693790272972
-0.313271778216127 0.28333333333333 0.447132802290434
-0.319751173077845 0.28333333333333 0.462364711454646
-0.314339134865399 0.28333333333333 0.466294996233566
-0.318825483225597 0.28333333333333 0.475629586877167
-0.314960003702448 0.280931994475639 0.483333333333331
-0.315415250018639 0.270787300736739 0.483333333333331
-0.320050515830094 0.264102633253123 0.483333333333331
-0.319807149464095 0.253328610525028 0.483333333333331
-0.321934190410301 0.246900037366738 0.483333333333331
-0.326574110877699 0.237834469350353 0.483333333333331
-0.324849200460582 0.224898259690994 0.483333333333331
-0.360685987021426 -0.0592292407515309 0.241666666666666
-0.357083957633743 -0.0738094398489876 0.241666666666665
-0.354022073858199 -0.0723161635167246 0.241666666666666
-0.355590654212272 -0.0938652426914523 0.241666666666665
-0.365631905483724 -0.0987649394820942 0.241666666666666
-0.365882245901801 -0.114158341573115 0.241666666666666
-0.366725040829647 -0.116607519428493 0.241666666666666
-0.36296805478177 -0.138210020908367 0.241666666666666
-0.363250881597735 -0.147446129483138 0.241666666666666
-0.372916156620185 -0.156876869490452 0.241666666666666
-0.372935268022258 -0.169951175142095 0.241666666666666
-0.3715551117128 -0.174715755783217 0.241666666666666
-0.370649468537161 -0.192502678691755 0.241666666666666
-0.370044476268864 -0.199870116720884 0.241666666666666
-0.373435131789882 -0.216616169979797 0.241666666666666
-0.379448234021368 -0.230999426515874 0.241666666666666
-0.375396781981286 -0.240142122902439 0.241666666666666
-0.382230779868149 -0.248470263116708 0.241666666666666
-0.376935212705079 -0.278730112933611 0.241666666666666
-0.380549287886504 -0.281838646919783 0.241666666666666
-0.304015385001888 0.28333333333333 0.273067268726236
-0.304245422341051 0.28333333333333 0.285068755110997
-0.30709318169206 0.28333333333333 0.298828371651072
-0.305953577223963 0.28333333333333 0.305007171153629
-0.310409155043955 0.28333333333333 0.310472045780685
-0.304588504025464 0.28333333333333 0.31916152853616
-0.304879945550616 0.28333333333333 0.329742386211838
-0.309941831516003 0.28333333333333 0.342133365456304
-0.310635918457047 0.28333333333333 0.351166833792791
-0.308979572175861 0.28333333333333 0.356282606927896
-0.304092252314543 0.28333333333333 0.363168336370363
-0.304669984429405 0.28333333333333 0.373942601400415
-0.309959007204833 0.28333333333333 0.375542189231204
-0.309090147264651 0.28333333333333 0.390114049313524
-0.311914407844465 0.28333333333333 0.397503929526172
-0.307616916961468 0.28333333333333 0.409958365308113
-0.305445407895444 0.28333333333333 0.413606709302346
-0.30675024828054 0.28333333333333 0.429449766437379
-0.309187454771746 0.28333333333333 0.433726805441629
-0.310442676014161 0.28333333333333 0.445634840534723
-0.305285365220453 0.28333333333333 0.451728535553961
-0.307739683072755 0.28333333333333 0.462894331455627
-0.308501725255635 0.28333333333333 0.477018776441758
-0.305212214516517 0.27992055995002 0.483333333333331
-0.307384100899782 0.279329566816952 0.483333333333331
-0.311545018808059 0.264481494366381 0.483333333333331
-0.309125970433823 0.263316511085527 0.483333333333331
-0.315630848552972 0.243603164945342 0.483333333333331
-0.316940830406482 0.228479760239758 0.483333333333331
-0.312795539657899 0.223521373152528 0.483333333333331
-0.347618344370537 -0.0518273669551727 0.241666666666666
-0.346978905460316 -0.0702467965469132 0.241666666666666
-0.352279265170181 -0.0734438972789629 0.241666666666666
-0.347314973334208 -0.0853479770804962 0.241666666666666
-0.349318543955821 -0.0971814206349223 0.241666666666666
-0.351602708292689 -0.114596848651108 0.241666666666666
-0.354495168482923 -0.112475421537261 0.241666666666666
-0.354457935578885 -0.13458608192233 0.241666666666666
-0.356610439040101 -0.151800156679565 0.241666666666665
-0.363165029546365 -0.165395206406054 0.241666666666666
-0.360569008697535 -0.172101831446568 0.241666666666666
-0.363915176066936 -0.174837729227737 0.241666666666665
-0.358795668882771 -0.187499424661411 0.241666666666666
-0.360382504983043 -0.208446173016454 0.241666666666666
-0.363922918334228 -0.213967653260477 0.241666666666666
-0.367597925715248 -0.233517608308609 0.241666666666666
-0.371968188659655 -0.247353344742523 0.241666666666666
-0.372883738696581 -0.255485934838566 0.241666666666666
-0.374678390512096 -0.270099604642442 0.241666666666666
-0.29955262688825 0.28333333333333 0.275831302837205
-0.301782080794691 0.28333333333333 0.283842827776808
-0.302193022115556 0.28333333333333 0.286337636746453
-0.295481875963494 0.28333333333333 0.295751903088683
-0.294034975929375 0.28333333333333 0.31494905384002
-0.301670396184752 0.28333333333333 0.315961189392412
-0.300096955600368 0.28333333333333 0.327424483980324
-0.301928538600539 0.28333333333333 0.336421300533658
-0.29844709779381 0.28333333333333 0.348964534104449
-0.302061275338622 0.28333333333333 0.350442620617928
-0.300794096350227 0.28333333333333 0.362521199405448
-0.296087696804582 0.28333333333333 0.365156979532317
-0.297781840030266 0.28333333333333 0.383863632493633
-0.294696951270637 0.28333333333333 0.38924944115595
-0.302625441673868 0.28333333333333 0.401147522682505
-0.302320000328323 0.28333333333333 0.406919018038053
-0.300421594768001 0.28333333333333 0.413302228235019
-0.301259611478293 0.28333333333333 0.431776400928283
-0.299923418728392 0.28333333333333 0.443903340874585
-0.2990714142104 0.28333333333333 0.446251341804757
-0.299530462625391 0.28333333333333 0.452900012108399
-0.298912139737634 0.28333333333333 0.465246447035153
-0.297714041560115 0.28333333333333 0.468946792413184
-0.296738410147771 0.282787585107796 0.483333333333331
-0.301969895170545 0.271542052543594 0.483333333333331
-0.300156827267835 0.261394049838432 0.483333333333331
-0.303296236561883 0.259997342862333 0.483333333333331
-0.3030451981599 0.243076252154685 0.483333333333331
-0.307099789081516 0.233711418352179 0.483333333333331
-0.305659812351703 0.22038802373495 0.483333333333331
-0.331116512017643 -0.052803193607632 0.241666666666666
-0.342788095790493 -0.0651412989878085 0.241666666666666
-0.33652802703203 -0.0791105261044362 0.241666666666666
-0.341729014255492 -0.0866619628842158 0.241666666666666
-0.340527133908109 -0.0997730502267821 0.241666666666666
-0.341543805907155 -0.111461353947939 0.241666666666666
-0.3410957986493 -0.122617256541219 0.241666666666666
-0.344307489131473 -0.141521164620322 0.241666666666666
-0.350237016384988 -0.146595040751145 0.241666666666666
-0.342855707384859 -0.159398735529528 0.241666666666666
-0.347375084371911 -0.170449687427037 0.241666666666666
-0.346797668865983 -0.183029414336575 0.241666666666666
-0.34643468247683 -0.199161375339013 0.241666666666666
-0.351487382477201 -0.207244709582206 0.241666666666666
-0.355880911180705 -0.214172557625191 0.241666666666666
-0.357947455429838 -0.225056869518725 0.241666666666666
-0.358147420219845 -0.255572980608128 0.241666666666666
-0.361444355275143 -0.260819735701338 0.241666666666665
-0.35485913256977 -0.272613287728522 0.241666666666666
-0.356454724113037 -0.277432566045102 0.241666666666666
-0.291483543247168 0.28333333333333 0.269115072152336
-0.288267974895181 0.28333333333333 0.281196055675642
-0.287609258536439 0.28333333333333 0.295306045329608
-0.287399606893088 0.28333333333333 0.297665126222763
-0.291580680730698 0.28333333333333 0.308481504988381
