ply
format ascii 1.0
element vertex 867
property float x
property float y
property float z
end_header
0.108856150500443 -0.145153963311941 0.283070658520395
0.0928343214713307 -0.16549768686699 0.278115812142645
0.404274618343885 0.172923754708646 0.400594017915188
0.405901361458818 0.172923754708647 0.406782547683284
0.41006226335936 0.172923754708646 0.420935767321302
0.404196631671794 0.172923754708646 0.423297925038735
0.402237890226242 0.172923754708647 0.436048615803164
0.400484734374986 0.172923754708647 0.44552499104206
0.406649250022788 0.172923754708646 0.448608777645585
0.401405795977096 0.172923754708647 0.456886226380116
0.401422339798507 0.162139407573755 0.462747537904516
0.398442130174432 0.162906227481648 0.462747537904515
0.388748354942164 0.158502803314652 0.462747537904515
0.38594910389147 0.152998221550265 0.462747537904516
0.374319487245499 0.139967237573444 0.462747537904516
0.371140998737367 0.135888962727446 0.462747537904516
0.36466719763406 0.128176380900063 0.457599534399029
0.363235066747807 0.123854857172208 0.469728650778488
0.355832433224427 0.119079538401422 0.47056928414198
0.355024329162123 0.111302144070001 0.471938394241189
0.350506860805764 0.113047223790524 0.471631195433018
0.337624139282235 0.0954024123140363 0.471453076686463
0.335477320080363 0.0933700924926528 0.471095312958187
0.194239818705531 -0.0702793092627918 0.288170469607414
0.194382083956122 -0.0704152799658266 0.288170469607414
0.188002777604429 -0.0785984354075613 0.288170469607414
0.174958436107045 -0.0849468804253543 0.288170469607414
0.16269312859592 -0.102093087580612 0.285735891043868
0.156812449456693 -0.107203433883233 0.283674252446101
0.153508234008372 -0.118213118475972 0.282515866153919
0.144596556187177 -0.121070483008655 0.279391625138203
0.125128433038192 -0.137732580292189 0.274168672928628
0.125464531050714 -0.146199818283675 0.271313028316174
0.120258787536607 -0.157857970449001 0.279073141214396
0.112550754843876 -0.15708948034256 0.281063547038284
0.108785622052408 -0.164106386203032 0.278603571988405
0.418383401985594 0.172923754708646 0.409170943360136
0.416681279934328 0.172923754708647 0.421664893594207
0.422554045331882 0.172923754708647 0.428792843756314
0.414823083504011 0.172923754708646 0.431272385599065
0.416965031963122 0.172923754708647 0.44150484290689
0.415873649801415 0.172923754708646 0.454274713552264
0.41571226381441 0.172923754708646 0.462260836791752
0.411139222867437 0.166814272953534 0.462747537904516
0.407986528633868 0.167393633463633 0.462747537904516
0.400993463207635 0.160862997495172 0.462747537904516
0.39411361141249 0.150935103977037 0.462747537904516
0.385637105260383 0.142420000127766 0.462747537904515
0.383219804174821 0.127901407475924 0.458636795748928
0.373885262192295 0.128066099422771 0.45801554083443
0.378119811077815 0.126066333551303 0.465559105649162
0.370073088622044 0.12113936285032 0.47020667857829
0.368908052488673 0.116607353978696 0.471004480367866
0.358221365339957 0.105764670120254 0.472913195207379
0.348559344376007 0.0990641916136091 0.472097685768436
0.345947909549479 0.0953263729675774 0.471439690938906
0.207084709676048 -0.0636703482051733 0.288170469607414
0.210138892876308 -0.0635090213878127 0.288170469607414
0.195116993980473 -0.0829603972356905 0.288170469607414
0.192223186890674 -0.0826381039995994 0.288170469607414
0.175277586784751 -0.0935374123850574 0.288170469607414
0.169744158880908 -0.0998883034058748 0.288170469607414
0.171886635300919 -0.111683437043964 0.288170469607414
0.158470981560147 -0.116246930676667 0.284255697840274
0.146255227789545 -0.133881110954429 0.279973119437671
0.126212263598104 -0.154013657316763 0.264959945760017
0.125568329179832 -0.160984862097413 0.270431111264732
0.124946301370248 -0.15956081911317 0.275716148060719
0.426035075453881 0.172923754708646 0.419602853968142
0.430911830401432 0.172923754708647 0.429422066685371
0.428409130940251 0.172923754708646 0.436006282773638
0.43218405357136 0.172923754708646 0.442713165107635
0.431930740900957 0.172923754708647 0.458859661700063
0.430670337314275 0.172923754708647 0.461017597052798
0.418750229307158 0.165688677722444 0.462747537904516
0.417010477994709 0.162187334122388 0.462747537904516
0.413332236583767 0.153392235563143 0.462747537904516
0.407789718586612 0.150838762164196 0.462747537904516
0.402203714075674 0.135947876778126 0.462747537904516
0.39227196991141 0.136221681890994 0.462747537904516
0.390256102634038 0.127788655166548 0.459062122716413
0.390073730810786 0.125182714811515 0.468892313466238
0.387517291525113 0.12559525236088 0.467336129421621
0.378230575335306 0.112812766992051 0.471672468532585
0.367115478475532 0.110474995529655 0.472084003088044
0.365436192489008 0.101364301155126 0.47250259042781
0.361691362278884 0.0977383471265538 0.471864287923367
0.35553979862663 0.0868188596688028 0.469942052799426
0.212823202226529 -0.0742044508754093 0.288170469607414
0.206826699377205 -0.0797338094515017 0.288170469607414
0.205204775156941 -0.0919824468736146 0.288170469607414
0.195910270551722 -0.0879124260040835 0.288170469607414
0.187743485270277 -0.100824037977227 0.288170469607414
0.178521394894852 -0.105099508001865 0.288170469607414
0.178255961643699 -0.114349150111306 0.288170469607414
0.173618526253111 -0.120268392359546 0.288170469607414
0.16263891840432 -0.130584356151957 0.28571688612611
0.150700409229672 -0.149626289614554 0.281531503667464
0.145345079823766 -0.154206905874303 0.279654041295248
0.440569803520673 0.171822686406714 0.426384588502693
0.440569803520673 0.172144984004126 0.440765008332989
0.440569803520673 0.172543723018849 0.445651188453021
0.440569803520673 0.166141497631339 0.447864432444281
0.434014989660127 0.172923754708647 0.455979075449607
0.435278665837512 0.162984024345483 0.462747537904516
0.428278104563917 0.165755181589219 0.462747537904516
0.425434538145186 0.156302592098468 0.462747537904516
0.421905367699635 0.14940725287164 0.462747537904516
0.40827280171187 0.139514933064057 0.462747537904516
0.407911909285608 0.138240110391753 0.462747537904516
0.400861873224965 0.127829785913564 0.458906968325383
0.395261755962333 0.12573628138276 0.466804136360591
0.39162663409162 0.123752890527265 0.469746600693
0.390524102459274 0.114101499616016 0.471445603753012
0.37831317000568 0.107876828884542 0.472541376861531
0.3747148063126 0.103257264241194 0.472835822197748
0.364946448802933 0.0903308874217893 0.470560300050423
0.36415964965234 0.0891751399095891 0.470356845586928
0.234922524620908 -0.0658848947087052 0.288170469607414
0.2245561127819 -0.075579355093318 0.288170469607414
0.224623620531544 -0.0767587315965766 0.288170469607414
0.210840530119678 -0.0898986855828348 0.288170469607414
0.203734887988935 -0.0958726820488014 0.288170469607414
0.203218583438262 -0.104989496101588 0.288170469607414
0.187467124590682 -0.117889558626752 0.288170469607414
0.181503950942272 -0.125421548977296 0.288170469607414
0.177820315802434 -0.127315215219393 0.288170469607414
0.171359696544817 -0.140817364414042 0.286768198060953
0.156285543460821 -0.153719788925425 0.282244887785442
0.440569803520673 0.15536482174982 0.411682802453221
0.440569803520673 0.159626522950661 0.417959797170275
0.440569803520673 0.154677337244105 0.425642982652492
0.440569803520673 0.161743005198033 0.438768092449333
0.440569803520673 0.161665038667282 0.449005593425593
0.440569803520673 0.15789707287241 0.456179205270842
0.438702696489905 0.155147574129483 0.462747537904516
0.4322166702155 0.143805000699059 0.462747537904515
0.421835280158361 0.139993845856248 0.462747537904516
0.420550843531135 0.142105517076684 0.462747537904515
0.411553733056777 0.127441386510146 0.460372097876541
0.411458822301259 0.125935132925133 0.466054023800014
0.403908956844577 0.119127232149386 0.470560888271947
0.403690398597734 0.115251812948957 0.471243105906783
0.39591852268127 0.109365248591961 0.472279359742885
0.391150451525799 0.101152288361328 0.472465268306186
0.382349445756936 0.0958098039813358 0.471524792742287
0.376509946544041 0.0862861768437479 0.46984828084903
0.237988930702085 -0.0708051397408338 0.288170469607414
0.235085276243099 -0.0723224389600425 0.288170469607414
0.229512190701836 -0.0877972230747625 0.288170469607414
0.227132146254461 -0.0953620544544148 0.288170469607414
0.223566044330114 -0.0954121619440029 0.288170469607414
0.211715618361751 -0.11030298283074 0.288170469607414
0.204350477693099 -0.116499640627237 0.288170469607414
0.189587943876026 -0.128372495888 0.288170469607414
0.190630490332069 -0.132207211704248 0.288170469607414
0.182355493348128 -0.142369755674796 0.286223963344819
0.173961165756875 -0.149997846870382 0.283549719968539
0.440569803520673 0.148603925175232 0.417587454704167
0.440569803520673 0.146079511128669 0.421432951023768
0.440569803520673 0.150362113320005 0.425689389380358
0.440569803520673 0.147080842949219 0.430891809166426
0.440569803520673 0.146609113783235 0.440303313882524
0.440569803520673 0.153113516892884 0.450996434600659
0.440569803520673 0.147967126635895 0.453158425012425
0.440569803520673 0.148900433246047 0.462034175779095
0.433518585349202 0.137290781182368 0.462747537904516
0.426912531812288 0.13586359985778 0.462747537904515
0.420647090528299 0.125734223881895 0.466811897714735
0.418759589260853 0.118936902064037 0.470594393432021
0.415655986455052 0.114811966858673 0.471320535145761
0.408804932926655 0.11553396205837 0.471193437190152
0.406028355755946 0.101171466462172 0.472468644363826
0.399053378220232 0.0996228666327539 0.472196033309823
0.387626396911797 0.0904768874986976 0.470586001483481
0.253416422422628 -0.0737669671734502 0.288170469607414
0.250427111029103 -0.0714939138747642 0.288170469607414
0.246642007212018 -0.0817694435659838 0.288170469607414
0.239058881688109 -0.0939439356860236 0.288170469607414
0.233087599046569 -0.101277975955704 0.288170469607414
0.225098499460744 -0.0998291726513686 0.288170469607414
0.216880203914903 -0.116396422143352 0.288170469607414
0.207716229714447 -0.122279326483887 0.288170469607414
0.206501109092771 -0.133241150806969 0.288170469607414
0.203678373449503 -0.131339882355438 0.288170469607414
0.184645199412937 -0.151843695884569 0.282902605326981
0.176579637531378 -0.159868516863023 0.280089277090963
0.445811900471094 0.136833825288511 0.39776714508597
0.428248521721004 0.117110726174771 0.391577772850018
0.432834150885239 0.12504979471583 0.403892727004981
0.440569803520673 0.138202918100098 0.433498177113302
0.440569803520673 0.141449349062003 0.438700760484577
0.440569803520673 0.136073825697977 0.443434646733943
0.440569803520673 0.140538387145701 0.453479974721817
0.4309610383043 0.125361980145986 0.450433226630352
0.433083704829447 0.124846710702043 0.45244355032673
0.428991101768864 0.125690302901892 0.457239671472875
0.42699386408073 0.120624635921071 0.470297289624502
0.42449828607113 0.118366980758278 0.470694720737314
0.422439090838206 0.10501252401087 0.473045600842294
0.416309971439126 0.108975470799248 0.472347975102954
0.401997094418758 0.0979819949754728 0.471907178988985
0.402337767522247 0.085094950375447 0.469638580772282
0.269388688811282 -0.067390141241045 0.288170469607414
0.266759939141106 -0.0723559150065839 0.288170469607414
0.258908881244488 -0.0852721785547824 0.288170469607414
0.252688056888965 -0.0849659334107928 0.288170469607414
0.248298651653685 -0.0920815646268154 0.288170469607414
0.231880134511149 -0.105721340951847 0.288170469607414
0.231395366391477 -0.106460307088653 0.288170469607414
0.223338333563473 -0.120186167925343 0.288170469607414
0.217475913398494 -0.130884154621673 0.288170469607414
0.209705813297477 -0.133197169998313 0.288170469607414
0.199148193104191 -0.153657882536939 0.282266590822954
0.186123657290902 -0.166619586740208 0.277722498372806
0.443668321437744 0.125658628062256 0.398145115904831
0.444260408050886 0.126385902740143 0.398040715060018
0.428686820154989 0.10985872122712 0.391830824568864
0.434502489482845 0.119115869253202 0.411659163844792
0.436890412634719 0.109470424511031 0.407301989186358
0.436113551442168 0.112608369590716 0.420362612761143
0.436792843619453 0.109864531224457 0.432510753719998
0.436239958298739 0.112097779310986 0.439769360139414
0.435851912846048 0.113665196155388 0.45289612278817
0.435538139666825 0.114932607905803 0.45395586910237
0.436139301528932 0.112504358270757 0.467699838604533
0.428594813326038 0.108600025182809 0.472414067467989
0.430349473714114 0.106628576056281 0.472761115694449
0.420083933684431 0.103207439045429 0.472827051113782
0.414417002656599 0.0934510470348375 0.471109563962645
0.27876834093 -0.0693529813630307 0.288170469607414
0.275776115218743 -0.0740183173315872 0.288170469607414
0.273545412443037 -0.0751220816678302 0.288170469607414
0.260463872525114 -0.0868591878265036 0.288170469607414
0.261406375358715 -0.0983664454603725 0.288170469607414
0.249509383738908 -0.104454461763376 0.288170469607414
0.242110631864001 -0.115056303411599 0.288170469607414
0.238851015877412 -0.125823208521659 0.288170469607414
0.234907379133251 -0.120511468733369 0.288170469607414
0.224632752736175 -0.132807286450172 0.288170469607414
0.209408482950636 -0.153338181435652 0.282378671097112
0.202903571756292 -0.164752461195628 0.27837707210459
0.456264406688776 0.124185268330342 0.39592408622377
0.445541894124781 0.115514282506168 0.397814754489787
0.439930103102964 0.108420196629398 0.398322137005453
0.433470304970546 0.104530230786257 0.394592570814791
0.437562246756553 0.106756711176924 0.408716715291449
0.436080134272171 0.0967181107735929 0.407653223830003
0.436174344127275 0.0970986489625488 0.419524856567985
0.4379605226493 0.105147970915493 0.429077276854472
0.436810929134403 0.0996699819240485 0.436208522416113
0.435457659433316 0.0942037724638138 0.440551639705122
0.437665318278954 0.106340378401295 0.468889023078655
0.435599566704732 0.0947769729639519 0.466385108160802
0.427672001346878 0.0943083886822992 0.47126048791712
0.428709779819061 0.0865801104065253 0.469900024066893
0.418508370916386 0.0845332474301869 0.469539700203503
0.290496145968408 -0.0758314294204401 0.288170469607414
0.282351239878486 -0.0714940357666899 0.288170469607414
0.28196022140127 -0.0829907296075911 0.288170469607414
0.277425744528581 -0.0919842986527518 0.288170469607414
0.267914309993793 -0.104867178800766 0.288170469607414
0.262679376489885 -0.108574689709063 0.288170469607414
0.255622577976942 -0.114571129869085 0.288170469607414
0.248131796556378 -0.125192137025463 0.288170469607414
0.234666703982878 -0.133819041398982 0.288170469607414
0.228204402950295 -0.139568464252456 0.287206035378195
0.21425581706479 -0.156576298662825 0.281243457408084
0.454828524726699 0.11886556493285 0.396177270954797
0.452600452324681 0.106624494448073 0.396570140234244
0.449445190570735 0.102588962490932 0.397126498012662
0.444479760950077 0.102559357327565 0.398002037225594
0.435971398108443 0.0962788970334486 0.405566352608216
0.427343230915241 0.0767328512312295 0.391055102959617
0.434395646314952 0.089914024344989 0.418329043141231
0.410492137622348 0.0508661850614766 0.381326119710825
0.43418454086347 0.0890613143382043 0.436601611806842
0.433691807655516 0.0870710363318809 0.445107828812008
0.435247971444007 0.0933567879566301 0.449357116342648
0.326384081142393 -0.050250694433932 0.288170469607414
0.434835961585134 0.0916925726221147 0.46958597297905
0.313233831276454 -0.0649672889764674 0.288170469607414
0.307542839817447 -0.0645138890095236 0.288170469607414
0.297911127143298 -0.0798293894739951 0.288170469607414
0.288324556134273 -0.0817740808281759 0.288170469607414
0.285521679375057 -0.0936715820564674 0.288170469607414
0.276354561173548 -0.107210750506655 0.288170469607414
0.275885364822693 -0.10328808622433 0.288170469607414
0.264613633991486 -0.117695754671239 0.288170469607414
0.260833765649294 -0.128846208142315 0.288170469607414
0.255149635817164 -0.12581039101181 0.288170469607414
0.241820555540813 -0.138113299956675 0.287716184428543
0.228799186813679 -0.155508998843581 0.28161762958287
0.228453371478869 -0.164775374751555 0.278369039108707
0.463066528254909 0.104243892204403 0.394724688665602
0.459038857726387 0.0970269233025208 0.395434875649184
0.456086172794732 0.0948029748356727 0.395955513668167
0.44554216285725 0.0887166486935153 0.397814707105003
0.445217804015184 0.0818376698555826 0.39787190032029
0.436359604031934 0.0722298916040189 0.396260708405653
0.43113086023933 0.0678858651546398 0.393241891769469
0.411445351538461 0.0471094149575161 0.381876458021888
0.413539479248983 0.0455420515258397 0.383085503219275
0.338422470936141 -0.0373336994134979 0.288170469607414
0.332071569956745 -0.0426587934375591 0.288170469607414
0.331708944770288 -0.0536590346608704 0.288170469607414
0.319373578711079 -0.0624559881168048 0.288170469607414
0.320045322497489 -0.0713195160923217 0.288170469607414
0.310438735988001 -0.077305997199282 0.288170469607414
0.298941314504356 -0.0848403059368904 0.288170469607414
0.2955045985889 -0.092014127769932 0.288170469607414
0.286970461862015 -0.105919387768943 0.288170469607414
0.287880012534875 -0.100833133641887 0.288170469607414
0.273298780213486 -0.117334676773436 0.288170469607414
0.273955926888943 -0.124457023056511 0.288170469607414
0.268692492056976 -0.12894921463702 0.288170469607414
0.259413996306863 -0.143177429084898 0.285940810559701
0.247584051067897 -0.151466547272302 0.283034825452877
0.465669390646674 0.0974727573802671 0.394265733798862
0.467904001521238 0.0991918340830546 0.393871711610292
0.460606282181595 0.0921109349563708 0.395158496427509
0.45444660079216 0.0819064457668688 0.396244614449034
0.448781848446675 0.0731523017161404 0.397243463126575
0.446234386020141 0.073076797818106 0.397692649484713
0.440785003915052 0.0638428654660207 0.39865352257803
0.423507754751511 0.0478135739745212 0.388840689764016
0.418196794968707 0.0465444546579384 0.385774405703759
0.345884194318475 -0.0434266750727426 0.288170469607414
0.345169079118142 -0.0548912976337204 0.288170469607414
0.335990309812016 -0.0568537500771815 0.288170469607414
0.327726296440731 -0.0746779151098961 0.288170469607414
0.320760049175922 -0.0720267024361713 0.288170469607414
0.318788510672349 -0.0886947539377589 0.288170469607414
0.312142500581318 -0.0888271750595446 0.288170469607414
0.305664902541524 -0.100905659722393 0.288170469607414
0.296258354445038 -0.100340909590039 0.288170469607414
0.297265835814336 -0.109099099386343 0.288170469607414
0.286955437600117 -0.121486008138294 0.288170469607414
0.277550440705883 -0.136382189974253 0.288170469607414
0.271882234307877 -0.134436110171202 0.288170469607414
0.266452748120681 -0.154372758658461 0.282015970755125
0.249059345999488 -0.162801749967052 0.279060949164826
0.476173282151731 0.096596961366402 0.392413614324085
0.468151291695068 0.0889072709348086 0.393828107680581
0.465463398979051 0.0829599627794692 0.394302055687665
0.459368225878292 0.0748035576778788 0.395376799157417
0.45096074825973 0.0668203964619175 0.396859264301272
0.449525245240521 0.0665532612028737 0.397112382214447
0.442269123574481 0.0560992326050459 0.398391832239474
0.441124385757357 0.0474871185822771 0.39859368040247
0.430978479063829 0.0390209369899383 0.393153914456775
0.348376278839297 -0.054540476809457 0.288170469607414
0.344768449382104 -0.0656415196526705 0.288170469607414
0.339182215929824 -0.0723593653243366 0.288170469607414
0.335091662082233 -0.0742291891660491 0.288170469607414
0.330240982118339 -0.0813055336804824 0.288170469607414
0.319843152201059 -0.0948907004180583 0.288170469607414
0.311285163262538 -0.0987342081815907 0.288170469607414
0.316349379058863 -0.104731641051673 0.288170469607414
0.301363112609584 -0.116399282387879 0.288170469607414
0.300418615964475 -0.12957939561895 0.288170469607414
0.289317040780735 -0.131878511845833 0.288170469607414
0.28698627774409 -0.133947206422806 0.288170469607414
0.279993609149541 -0.145021898695526 0.285294179507122
0.273390454418385 -0.151920739304153 0.282875595574577
0.481475279953052 0.0836461073690281 0.386456329946239
0.475784798946029 0.0784548537440849 0.392482114394803
0.464417403459714 0.0740553237660855 0.394486492919424
0.463237697749116 0.0727222943036395 0.394694506865498
0.457665538697585 0.0604086964238846 0.395677028847082
0.452881148662634 0.0523539762344131 0.396520645896477
0.451237502996859 0.0517273012713432 0.396810464974078
0.444804468313955 0.0422108603055284 0.397944782556507
0.436907205614833 0.0389747765390261 0.396576866326948
0.432894314521217 0.0321054977659941 0.39426002257382
0.409627758223965 0.0076195576982419 0.380827070032487
0.415537848759867 0.00445262974688252 0.384239262394325
0.341994102988701 -0.0810239321437127 0.288170469607414
0.335670549117171 -0.0872113758318724 0.288170469607414
0.330582545394466 -0.0963898215229902 0.288170469607414
0.320739325407139 -0.103018637732273 0.288170469607414
0.320038199276342 -0.108508482141606 0.288170469607414
0.312475484462423 -0.122531060795147 0.288170469607414
0.307183675891107 -0.12830355178124 0.288170469607414
0.292191165430513 -0.139844840214806 0.287109143958346
0.28273664936509 -0.154861556118207 0.28184460896414
0.28223392514451 -0.162805630680053 0.279059588670992
0.2794737331332 -0.165339123712792 0.278171400946444
0.479547470144111 0.0802162026585098 0.388753804211883
0.477631969357449 0.0667958527121069 0.391036609156004
0.475902414691633 0.0650794968703963 0.392461375565497
0.472235798371813 0.0649271592586757 0.393107898950587
0.464172596184954 0.059285990203242 0.394529659047038
0.462228418353522 0.0492956695722166 0.394872470054015
0.457013418150747 0.0487718124351781 0.395792015294164
0.448994015709457 0.0419403032118464 0.397206052313723
0.446321484459696 0.0300801800900154 0.397677291679843
0.440972782760461 0.0244498609706133 0.398620412101179
0.427053229883261 0.0113955476521744 0.390887670785737
0.425266508402605 0.0047950713148258 0.389856106657913
0.411126475468507 -0.0123026518875733 0.381692354837062
0.340005952428655 -0.0942820708258069 0.288170469607414
0.33201917301085 -0.105079632903237 0.288170469607414
0.338047002508339 -0.110648180362905 0.288170469607414
0.323180278068659 -0.124368977784641 0.288170469607414
0.323200590291684 -0.121356088355253 0.288170469607414
0.309608055209624 -0.145213607619218 0.285226970515225
0.30744316642516 -0.144379346362089 0.285519444423017
0.293448073776245 -0.159037361295305 0.280380662211386
0.488455633123508 0.0677039424560967 0.378137468977772
0.483183046985198 0.0552640275739154 0.384421092450365
0.481171425839821 0.0624038570721089 0.386818449177307
0.471213668725911 0.0521619481178526 0.393288127984942
0.475028584493255 0.0453548983902042 0.392615455406029
0.468156012025612 0.0436835697480677 0.393827275358949
0.462903969811579 0.0340564281882042 0.394753352105102
0.4597782725002 0.0295622544861673 0.395304496874626
0.450514960803367 0.0212199170080544 0.396937868657491
0.445563949806996 0.0137909230829524 0.397810865477935
0.441040009209261 0.00740128819376156 0.398608558264438
0.427543483931031 -0.00180218102444817 0.391170719092188
0.422065321054448 -0.0176712795938236 0.388007900280728
0.409768516630041 -0.0323577514071589 0.380908336936125
0.344645187845983 -0.109018566327421 0.288170469607414
0.340301073051347 -0.114909678844687 0.288170469607414
0.324746153817458 -0.124498531087213 0.288170469607414
0.323515691162434 -0.132909045011395 0.288170469607414
0.323731154920034 -0.13669177027227 0.288170469607414
0.308780053342044 -0.162786344875534 0.27906634985589
0.487239178888319 0.0597395593656839 0.379587182682785
0.487594053027319 0.0559130980249479 0.379164260152713
0.483563217996926 0.0450918790002951 0.383968022281338
0.475297644851764 0.0418721909833643 0.392568012805385
0.477412424542502 0.0377252668660896 0.391298252477953
0.470667555507505 0.0366790710684738 0.393384422479868
0.461859763962347 0.0271471860601772 0.394937473769736
0.464247082590304 0.0210488868611164 0.394516525084079
0.458556944845932 0.0176363230422278 0.395519849892359
0.453475858827221 0.00762900096119174 0.396415782448759
0.449389559900375 0.00509091219840753 0.397136307200802
0.4437462615683 -0.00113685549681428 0.398131372956934
0.421578830544071 -0.0217190262084563 0.387727024853604
0.422210054600489 -0.0281924647664828 0.388091462232496
0.411256031587926 -0.0366882933596947 0.381767154097484
0.340422058317518 -0.128750743802592 0.288170469607414
0.341237211843956 -0.131035863417789 0.288170469607414
0.32805350730075 -0.146585383054644 0.28474605579123
0.325844397326435 -0.154134198419763 0.282099604802205
0.313176046601552 -0.156040147820639 0.281431420268207
0.492255998453089 0.0538561230656075 0.373608369943073
0.486663019592899 0.0447353923305845 0.380273822593008
0.486130312382558 0.0426911438364893 0.380908678324732
0.486474406806711 0.0352476657538389 0.380498602558557
0.483428528243984 0.0296025619242501 0.384128539278292
0.474375890115142 0.0303568902880632 0.392730543035048
0.474295513318215 0.0230350986083058 0.392744715632969
0.468808619894246 0.0168202289835766 0.393712202983886
0.464215551900417 0.0138739838411991 0.394522084795427
0.454114470753885 0.00556292944387188 0.396303177935885
0.447573197392427 -0.00312381568534408 0.3974565809177
0.446861657239393 -0.014798370996819 0.397582044644537
0.440700418303015 -0.0131425309172372 0.398668437303613
0.438700897434998 -0.0217958392654936 0.397612454782163
0.411862858769257 -0.0491451960785074 0.382117505933977
0.4149853233597 -0.0489194075461885 0.383920261705804
0.409259603140987 -0.0571965572018424 0.380614515596225
0.330264561303152 -0.156394917115022 0.281307045845919
0.499022538118326 0.0412029908896445 0.365544321987596
0.494292985034605 0.036520271614139 0.371180783866486
0.489574689891142 0.0289033020438275 0.376803829054627
0.482937601694224 0.0284325466967448 0.384713602757669
0.482813073517203 0.0220068732940331 0.384862009660014
0.483517906659378 0.0168508157557269 0.384022022230647
0.471631373748309 0.00953258362860317 0.393214475319515
0.468644208248291 0.00763144841171037 0.393741193193011
0.46841216733922 0.000802840617134277 0.393782108265908
0.462654916614443 -0.00633503864742887 0.394797266903389
0.45246490691783 -0.00873273837592393 0.396594040546583
0.453391027427938 -0.0120890636793496 0.396430740513264
0.449388371233165 -0.0236973151203581 0.397136516794902
0.438078448681881 -0.0382130704322515 0.397253083826995
0.424298519425651 -0.0457378802613245 0.389297237961497
0.431152516248001 -0.0483080655061233 0.393254394871905
0.415178147788489 -0.0672321812460245 0.384031588941672
0.413818475793652 -0.0732366500978241 0.383246581949443
0.498716749422119 0.0312869250736356 0.365908746764876
0.498368450967005 0.0252896350418019 0.366323832700053
0.490241934072607 0.0245464106110141 0.376008638404228
0.492645092852261 0.0127699821580053 0.373144665295002
0.484821257251622 0.0152110144529796 0.38246874947993
0.482565725095444 0.00822472996892734 0.385156788030267
0.483700187043453 0.0058780872825204 0.383804788928066
0.478358596597859 0.000512389727687281 0.390170648531769
0.471416429390659 -0.00442803435493817 0.39325237580912
0.46809060295388 -0.0144209721982619 0.393838808743078
0.464448991296674 -0.0166521135000902 0.394480923131506
0.459675495797796 -0.0249338986428427 0.395322619180249
0.454542122107074 -0.0302529986280335 0.396227771463982
0.453008838819671 -0.0329246427037676 0.39649813067662
0.44538192399064 -0.0412260830179164 0.397842961540545
0.430694466648866 -0.0541727008620972 0.392989939812543
0.428319979987917 -0.0651525623708665 0.391619029299656
0.425012139632101 -0.0704240111305886 0.389709246779789
0.5 0.0123676950555806 0.358797747873045
0.498191173841091 0.018429076287904 0.366535103351746
0.495845615237294 0.0102561123021795 0.369330431244461
0.491915502477959 0.0137823226530792 0.374014157244699
0.491668274385656 0.00531647670953755 0.374308792211891
0.49004626049676 -0.000352097759007424 0.376241833091221
0.48411219960158 -0.00566584849191491 0.383313771481725
0.480644229668747 -0.00967998277955507 0.387446737108186
0.479793022389439 -0.0157070469448638 0.388461166441344
0.468962298900237 -0.0217174358335026 0.393685105228761
0.468684674918142 -0.0211456879519073 0.393734057827296
0.46203672348608 -0.0289847871665122 0.394906271031209
0.454115648941668 -0.0367591047087968 0.396302970189592
0.456252700022653 -0.0410225663620451 0.395926150424861
0.44545065934539 -0.0502880829638343 0.397830841642973
0.437682036281345 -0.0658016093505179 0.397024215020835
0.435672635420288 -0.0670302186921183 0.395864086892794
0.429560322280243 -0.0768107598934141 0.392335141256018
0.41522098115339 -0.0933028928626805 0.384056318796427
0.5 0.00291002633351008 0.343734069350017
0.5 -0.00143162080844258 0.357259335682982
0.5 0.00107436074363726 0.358476268251461
0.49416160758933 -0.00604820142377016 0.371337353408878
0.495423303586716 -0.00570962590663335 0.369833722671232
0.489476060737497 -0.010892041101081 0.376921370702818
0.489516566817404 -0.0122006366190253 0.376873097436567
0.487108491359743 -0.0231585922555036 0.379742930014472
0.481689714260474 -0.0230387715172277 0.386200777089993
0.476154272666992 -0.0291084103597747 0.392416966209135
0.467623825955269 -0.0345806774911615 0.393921114121907
0.464275836322684 -0.0371816839950825 0.394511455025264
0.464722897064708 -0.0443902096938202 0.39443262615443
0.463354120620791 -0.051215577079862 0.394673978372051
0.457268975758748 -0.06116426227315 0.395746953592749
0.449868860302197 -0.0605753235884513 0.397051793608096
0.445576546141391 -0.0761018966953757 0.397808644404323
0.441011568589774 -0.0828194538304833 0.398613573113002
0.428159289996413 -0.0961703972627553 0.391526254889805
0.422500984217571 -0.106505119168692 0.388259430525233
0.5 -0.0128586882244154 0.33647796581891
0.5 -0.0124232380244889 0.348712250474193
0.5 -0.0134627590009027 0.356127649094442
0.5 -0.0162852075552855 0.359690036349675
0.496381884175751 -0.0206796582731807 0.368691330810459
0.496924788033873 -0.0190123784516873 0.368044323187108
0.493746197684173 -0.0205092182486971 0.371832419655748
0.49165782027267 -0.0301009530141321 0.374321250938598
0.483476300414772 -0.0321880402099297 0.38407160662213
0.480048045318435 -0.0411328656082674 0.388157241949519
0.477226740185005 -0.0384132976860023 0.391519542478088
0.468479705562551 -0.0471872887636257 0.393770199454905
0.465359880373536 -0.0532204272908521 0.394320308810823
0.465274372987812 -0.0585598924397274 0.394335386069975
0.457519534211434 -0.0616752307820269 0.395702773377295
0.450020194219478 -0.0777202679178825 0.397025109355383
0.448985121558482 -0.0792854912725827 0.39720762059251
0.445042111552682 -0.0936681866933905 0.397902879641737
0.433893652768495 -0.102373776507357 0.394836990779898
0.421631676406561 -0.113174528279639 0.387757535426539
0.442321077031105 -0.105672833118497 0.223211868237697
0.443080685850299 -0.103112038911317 0.23218502517205
0.5 -0.0335551684605872 0.33598522018286
0.5 -0.0353826504349312 0.349413033124517
0.49821757905732 -0.0268802552847131 0.366503634840441
0.5 -0.0350315126667981 0.362470708522182
0.49594455781279 -0.0296410894621098 0.369212516074653
0.489653958331087 -0.0348138417947567 0.376709360606543
0.48737717411104 -0.0402867511704364 0.379422726380346
0.485075385452602 -0.0502374909973179 0.382165891283432
0.483486776632501 -0.0578439542310771 0.384059121552015
0.479823666387842 -0.0505114120202955 0.388424646346156
0.477389628669059 -0.0561906912368748 0.391325419542024
0.469780807103284 -0.0661283051179929 0.393540780148633
0.462488933831907 -0.0763304979628139 0.394826534146284
0.459925771779803 -0.0825853019794833 0.395278488771998
0.455908755802404 -0.0895758164939315 0.39598679707075
0.449402176759932 -0.0952000575641897 0.39713408250805
0.444197766332631 -0.0996162448412544 0.398051760485064
0.436661093094109 -0.111314209369333 0.396434773196856
0.424567175597982 -0.129295169493911 0.389452346674912
0.412576487890105 -0.139342687969721 0.382529519899
0.442304274450865 -0.11864534915258 0.223013381614612
0.443070193504051 -0.115426486299919 0.232061080495379
0.443119454785692 -0.12619255940786 0.232642997397575
0.5 -0.0458518461240142 0.345067456864651
0.5 -0.0437867314718434 0.351151731776634
0.5 -0.0415815343228274 0.354503266924101
0.497381124431722 -0.0452589231715259 0.36750048264554
0.493368341124229 -0.049129190111336 0.372282731568547
0.491842895852729 -0.0473474357072169 0.374100686451162
0.487823483847842 -0.0518136871887652 0.378890835148103
0.484008731858671 -0.0612322198125397 0.383437079536054
0.484295805563981 -0.0638474766328552 0.383094958416409
0.476611166487694 -0.0734222149644705 0.392253154643366
0.476585790752557 -0.0763500745453853 0.39228339626688
0.468409935468676 -0.0787803340639054 0.393782501804902
0.470377720427021 -0.0847136514620571 0.393435528224514
0.457652874728025 -0.0951156388466212 0.395679261846599
0.460511425989781 -0.0973131703743036 0.395175222133413
0.451695554424298 -0.105048525976464 0.396729698148868
0.450207769004593 -0.113118788350654 0.396992034859867
0.439657150073216 -0.1211565081967 0.398164547500252
0.432387161740691 -0.141701017081599 0.393967217779463
0.417247625751634 -0.153331155325952 0.385226402600776
0.410911646278567 -0.165385173481423 0.381568323146421
0.440258724062944 -0.142975174925107 0.198849569683879
0.441459312557454 -0.135805515456306 0.213031960280972
0.442845186663212 -0.133560755352075 0.229403104912246
0.5 -0.0576541487149686 0.334261487786536
0.5 -0.0552810340749786 0.343681347818422
0.5 -0.054866055770014 0.350953879200663
0.5 -0.0582780753157774 0.354446589933108
0.496736808929327 -0.053619741543353 0.368268347960283
0.494266056066554 -0.0642521536038072 0.371212876560905
0.491192385691273 -0.064511842703098 0.374875934273098
0.491651453609545 -0.074809237881194 0.37432883843225
0.484192139130367 -0.072619376925087 0.383218503261102
0.482381406600736 -0.0785051440312938 0.385376450258517
0.478889083324573 -0.0831146710620005 0.389538439069383
0.475886581962859 -0.0891938670645665 0.392464167302758
0.476002098742273 -0.092002136654831 0.392443798577823
0.469127058745871 -0.10316362361028 0.393656053622638
0.462757219538956 -0.111522154661046 0.394779228137592
0.454543270469849 -0.115244391316583 0.396227568976641
0.449461491540674 -0.129137021503109 0.397123623711851
0.44429111235538 -0.126143363597267 0.398035301062711
0.435229955106141 -0.14037636366214 0.395608505294257
0.419000531118933 -0.163744679743687 0.386238442986449
0.416705583912096 -0.168650739680787 0.384913454598806
0.439898804400704 -0.147065157108531 0.194597887065895
0.440770012661381 -0.157549536906741 0.204889353210073
0.441196261885435 -0.15266112490669 0.20992457803097
0.441770683708373 -0.159558329461548 0.216710145856801
0.5 -0.0738729621725443 0.328849010348791
0.5 -0.0748075186197095 0.33261909570482
0.5 -0.0736589322543357 0.348259647696697
0.5 -0.0744268816666927 0.35789165863553
0.499162027834308 -0.0752846052022085 0.365378084617446
0.496256183120266 -0.0791914803818047 0.368841135494924
0.491872316506524 -0.0834496380943647 0.374065624281305
0.493672180499611 -0.0849369048669524 0.371920629901363
0.487104826766736 -0.0894760662572317 0.379747297306354
0.480083723919102 -0.0982735737794145 0.388114721848995
0.480473325783477 -0.103164011107409 0.387650412427445
0.476238917750715 -0.0973969024159787 0.39240204099709
0.476285999632898 -0.107436310016812 0.392393739190959
0.466950976766312 -0.11653488537981 0.394039755587868
0.465075114038403 -0.121540713795868 0.394370520798904
0.454080167873714 -0.129689068875179 0.396309226459176
0.452468392083389 -0.140316478168637 0.396593426017862
0.450451728178885 -0.146546600728085 0.396949018275248
0.444705383226344 -0.148060811522399 0.397962253930838
0.438988327424912 -0.164694242756874 0.18384254486548
0.440125037329788 -0.160231389723637 0.197270346264756
0.442296107317317 -0.16535117857028 0.222916904363191
0.5 -0.0849189587017954 0.334731970926393
0.5 -0.0884368051859758 0.328815602348814
0.5 -0.0800311808246098 0.350776129614643
0.5 -0.0835285121632626 0.35734680863243
0.5 -0.082606557134845 0.360936774922382
0.493528200425024 -0.0927957230617634 0.372092218672515
0.491542875967381 -0.0930519765003987 0.374458236227376
0.487575683287073 -0.102674661662424 0.379186152356647
0.488530294199446 -0.101724003505255 0.378048491372296
0.48637690641142 -0.107566436920791 0.380614799004925
0.481510282200503 -0.110360678795041 0.386414615892091
0.478859250035446 -0.121751454042291 0.38957399299888
0.472379165417497 -0.123621322185714 0.393082619472289
0.467707864144204 -0.126773341704893 0.393906295921788
0.458986917121863 -0.137002328199139 0.395444034179156
0.455186699237009 -0.143673993032082 0.396114115124827
0.453719786358655 -0.159153801339527 0.396372771443629
0.446186093687598 -0.162715423894509 0.397701164725903
0.44299671168223 -0.167133432378663 0.398263538825235
0.5 -0.100577123143849 0.339609600870005
0.5 -0.105444812744523 0.345643170375944
0.5 -0.100956031736391 0.347625981923011
0.5 -0.11085613267518 0.360572426532164
0.496458424238455 -0.10409023912763 0.368600113915753
0.495988754426817 -0.105409845688125 0.369159844601105
0.489893744629451 -0.115071073933785 0.376423594424013
0.489271140047368 -0.12068843413126 0.377165585671477
0.485108360842315 -0.126217328444075 0.382126592744275
0.478995866630445 -0.129043233637759 0.389411179680982
0.472743385237673 -0.137559711745851 0.393018397691083
0.472915712597553 -0.139072704613417 0.392988011728022
0.46295993500779 -0.148294012894469 0.39474348393103
0.460034398681711 -0.151662897307429 0.39525933491836
0.459732724198742 -0.154396812943911 0.395312528269099
0.5 -0.1149318701219 0.332406739854715
0.5 -0.119606079755519 0.328895313517959
0.5 -0.122932519462236 0.339204184444179
0.5 -0.115396900721955 0.349184233409841
0.499488228449819 -0.11257529185825 0.364989333862003
0.496611280360291 -0.117702862818962 0.368417947083405
0.49754281990603 -0.122414508253333 0.367307781483127
0.491353305395395 -0.134251016077492 0.374684157637591
0.491568511028471 -0.133106137899724 0.374427685551226
0.488176180487498 -0.140090640549108 0.378470507660697
0.484055020555186 -0.141448339020262 0.383381914815685
0.47677540150658 -0.141245022255772 0.392057426969578
0.477753303300243 -0.154312745758946 0.390892008993776
0.470189028621447 -0.159242537454853 0.393468799680875
0.5 -0.123707815827604 0.330417581470112
0.5 -0.138063898152384 0.328746008371797
0.5 -0.131287195915286 0.346503019145153
0.5 -0.132758172499531 0.347635545226245
0.499767152547126 -0.126713929215668 0.364656925066976
0.5 -0.133628266327734 0.361953303718099
0.493800262911662 -0.132231787857132 0.371767987226653
0.490407983933917 -0.141023513005276 0.375810747885462
0.489161786308963 -0.145742408884402 0.377295908382085
0.482052447608138 -0.147088204030478 0.385768488319761
0.479325768861383 -0.153808913128634 0.389018017512057
0.478107153408261 -0.153940356830601 0.390470306856305
0.5 -0.148508303072864 0.337430739549853
0.5 -0.15132503335203 0.352919820977047
0.5 -0.143393566311602 0.3571429140456
0.496990548223689 -0.154590530251659 0.367965953244645
0.497379516848788 -0.152713000079697 0.367502398488277
0.490576539621857 -0.161318765618529 0.375609871038809
0.49069494567611 -0.164195556167067 0.375468760198268
0.48660383923273 -0.165685588832789 0.380344350999851
0.5 -0.160192920116723 0.336222434252672
0.5 -0.162429624722887 0.345157884677935
0.5 -0.164067468568304 0.344230757944074
0.499208336314718 -0.163306586968882 0.365322896319549
0.497380711696592 -0.167758784350692 0.367500974524114
0.495519930649643 -0.167617627202457 0.369718567021847
-0.497335508295673 0.172923754708647 0.327963802928599
-0.496466603147393 0.172923754708647 0.361116442699018
-0.496322573925175 0.172499645145912 0.36876201401466
-0.485916721470212 0.172923754708647 0.327602935785107
-0.485350899682115 0.172923754708647 0.338187049924933
-0.494666225690683 0.172923754708646 0.339799948395302
-0.488814630447362 0.172923754708646 0.347788994438503
-0.487275370299327 0.172923754708646 0.365716589754151
-0.491040998330559 0.172923754708646 0.362492319217143
-0.490496514053147 0.167401550567227 0.375705241797818
-0.492927072275305 0.151182627892159 0.372808615304552
-0.497226605818295 0.14366023344989 0.367684630758214
-0.483969565186463 0.172923754708647 0.313666896007604
-0.476052242186758 0.172923754708647 0.323135232370645
-0.483266657203685 0.172923754708647 0.331307820439492
-0.483755043069393 0.172923754708647 0.343761434383473
-0.47638071029868 0.172923754708646 0.352275609963451
-0.484931515340419 0.172923754708646 0.358634741196607
-0.483924416250513 0.172923754708646 0.373771431060945
-0.481874301657775 0.172923754708647 0.376491235487035
-0.482564328557686 0.165472112600939 0.385158452359158
-0.484315692187578 0.163679390012449 0.383071258461295
-0.484079606604945 0.143050524308401 0.383352614302557
-0.486807954937282 0.134226077231962 0.380101095375646
-0.489166495141281 0.121343382195322 0.377290296614253
-0.496678796756508 0.0980571472685104 0.368337484175654
-0.493711460756498 0.0978940182781539 0.371873817514101
-0.49015553701959 0.0892089376050609 0.376111602402552
-0.467852942444893 0.172923754708646 0.30540677614684
-0.475590214529429 0.172923754708647 0.313759835134061
-0.474714515715161 0.172923754708646 0.323247003494038
-0.467039230099533 0.172923754708646 0.338116494509391
-0.469878347235343 0.172923754708646 0.341680597810098
-0.467592928629691 0.172923754708647 0.35764303359844
-0.468779535033417 0.172923754708647 0.362434631088295
-0.470008483689735 0.172923754708646 0.368781723185484
-0.470060497226918 0.172923754708646 0.382054394866358
-0.471693200203201 0.172923754708647 0.386665417661283
-0.470242642843312 0.163778941500669 0.39345934604701
-0.478597601176173 0.145981689430177 0.389885813966918
-0.479748699673891 0.141400462393889 0.388513988196832
-0.477267397084795 0.126271492156859 0.391471089471701
-0.475321917813342 0.125879431232546 0.392563732827357
-0.485877689821621 0.0946542436760982 0.3812097421693
-0.487340093411787 0.0864217894174419 0.379466917436897
-0.487355186750411 0.0686772080918263 0.379448929896367
-0.489676722865819 0.0574283105693714 0.376682230890493
-0.494388486980175 0.0516574778632191 0.371066969079753
-0.492283752944023 0.0306408497252657 0.373575293428793
-0.499824062952596 0.0201756186120491 0.364589101886801
-0.465947079906106 0.172923754708646 0.304998894417777
-0.462749589733695 0.172923754708646 0.317531051294017
-0.462593332182967 0.172923754708646 0.323851381162648
-0.461968921837363 0.172923754708646 0.332413226262335
-0.462687863588159 0.172923754708647 0.346579003491648
-0.457190141970577 0.172923754708647 0.359248593883182
-0.466607908079487 0.172923754708647 0.360674108530851
-0.462739750742997 0.172923754708647 0.369734640447815
-0.461637484762365 0.172923754708646 0.384811120288333
-0.462961108319249 0.172923754708646 0.385287687113622
-0.464623238666333 0.172923754708646 0.393537206576863
-0.460245252985458 0.158982475334166 0.395222155615611
-0.462470511042085 0.144563968970654 0.394829782581189
-0.46802785747984 0.142054868802544 0.393849872463068
-0.466067262468667 0.125909914543204 0.394195578261781
-0.466252198922351 0.119022240067814 0.39416296897528
-0.471300526401617 0.0959202171136784 0.393272812633233
-0.475450895809178 0.0934310270031365 0.392540990526773
-0.477256582884129 0.0758596237405547 0.391483977334195
-0.482612610932166 0.0575151741655156 0.385100911665912
-0.478720505191368 0.0585619400381807 0.389739342665264
-0.488838871033126 0.0264089763739452 0.377680743822166
-0.489339957775531 0.0189366582648839 0.377083571896704
-0.487438032799514 0.00861690656277054 0.379350197819717
-0.492177228416058 -0.0135449535403096 0.373702244417694
-0.497310243252245 -0.034072881330614 0.367584955545829
-0.496945466469799 -0.0368665353165561 0.368019679586804
-0.453287378337763 0.172923754708646 0.299221603331341
-0.454915805281655 0.172923754708646 0.312341961832942
-0.457477060458118 0.172923754708646 0.32262900966281
-0.456342726168634 0.172923754708646 0.337639547074045
-0.454047306318823 0.172923754708647 0.336397513366422
-0.451732967132677 0.172923754708647 0.350825452348038
-0.45646030027747 0.172923754708647 0.360967192190279
-0.454030487843171 0.172923754708646 0.372540745280093
-0.453994279803795 0.172923754708646 0.382629987164118
-0.456250255893505 0.172923754708647 0.393716055839379
-0.448874332237812 0.172923754708646 0.396398486922644
-0.455281744359211 0.156928685314249 0.396097356105397
-0.457368955742514 0.144311049437564 0.395729324424079
-0.455729539740575 0.138810272895047 0.396018397697827
-0.462621765284674 0.118151970810675 0.394803112377274
-0.459709724588557 0.11752200408818 0.39531658372092
-0.461267253914354 0.107737458453403 0.395041949277538
-0.465101237297313 0.0920429322864389 0.394365914563534
-0.470066871335795 0.0844056839816219 0.393490339306225
-0.472742618737064 0.0693693543626364 0.393018532845821
-0.467639955569428 0.0569462139154551 0.393918270035743
-0.473175969507678 0.0444357284229424 0.392942121412851
-0.477991205429111 0.0333692981884972 0.390608488277012
-0.478979672305623 0.0208821095617854 0.389430479325769
-0.472825806150303 0.0121093756909135 0.393003864660412
-0.480427871762932 -0.00693888369795798 0.387704582419727
-0.489030259281712 -0.0330695469949135 0.377452656189334
-0.483869886529012 -0.0319963382895376 0.38360254895649
-0.494279770324642 -0.058109834870845 0.371196532544558
-0.484471098000228 -0.0522618056021234 0.382886053025759
-0.490651256612691 -0.0713126128568208 0.375520826796554
-0.498716796710711 -0.104416159072809 0.365908690408526
-0.494281608881237 -0.0996421898720587 0.371194341438132
-0.439257862269708 0.172923754708647 0.220769864552422
-0.444080766877046 0.172923754708646 0.249572752619291
-0.441843588551667 0.172923754708647 0.264970046191221
-0.445427670939427 0.172923754708646 0.266928178822352
-0.441697278499648 0.172923754708647 0.278791726922236
-0.446561906051912 0.172923754708646 0.286284335046481
-0.443290513226764 0.172923754708647 0.300252161319249
-0.438994391594012 0.172923754708647 0.307012918122594
-0.439539334200582 0.172923754708646 0.310227585186863
-0.439833692063095 0.172923754708646 0.32124963210555
-0.441904961490762 0.172923754708646 0.332061353621859
-0.445417344330151 0.172923754708647 0.341267792872461
-0.440718759374252 0.172923754708647 0.345503741534929
-0.441869727922849 0.172923754708646 0.360445534166492
-0.446040820810701 0.172923754708646 0.365188900812629
-0.444323441597428 0.172923754708646 0.380859658448097
-0.445866757455404 0.172923754708646 0.386519341613744
-0.446819500192493 0.172923754708646 0.393019999459717
-0.449485971662347 0.158933071366711 0.397119307205908
-0.449691376213403 0.156746707478818 0.397083088841597
-0.439462260311934 0.172923754708647 0.42861659809175
-0.450800640289506 0.130227220877814 0.396887495656249
-0.456141789760488 0.120410578973953 0.395945706896519
-0.450876866719188 0.113192799493582 0.396874054880053
-0.459791158656812 0.0914048175223725 0.395302224697538
