ply
format ascii 1.0
element vertex 840
property float x
property float y
property float z
end_header
-0.00849800117157412 -0.14937933228788 0.151041666666665
-0.00259379451874566 -0.145554105778893 0.151041666666664
0.00739185608862841 -0.151573448583752 0.151041666666664
0.0189756970840387 -0.147116476523596 0.151041666666665
0.0357911415744114 -0.15190187285717 0.151041666666665
0.0436302878230549 -0.152213433765028 0.151041666666664
0.0588957973508176 -0.15008191308181 0.151041666666664
0.0595038620483099 -0.15701469553549 0.151041666666664
0.0655810911526168 -0.157757744055538 0.151041666666664
0.082101306230897 -0.158876951534811 0.151041666666664
0.0866578772843282 -0.1562348610515 0.151041666666664
0.115122215409265 -0.155663333474371 0.151041666666664
0.123006320500065 -0.159502707256425 0.151041666666664
0.131234089227141 -0.155206696514459 0.151041666666664
0.139501808885109 -0.157057982685784 0.151041666666664
0.147225975724268 -0.157487217422024 0.151041666666665
0.166240446092648 -0.157257483639942 0.151041666666664
0.18352778771633 -0.163415697236802 0.151041666666664
0.193192183608334 -0.163595986525352 0.151041666666664
0.206996374766909 -0.164349998491428 0.151041666666664
0.207889863506595 -0.161079459856291 0.151041666666664
0.233160991683231 -0.163583663442384 0.151041666666664
0.246751155975371 -0.160971164453865 0.151041666666664
0.247645619929133 -0.163957802804672 0.151041666666664
0.258349698417985 -0.162410758494572 0.151041666666665
0.27638230875277 -0.168597998165783 0.151041666666664
0.279738252348503 -0.160023431852667 0.151041666666665
0.294986879437355 -0.161361982935071 0.151041666666664
0.311360945581977 -0.166731626994875 0.151041666666664
0.323763407310432 -0.171236849034877 0.151041666666665
0.342488423641133 -0.167226096582107 0.151041666666664
0.348099286540925 -0.169149847498987 0.151041666666665
0.362002798824464 -0.170799279050043 0.151041666666665
0.377909704975154 -0.169932846814291 0.151041666666664
0.387786016299594 -0.166349255338263 0.151041666666664
0.401460100239199 -0.166469257444326 0.151041666666664
0.418981928411131 -0.172745963520034 0.151041666666664
0.421567132383631 -0.175343943366072 0.151041666666664
0.445202574834629 -0.173275346654272 0.151041666666664
-0.161264037350986 -0.1282010806805 0.151041666666665
-0.152035491838756 -0.131850308998903 0.151041666666664
-0.14402882237489 -0.133599448542872 0.151041666666664
-0.133694824581953 -0.130426955567386 0.151041666666664
-0.129333401623724 -0.136945737458512 0.151041666666664
-0.11984609703746 -0.130223041832378 0.151041666666664
-0.109724465829691 -0.138466099475613 0.151041666666664
-0.0970582657043084 -0.13569731345502 0.151041666666665
-0.0840632895322273 -0.138631067008984 0.151041666666665
-0.0710243530075204 -0.136551593598528 0.151041666666664
-0.0681668215363206 -0.140264383628466 0.151041666666665
-0.0475570593790653 -0.141578889375224 0.151041666666664
-0.0337795054363481 -0.141610716601225 0.151041666666664
-0.0379337415973795 -0.135893893262368 0.151041666666664
-0.028943503258162 -0.135213326131615 0.151041666666664
-0.00969250917699727 -0.136370866542158 0.151041666666664
-2.28869117359068e-005 -0.140919471539206 0.151041666666664
0.0149033707928521 -0.143376556678696 0.151041666666665
0.022092276128884 -0.137347685635002 0.151041666666664
0.0279413733704062 -0.145586553590999 0.151041666666664
0.0374145597534016 -0.137538154124525 0.151041666666664
0.0513111696926915 -0.143136510819741 0.151041666666664
0.0664570959279859 -0.141163490964798 0.151041666666665
0.0684635339548675 -0.139163823149346 0.151041666666664
0.0816777392934877 -0.146853629718345 0.151041666666665
0.0924488715475019 -0.14228094314575 0.151041666666664
0.10936735502797 -0.142772365586916 0.151041666666664
0.110128963407379 -0.149195880702816 0.151041666666664
0.132922744782366 -0.141335922356342 0.151041666666664
0.148265737810535 -0.15071652480574 0.151041666666664
0.153914250645246 -0.148363457776097 0.151041666666664
0.166027285120702 -0.143352147095416 0.151041666666664
0.168900918014231 -0.151934805079376 0.151041666666664
0.183565235982417 -0.146608751439247 0.151041666666664
0.2024574884444 -0.150613635750802 0.151041666666664
0.213333687393758 -0.152197927153749 0.151041666666665
0.22807272880053 -0.145235700841864 0.151041666666664
0.240579759121885 -0.147968155702023 0.151041666666664
0.256725064003538 -0.150723167150134 0.151041666666664
0.263712622878862 -0.147053939219113 0.151041666666664
0.27812364781978 -0.15520335198307 0.151041666666664
0.278496305199816 -0.150055846916102 0.151041666666664
0.294936090190875 -0.150382638269769 0.151041666666664
0.320731317418669 -0.149810934395268 0.151041666666664
0.325864900368962 -0.1513374401743 0.151041666666664
0.341628603154931 -0.156675764284115 0.151041666666664
0.34901153575058 -0.153718192687272 0.151041666666664
0.359290849862689 -0.154392045114489 0.151041666666664
0.374801295175232 -0.152688122516773 0.151041666666664
0.400453164053178 -0.153688129491637 0.151041666666664
0.406628374105741 -0.159200207423634 0.151041666666664
0.419324715568067 -0.164009687567139 0.151041666666664
0.436104135112472 -0.157222796588041 0.151041666666664
0.437576960485386 -0.159547797875428 0.151041666666664
0.455382807675873 -0.158757581238755 0.151041666666664
-0.156403375704408 -0.119249604761772 0.151041666666664
-0.157971498097813 -0.118571849277771 0.151041666666664
-0.134480327034994 -0.120265423381046 0.151041666666665
-0.135271751662267 -0.12361941209635 0.151041666666664
-0.120869126106772 -0.124093964290944 0.151041666666664
-0.117966511772743 -0.121805322128451 0.151041666666664
-0.0992975536017642 -0.129394398039539 0.151041666666665
-0.0946583478534436 -0.124030026256705 0.151041666666664
-0.0761144678209255 -0.129962933490657 0.151041666666664
-0.0766922335461942 -0.123729516694415 0.151041666666664
-0.059726626727739 -0.124414736115466 0.151041666666664
-0.0525321233032534 -0.127024413865733 0.151041666666664
-0.0435676127289663 -0.126043031400939 0.151041666666664
-0.0328915952100906 -0.129146203473769 0.151041666666664
-0.0219436365566073 -0.128890327478833 0.151041666666664
-0.0184896723744646 -0.124491076078646 0.151041666666665
-0.00311198412246743 -0.131522992893509 0.151041666666664
0.00816319052551234 -0.13150716095573 0.151041666666665
0.0195957168717784 -0.12769753692586 0.151041666666664
0.0236232885592217 -0.135743885236325 0.151041666666664
0.0442547528762143 -0.126652655005602 0.151041666666664
0.0557089739961063 -0.134389052897936 0.151041666666664
0.0554666685359054 -0.135302263882494 0.151041666666664
0.0716744220004524 -0.131752560889455 0.151041666666664
0.082632419893472 -0.130876774277844 0.151041666666664
0.0901429642047294 -0.130359779184202 0.151041666666664
0.110700248644682 -0.139067505078106 0.151041666666664
0.117780583375323 -0.139745668703544 0.151041666666664
0.128820450562401 -0.131472137826171 0.151041666666664
0.142896062677417 -0.136313065092576 0.151041666666665
0.158285527100206 -0.134068802311526 0.151041666666664
0.173367334104398 -0.142176498921106 0.151041666666664
0.176240403702467 -0.140227113399443 0.151041666666664
0.18850152920285 -0.137452640613369 0.151041666666664
0.209296930158882 -0.140618605184058 0.151041666666664
0.216621863750728 -0.140222605110966 0.151041666666664
0.228863455919953 -0.136146227530588 0.151041666666664
0.231068908183996 -0.137710328310255 0.151041666666664
0.249705799648803 -0.135441427033849 0.151041666666664
0.270220159022732 -0.141676893592848 0.151041666666664
0.266869527581622 -0.142093975774684 0.151041666666664
0.293136404874906 -0.146375492673684 0.151041666666664
0.291932059480726 -0.142542684170058 0.151041666666664
0.305468018369067 -0.138513249847472 0.151041666666665
0.314706682361292 -0.139656543159576 0.151041666666664
0.342843750315273 -0.139698114266463 0.151041666666664
0.361267733404206 -0.14898300839751 0.151041666666664
0.369225165353157 -0.145750127421809 0.151041666666665
0.368776160155147 -0.143457367049681 0.151041666666665
0.39447276216138 -0.146047426315645 0.151041666666664
0.399148828684065 -0.143849517704947 0.151041666666664
0.426213714945746 -0.152273181908502 0.151041666666664
0.431293555363269 -0.154255789281115 0.151041666666664
0.447640452530434 -0.150834588404079 0.151041666666664
0.458333333333321 -0.149591982091983 0.159867959029007
0.458333333333321 -0.153941352014629 0.170627820391453
0.458333333333321 -0.155854797652893 0.172744864815333
0.458333333333321 -0.147452564499978 0.187343903882037
0.458333333333321 -0.154131791818433 0.19935653181051
0.45833333333332 -0.149469977295404 0.210494525322937
0.458333333333321 -0.146702384170405 0.215549808694205
0.47885292270752 -0.154715023085443 0.218749999999997
0.490691715694986 -0.153008622033609 0.218749999999997
-0.165524269908399 -0.11435841330858 0.151041666666664
-0.143207520029417 -0.117758754179957 0.151041666666665
-0.144723611340855 -0.118556634081584 0.151041666666664
-0.130147818351931 -0.110388544812456 0.151041666666664
-0.121259060642197 -0.111968020408115 0.151041666666664
-0.11041432729026 -0.117060938524939 0.151041666666664
-0.0977293730805004 -0.119666482055018 0.151041666666664
-0.0891266303661041 -0.120986985309397 0.151041666666664
-0.0865917601806227 -0.12090978623326 0.151041666666664
-0.0712918731663446 -0.121665106070001 0.151041666666665
-0.0620235045637914 -0.120803633846546 0.151041666666665
-0.0546324872271163 -0.1176793658724 0.151041666666664
-0.0339856952550672 -0.121904282193017 0.151041666666664
-0.0330214364621204 -0.117135858222716 0.151041666666665
-0.02740615731957 -0.115330918543209 0.151041666666664
-0.0112320608983394 -0.116641835214067 0.151041666666664
-0.000601256472980381 -0.122636161970651 0.151041666666664
0.00564518374509315 -0.1221325275958 0.151041666666664
0.0180220790722608 -0.116887684116426 0.151041666666664
0.0326019067134037 -0.124211212262569 0.151041666666664
0.0414382326989696 -0.11733231552522 0.151041666666664
0.0440918461307212 -0.121649918888078 0.151041666666664
0.0642613461984919 -0.119163992359885 0.151041666666664
0.0711746179656655 -0.126955605682578 0.151041666666664
0.0894183518910155 -0.12807687680125 0.151041666666664
0.0940823960683045 -0.125215660716668 0.151041666666664
0.111005433841909 -0.120217204715389 0.151041666666664
0.113920932359472 -0.123026975422504 0.151041666666664
0.13654495870646 -0.125972436492198 0.151041666666665
0.147260242659682 -0.122726920471245 0.151041666666664
0.160518715580079 -0.128100812790945 0.151041666666664
0.165359870765264 -0.12139350960275 0.151041666666664
0.168887625973214 -0.122990353341665 0.151041666666664
0.191082644067659 -0.129504137409496 0.151041666666664
0.196161184347149 -0.133243660645124 0.151041666666664
0.214498252623827 -0.129453583796438 0.151041666666664
0.227321062989865 -0.125463952385736 0.151041666666664
0.235405117310043 -0.12904713875937 0.151041666666664
0.241000529137048 -0.129413786041581 0.151041666666664
0.26393616421798 -0.130052844356188 0.151041666666664
0.277694556042168 -0.127520783196207 0.151041666666664
0.279824468237872 -0.128189430582254 0.151041666666664
0.300235412851905 -0.129232318580807 0.151041666666664
0.316685960394957 -0.129961375463404 0.151041666666664
0.314751992988766 -0.134302251307582 0.151041666666664
0.333923141662902 -0.134513919208081 0.151041666666664
0.350617610558742 -0.131280868148828 0.151041666666664
0.364257087085943 -0.134000444914603 0.151041666666664
0.377007008101733 -0.130438301247315 0.151041666666664
0.402732408995707 -0.131385857981914 0.151041666666664
0.405344091188724 -0.138198085781599 0.151041666666664
0.417273036710818 -0.132277309546837 0.151041666666664
0.434360232940177 -0.138823174087844 0.151041666666664
0.451021371630561 -0.140092649309698 0.151041666666664
0.453719520013895 -0.139348440023993 0.151041666666664
0.458333333333321 -0.135093223166717 0.155308579662026
0.458333333333321 -0.139495234964945 0.177113928267418
0.458333333333321 -0.133390308698952 0.183296830870967
0.458333333333321 -0.137033484065359 0.193535938563632
0.45918362712043 -0.132451237253535 0.218749999999997
0.458333333333321 -0.135116374931142 0.21554576327551
0.469246606219006 -0.141565999322483 0.218749999999997
0.484260345908713 -0.141022973171938 0.218749999999996
-0.166151000524992 -0.103449698399505 0.151041666666665
-0.157468317742851 -0.108419942712797 0.151041666666664
-0.140043735909693 -0.108410269925867 0.151041666666664
-0.132602219993834 -0.105532982716625 0.151041666666664
-0.123359638049417 -0.106988921549582 0.151041666666664
-0.118562546917272 -0.104035210235951 0.151041666666664
-0.0989603590887882 -0.109401264722466 0.151041666666664
-0.0965518260047573 -0.11007034197605 0.151041666666664
-0.0801908087800958 -0.110325650005376 0.151041666666664
-0.0792706045078102 -0.105946870519867 0.151041666666664
-0.0639373112623291 -0.111040442352195 0.151041666666665
-0.0530671977606339 -0.105883552475805 0.151041666666664
-0.0392069037120152 -0.104841064668658 0.151041666666664
-0.0345101794746738 -0.109039003193557 0.151041666666664
-0.0190174602614761 -0.112143946984472 0.151041666666664
-0.0116189455738089 -0.114244577531837 0.151041666666665
-0.00820586040992476 -0.105966217098815 0.151041666666664
0.0082210351647302 -0.110026068859062 0.151041666666664
0.019030171773302 -0.112998457488903 0.151041666666665
0.0365982316562963 -0.110051754798392 0.151041666666665
0.038893223679155 -0.10689001902728 0.151041666666664
0.0537773109297343 -0.109901344450125 0.151041666666664
0.0677542747548389 -0.112386449191292 0.151041666666665
0.0707641524265825 -0.108904597413656 0.151041666666664
0.0926110185853468 -0.110087433148304 0.151041666666664
0.103042204867011 -0.109444945845243 0.151041666666665
0.100866216781896 -0.118880748028315 0.151041666666664
0.118283534967432 -0.119305392900302 0.151041666666664
0.131015626630207 -0.112725693639898 0.151041666666664
0.142340554689453 -0.117246051304112 0.151041666666664
0.154944163668729 -0.119684524729565 0.151041666666664
0.17125063281547 -0.119809998770054 0.151041666666664
0.184774124854531 -0.114656628910334 0.151041666666664
0.186257476167244 -0.121417044778494 0.151041666666664
0.199742384827006 -0.116474160049609 0.151041666666664
0.209194968399338 -0.113769779990908 0.151041666666664
0.220156991048972 -0.115887803290665 0.151041666666664
0.22962892323108 -0.118409432906178 0.151041666666664
0.256134551462454 -0.121777388545803 0.151041666666665
0.256146007016501 -0.115309071021051 0.151041666666664
0.271226209037389 -0.114805231565031 0.151041666666664
0.287896385119767 -0.123937980437323 0.151041666666664
0.301370195689646 -0.124563163094268 0.151041666666664
0.322241103642062 -0.118637754041811 0.151041666666664
0.336639713329612 -0.120704025619993 0.151041666666664
0.340689352719336 -0.117302348855452 0.151041666666665
0.353774302890606 -0.12598974408368 0.151041666666664
0.366347574662613 -0.12673850398036 0.151041666666664
0.381583506753602 -0.119210965296038 0.151041666666664
0.384583198966357 -0.124060809182505 0.151041666666664
0.402115327698336 -0.127057027712357 0.151041666666664
0.414677964134009 -0.130443051098382 0.151041666666664
0.434797033490223 -0.120364420318058 0.151041666666664
0.448219856550408 -0.129708326411823 0.151041666666664
0.453478389052046 -0.125563266139173 0.151041666666664
0.458333333333321 -0.122250957355331 0.162163966870086
0.458333333333322 -0.120996235023127 0.179458606636873
0.458333333333321 -0.128544691583574 0.190222882619768
0.458333333333321 -0.124852103446598 0.191279490229755
0.458333333333321 -0.127091689944807 0.202009521029359
0.464100680866967 -0.123597793528198 0.218749999999997
0.482935917302183 -0.124739832883993 0.218749999999996
0.492987436330643 -0.122962946451767 0.218749999999997
-0.164649739115897 -0.095578792890394 0.151041666666664
-0.148863617706127 -0.0968891406791604 0.151041666666664
-0.144683748805126 -0.0933535559823573 0.151041666666664
-0.127143504072685 -0.0942564306171792 0.151041666666664
-0.119964039100713 -0.0982371945396391 0.151041666666664
-0.110702924129042 -0.0971835757757653 0.151041666666664
-0.0984087587795592 -0.0953748421758287 0.151041666666664
-0.0952832657393713 -0.0940454799999615 0.151041666666664
-0.0885853124597017 -0.0981631024339566 0.151041666666664
-0.0752742977720983 -0.100285896383613 0.151041666666664
-0.0694665868175029 -0.0939781820073193 0.151041666666664
-0.059285711374018 -0.102604854591729 0.151041666666664
-0.0372310133276734 -0.0941456649010063 0.151041666666664
-0.0263793832819199 -0.101266679934457 0.151041666666664
-0.0165974352278754 -0.0998321880012766 0.151041666666664
-0.00813109494010418 -0.101125118585683 0.151041666666664
0.00738650725202125 -0.0974316767445247 0.151041666666665
0.010354117112058 -0.10371321693978 0.151041666666664
0.0156369999418803 -0.102725296286461 0.151041666666664
0.0267735827349628 -0.0960122227510771 0.151041666666664
0.0331644213061192 -0.104012637351162 0.151041666666664
0.0482224571231452 -0.106672592594524 0.151041666666664
0.0599432580387657 -0.098742720357242 0.151041666666664
0.0700470307040435 -0.106290409076583 0.151041666666665
0.0849092515466662 -0.102693354913568 0.151041666666664
0.089537055983734 -0.103657184354442 0.151041666666664
0.107857472995441 -0.10814285583935 0.151041666666664
0.117295094317919 -0.103366861058362 0.151041666666664
0.128096631261463 -0.105364695300828 0.151041666666665
0.150628868089505 -0.104232263858136 0.151041666666664
0.149001812846169 -0.103357483730874 0.151041666666664
0.164997932443917 -0.100909151168244 0.151041666666664
0.180098245842838 -0.110031177130708 0.151041666666664
0.194142806317835 -0.110898328099403 0.151041666666664
0.199473476909433 -0.111646384949289 0.151041666666664
0.205390033359644 -0.111946733748753 0.151041666666665
0.227315150749995 -0.107978271097614 0.151041666666665
0.239171750443788 -0.108122212538013 0.151041666666664
0.250481941286966 -0.111972519070945 0.151041666666665
0.261899860644104 -0.104642537608829 0.151041666666664
0.281789433260094 -0.111900948473944 0.151041666666664
0.287477955722651 -0.112995800145121 0.151041666666664
0.29212852950488 -0.106660806998382 0.151041666666665
0.320527339426664 -0.115993173739741 0.151041666666665
0.324987084657969 -0.106852440356849 0.151041666666664
0.339826506843976 -0.108418632271805 0.151041666666664
0.348318976581772 -0.108127214532689 0.151041666666664
0.372049790301028 -0.111933534305153 0.151041666666664
0.378526593600677 -0.107841593645671 0.151041666666664
0.383575337066146 -0.109301101913842 0.151041666666664
0.409246903065483 -0.112608696299576 0.151041666666664
0.418486249932076 -0.117952679015845 0.151041666666664
0.431819495798551 -0.111748896928307 0.151041666666664
0.441984002591426 -0.118014042130841 0.151041666666664
0.458333333333321 -0.120311911031259 0.151670274460688
0.458333333333322 -0.112889854048821 0.166473436791907
0.458333333333322 -0.116663948307714 0.169124021150149
0.458333333333322 -0.115552869644111 0.183161029208761
0.458333333333322 -0.119827167345519 0.20719064084386
0.458333333333322 -0.119158069609981 0.208956826369106
0.460450174026083 -0.110531629856755 0.218749999999997
0.475756636875214 -0.12111196284685 0.218749999999997
0.486366731045427 -0.115938593552129 0.218749999999997
-0.154443381312221 -0.0817857124680636 0.151041666666665
-0.150302389716971 -0.0815591893936907 0.151041666666665
-0.143574864968182 -0.082741072261425 0.151041666666664
-0.130766548477841 -0.0894675305417573 0.151041666666664
-0.126578047277466 -0.082866843134074 0.151041666666664
-0.117378192745523 -0.0818856043066954 0.151041666666665
-0.105980182195325 -0.0888364070140141 0.151041666666664
-0.0910550285303609 -0.0906833555615359 0.151041666666664
-0.0804635356639546 -0.0868265760987275 0.151041666666664
-0.0717925371700755 -0.0912639860304333 0.151041666666664
-0.0596579067510544 -0.085668524929857 0.151041666666664
-0.0573760169414034 -0.0862842441839732 0.151041666666664
-0.0459446083286055 -0.0851757827153808 0.151041666666664
-0.0331896949685561 -0.0864709968083475 0.151041666666664
-0.0200303619329319 -0.0922061352051758 0.151041666666664
-0.016508563437473 -0.087067508830818 0.151041666666664
-0.00491729098060698 -0.0932637555657816 0.151041666666664
0.0065975106239111 -0.0951441921447474 0.151041666666664
0.0227623685543675 -0.0866264022911226 0.151041666666665
0.0338776731567591 -0.0885072989342941 0.151041666666664
0.0406969712252233 -0.0914186750561431 0.151041666666664
0.0553454140887977 -0.0876667950758992 0.151041666666664
0.0612521088709989 -0.0928047741624733 0.151041666666664
0.0759840806945066 -0.0903636586877126 0.151041666666665
0.0909380913807744 -0.0923798201700679 0.151041666666664
0.0919204466467128 -0.0946410718940464 0.151041666666665
0.0993465294879956 -0.0971942941069401 0.151041666666664
0.114560333167137 -0.0976203189182929 0.151041666666664
0.132290136555164 -0.0903840909747052 0.151041666666664
0.148400791504623 -0.0892062121299183 0.151041666666664
0.147297515383878 -0.096431096316488 0.151041666666664
0.166741247501982 -0.0911853479280035 0.151041666666664
0.173144519905922 -0.100161117518373 0.151041666666664
0.186707838571645 -0.0958059661355799 0.151041666666664
0.20069398454628 -0.0918486452706573 0.151041666666664
0.214790843384235 -0.101055961747488 0.151041666666664
0.227500296467259 -0.0990242139677667 0.151041666666664
0.235549426704056 -0.0955252418342151 0.151041666666664
0.248396325421719 -0.100397732110146 0.151041666666664
0.258137499989491 -0.0987799747710117 0.151041666666664
0.272714498420818 -0.102747932102063 0.151041666666664
0.278780270125212 -0.0999025228367263 0.151041666666664
0.303609064665647 -0.102214530469223 0.151041666666665
0.311475437544914 -0.0999586126925804 0.151041666666664
0.33188679675751 -0.0979579059542109 0.151041666666664
0.337618418143795 -0.100281274771977 0.151041666666664
0.343348982156657 -0.097213497936747 0.151041666666664
0.364463184632857 -0.102781530378578 0.151041666666665
0.380360699494966 -0.101096960840778 0.151041666666664
0.391892305972406 -0.0999133063700365 0.151041666666664
0.397214058766541 -0.0972066387520455 0.151041666666664
0.427329600257594 -0.107241731029131 0.151041666666664
0.434108339280129 -0.100478392103284 0.151041666666664
0.447479970374099 -0.0999273772058295 0.151041666666664
0.458333333333322 -0.107451324873543 0.159212926902282
0.458333333333323 -0.0983416625637678 0.16140414176428
0.458333333333322 -0.108589329491699 0.180522641567577
0.458333333333322 -0.108695691684556 0.185652484213493
0.458333333333322 -0.102330916757813 0.197062066911491
0.458333333333322 -0.105610089267446 0.21589637682034
0.471974870616242 -0.108908548391553 0.218749999999997
0.479966046821539 -0.106742910885479 0.218749999999997
0.489218903787267 -0.110564926769615 0.218749999999997
-0.160684432857069 -0.0777720601525164 0.151041666666665
-0.147006913772805 -0.080723208924835 0.151041666666664
-0.146257671086589 -0.0781040743046707 0.151041666666665
-0.132507427098886 -0.0787661350309606 0.151041666666664
-0.126589457324757 -0.0731671025991808 0.151041666666665
-0.113545981111151 -0.0762120536447318 0.151041666666665
-0.108188606041717 -0.0729486254460564 0.151041666666664
-0.0975260364637449 -0.0731174476152013 0.151041666666664
-0.0783566494024976 -0.074830367707985 0.151041666666665
-0.0791496451164392 -0.0772665129317751 0.151041666666664
-0.0686039891103778 -0.0736414021898543 0.151041666666664
-0.0482563863744985 -0.0748866609446028 0.151041666666664
-0.0387426246166636 -0.0834338153282159 0.151041666666664
-0.0338616717523367 -0.0825921689649207 0.151041666666664
-0.0173087767956477 -0.0816520107230252 0.151041666666664
-0.00750316355015139 -0.0803414302417875 0.151041666666664
0.00513520407739423 -0.0755122620301288 0.151041666666665
0.00853799123314745 -0.0783663503387409 0.151041666666664
0.0178650033442449 -0.0781988318935164 0.151041666666665
0.0369363365937518 -0.0805417634020663 0.151041666666664
0.0326146147623934 -0.0761318711112489 0.151041666666664
0.0473442172517161 -0.0843437507961927 0.151041666666664
0.067783553121838 -0.0854852705024172 0.151041666666664
0.0806517574690795 -0.0811436602576541 0.151041666666664
0.0912591016564761 -0.0834249279640293 0.151041666666664
0.0973719933670649 -0.0848040464479679 0.151041666666664
0.107125321220238 -0.0783352365758322 0.151041666666664
0.110956357122083 -0.0848216892960357 0.151041666666664
0.121295927661364 -0.0796261726379358 0.151041666666664
0.137379006987774 -0.0862667621110278 0.151041666666664
0.156317728406107 -0.0865098995988237 0.151041666666665
0.171261845917553 -0.0850479974794951 0.151041666666664
0.181535859639871 -0.0845858579297913 0.151041666666664
0.181215649486444 -0.0803898862178772 0.151041666666664
0.198131437839299 -0.0857543137680731 0.151041666666664
0.205353306884357 -0.0838951768925055 0.151041666666664
0.221572021701952 -0.0876573846615465 0.151041666666664
0.232863005800307 -0.0867212002711937 0.151041666666665
0.248931662039594 -0.089737659272862 0.151041666666664
0.259792884653388 -0.0871302360867202 0.151041666666664
0.271525570711323 -0.0922546959028709 0.151041666666665
0.28374988584366 -0.0877548681462372 0.151041666666664
0.302654677480203 -0.0831264188408543 0.151041666666664
0.32171584067458 -0.0860953037304369 0.151041666666664
0.318045703112481 -0.0925413220921151 0.151041666666664
0.327103212942875 -0.0838061787561263 0.151041666666664
0.353899707511188 -0.0907999491905191 0.151041666666664
0.357546012236482 -0.0858992439289883 0.151041666666664
0.376149376930646 -0.0948049403476518 0.151041666666664
0.38989113217332 -0.0956280036255709 0.151041666666664
0.410887063705852 -0.0898423899215113 0.151041666666664
0.420833925384859 -0.0934370040947422 0.151041666666664
0.441099942486581 -0.0889108792193959 0.151041666666664
0.447136261174068 -0.0885484642167844 0.151041666666665
0.458333333333322 -0.0942978984114954 0.151396890722275
0.458333333333324 -0.0868407321683106 0.166602361771117
0.458333333333323 -0.090599725991263 0.178583871857786
0.458333333333323 -0.0876870768974968 0.186696028998663
0.458333333333323 -0.0889939062702565 0.195964710057141
0.458333333333323 -0.0953667051604698 0.214771671075292
0.459383707232395 -0.0924405041308006 0.218749999999997
0.467271055148895 -0.0908208779096153 0.218749999999997
0.492686773135117 -0.097301317606784 0.218749999999997
-0.168031963514777 -0.0690421336767184 0.151041666666664
-0.152590733979369 -0.0687466219838033 0.151041666666664
-0.146031516414757 -0.0664845696650561 0.151041666666664
-0.132517018707524 -0.0657104454820226 0.151041666666664
-0.126964096057258 -0.0635049218908132 0.151041666666664
-0.106808561620106 -0.0637178302599434 0.151041666666665
-0.100665281805457 -0.0652327488501479 0.151041666666664
-0.0962241824462296 -0.0658613551407064 0.151041666666664
-0.0884321811344367 -0.0645280469254591 0.151041666666664
-0.0770808160708352 -0.0634746359210145 0.151041666666664
-0.0652393071415298 -0.0649891186169148 0.151041666666664
-0.0518481947238006 -0.0715325792249189 0.151041666666665
-0.0355563132675079 -0.0654600093680788 0.151041666666664
-0.0352626888721639 -0.0717762520700279 0.151041666666664
-0.0228624523311601 -0.0651534233085238 0.151041666666664
-0.00816216403548504 -0.0694839103420361 0.151041666666664
0.00195809856109334 -0.0709452864925241 0.151041666666664
0.00297696468962532 -0.0740404984192713 0.151041666666664
0.0222363297405948 -0.0684061549560846 0.151041666666664
0.0305979537439546 -0.0687398508756065 0.151041666666664
0.0449833575148911 -0.0702922293555115 0.151041666666664
0.0483252457170648 -0.0746889091099729 0.151041666666664
0.0660140481212854 -0.0681872714956465 0.151041666666664
0.0823232518099895 -0.0685135817392754 0.151041666666664
0.0890421991139317 -0.0721546874966011 0.151041666666665
0.0927162850391442 -0.0766587923823371 0.151041666666664
0.110115532966996 -0.0747551373144851 0.151041666666664
0.120345510814534 -0.0692414384537044 0.151041666666664
0.13748631835653 -0.0686500615140422 0.151041666666664
0.145961203454793 -0.0695712589719655 0.151041666666664
0.157296500856148 -0.0753160659622295 0.151041666666664
0.165958914219678 -0.0737392068849801 0.151041666666664
0.175799756530655 -0.0756238243395215 0.151041666666664
0.191226840268338 -0.0759342328968618 0.151041666666664
0.19895733077442 -0.0790765653192222 0.151041666666664
0.220948770211526 -0.0707000439664343 0.151041666666665
0.224257283650386 -0.0778593901502732 0.151041666666664
0.245076943139758 -0.0747756048914703 0.151041666666664
0.253426067810136 -0.0780675164671325 0.151041666666664
0.255082458835536 -0.0808662854570043 0.151041666666664
0.270688666499794 -0.0760749265395365 0.151041666666664
0.28262593401038 -0.081574339270577 0.151041666666664
0.306828271961926 -0.0745184159673859 0.151041666666664
0.311309183398591 -0.0747372792520999 0.151041666666664
0.330993120131229 -0.0758048013141242 0.151041666666664
0.330926808830025 -0.0802193286536478 0.151041666666664
0.346411355364183 -0.0736334160073027 0.151041666666664
0.362996293179084 -0.08132530898491 0.151041666666665
0.380230295758569 -0.0767844731576098 0.151041666666664
0.387921860666539 -0.0846367151932589 0.151041666666665
0.409406072555018 -0.07646550439565 0.151041666666664
0.416940547371312 -0.0838226014623391 0.151041666666664
0.431765273691641 -0.0851525446274971 0.151041666666664
0.452299215845443 -0.0808759534749104 0.151041666666664
0.458333333333323 -0.0844610995984886 0.155006444202332
0.458333333333323 -0.0813941117327225 0.157461544630662
0.458333333333324 -0.078297012150973 0.176960725332961
0.458333333333324 -0.0773026125759673 0.192269673661771
0.458333333333324 -0.0751620852041307 0.202098831190896
0.458333333333324 -0.0785495914564632 0.212138790539461
0.458931057939466 -0.0791436841201509 0.218749999999997
0.481360455334603 -0.0768316718699634 0.218749999999997
0.493870134311706 -0.0788588161683013 0.218749999999997
-0.169531213156207 -0.0521713322739664 0.151041666666664
-0.146411778296436 -0.0584745327803892 0.151041666666664
-0.143426022383686 -0.0577682095780492 0.151041666666664
-0.13358399757061 -0.0562982537602709 0.151041666666664
-0.128880149948864 -0.0549392780246164 0.151041666666664
-0.119306225673602 -0.0583091204099639 0.151041666666664
-0.0961900232222269 -0.0564387382326371 0.151041666666664
-0.0948136138771127 -0.0553286891925121 0.151041666666664
-0.0749262676245559 -0.0551218704948602 0.151041666666664
-0.069955494917628 -0.062892594851157 0.151041666666664
-0.0644043552349537 -0.0623133779961813 0.151041666666664
-0.044777270520937 -0.0544046304910059 0.151041666666664
-0.0448251367743268 -0.059270163297921 0.151041666666664
-0.0384028930039587 -0.059784254126612 0.151041666666664
-0.0233201836576624 -0.0600358317392415 0.151041666666664
-0.0112271823854324 -0.0598587280331642 0.151041666666664
-0.000809819413405148 -0.0640551661847362 0.151041666666664
0.0106619549138618 -0.0572333503858069 0.151041666666664
0.0155504919513918 -0.0637993508506991 0.151041666666664
0.0366247308194704 -0.0581680744702552 0.151041666666664
0.0376089215367758 -0.060460908389873 0.151041666666664
0.0518200716527566 -0.0636452658020266 0.151041666666664
0.0593372531232864 -0.0576797272950307 0.151041666666664
0.0829685179054852 -0.062379217387359 0.151041666666664
0.0778150317167433 -0.064443584819065 0.151041666666664
0.0981555666595123 -0.0658826041577382 0.151041666666665
0.101435590432854 -0.0607567696740421 0.151041666666664
0.118746027424924 -0.0634517189890997 0.151041666666664
0.131066027651702 -0.0641106800923672 0.151041666666664
0.149727115808343 -0.0645638307143124 0.151041666666664
0.154221754626369 -0.0584017243413303 0.151041666666664
0.165351740287716 -0.0589134145339867 0.151041666666664
0.169090862326563 -0.0639453950133104 0.151041666666664
0.197883309387382 -0.059287870860051 0.151041666666664
0.193454477220228 -0.0642921614314611 0.151041666666664
0.216016049153373 -0.0595439954941978 0.151041666666664
0.220264909900457 -0.062849406255593 0.151041666666664
0.227901450652822 -0.0669117900356372 0.151041666666664
0.248815563655447 -0.0661748454615504 0.151041666666664
0.259266916794662 -0.0683038159248259 0.151041666666664
0.278814650331234 -0.0656750594716174 0.151041666666664
0.284684981598001 -0.0612294935505872 0.151041666666664
0.29952327616256 -0.070132110970632 0.151041666666664
0.306778008284895 -0.07077914952951 0.151041666666664
0.320573143541729 -0.0715492526834335 0.151041666666665
0.336530879262515 -0.0617056987930541 0.151041666666664
0.352615880755664 -0.061594777893475 0.151041666666664
0.371697324732715 -0.0638015802259466 0.151041666666665
0.387303545463742 -0.0650306062574892 0.151041666666664
0.387710055554124 -0.0662633926449342 0.151041666666664
0.411932784438381 -0.0694858143960431 0.151041666666664
0.414258257032871 -0.0717964767842284 0.151041666666664
0.431488115604651 -0.0671408348562874 0.151041666666664
0.446085579566538 -0.0652839560709482 0.151041666666664
0.456008580993616 -0.0726573734621969 0.151041666666664
0.458333333333324 -0.0741532654474222 0.167088359191224
0.458333333333324 -0.0705411534091815 0.169954250319749
0.458333333333324 -0.0668936545684114 0.180509892181911
0.458333333333324 -0.0675072544841522 0.193244363375864
0.458333333333324 -0.0701200304343359 0.216650064851386
0.458333333333324 -0.0641964742272612 0.216841541477118
0.474171665473038 -0.0647111179023119 0.218749999999997
0.489407235229209 -0.0723844396760958 0.218749999999997
0.497975541291294 -0.0702929281879083 0.218749999999997
-0.156150068221733 -0.049177233785968 0.151041666666664
-0.145719304136173 -0.0437901151267658 0.151041666666665
-0.142507626803393 -0.0475542522950329 0.151041666666664
-0.125963034072349 -0.0457839704199847 0.151041666666664
-0.115060409347539 -0.0476514280661978 0.151041666666664
-0.110201683961956 -0.0496829880814353 0.151041666666665
-0.101504986597457 -0.0453158253801769 0.151041666666664
-0.0947550770227798 -0.045419906336169 0.151041666666665
-0.0855095133793181 -0.0524293684543238 0.151041666666664
-0.0747851894615652 -0.0489525537717927 0.151041666666664
-0.0626556861802719 -0.0485919324136057 0.151041666666665
-0.0507347365413807 -0.0466812205843926 0.151041666666664
-0.046647796695463 -0.0474928145899529 0.151041666666664
-0.0333991676881394 -0.0518178517061985 0.151041666666664
-0.027649367274313 -0.0475236188338552 0.151041666666664
-0.0170005357642579 -0.0514564566319545 0.151041666666664
0.00494064790309951 -0.0532609005850871 0.151041666666664
0.0163205977486788 -0.0529724257678198 0.151041666666664
0.0234607437843187 -0.0455532357228982 0.151041666666664
0.0304592498265564 -0.0553980103218308 0.151041666666664
0.0476540929548179 -0.0486879554947338 0.151041666666664
0.0483812750619328 -0.0468337595736262 0.151041666666664
0.0647702794299683 -0.0510278073271061 0.151041666666665
0.0762267055755473 -0.0503063807227012 0.151041666666664
0.0859940347596113 -0.0551402639118481 0.151041666666664
0.0999927415365981 -0.0472077615849611 0.151041666666664
0.107422479486081 -0.0466034842687182 0.151041666666664
0.120669139470914 -0.0555953513552432 0.151041666666664
0.128707549730132 -0.053630784910426 0.151041666666664
0.141968863988022 -0.0537701962194315 0.151041666666664
0.151638569098465 -0.0508068458465939 0.151041666666664
0.163533831791314 -0.0573605006927532 0.151041666666664
0.182005972603345 -0.0490950711748036 0.151041666666664
0.17955695649352 -0.0562190417920148 0.151041666666664
0.19932566131978 -0.0523542253685184 0.151041666666664
0.210706178047767 -0.0526972924757594 0.151041666666664
0.229843651633139 -0.0483652999421982 0.151041666666664
0.240535194435406 -0.0578970838209308 0.151041666666664
0.248811142931901 -0.0498770815936753 0.151041666666664
0.262457132005542 -0.0490176728486098 0.151041666666664
0.283427715956137 -0.0492177748535811 0.151041666666664
0.287187449506303 -0.052215422372195 0.151041666666664
0.301672975140428 -0.0599283034975348 0.151041666666665
0.306789401254366 -0.0579263577408693 0.151041666666664
0.33283597939949 -0.0573639406773415 0.151041666666664
0.336102697881555 -0.0601545907155241 0.151041666666664
0.353230267395383 -0.0551795718424725 0.151041666666664
0.355607411287316 -0.057544534344761 0.151041666666664
0.378470783122483 -0.0610226297404985 0.151041666666664
0.389940499391878 -0.0609134984773432 0.151041666666664
0.405671418371022 -0.0515815655729648 0.151041666666664
0.416402442841078 -0.062027051914674 0.151041666666664
0.422804539263368 -0.060885688243756 0.151041666666664
0.453217321572034 -0.0528352968500219 0.151041666666664
0.452282977857019 -0.056559109099377 0.151041666666664
0.458333333333325 -0.0522742626023407 0.165652652019293
0.458333333333324 -0.0523864191037101 0.176863816660131
0.458333333333324 -0.0550945200225542 0.187371080569282
0.458333333333324 -0.0590644071159763 0.200846645090184
0.458333333333324 -0.0629716833327569 0.205802475249347
0.458333333333324 -0.0581308591363681 0.218613427778436
0.477023380944524 -0.0574746460382078 0.218749999999997
0.493447695339222 -0.0558743490750881 0.218749999999997
-0.152036192032547 -0.0419022667828276 0.151041666666664
-0.151674981464483 -0.0340255640802081 0.151041666666664
-0.144443735226371 -0.0346264158626168 0.151041666666664
-0.132777524102787 -0.0416121680526766 0.151041666666664
-0.129905317586195 -0.0340468540817543 0.151041666666664
-0.108638616460907 -0.0420802966328298 0.151041666666664
-0.108577598693029 -0.0347941331171472 0.151041666666664
-0.0867602276746166 -0.0434331374632139 0.151041666666664
-0.0807377450877438 -0.0396896519990867 0.151041666666664
-0.071578941134642 -0.0405584152702422 0.151041666666664
-0.0630364671790923 -0.0396284342545321 0.151041666666664
-0.0521163542735494 -0.0422928107374243 0.151041666666664
-0.0469126857217117 -0.036318002524279 0.151041666666664
-0.0294670270622849 -0.0446257015869309 0.151041666666664
-0.016338011900699 -0.0442737638534574 0.151041666666664
-0.0148664473350352 -0.0430414220261476 0.151041666666664
-0.00288791028889399 -0.0376504543659266 0.151041666666664
0.00410242190342469 -0.035406790552892 0.151041666666664
0.0177410746319641 -0.0358638829642657 0.151041666666664
0.0283290456930165 -0.0415480844060294 0.151041666666664
0.0419462150614304 -0.0421134821237151 0.151041666666664
0.0604045851880182 -0.0426636116734725 0.151041666666665
0.0622814122414683 -0.0453400110172231 0.151041666666664
0.0693718144051798 -0.0445140894017052 0.151041666666664
0.087080131952114 -0.0389764068599909 0.151041666666664
0.0943077991689585 -0.0465087889737088 0.151041666666664
0.0981928924612736 -0.0465843235439639 0.151041666666664
0.120372970317543 -0.0407285829001786 0.151041666666664
0.125330405664544 -0.0414226419016434 0.151041666666664
0.144671161411869 -0.0459743985993309 0.151041666666664
0.15396898500668 -0.0437833519879194 0.151041666666664
0.15869122218842 -0.0468119350614612 0.151041666666664
0.176244092058571 -0.0454990458653661 0.151041666666664
0.18839487177646 -0.047805378573088 0.151041666666664
0.20376218808023 -0.0401924749677744 0.151041666666665
0.223806505297385 -0.0394184673833835 0.151041666666664
0.223430576699022 -0.0453596464084288 0.151041666666664
0.234398799565125 -0.0435880921907964 0.151041666666664
0.248615043113039 -0.0453684093499138 0.151041666666664
0.257893217431474 -0.0469166860152976 0.151041666666665
0.277738194886662 -0.0482040819814219 0.151041666666664
0.276236378976078 -0.0410092553056987 0.151041666666665
0.306633096561241 -0.0430951361672304 0.151041666666664
0.318825440327509 -0.0489867750340276 0.151041666666665
0.330261421994884 -0.0479699408295016 0.151041666666664
0.333196910109956 -0.0498870706375174 0.151041666666664
0.348650301242154 -0.0493535158106787 0.151041666666664
0.371433259863357 -0.0495246124233361 0.151041666666664
0.377168515200189 -0.0407407695264095 0.151041666666665
0.384484430484347 -0.0429768195653911 0.151041666666665
0.402770033927853 -0.049907549314441 0.151041666666665
0.426248930250056 -0.0480834990220543 0.151041666666664
0.425849881197074 -0.0501712313771759 0.151041666666664
0.45258126246708 -0.0498524614620209 0.151041666666664
0.458333333333324 -0.043101768079375 0.153196454196779
0.458333333333325 -0.0485305567536942 0.158916845894672
0.458333333333325 -0.0464260441109164 0.177850018612392
0.458333333333325 -0.043584556330682 0.187762563514274
0.458333333333325 -0.0404510589478821 0.204113005072457
0.458333333333325 -0.0485337660538287 0.211762348703046
0.467020187878382 -0.0511683009442374 0.218749999999997
0.474957694429832 -0.0453461371458859 0.218749999999997
0.493498544835021 -0.0475617419614896 0.218749999999996
-0.155938835804522 -0.0283126241813947 0.151041666666664
-0.152655924476359 -0.0283968021278831 0.151041666666664
-0.144726642590172 -0.0294515549555742 0.151041666666664
-0.130399990822364 -0.0291661718056437 0.151041666666664
-0.127833294519474 -0.0274066508990401 0.151041666666664
-0.11433766441783 -0.0254661619361616 0.151041666666664
-0.103771041028829 -0.0285743820706531 0.151041666666664
-0.0860477532066135 -0.0275338101898698 0.151041666666665
-0.0771100375508773 -0.0306603180305503 0.151041666666665
-0.0794155892030071 -0.0244412790546888 0.151041666666664
-0.0663177929186705 -0.0287705731939152 0.151041666666664
-0.0509715070689934 -0.0330856523806535 0.151041666666664
-0.0511352427247467 -0.0312798601939721 0.151041666666664
-0.0279290395824396 -0.0264103593739969 0.151041666666665
-0.0212677142678566 -0.0275511878391782 0.151041666666665
-0.0143249944253722 -0.028405383235559 0.151041666666664
-0.000891057128730367 -0.0288180767335061 0.151041666666664
0.00157057234759353 -0.0314832231683687 0.151041666666665
0.0206979772320931 -0.0343683655813353 0.151041666666664
0.0307691234157619 -0.0256474423985572 0.151041666666664
0.044298576988075 -0.0260344810067415 0.151041666666664
0.0563113859889041 -0.0286751034906564 0.151041666666664
0.0570522082146499 -0.033829902673954 0.151041666666664
0.0790391030519356 -0.0313610523446174 0.151041666666664
0.0838605725095837 -0.0339646012094746 0.151041666666664
0.0981939019217047 -0.0292100478272353 0.151041666666664
0.113211334268558 -0.0343543761041122 0.151041666666665
0.118870335860599 -0.0321827552223854 0.151041666666665
0.133382868901912 -0.0295704107695494 0.151041666666665
0.132024703593047 -0.031440661229339 0.151041666666664
0.162445776727679 -0.0295498081659405 0.151041666666664
0.161804610828994 -0.0279210148233055 0.151041666666665
0.179327808651978 -0.0306639968420883 0.151041666666665
0.191100545055128 -0.0289146736669825 0.151041666666664
0.194091125210232 -0.0266630169495445 0.151041666666664
0.211076935955415 -0.0276511652425181 0.151041666666664
0.222987222404909 -0.034424102541979 0.151041666666665
0.237271467429194 -0.0351575075921586 0.151041666666664
0.251011592802992 -0.0284268916960044 0.151041666666664
0.254022250383999 -0.0332073012835585 0.151041666666664
0.278975948907783 -0.0335405477613968 0.151041666666664
0.290210117545481 -0.0365348897282756 0.151041666666664
0.294355125625605 -0.0385243061067684 0.151041666666664
0.310697512436383 -0.0286241854069303 0.151041666666664
0.329604276008832 -0.0321170782758262 0.151041666666664
0.344078094442179 -0.0344943546924378 0.151041666666664
0.351519250058081 -0.0346010705241984 0.151041666666664
0.35787953322963 -0.0302307217361698 0.151041666666664
0.380937436848949 -0.0289129312292762 0.151041666666665
0.399122855428917 -0.030276021026362 0.151041666666664
0.398655210834872 -0.0309999929582456 0.151041666666664
0.416631686203156 -0.0295378127914083 0.151041666666664
0.432939266640652 -0.0346224872102112 0.151041666666664
0.440182185607545 -0.0383673877699474 0.151041666666664
0.458333333333324 -0.030729140349742 0.15709377808826
0.458333333333325 -0.0377966359119226 0.169393919959273
0.458333333333326 -0.030456228530007 0.177484163278042
0.458333333333326 -0.0402142963834366 0.188971155639417
0.458333333333326 -0.0299836807450382 0.205820399105307
0.458333333333326 -0.033841274581615 0.206747061087707
0.463220578353438 -0.0300257355708514 0.218749999999997
0.475100894691615 -0.02889245918593 0.218749999999997
0.483685933182252 -0.0328000857571594 0.218749999999997
-0.164282124801153 -0.0155433500554035 0.151041666666664
-0.154483826933887 -0.0152050800491714 0.151041666666664
-0.135125711113634 -0.0149172611257595 0.151041666666664
-0.125359414620785 -0.0184070027038585 0.151041666666664
-0.123879253555776 -0.0148201179241441 0.151041666666664
-0.109308017325321 -0.0231885096720194 0.151041666666664
-0.101975914936362 -0.0184524995156431 0.151041666666664
-0.0922606489746765 -0.0241433379018716 0.151041666666664
-0.0861061022467894 -0.02348978950754 0.151041666666664
-0.0723056688279734 -0.017334205141419 0.151041666666664
-0.0709174370302693 -0.0164179132949682 0.151041666666664
-0.0546577855764147 -0.0235258861647243 0.151041666666664
-0.0414359502307505 -0.0168986628021363 0.151041666666664
-0.0341048480376404 -0.0237355979711547 0.151041666666665
-0.0246994110564307 -0.0204979042751934 0.151041666666664
-0.0103347398303869 -0.0218509522041611 0.151041666666664
0.00506325329001689 -0.0198429648339648 0.151041666666665
0.0191476399184254 -0.0172124791076917 0.151041666666665
0.019115684791444 -0.0181809186171826 0.151041666666664
0.0339576616863152 -0.0233167957296798 0.151041666666664
0.0428368465679842 -0.0179212320921255 0.151041666666664
0.050859474073512 -0.0212040247069886 0.151041666666664
0.0553562962140668 -0.017898682632522 0.151041666666664
0.0759963364111115 -0.0194324365424611 0.151041666666664
0.0860292049623182 -0.0175543890996954 0.151041666666664
0.0985470237240307 -0.0205536473435606 0.151041666666664
0.1067292273231 -0.0206871622973839 0.151041666666664
0.123864344837504 -0.0256980534311442 0.151041666666664
0.134145080658439 -0.0239090724125178 0.151041666666664
0.13973734258936 -0.0179206273164784 0.151041666666664
0.14872428347854 -0.0258764532940137 0.151041666666664
0.158718463262335 -0.0218518574064485 0.151041666666665
0.183857650395429 -0.0222280131431438 0.151041666666664
0.188038936340417 -0.0227701047126464 0.151041666666664
0.196615753504821 -0.0165677261396328 0.151041666666664
0.211455790109602 -0.0161702778960573 0.151041666666664
0.227503282875849 -0.0192926641032293 0.151041666666664
0.235172713494116 -0.0240065549958097 0.151041666666664
0.241269113178316 -0.0189669031208237 0.151041666666664
0.254325269225024 -0.0180951584329829 0.151041666666664
0.280493303010805 -0.0265189837645605 0.151041666666664
0.288420587689662 -0.018975935939506 0.151041666666664
0.292812325604791 -0.0246634192810087 0.151041666666664
0.310316149148132 -0.0173739923422675 0.151041666666664
0.327817425071499 -0.0245717100725595 0.151041666666664
0.338631058335295 -0.0217076431657834 0.151041666666665
0.355848077854315 -0.0201015570621565 0.151041666666664
0.360447411851185 -0.0183813017353029 0.151041666666664
0.376760236381342 -0.0209524037335267 0.151041666666664
0.395126244633368 -0.018930485988301 0.151041666666664
0.403880678093142 -0.0271643485756819 0.151041666666664
0.418021704525771 -0.0214399243138699 0.151041666666664
