ply
format ascii 1.0
element vertex 844
property float x
property float y
property float z
end_header
0.189975271429834 -0.196227632666747 0.460904086362316
0.191686605328438 -0.196536517158182 0.469043271770442
0.194172648442809 -0.194180861311233 0.480867011051806
0.196312729565207 -0.191109126770887 0.491045338646343
0.196969329292889 -0.189824822718603 0.494168158177288
0.198650246531718 -0.195541438760693 0.502162680504985
0.200567611238423 -0.195497794980351 0.511281758234703
0.201780504703357 -0.191388564243406 0.517050337235831
0.206408749093719 -0.191773291021475 0.526150958953455
0.218265946808659 -0.193498942262747 0.531054867667017
0.231853185637039 -0.189788183577213 0.530658772554569
-0.248434241568675 -0.159439564771345 0.239843071106874
-0.244472071819213 -0.159457815915927 0.248219639267636
-0.240373296110342 -0.152492892967605 0.254689615338813
-0.23833031061539 -0.151817270635203 0.256235171832301
-0.232589977509154 -0.156113670947014 0.256993913670918
-0.217708752928091 -0.153863542149328 0.258960874035505
-0.207195810803244 -0.158320967988112 0.260350446537562
-0.204056251834132 -0.154603844972538 0.260696136099358
-0.189296844752183 -0.157522827314346 0.262289300444148
-0.1840847097236 -0.155272779439631 0.262851910286241
-0.182076795413279 -0.161047255630987 0.26306864917479
-0.168888675070271 -0.164922657788034 0.26436166358197
-0.163564261305403 -0.160789494029517 0.264808006302274
-0.152386493407912 -0.158680099253279 0.265745032527247
-0.141388413042201 -0.163424391782366 0.266661521032337
-0.135046741371599 -0.164573711866886 0.267040823235218
-0.119729332794181 -0.159548580852885 0.267956973915609
-0.112802453317011 -0.161687756244866 0.268371278026773
-0.101519205848999 -0.164489110395846 0.26886995500471
-0.0985095656017806 -0.162969112172247 0.268977880288143
-0.082545960334323 -0.166173908302851 0.269550332967394
-0.0668791757700995 -0.161870306832041 0.269891722605271
-0.0672020480996594 -0.170760291316466 0.269887864658899
-0.0582149976120715 -0.166849174557449 0.26999524939165
-0.0357078549796832 -0.16393651465284 0.270082716408875
-0.0268364330800224 -0.168192558439597 0.269976713302391
-0.0143947345977558 -0.165347179244951 0.269828049570244
-0.0135869347081687 -0.167335854251107 0.269818397307204
0.0079228825263382 -0.17271137625344 0.269120744659501
0.0136094033690909 -0.174043127281888 0.268916826807769
0.0266330689153493 -0.172259940326505 0.26834535976848
0.0341732399611768 -0.166880343834529 0.26789437402902
0.0392882172244446 -0.177419128037416 0.267588441737911
0.0638374569835547 -0.170596158479354 0.26590819119213
0.0691732018609031 -0.174926658016405 0.265460898590808
0.0803881864924471 -0.17929467091662 0.26452075250719
0.0899385643515716 -0.179213451472048 0.263666164987447
0.110105152179214 -0.175986506667739 0.261489337117285
0.124039296609321 -0.180267538396584 0.259894936316149
0.147535179928573 -0.177915886488496 0.256789313457749
0.152833899883519 -0.183208964492613 0.259396026154562
0.152833899883519 -0.179318550168951 0.265091488422025
0.152833899883519 -0.180234497285118 0.280898816735697
0.152833899883519 -0.180158772261588 0.28040855101292
0.155910207489473 -0.178666264394969 0.298889022220593
0.157775713406123 -0.183636225757273 0.307761457078542
0.159186739177649 -0.17558542301533 0.314472362752453
0.161666286568276 -0.174357063168881 0.326265208062774
0.163389197515239 -0.174778857061494 0.334459454463466
0.165521026031505 -0.184257932407066 0.344598532270771
0.165608963182052 -0.179725449732904 0.345016765540821
0.169671692107141 -0.184737994023382 0.364339297520831
0.170234811604771 -0.184778017243315 0.367017520631987
0.171876312592119 -0.177112757139257 0.374824577393111
0.17442289920246 -0.183467763072975 0.386936264420595
0.177274381646629 -0.179299405497749 0.400498050533775
0.177766840831075 -0.181548509109596 0.402840209835015
0.180808284846281 -0.179995484770112 0.417305462214104
0.181892864635002 -0.184724122613166 0.422463775268909
0.183969333983973 -0.177485008950544 0.432339562243826
0.185157608967208 -0.175395185188573 0.4379910545752
0.188821642454833 -0.185062713859707 0.45541737209377
0.18922644785464 -0.183667164123136 0.457342645826689
0.191430522812015 -0.176824971605127 0.467825331143745
0.193812330479313 -0.184768066245559 0.47915332168168
0.196472740619431 -0.182460735596986 0.491806358829919
0.19796799849869 -0.18615769168652 0.498917876414057
0.198492620193162 -0.183425169250957 0.501413002142537
0.201055497980169 -0.184192172358463 0.513602170781005
0.203177513322041 -0.176448053283724 0.523694576664204
0.208417778374812 -0.18595679301366 0.527409340598707
0.217908506327478 -0.179478973284111 0.530999314172077
-0.248158299244119 -0.145887310252792 0.240543324827638
-0.246800981610049 -0.146042018288143 0.243774755795476
-0.239728714953498 -0.148055276916436 0.255652573475666
-0.237006569084501 -0.143468002391201 0.25641014043855
-0.231725419457274 -0.150097916417704 0.257108188636104
-0.219700923208947 -0.146436981250498 0.258697554309322
-0.219006670706809 -0.149923413703549 0.258789318743578
-0.207719043791187 -0.147060549720548 0.260281287004143
-0.190265690883419 -0.14857533599333 0.262184720964545
-0.181159096803963 -0.146927197300469 0.263167707673245
-0.182344514261311 -0.152242928981799 0.263039750986621
-0.166523256327552 -0.152885487419195 0.264559955353216
-0.162193801451619 -0.149739565156765 0.264922891209086
-0.149704967801764 -0.150445874938191 0.265969823365538
-0.137646402881094 -0.148223884155426 0.266885334684483
-0.126854171358789 -0.155863523513975 0.267530829658527
-0.124799576156375 -0.150575897956619 0.267653717207234
-0.112545666278311 -0.153689515187933 0.268386636735724
-0.103464904097838 -0.15577613645947 0.268800182534337
-0.091304142165606 -0.157290959637922 0.269236265777014
-0.0862824414299007 -0.154209608076452 0.269416343271564
-0.0732848714267196 -0.1518489134205 0.269815182040921
-0.0670507471540978 -0.156475980102469 0.269889672528081
-0.0454251388587634 -0.159945009919385 0.270148073231467
-0.0470321502323115 -0.159070718424103 0.27012887132678
-0.032695475274088 -0.157745875235145 0.270046721997797
-0.0238999615038101 -0.162554690996058 0.269941625904599
-0.00265643724736839 -0.156004665860842 0.269500117604876
0.00618608115112246 -0.156329855924754 0.269183026116848
0.0156234623149215 -0.159915306477674 0.268844602932247
0.0217819941455239 -0.157414783575541 0.268623758831706
0.0413419431895615 -0.165426179284679 0.267465606179221
0.0472093612274527 -0.163027221534322 0.267114669596157
0.0582740935722242 -0.160755386047811 0.266374564931797
0.0752410818603122 -0.164913833584785 0.26495223149899
0.0855636321362047 -0.166318086419073 0.264086897703744
0.0975349874307979 -0.161874438054772 0.262846189609673
0.112266594784724 -0.164382528089032 0.261256026031461
0.126838143869662 -0.166657226689225 0.259524992189735
0.137828983130206 -0.170759129175377 0.258072252525651
0.152625355361271 -0.170254253360623 0.256116507717174
0.152833899883519 -0.169017790240515 0.265236574868903
0.152833899883519 -0.171966062084363 0.269204816272888
0.152880791595233 -0.173542309288588 0.284480976156851
0.156394249640086 -0.165225841446436 0.301191149708632
0.157518449270709 -0.165578605551661 0.30653789661574
0.159146627971319 -0.169724308984824 0.314281591947573
0.161837380677799 -0.172229741561312 0.327078939784432
0.163114497981392 -0.170879252225779 0.33315297041653
0.164325816362334 -0.16576261919453 0.338914058243282
0.167136857718042 -0.169521950345017 0.352283504616478
0.167184913594928 -0.166171205363442 0.352512060652354
0.170327919578121 -0.168649261859389 0.3674603465812
0.173119996169005 -0.170409982244829 0.380739595630979
0.174261455263256 -0.172516431998872 0.386168429367909
0.177207416220897 -0.166736176237861 0.400179559784305
0.178066080052144 -0.164931294028305 0.404263405801417
0.181245773434602 -0.16734974877543 0.419386178745921
0.182945723976802 -0.171357658368469 0.427471224369626
0.183648078290297 -0.175022632752575 0.430811654886662
0.185514079533768 -0.170157187384131 0.439686445542532
0.187947479390984 -0.165677882228168 0.451259810989295
0.189832003269631 -0.166376039879081 0.460222696178949
0.19312241680183 -0.173904918129204 0.475872059421165
0.192819792534595 -0.168230601139465 0.474432764014212
0.195999008707839 -0.169168577843838 0.489553267328996
0.19799173417208 -0.172636867957844 0.499030764405503
0.199625581519409 -0.173870736708421 0.506801420090714
0.202188964723653 -0.166525820058088 0.518992992517603
0.202051985712163 -0.175955101374384 0.518341513824606
0.21005225360632 -0.167674545979163 0.528270109873788
0.23141482673842 -0.167014981816869 0.530736890091253
-0.247979657396107 -0.136341955835715 0.240996660933133
-0.24497637323392 -0.137207154172821 0.247257145558332
-0.243644380499703 -0.138216681132344 0.249802849265031
-0.237108513304949 -0.13655192012631 0.256396665724831
-0.225158659548205 -0.135037755922402 0.257976165353648
-0.220757563373607 -0.137453818725859 0.258557890445492
-0.212219425545972 -0.134770782669147 0.259686438610521
-0.203614956958394 -0.13666353855357 0.260743770483155
-0.192786091595236 -0.143276026062978 0.261912663115178
-0.182996531876308 -0.140765163030305 0.262969370705719
-0.178333097856082 -0.138261847430362 0.263472752499041
-0.165991361787136 -0.143993662465475 0.264604543784275
-0.162384296203645 -0.144301495398762 0.264906922137264
-0.144854249232398 -0.143165381213504 0.266376456474326
-0.145771947960102 -0.144911012495151 0.266299526287336
-0.13481086971461 -0.144368768543221 0.267054930972695
-0.120413754686141 -0.140287170101544 0.267916037906178
-0.116298558573239 -0.147766554004267 0.26816217221145
-0.107585498981905 -0.144097434259993 0.268652418571124
-0.0993206446595751 -0.146009323698371 0.268948795105195
-0.0865634937003076 -0.146947881540233 0.269406264775979
-0.0709521268822038 -0.149478753885927 0.26984305560743
-0.0723054764476187 -0.144827114889201 0.269826884664405
-0.0493310591352213 -0.147740278323672 0.270101402056579
-0.0416469703692476 -0.146631295096687 0.27015368188523
-0.0301080998792481 -0.147277010124748 0.270015805890707
-0.0195374242888616 -0.147884393631703 0.269889498691829
-0.00872823896814202 -0.145697606979942 0.269717851575661
0.0045051973435385 -0.152463841938967 0.269243302377946
0.0127711691311316 -0.1461066622393 0.268946885771726
0.0188786923563376 -0.148521934656374 0.268727870832727
0.0299382368438622 -0.156515112428504 0.268147674120074
0.0508636221407896 -0.148408669149573 0.266896104320892
0.0690499122194746 -0.151429837697265 0.265471233894632
0.0799126730253312 -0.149410045649808 0.26456061454343
0.0901970046915007 -0.151348409333545 0.263638268342783
0.0908597921890089 -0.155107166078342 0.263566725535993
0.11681336621586 -0.152106351127668 0.26076523706631
0.13432211642482 -0.153638578928608 0.258535780763923
0.131773857001196 -0.159113121350385 0.258872602861974
0.149159246279169 -0.154379521849094 0.256574648722083
0.152833899883519 -0.155912303022318 0.267974252553485
0.152833899883519 -0.161050164184307 0.273979711861877
0.153211475468279 -0.160186899797791 0.286053724383473
0.154103925476307 -0.160282068688354 0.29029825906414
0.157348245328178 -0.161354317962713 0.305728398570627
0.159643136316689 -0.158869767386134 0.316643009250731
0.160804506784242 -0.158504181607812 0.322166542426019
0.161983375602916 -0.158960317619581 0.327773298591413
0.164779023821068 -0.154609133995959 0.341069534470331
0.16666155842458 -0.163160840635869 0.350022958572838
0.168813704826319 -0.153124109423309 0.360258669209707
0.17048886742966 -0.153343402671601 0.368225822217358
0.172105929750644 -0.160036907467435 0.375916647519022
0.173104550576601 -0.163843693405387 0.380666135658954
0.177643704484763 -0.154397628506901 0.402254567515929
0.178669045142384 -0.154674827552001 0.407131136445971
0.179867466927432 -0.159076931087069 0.412830887449329
0.181719472442551 -0.156311253899029 0.421639113755558
0.183560098510467 -0.163389226668716 0.430393218869713
0.185375731139446 -0.164873812146254 0.43902845399966
0.188409639404655 -0.158142454563585 0.453457865993385
0.189409315398821 -0.162822909787777 0.458212372563498
0.190097701543988 -0.157543112875126 0.461486369807671
0.194483229530062 -0.156811157862403 0.482344149473169
0.194523855738096 -0.156279076549027 0.48253736965065
0.197607951262905 -0.159074269143099 0.497205474637795
0.198599220269003 -0.164420216337604 0.501919997172846
0.199837437068952 -0.162669850386071 0.507809015159613
0.20171541625054 -0.163307784256364 0.516740773458801
0.209064622685171 -0.155011527937156 0.527749990427708
0.221117552581423 -0.160058356997641 0.531498064996949
-0.246891035910663 -0.129233099579061 0.243602881009269
-0.24764078018319 -0.129205259688327 0.241856623353211
-0.240784427620667 -0.12822258169785 0.254075414273548
-0.239466662021579 -0.129013110566101 0.256044061809442
-0.226761788860582 -0.132278205852806 0.257764268019556
-0.221114416601257 -0.129491449909799 0.25851072254268
-0.210191770208422 -0.126595658740702 0.259954448656353
-0.207691824849097 -0.129043990073189 0.260284884730927
-0.198367511761611 -0.129830025947247 0.261310191786012
-0.190434530446272 -0.134183504444886 0.262166496033825
-0.174920791258114 -0.133384512786901 0.263841084721006
-0.170280391545173 -0.130596158559645 0.264244996744131
-0.166030292642587 -0.131693257042777 0.264601280231762
-0.152612873817634 -0.135478098231435 0.265726055180189
-0.14346494580806 -0.129054447863862 0.266492921027445
-0.134747340523824 -0.129244932993505 0.267058730721919
-0.118427368301683 -0.136965015770654 0.268034845812126
-0.116319667910913 -0.131500796814576 0.268160909639262
-0.104673724151613 -0.138580800161328 0.268756834414227
-0.0972063936031096 -0.132367663522275 0.26902461185596
-0.0766009933288327 -0.134010877442029 0.269763518662813
-0.0712928679682782 -0.132297606911669 0.269838984150336
-0.0712900847895197 -0.133915357895445 0.269839017406063
-0.0578891299676835 -0.133157851220194 0.269999143128527
-0.0437447396045915 -0.136901136171088 0.270168152035416
-0.0357172051528105 -0.141931601881402 0.270082828132498
-0.0291510548856485 -0.135087637709818 0.270004370323386
-0.00772690501926351 -0.14228880413406 0.269681943878606
-0.00576469977907734 -0.14344885476195 0.269611579469804
0.0111518907896938 -0.135701538215059 0.269004952869318
0.022320509080512 -0.140835755975212 0.268603298610219
0.0419520231443679 -0.145174397102899 0.267429116641003
0.0460958833460932 -0.146730917078347 0.267181267905751
0.0556865803009246 -0.145535126271395 0.266591474767008
0.0713923737737432 -0.143644381972178 0.265274866612052
0.0960432868907649 -0.143539987437643 0.263007207196645
0.107374884874976 -0.146748688566876 0.261784048449299
0.108534756729942 -0.144805723612706 0.261658849213747
0.123239481540243 -0.15021873718972 0.260000653727462
0.149734026337293 -0.143712339521156 0.256498675835139
0.145373676047465 -0.143997102229845 0.257075015245184
0.152833899883519 -0.146933162811426 0.274029608189194
0.152833899883519 -0.145353939836235 0.273650034413311
0.153962678248443 -0.148827488910405 0.289626480531089
0.156584475082719 -0.151437106128722 0.3020958709604
0.156569407896765 -0.152178872586022 0.302024210707442
0.158336601229749 -0.14765949839052 0.310429066242004
0.160648505478885 -0.148664957786722 0.321424592798739
0.164098209618784 -0.148637532850501 0.337831549746604
0.166144413127363 -0.143505006505727 0.347563390945254
0.165933357752854 -0.14590160820157 0.346559601546874
0.170044748434171 -0.149186697899444 0.36611357115373
0.170415804022992 -0.147186133656253 0.367878329180551
0.173043805614851 -0.149721862428563 0.380377229732004
0.173928085177635 -0.147531205054707 0.384582905386522
0.177172796893046 -0.149275427568864 0.400014908614641
0.178848058543564 -0.147960728478128 0.407982532695372
0.179793578500164 -0.148990848608946 0.412479470575311
0.181851202567632 -0.152329853715096 0.422265628495162
0.183558476149306 -0.152530799410885 0.430385502842871
0.186448373633701 -0.149869011631705 0.444129992714286
0.188022098766097 -0.148356080379777 0.451614704286025
0.190297887766831 -0.147108788137229 0.462438465003826
0.190383352918927 -0.145430815142987 0.462844941331679
0.192680743948983 -0.147420662552941 0.473771442328268
0.19459022510106 -0.145701834557504 0.482853025497254
0.196639041038822 -0.153164704095131 0.492597291533335
0.199753710976587 -0.150810320778466 0.507410809882536
0.202031662663824 -0.144238510987075 0.518244856440195
0.202732145202973 -0.144160072052908 0.521576384709426
0.205629142535366 -0.146350372014003 0.525558302806445
0.223477681530355 -0.155436005847682 0.53157945114298
-0.248048385682611 -0.122445697702121 0.240822250434764
-0.244682205019574 -0.122027729756596 0.247818585696169
-0.24155248974644 -0.122184136661512 0.252927984402588
-0.23994906695526 -0.120961803054945 0.255323383348378
-0.229043693344936 -0.123305871986258 0.257462652003209
-0.219410118793262 -0.122870651538338 0.258735992057263
-0.217293537129107 -0.124096664714632 0.25901575614651
-0.20950305268693 -0.122273287160733 0.260045481491708
-0.203754370551902 -0.121105372490177 0.260728721859243
-0.186300602214621 -0.119483150472344 0.262612721754548
-0.17574048737541 -0.123627818467757 0.263752604836931
-0.169520322903647 -0.126150746519421 0.264308712886424
-0.165996415723335 -0.125548451974177 0.264604120115543
-0.158470644646172 -0.121250544593864 0.265235001426295
-0.144637498807772 -0.122573374977082 0.266394626544953
-0.137277391685392 -0.121498431021662 0.266907405640958
-0.11626533619394 -0.124809594063271 0.268164159277686
-0.118350668973057 -0.127029086722719 0.268039433281459
-0.0974976850182555 -0.129333724597207 0.26901416618606
-0.101577594425332 -0.129949731852517 0.26886786119843
-0.0829807047644794 -0.130591722418862 0.269534743092195
-0.0757403472171792 -0.129039445482136 0.269785841979697
-0.0632905940624889 -0.131428861258674 0.26993460195575
-0.056535619518558 -0.125328355550894 0.270015315993925
-0.0447050886830736 -0.123353805298693 0.270156676988148
-0.0346711835071073 -0.12922453588158 0.270070329398344
-0.0241578879392034 -0.130699841319987 0.269944707823563
-0.00110470707157237 -0.129361122985815 0.269444472775169
0.00823644013278338 -0.125551307599851 0.269109500527057
0.00874108288142589 -0.13044931491411 0.269091404107816
0.0239262909458972 -0.131056114429302 0.268507255069885
0.0438766375972644 -0.13018990035517 0.267314003380715
0.0551193549453887 -0.130579970501716 0.266639024961151
0.0649205017116509 -0.129533866641094 0.265817400139538
0.0742004883725914 -0.134196647383083 0.265039463887109
0.083222585344478 -0.13567978332015 0.264283146387546
0.0947560470188113 -0.139076438686709 0.263146154828877
0.113737498013305 -0.131834522201223 0.261097253354118
0.130636489070071 -0.134124444086118 0.259022937105522
0.144784166903877 -0.135407593732627 0.257152934983153
0.15283389988352 -0.135224175935554 0.256480771174342
0.15283389988352 -0.13291984566872 0.269258452295007
0.152833899883519 -0.141102948630696 0.282702738558315
0.154301682772101 -0.133054972030509 0.29123880216773
0.153914265675168 -0.138200619646811 0.28939622803022
0.157751971437754 -0.133013478687097 0.307648539147883
0.158779702756346 -0.135560327239679 0.312536478175198
0.161025278273229 -0.135280177863864 0.323216542126929
0.162659672437536 -0.137155324688743 0.330989798499693
0.164410836295809 -0.135716382996287 0.339318417090209
0.167330711744659 -0.13863928593024 0.353205483586235
0.169789026221168 -0.134924941049945 0.364897344147233
0.169922114925054 -0.141905547910822 0.365530320352251
0.173368751421022 -0.142025017635931 0.381922687439689
0.174004129750675 -0.141585978347314 0.38494457699238
0.175649471469412 -0.139401859013283 0.392769900454642
0.177732459297949 -0.134486766343102 0.402676689628379
0.181174841682668 -0.141815444732619 0.419048823960403
0.182658819839036 -0.139621776530861 0.426106694646031
0.182812489267211 -0.134582304192932 0.426837553754533
0.184421825201339 -0.13554073202882 0.434491631992864
0.188694486188529 -0.139718449834848 0.454812610844024
0.189074551330115 -0.140212777974252 0.456620218732266
0.191109989867907 -0.133164787945736 0.4663008612179
0.194507742243231 -0.14065209311598 0.48246073310276
0.195450547775573 -0.143535231378554 0.486944761051832
0.197231516528365 -0.143327404041752 0.49541513313812
0.197689845226923 -0.141208821931952 0.497594966225322
0.200780070266718 -0.139688561246939 0.512292223477243
0.20344526691651 -0.134929694806164 0.523898122686163
0.214649933307203 -0.137584310017052 0.530135470883008
0.220403581926255 -0.14449967320402 0.531387099487255
0.237699659585533 -0.142227181747156 0.528417807699665
-0.248818580431266 -0.107064514713417 0.238867741501322
-0.246597072874566 -0.114037953486782 0.2441639295504
-0.241413206332971 -0.114739781840752 0.253136063858376
-0.235507574240081 -0.112404326077009 0.25660827355788
-0.229246991793605 -0.108874536643705 0.257435780559361
-0.225216961843311 -0.106516425632427 0.257968459112605
-0.21227272933215 -0.109527394744749 0.259679393058986
-0.198595562070359 -0.115436346675181 0.261285575511205
-0.192697802966986 -0.115506225755578 0.261922193192761
-0.187656162837407 -0.113480282762831 0.262466399423344
-0.176698564280575 -0.111757685518409 0.263649187812358
-0.173755229068373 -0.110319070995791 0.263953702997774
-0.165636570204738 -0.109069715383668 0.264634285770346
-0.15913952612434 -0.118556987249853 0.265178929454485
-0.145133115788103 -0.1133226282461 0.266353079242095
-0.135399878662664 -0.109951539652197 0.267019701714052
-0.11732309046141 -0.112695792572266 0.268100893857368
-0.112229052322115 -0.112039008380023 0.268405573756952
-0.100401392314942 -0.116985807883431 0.268910039643596
-0.0875901830826795 -0.112397627135858 0.269369447836582
-0.0861698931740843 -0.114931977664927 0.269420379236467
-0.074108415013136 -0.113926427706862 0.269805341659134
-0.0592152373800465 -0.115469850533443 0.269983297697341
-0.051995739228052 -0.121985185216379 0.270069562248843
-0.036708892506964 -0.118183084559173 0.270094677635474
-0.0268613445850912 -0.122931541601023 0.269977010965715
-0.0191684265701707 -0.117185882040469 0.269885089601053
-0.0100139093480415 -0.124216098712757 0.269763955537847
0.00758672821059967 -0.119921991945469 0.269132799106818
0.0151399597725473 -0.122054759388309 0.268861941266613
0.0230986602244367 -0.126203142334509 0.268556756553425
0.039633506447455 -0.124891688921128 0.267567789618136
0.0565906669524756 -0.117544254357592 0.266515685672985
0.0575638465940162 -0.123867808101673 0.266434104551056
0.0661026340234714 -0.125813688914871 0.265718302628504
0.093158406047945 -0.127117081591518 0.263318607869601
0.100787385884232 -0.119183672787818 0.262495118240593
0.114442680947913 -0.127701497633535 0.261021134286343
0.120755908299117 -0.129946429329783 0.260328925779352
0.132995985915511 -0.130424620298047 0.258711065138933
0.151712048247057 -0.129376846251359 0.256237226202711
0.152833899883519 -0.129636457112607 0.266327812012098
0.152833899883519 -0.127780861565593 0.276837106442393
0.154216564086252 -0.12182989845713 0.290833973649821
0.155648321990628 -0.123490865107889 0.29764348233353
0.155942996539743 -0.123173616205253 0.299044968503035
0.159759224698204 -0.127014318744499 0.31719513111406
0.160077210162792 -0.127078919608799 0.318707485106164
0.164320039942948 -0.121244604064524 0.338886585317973
0.164134875234591 -0.121658555912229 0.338005933159101
0.16619058948885 -0.124456040739969 0.347783007916507
0.169930506733516 -0.124623863451675 0.365570232192388
0.170837632511466 -0.130856634296846 0.369884565532741
0.171552999327091 -0.127416756386538 0.373286884128743
0.174626097602187 -0.126141123129335 0.387902685673255
0.175804520061233 -0.132341851687646 0.393507318931033
0.176914766332792 -0.128757417825225 0.398787702998846
0.179540903226978 -0.127491289400359 0.411277734959489
0.181892242205163 -0.122583717958748 0.422460814962994
0.182895485931671 -0.130012621445123 0.427232289837801
0.185622439817838 -0.124389638332849 0.440201812206886
0.187737894716472 -0.12763125303823 0.45026301631004
0.190494346567175 -0.128804217838573 0.463372832401303
0.191460470630553 -0.132572262556027 0.467967764392949
0.193264564618369 -0.131584246539357 0.476548121196787
0.194319166196319 -0.125007803612766 0.481563856455486
0.197712113786561 -0.130484945008463 0.497700876553993
0.199734381130358 -0.131257644732409 0.507318876214602
0.20095363146321 -0.127832064638784 0.513117688781859
0.202821014448216 -0.124265187244482 0.521999051066179
0.209462482687733 -0.126081527199227 0.527959516800079
0.222517807440274 -0.12871534078452 0.531590090142274
0.234595301121863 -0.124995203379988 0.529702080308672
-0.247813975745114 -0.0970379246429353 0.241417108186946
-0.247606549591859 -0.10258580460401 0.241943489690163
-0.242807072314718 -0.0994632771762522 0.251053727794791
-0.2319139822322 -0.098735579895196 0.257083264914102
-0.228520080970728 -0.0976596953125745 0.257531861682887
-0.226108608510895 -0.0992253080000174 0.257850603646826
-0.21491342831822 -0.103001991240679 0.259330352547426
-0.205260969551869 -0.101891976603026 0.26056609609824
-0.19155123602777 -0.106225807656571 0.262045956265108
-0.188553895488368 -0.0984870858145819 0.262369496096352
-0.180441238013573 -0.107133082826245 0.263245195002044
-0.166867753996415 -0.104047076469719 0.264531076300338
-0.158521294669158 -0.0996258465364113 0.265230755462318
-0.148389617027745 -0.106286142100844 0.266080088508061
-0.13950642411846 -0.105244914685831 0.266774084813884
-0.135381166933359 -0.10561922356802 0.267020820882705
-0.126740046907178 -0.108586271251699 0.267537655564715
-0.111037559995757 -0.107542075800719 0.268476838194403
-0.100461407792955 -0.103648630435934 0.268907887496847
-0.0975039451756943 -0.108130198210433 0.269013941697679
-0.0848682659961932 -0.108520651185948 0.269467055407224
-0.0773368169583572 -0.103667199922898 0.269737132129125
-0.061783551892811 -0.103875624127261 0.269952609345478
-0.0540719057191216 -0.103211342422774 0.270044754489713
-0.0401965281473646 -0.106404072532121 0.270136350798621
-0.0316315535789689 -0.110254231227309 0.270034009379007
-0.0159743983615071 -0.113334801604867 0.269846924703008
-0.00568489533671448 -0.104953039385461 0.269608717693527
-0.00218787542247927 -0.105132254611493 0.269483315042575
0.010911326004632 -0.113763367771143 0.269013579489273
0.0173217129796068 -0.111242204735755 0.268783703898053
0.034050241467675 -0.115014978491851 0.267901730701196
0.0477732606098856 -0.115687644838071 0.267080942167639
0.0574593835280264 -0.112979319648193 0.266442861633264
0.0787926589076385 -0.115394164582246 0.264654504719916
0.0949186351229026 -0.112864179486851 0.263128604694994
0.101256943468189 -0.108578976243036 0.262444433115071
0.109421110543193 -0.114846613396774 0.261563174144668
0.13100163989965 -0.116935136445055 0.258974672447935
0.135293331062081 -0.112846047200002 0.258407408217256
0.152833899883519 -0.118232482325948 0.257690326993268
0.152833899883519 -0.118459546163473 0.272810328749419
0.15283389988352 -0.115963774347018 0.277566628793348
0.154549385689118 -0.114093919135266 0.292416889021142
0.154426883104852 -0.111461412561766 0.291834260904484
0.157530329504086 -0.11466809089185 0.306594399570665
0.159591399517854 -0.110630442058996 0.316396946575011
0.161257449408978 -0.116732258884336 0.324320759089975
0.163299896292977 -0.120069553831239 0.33403473360347
0.165458941834646 -0.119581616084417 0.344303256877953
0.166462231717721 -0.120058165296924 0.349074951275585
0.167871982027911 -0.118143343897889 0.355779790794719
0.169687019310697 -0.113617268322267 0.364412194429866
0.172548446472468 -0.119557657264217 0.378021278092906
0.174354901414782 -0.112358179065083 0.386612863708607
0.176403978591396 -0.113441197949926 0.396358372209095
0.176801460740617 -0.116355610140763 0.39824881621396
0.180275246144079 -0.118235105353844 0.414770304796562
0.18221507495195 -0.121808835292165 0.423996222859762
0.183401694331585 -0.119228141420191 0.429639841061678
0.184451793447118 -0.11239018342927 0.434634162394996
0.187504441978993 -0.115887273005773 0.449152703988219
0.18962114164429 -0.12056131414964 0.459219828260826
0.192432222104382 -0.113466612292042 0.472589460616327
0.193544365728922 -0.119934536372551 0.47787886858515
0.195491372927315 -0.113353868716607 0.487138927415053
0.196509090094992 -0.121210272251897 0.491979238664368
0.198264883613893 -0.117499705193247 0.500329876141008
0.200868814841021 -0.114633129276974 0.512714296893083
0.204201054285325 -0.116447180807809 0.524472671508464
0.210853283508828 -0.120572080317926 0.528691958987931
0.214209194255597 -0.119388462489155 0.529989680356423
0.235191905944738 -0.116405945232163 0.529489948945771
-0.249437640201699 -0.0962548034385584 0.237296764999914
-0.246160048469319 -0.0894987568229117 0.244998020490057
-0.243003873610144 -0.0908748451695409 0.25075972073802
-0.239876052678483 -0.0960864061418568 0.255432461454653
-0.232488294382291 -0.0877218871135323 0.257007353873987
-0.222747266214205 -0.0966236412506352 0.258294896858946
-0.21444379606485 -0.0963984250179569 0.259392427279467
-0.210123967887781 -0.0932371971478359 0.259963410585299
-0.190801038517605 -0.0906052010322344 0.262126934309694
-0.183275678332481 -0.089053190756794 0.262939238995246
-0.182785686326613 -0.0943951758060156 0.262992129859265
-0.165493149324789 -0.0912886848336897 0.264646308664984
-0.158478719747318 -0.0966654899967495 0.265234324494942
-0.150556789314873 -0.0913214111311161 0.265898415629745
-0.139652675456484 -0.0911217474707838 0.266765337364068
-0.135789078279613 -0.0977886657074518 0.26699642326639
-0.127443768969873 -0.0919566807621993 0.267495565191315
-0.113319420397097 -0.0934079789923512 0.268340357669732
-0.10444432665168 -0.101248273235429 0.26876506057688
-0.0927330336699539 -0.0966596230616681 0.269185025925093
-0.0890189160156287 -0.100112355604299 0.26931821367101
-0.0783813793554074 -0.096716485798106 0.26969967426589
-0.0602852594684994 -0.0949365264598833 0.269970512185991
-0.0619254523978473 -0.0939869884003262 0.269950913800556
-0.0472558906795711 -0.0969887400210529 0.270126197890354
-0.0365222825267712 -0.0969741491969629 0.270092447864663
-0.0189186671647297 -0.102544575789606 0.269882105268535
-0.0116952657060701 -0.103605694533635 0.269795794077087
-0.00303704279748188 -0.0968571921774773 0.269513766067316
0.0117191136282271 -0.0970565108721476 0.268984612336701
0.0291021698722826 -0.0966171440258304 0.268197680184807
0.028406122867313 -0.0963503601338842 0.26823931150475
0.0455148226788934 -0.0994470262132937 0.267216021769168
0.0511117558769904 -0.103610856196086 0.26688126317527
0.0672227350688964 -0.106790491992645 0.265624405164913
0.0905445927328109 -0.103770154736477 0.263600748890205
0.093071390060566 -0.0990591482788611 0.263328000575402
0.11846638417083 -0.0989187637994271 0.260586806506564
0.124094116630122 -0.107759205479133 0.259887690352787
0.13015074920148 -0.107207297845742 0.259087140898955
0.152833899883519 -0.103561518313053 0.256129490346881
0.152833899883519 -0.100418309573418 0.25951019180815
0.152833899883519 -0.110261005404593 0.268588582705829
0.153836016995974 -0.102890917864086 0.28902407359068
0.155324806875682 -0.10235699270795 0.296104829061349
0.158125081087066 -0.103640901536028 0.309423066384084
0.160472477580013 -0.101723928212702 0.320587395740302
0.161427418252079 -0.105245590665101 0.325129138991018
0.162290202259193 -0.107154304852467 0.329232580760502
0.165452083437577 -0.106561115633906 0.344270638015324
0.166218059964129 -0.108597210803998 0.347913658803357
0.169267563606946 -0.101793869795108 0.362417243154654
0.170443085806013 -0.103551832874487 0.368008082638043
0.170846803368686 -0.10398977042907 0.369928182565818
0.173953525566835 -0.109295018966272 0.384703901087435
0.177542475495893 -0.110013499327532 0.401773117630688
0.177197278466329 -0.103895843270857 0.400131344141456
0.179558714195231 -0.100862497876884 0.411362444771545
0.181561163486864 -0.102281284158345 0.420886188833566
0.183804606400053 -0.1049887705389 0.431556110020707
0.185979799270475 -0.104689401969028 0.441901430758667
0.187358077623084 -0.10759060406387 0.448456588150828
0.190213511813282 -0.103801821351235 0.462037168956059
0.192303128083965 -0.111469944713898 0.471975483315864
0.193471137941522 -0.10885754784625 0.477530593745764
0.195693735438851 -0.110297845616507 0.488101373143721
0.197785551070654 -0.102313022416399 0.498050147769615
0.199155238306401 -0.109851795304789 0.50456444540141
0.20119516806927 -0.10425718879078 0.514266448367101
0.206284198783763 -0.112226262753172 0.526056275929028
0.209594567081466 -0.106557436623757 0.528029076855594
0.224056556545757 -0.110260726824944 0.531573035040135
-0.250353429853202 -0.0855398581087893 0.234481070591468
-0.243968840054387 -0.078598312320361 0.249180091477053
-0.242510916117316 -0.0840428233605567 0.251496163967552
-0.237103300143107 -0.0840794679804518 0.256397354786585
-0.233642541629751 -0.0791251961109555 0.256854788567663
-0.222030679049868 -0.0814195908832603 0.258389613428967
-0.207739220085408 -0.0831167081842464 0.260278620155671
-0.201762285710182 -0.0804946270651802 0.260943752078546
-0.198748213698632 -0.0845293429585774 0.261269097943374
-0.185386654116137 -0.0877785033787294 0.262711375414238
-0.172993594376507 -0.0829799423525855 0.264017550421219
-0.16744443837304 -0.0814913352790293 0.264482733161584
-0.157026371578515 -0.0838936741166969 0.265356074054821
-0.15018470171072 -0.0807233615333969 0.265929607531946
-0.135253554786798 -0.0814207923491455 0.267028453502434
-0.13578317632679 -0.0876887864640307 0.266996776268536
-0.127011145168873 -0.0888824487124372 0.267521440886126
-0.11266116836726 -0.0836189916501716 0.268379728431565
-0.107794212311322 -0.0828178686908647 0.268644934139969
-0.0906012130261811 -0.0825120339869003 0.269261472718832
-0.0807719325901919 -0.0871070936052789 0.269613949357187
-0.0753563849870122 -0.0917080708729033 0.269790429878867
-0.0620349526527673 -0.0917029309816939 0.269949605400695
-0.0540606765133136 -0.088473326392642 0.270044888665577
-0.0433485213367236 -0.085549392465644 0.270172886379889
-0.025616421543913 -0.0842950780405713 0.269962135592726
-0.0263658328586787 -0.0871741439375651 0.269971090180649
-0.0120938387588761 -0.0885783011966264 0.269800556558485
0.00340200650244131 -0.0886536962861201 0.269282862649083
0.0120064825249016 -0.0879984751997485 0.268974307327771
0.0253024066530763 -0.0915366892326289 0.26842494810947
0.042178796910996 -0.0882324072303497 0.267415553058134
0.0433832867915989 -0.0924347437740303 0.267343511222985
0.0571822014835529 -0.0931617341124153 0.266466097653831
0.0703557938257664 -0.0961132717905251 0.265361762547309
0.0820608002438467 -0.095393245610197 0.264380538202895
0.104359857772562 -0.0905164084686549 0.262109497408831
0.112030261972744 -0.0918990720743114 0.261281536338715
0.116807623405981 -0.0898304356952868 0.260765856958416
0.129800075348217 -0.0989999553048155 0.259133492028629
0.152833899883519 -0.099341943214943 0.264931728528367
0.152833899883519 -0.0915413644773002 0.266382114810868
0.152833899883519 -0.0993903169533666 0.275854906984507
0.152997389659843 -0.09099190893927 0.285035522097216
0.156106189286107 -0.0956676332449815 0.299821120965747
0.156347583796397 -0.0925694891839292 0.30096920473675
0.159200544619361 -0.0927479635518112 0.314538022089788
0.161794573425476 -0.0904696433860865 0.326875346456592
0.163314460720175 -0.090053738806148 0.334104002711863
0.163356881403452 -0.0908138580828568 0.334305757498943
0.166887947925126 -0.0947715254005241 0.351099677803902
0.169589041094918 -0.0920840118813768 0.363946205376042
0.171720431495729 -0.0958121956768372 0.374083199485403
0.17240593120202 -0.0916824589029203 0.377343468689017
0.174161608207061 -0.0942715699198815 0.385693552020193
0.175580755617169 -0.0942616560822542 0.39244308459344
0.177445129818939 -0.0986791857899712 0.401310136961598
0.180829767222393 -0.0991014027520991 0.417407633416537
0.181732816892607 -0.0920947085283061 0.421702580594652
0.183434155235795 -0.0964726810555688 0.429794226665851
0.186950208335006 -0.0957118970438346 0.446516742419582
0.188078945346152 -0.0936706168351322 0.45188506932424
0.188420532496759 -0.0945070206986347 0.45350967405747
0.191991770637868 -0.100998109575861 0.470494652494916
0.193603533263517 -0.0913873044579254 0.478160272193532
0.194988421416217 -0.0918168500454064 0.484746866109269
0.197616663099838 -0.0989871549290191 0.497246908548561
0.200029702641046 -0.0963911419150604 0.508723439364113
0.201723888413754 -0.090667317901812 0.516781067469961
0.204222465100218 -0.0993518091059551 0.52448894798911
0.214803274074742 -0.0941674565688544 0.530186193938215
0.220318803425825 -0.0926773549672712 0.531373923190102
0.233275093068719 -0.0967269674583153 0.530171499131465
-0.24916400558043 -0.069043083731154 0.237991162504835
-0.247489230305406 -0.0693801869485785 0.242241208668172
-0.242168071027317 -0.0703494318441665 0.252008350005863
-0.240596384421428 -0.0755908459243717 0.254356337361144
-0.228146485482253 -0.070292869871299 0.257581242532844
-0.219620980844029 -0.0772415290944884 0.25870812087677
-0.205689799282477 -0.0720715304636045 0.260519807230876
-0.209850661103816 -0.0723751037591531 0.259999535543195
-0.19522390079268 -0.0785620449096352 0.26164952038382
-0.194029204615723 -0.0757331935621874 0.261778478636777
-0.183370765107569 -0.0730043756754707 0.262928975110057
-0.168831090089831 -0.0743215158966528 0.264366490899672
-0.165151503465388 -0.0796223947712986 0.26467494865222
-0.157594244145199 -0.0787995083475296 0.26530846960532
-0.146308446806276 -0.0808024934198507 0.266254551879821
-0.131548556319571 -0.0716648698598369 0.267250053445364
-0.118820044402926 -0.0808726176693574 0.2680113594322
-0.122225617439914 -0.0754646770762732 0.267807668446275
-0.104124401712778 -0.0769294740537768 0.268776533040986
-0.0949322437922649 -0.0809673493835711 0.269106162553965
-0.0934091343413766 -0.0729278495948404 0.269160781048431
-0.0752095427307797 -0.0738608989634105 0.269792184471929
-0.0713699036914045 -0.0767743427606915 0.269838063663625
-0.0508797558786026 -0.0787553881552033 0.270082896943458
-0.0429381841112237 -0.0812170930320342 0.270169110377904
-0.0307910523182324 -0.080211748747161 0.270023966372863
-0.0238632728226766 -0.0814795688252909 0.269941187517808
-0.0132604633252695 -0.0781887939263485 0.269814496356358
0.0003877315461241 -0.0787350401061782 0.269390954132544
0.00413691662652968 -0.0823193600638441 0.269256508873574
0.0301696123911387 -0.0778825408733183 0.268133835299755
0.0343822496140178 -0.0849879041680172 0.267881872936899
0.0491707742690305 -0.0826438656731427 0.266997355372705
0.0591699140731481 -0.0844604654354884 0.266299468784701
0.0748459014810616 -0.0833156104885521 0.264985359256012
0.0917975829547634 -0.0779977235970317 0.263465498243963
0.0931486035908003 -0.0857972442124885 0.26331966596937
0.10701291934107 -0.0796821659653639 0.261823119841493
0.129662161070305 -0.0864565839876757 0.259151721168098
0.136864497944776 -0.0809429447635052 0.258199735591419
0.15283389988352 -0.0847748677429226 0.263903881003407
0.15283389988352 -0.0851382379348702 0.266947414746597
0.152833899883519 -0.0816417185545738 0.280364512365518
0.154172611146137 -0.0794084069895478 0.290624931376357
0.156066809730914 -0.0837979954814541 0.299633829928466
0.157257818428546 -0.0841666071962179 0.305298323935517
0.160581157679665 -0.0868730911471817 0.321104283462774
0.161422536602866 -0.0831696730850034 0.325105921635205
0.163764875338559 -0.0846011950087647 0.336246196057392
0.165275911422635 -0.0833802949637127 0.343432755534001
0.167666437950341 -0.0817719624669418 0.354802213386682
0.1686743742524 -0.0856279946183176 0.359596006373969
0.170921202404734 -0.079795637038965 0.370282027919478
0.172907166486378 -0.0846952404352456 0.379727367538805
0.175517562309246 -0.0844118438845212 0.392142534215658
0.177376100712694 -0.0897649183469014 0.400981831249459
0.179724283668104 -0.0817643294102024 0.41214990105856
0.180286585049568 -0.0865858859624926 0.41482423317032
0.18267706956251 -0.0835379778019553 0.426193491198784
0.183574604464985 -0.0832794207310965 0.430462209879265
0.185644347574637 -0.0891441522142712 0.440306006540093
0.187462034790017 -0.0797342135701721 0.448951013380678
0.19036450502034 -0.0885447515171748 0.462755299829647
0.190703164345991 -0.081440520197366 0.464365979688157
0.193521540254087 -0.0866094156159697 0.477770309541316
0.19486459528921 -0.0802428406198011 0.484157943160392
0.197933314020435 -0.083788251520689 0.498752915385975
0.199349930494394 -0.0833351175308457 0.505490410706536
0.200606654664575 -0.0811133301081245 0.511467450626281
0.206801259095752 -0.0842861114129152 0.526449344675041
0.212428571380405 -0.0819692862010127 0.529400674354619
0.223468479720598 -0.0912838514409579 0.53157955313349
0.225589317622138 -0.0889755771322539 0.531556046307783
-0.24765161850112 -0.0634663354142013 0.241829119154756
-0.247402372323175 -0.0599841759599007 0.242461626559242
-0.242845310100123 -0.0684196781023259 0.250996603278818
-0.238535142552872 -0.0616456627255545 0.256208097696014
-0.230650030776152 -0.0634542387457828 0.25725033062857
-0.221314165809776 -0.0657056206813026 0.258484320227879
-0.208339812095617 -0.0617259601838012 0.260199235514109
-0.20146043093478 -0.063580893584231 0.260976334977222
-0.187874323691934 -0.0658828023191215 0.26244285063897
-0.185203413427796 -0.0679188822654946 0.262731154835563
-0.176223958049514 -0.0663596916805752 0.263700417900459
-0.165859054450859 -0.0631579886695491 0.26461563503657
-0.160282140566851 -0.0661760351014599 0.265083144705018
-0.150263984755011 -0.0648875540899268 0.265922961277311
-0.144099833544298 -0.0713338025576926 0.266439698732598
-0.129753133394472 -0.0711152100358968 0.267357439621433
-0.128096305151446 -0.0667572585817406 0.267456536300513
-0.116011937512635 -0.0624468100041043 0.268179315325337
-0.111277993611805 -0.0628599826006282 0.268462457601249
-0.0943527782244041 -0.0664286530360043 0.269126942109166
-0.0819092663660479 -0.0693461718238857 0.269573164725126
-0.0691011465028973 -0.0634221559523436 0.269865172656136
-0.0703794843859204 -0.0655390534978838 0.269849898014904
-0.050680781169449 -0.0731093778924201 0.270085274458304
-0.0452214097967177 -0.0669496468785164 0.270150507555265
-0.0287855145240422 -0.0728844669194659 0.270000002543979
-0.0249804238924763 -0.0730167175340928 0.269954536165314
-0.0115747289513336 -0.070920880763225 0.269794353803973
0.001090494041293 -0.0682392234500948 0.269365753166566
0.0100940536550076 -0.0750110694185642 0.269042886762811
0.0207848769888755 -0.0702064578427573 0.268659515315175
0.0302910703846775 -0.0702094863508242 0.268126570766537
0.0472839275990768 -0.0689552429585367 0.267110209701277
0.0602142188276637 -0.0680162666002732 0.266211925283099
0.0714651741058974 -0.071132257522772 0.265268763799662
0.0945115199942815 -0.0738920360886902 0.263172549638279
0.10029832047382 -0.0717440880204663 0.262547909085769
0.104012736680423 -0.0694973841517068 0.262146966457842
0.127278835451874 -0.07405029745744 0.25946674275801
0.14343388669127 -0.0698937525741085 0.257331411401193
0.145812194996185 -0.078443014584507 0.257017052986329
0.15283389988352 -0.0712776460854015 0.264898347220723
0.152833899883519 -0.0690399143466038 0.279972821765706
0.154340225541785 -0.0720923358829667 0.29142211341334
0.155525366299769 -0.0742559085552996 0.297058699220365
0.157827115106265 -0.0742968455532287 0.308005926008949
0.160826199074226 -0.0713738029733642 0.322269711988808
0.160513644581949 -0.069196882290902 0.320783187959301
0.16272390064108 -0.0740958770748647 0.331295270890269
0.16608482474914 -0.0748319396049577 0.347279985784568
0.166696138911047 -0.0778510238980779 0.350187425011028
0.170326999404194 -0.07691763438616 0.367455970190239
0.170073703291171 -0.0768502951201052 0.366251281830632
0.172547473216462 -0.0725507121217667 0.378016649241057
0.174410538878265 -0.0705586462992656 0.386877478130899
0.175634524544098 -0.0780399578893701 0.392698812167013
0.17797671655679 -0.0775072804008279 0.403838388767631
0.18081348137364 -0.0704436929286667 0.417330177145358
0.181646183520909 -0.0727646132456065 0.421290548158806
0.183316228631873 -0.0755743807855932 0.429233362129332
0.184647400589528 -0.0738434681605952 0.435564479266844
0.187936713672906 -0.0720904387142354 0.451208608722131
0.190504844711371 -0.077631896852542 0.463422762074361
0.192510488749636 -0.0756942474284195 0.472961700503302
0.192029542382568 -0.0717330434543129 0.470674296709032
0.194687594189168 -0.0752960645025106 0.483316117510904
0.197253891700127 -0.0779877001440798 0.495521550519119
0.198241746323047 -0.0719205186542922 0.500219834085399
0.201608357452301 -0.0791101362596613 0.516231596722954
0.202595774202642 -0.0792471548282831 0.520927797746422
0.20629235154331 -0.0753863389331163 0.526062473648901
0.220837687619029 -0.0704621109777556 0.531454568309833
0.228345262216858 -0.07409341815635 0.531283900360405
-0.250557775018821 -0.0525674853072756 0.233737296928974
-0.24367581182355 -0.0507264456450511 0.249739355878467
-0.24182452326958 -0.0520512340817251 0.25252158577951
-0.237839766012411 -0.0558806707266425 0.256300010702642
-0.229028321284141 -0.0599636586251277 0.257464683840988
-0.222978215948042 -0.056803033956941 0.258264370542366
-0.212364763067182 -0.0525668918169064 0.259667228286656
-0.205252108520665 -0.0518889138385918 0.260567052578328
-0.195811556296001 -0.0604757465142823 0.261586087497274
-0.185017301711337 -0.0594554335287588 0.262751244162266
-0.181681332776399 -0.0567625605597392 0.263111336321318
-0.175132687616306 -0.0603285205713831 0.263818212140774
-0.157872717953142 -0.0558754495770307 0.26528512529692
-0.150079223140733 -0.0536867319225583 0.265938449743303
-0.141701158190743 -0.0580525176625288 0.266640778387507
-0.134799106981642 -0.0592610665682872 0.267055634514404
-0.125978977311886 -0.0553003084399044 0.267583175955715
-0.112917186093459 -0.0559504141202017 0.268364415736022
-0.100471537187467 -0.0563337362025595 0.26890752425816
-0.0980406547942339 -0.0551870391798161 0.268994695364913
-0.0764425306655832 -0.061825733152271 0.269769201112023
-0.0741088828919607 -0.0541565579038014 0.26980533606853
-0.0640118402999009 -0.0544150473132723 0.269925983907531
-0.0505800685618663 -0.0601828289874633 0.270086477856068
-0.0465333153498826 -0.0553380182069026 0.27013483181967
-0.0358654791889165 -0.059340181059133 0.270084599833654
-0.0245397885534508 -0.0582015534900733 0.269949271088836
-0.0118509358684254 -0.0612985409694176 0.269797654153294
0.000728676156262028 -0.0646166716606491 0.269378727905932
0.0150965795926828 -0.0611389963811264 0.268863496873869
0.0264291259897633 -0.0654774058503753 0.268357557814193
0.0382982557103182 -0.0569954422010007 0.267647652400743
0.0459159886584712 -0.0632433507660751 0.267192027600488
0.0608091744764241 -0.0594398137108789 0.266162050473503
0.0757863230914219 -0.0580578113849542 0.264906524222083
