ply
format ascii 1.0
element vertex 842
property float x
property float y
property float z
end_header
-0.226133077749076 0.177083333333339 0.184220784181232
-0.221808217378302 0.177083333333339 0.190218525984636
-0.222035783811881 0.177083333333339 0.203983543070455
-0.230535494998325 0.17708333333334 0.20985670622722
-0.22408337368646 0.177083333333339 0.22427794623799
-0.220998996140283 0.177083333333339 0.236419507693773
-0.222711935040492 0.177083333333339 0.237070441434248
-0.229718239243814 0.17708333333334 0.257042330734255
-0.221505843800256 0.177083333333339 0.257732597358176
-0.22581881980954 0.17708333333334 0.2707081958828
-0.230064536984524 0.17708333333334 0.284775112692825
-0.230219386874434 0.17708333333334 0.288446989424903
-0.225578265986049 0.17708333333334 0.295693240557787
-0.230132064340279 0.176735035656299 0.302083333333329
-0.222479512886556 0.16720513214317 0.302083333333329
-0.225523295679284 0.155005851469911 0.302083333333329
-0.224308508326673 0.142247784530441 0.302083333333329
-0.244596401197984 -0.0292271273534624 0.151041666666664
-0.239246908778775 -0.0411341089036429 0.151041666666664
-0.244668874891492 -0.0600413139040549 0.151041666666664
-0.248905589884901 -0.060512384130728 0.151041666666664
-0.244554614907975 -0.078009473994132 0.151041666666664
-0.247241087123615 -0.0863010649044931 0.151041666666664
-0.248734389387512 -0.103104616927606 0.151041666666664
-0.245386167302078 -0.102669265329626 0.151041666666664
-0.249354416791074 -0.120687892665373 0.151041666666664
-0.248230982992584 -0.126448894500949 0.151041666666664
-0.246291043142821 -0.148077323493002 0.151041666666664
-0.255162493955099 -0.153239543229543 0.151041666666664
-0.250031204649275 -0.168259751470936 0.151041666666664
-0.256943104368857 -0.175531129606542 0.151041666666665
-0.219660797015122 0.177083333333339 0.171103695947981
-0.21997744383191 0.177083333333339 0.176755272815792
-0.218548693823845 0.177083333333339 0.192232085219361
-0.22117143891662 0.177083333333339 0.188641771863345
-0.220502145566478 0.177083333333339 0.208781589082105
-0.215182396048398 0.177083333333339 0.206647639994372
-0.215884103672775 0.177083333333339 0.230873256721772
-0.212235324138649 0.177083333333339 0.230323749549169
-0.220734672022228 0.177083333333339 0.238360195398345
-0.213871641920977 0.177083333333339 0.254603874975219
-0.213040354844011 0.177083333333339 0.258986854572386
-0.219190154624476 0.177083333333339 0.272902282978877
-0.212669585456573 0.177083333333339 0.27915913615136
-0.212504054044708 0.177083333333339 0.287545065865832
-0.213926547421298 0.176819372125861 0.302083333333329
-0.215837079106867 0.161929079416441 0.302083333333329
-0.2166553231369 0.160898921360048 0.302083333333329
-0.221128397220365 0.145336934950014 0.302083333333329
-0.214781639218232 0.141096853619073 0.302083333333329
-0.227576565797666 -0.0347654465551898 0.151041666666664
-0.231074024754087 -0.040818344356537 0.151041666666664
-0.230497426355481 -0.0474621968915176 0.151041666666664
-0.237234725926486 -0.0617913540495107 0.151041666666664
-0.23903757306544 -0.08463464584021 0.151041666666664
-0.233232215342382 -0.0829487062133882 0.151041666666664
-0.234562495015553 -0.10084173371298 0.151041666666664
-0.239049317622535 -0.107467179114556 0.151041666666664
-0.237174524361951 -0.118645541885786 0.151041666666664
-0.240218889968216 -0.131844376758749 0.151041666666664
-0.244158816629651 -0.145457405048864 0.151041666666664
-0.240158865199694 -0.160159039548169 0.151041666666664
-0.237786438324379 -0.158677146953854 0.151041666666664
-0.210184390503342 0.177083333333339 0.169556350088839
-0.204011809916986 0.177083333333339 0.170462353480508
-0.2027642948161 0.177083333333339 0.186275456320057
-0.203060812982351 0.177083333333339 0.201924464656984
-0.209369277854602 0.177083333333339 0.207886872656997
-0.205111321148377 0.177083333333338 0.217532120585462
-0.208681038800325 0.177083333333339 0.22127613089966
-0.204939345364036 0.177083333333339 0.233113260765604
-0.202487839357794 0.177083333333338 0.246094201156452
-0.205067194335328 0.177083333333339 0.250523035339707
-0.203907943727178 0.177083333333339 0.260715981867191
-0.205018663782529 0.177083333333339 0.267144314419422
-0.210125486388644 0.177083333333339 0.279614811728308
-0.207236877888812 0.177083333333339 0.286177183832267
-0.2054554063633 0.174935386111944 0.302083333333329
-0.21088055308013 0.173957351588979 0.302083333333329
-0.212688155275627 0.153418606458408 0.302083333333329
-0.212451661119814 0.157713824205386 0.302083333333329
-0.205049620456368 0.144607905171488 0.302083333333329
-0.219888975880195 -0.03070291136088 0.151041666666664
-0.227111776810791 -0.0397836174177624 0.151041666666664
-0.220742420254229 -0.05433358322658 0.151041666666665
-0.229520921437542 -0.0707824142835195 0.151041666666664
-0.229689795687947 -0.0663407625322447 0.151041666666664
-0.222647785263855 -0.0773429125655364 0.151041666666664
-0.225893626977705 -0.0996143803796647 0.151041666666664
-0.230414014010171 -0.105667342756706 0.151041666666664
-0.226997694371612 -0.12503522159405 0.151041666666664
-0.230228011990654 -0.131561407307199 0.151041666666664
-0.232402877750359 -0.13847607671604 0.151041666666664
-0.234225517778661 -0.158179820542002 0.151041666666664
-0.233653725950116 -0.168095729668723 0.151041666666664
-0.232093233680024 -0.174985397281419 0.151041666666664
-0.200744681619291 0.177083333333339 0.163015726391555
-0.19316199205796 0.177083333333338 0.17991098545228
-0.197768753581448 0.177083333333338 0.188293770487088
-0.197093591124983 0.177083333333338 0.196160376811675
-0.1939659097845 0.177083333333338 0.20726386145518
-0.193310980884896 0.177083333333338 0.217996617564205
-0.196490782556387 0.177083333333338 0.216719369703406
-0.196570379791047 0.177083333333338 0.236353537178151
-0.197963899866954 0.177083333333338 0.248458834697472
-0.194494523538066 0.177083333333338 0.255070126504806
-0.194756132241473 0.177083333333339 0.26298932716083
-0.196960243206863 0.177083333333339 0.272506665383214
-0.195820454558908 0.177083333333338 0.283506583077831
-0.19405714320232 0.177083333333338 0.294129140669138
-0.193774721995289 0.174382577435689 0.302083333333329
-0.194254042700178 0.167844391634295 0.302083333333329
-0.202186212214127 0.158111367584491 0.302083333333329
-0.202096385782308 0.149465989974221 0.302083333333329
-0.203136676390413 0.143590739369618 0.302083333333329
-0.210469951028485 -0.0373277332798399 0.151041666666664
-0.216937628970271 -0.0368060832340376 0.151041666666664
-0.208595107305053 -0.0485762548162506 0.151041666666664
-0.209505581764676 -0.0637138281328508 0.151041666666665
-0.219738953100994 -0.0743799710225484 0.151041666666665
-0.216656053999586 -0.0833271795713082 0.151041666666664
-0.215003318793167 -0.095101602442939 0.151041666666664
-0.214667406123428 -0.107550329846215 0.151041666666664
-0.214938702146432 -0.12048423675955 0.151041666666664
-0.220481400330225 -0.137553985775202 0.151041666666664
-0.215720963343594 -0.147505741648137 0.151041666666664
-0.225392367032684 -0.151663768092098 0.151041666666664
-0.220483838339042 -0.162652984411704 0.151041666666665
-0.191773902832498 0.177083333333338 0.161966105371859
-0.192075670840606 0.177083333333338 0.174271603265734
-0.191787359086725 0.177083333333338 0.183016215131392
-0.187538866298356 0.177083333333338 0.198692980305902
-0.188992967379254 0.177083333333337 0.198986923119451
-0.186064556725225 0.177083333333337 0.213041063874665
-0.191911041503501 0.177083333333338 0.228431854126291
-0.185207653266348 0.177083333333338 0.233050369760954
-0.193023971360423 0.177083333333338 0.240996051489032
-0.192664008136187 0.177083333333338 0.254891568843484
-0.188287096790457 0.177083333333338 0.261383587337394
-0.192863968277682 0.177083333333338 0.269887939120381
-0.188553921671385 0.177083333333337 0.285629514015513
-0.192227123470734 0.177083333333337 0.288413194099599
-0.189951785222915 0.177083333333338 0.299326252361655
-0.184193644008738 0.170467000342816 0.302083333333329
-0.19001685743794 0.162577468623808 0.302083333333329
-0.18564282457144 0.154885089411047 0.302083333333329
-0.19353507573308 0.13587912521996 0.302083333333329
-0.206446321678419 -0.0358919368737367 0.151041666666664
-0.202144692355604 -0.0504474530335718 0.151041666666664
-0.205566246957262 -0.0527182129957403 0.151041666666664
-0.206320850450197 -0.0633854204318897 0.151041666666664
-0.206918710370212 -0.0688692760223578 0.151041666666664
-0.20179388596964 -0.0843243159988721 0.151041666666664
-0.206418806113538 -0.0950284792959318 0.151041666666664
-0.208413977484226 -0.103502451013569 0.151041666666664
-0.204406870958512 -0.118047228552991 0.151041666666665
-0.20898848052947 -0.131644347117103 0.151041666666664
-0.208933609931602 -0.138996969249391 0.151041666666665
-0.214836108965078 -0.161182480207015 0.151041666666664
-0.209500081406587 -0.163733802074094 0.151041666666664
-0.176972430010274 0.177083333333337 0.169655341260389
-0.182800529159712 0.177083333333337 0.171659501070741
-0.175305327317794 0.177083333333337 0.191512088529201
-0.180311246816001 0.177083333333337 0.200618361224886
-0.177119392573432 0.177083333333337 0.203174027461044
-0.178305396456656 0.177083333333337 0.219089566071297
-0.178342375442481 0.177083333333337 0.220646848436336
-0.176757770392082 0.177083333333337 0.236012933430455
-0.178148484486005 0.177083333333337 0.247707296787181
-0.178403508816175 0.177083333333337 0.256267547879331
-0.181067958938894 0.177083333333337 0.266557320670677
-0.181854653470224 0.177083333333337 0.268953126645917
-0.174582724600891 0.177083333333337 0.283934834121911
-0.177526110463683 0.177083333333337 0.294514848125747
-0.174423713569387 0.177083333333337 0.29693487598241
-0.178219689059396 0.169351138542492 0.302083333333329
-0.176617364150575 0.151530252071345 0.302083333333329
-0.17927935845903 0.14637390749215 0.302083333333329
-0.18179201713992 0.140203312887173 0.302083333333329
-0.193062820904706 -0.0335855981255264 0.151041666666665
-0.194154078589922 -0.0411942544658801 0.151041666666664
-0.190433528445053 -0.0531733877746038 0.151041666666664
-0.189951816263967 -0.0632242639998778 0.151041666666664
-0.190633858801758 -0.075706586804444 0.151041666666664
-0.19736136506979 -0.0899857610612191 0.151041666666664
-0.191862531838742 -0.0940894805667252 0.151041666666664
-0.199905874953346 -0.105772150643158 0.151041666666664
-0.19230298875871 -0.117228818219981 0.151041666666664
-0.194088526365268 -0.124844042697451 0.151041666666665
-0.195020707531952 -0.148633296209868 0.151041666666664
-0.194478193636728 -0.147487292540438 0.151041666666665
-0.198427195794615 -0.172865658027463 0.151041666666664
-0.173302312125144 0.177083333333337 0.168518502906182
-0.168337534749389 0.177083333333337 0.1757757486062
-0.171698118384377 0.177083333333337 0.18816582325654
-0.167069756152771 0.177083333333337 0.194715390425249
-0.173567244450632 0.177083333333337 0.204842541714829
-0.166017278858996 0.177083333333337 0.216061564800411
-0.171438194740469 0.177083333333337 0.22372103925199
-0.172406750698577 0.177083333333337 0.228856390407117
-0.17276867083597 0.177083333333337 0.242871781291258
-0.172772491041023 0.177083333333337 0.247874272966847
-0.169345202409513 0.177083333333337 0.263268735285831
-0.169888873058918 0.177083333333337 0.270585494373948
-0.172100456222484 0.177083333333337 0.27699628892941
-0.170532637777049 0.177083333333337 0.297040832112131
-0.169704506137378 0.177083333333337 0.300462952196277
-0.168810252248782 0.168379719081493 0.302083333333329
-0.169719090250145 0.151201547418445 0.302083333333329
-0.168938163288779 0.144768589578016 0.302083333333329
-0.175504352826102 0.139849994333585 0.302083333333329
-0.177330303818541 -0.03164879301427 0.151041666666664
-0.186361591794525 -0.0352988634358915 0.151041666666664
-0.181300643684579 -0.0591310912761304 0.151041666666664
-0.179225529177956 -0.0672412174310699 0.151041666666664
-0.187273589668044 -0.072394994692874 0.151041666666664
-0.183175218633088 -0.0920688578274717 0.151041666666664
-0.19039619362637 -0.0904160822238807 0.151041666666665
-0.182776044026537 -0.107409441130193 0.151041666666664
-0.185874553017905 -0.115387255445771 0.151041666666664
-0.19008487710682 -0.133690915654717 0.151041666666664
-0.191445799076059 -0.146385608011587 0.151041666666664
-0.190694728152575 -0.163496236937133 0.151041666666664
-0.190749289097521 -0.167273606938354 0.151041666666665
-0.19073507385319 -0.170727215319883 0.151041666666664
-0.156851928056373 0.177083333333337 0.169294313672219
-0.158080198180471 0.177083333333336 0.177162666470566
-0.161928869823508 0.177083333333337 0.190597648504656
-0.159115445037916 0.177083333333337 0.19150152665606
-0.156170066394582 0.177083333333337 0.206136836893775
-0.156833548491979 0.177083333333336 0.214845467004318
-0.157907562429401 0.177083333333337 0.226866739959467
-0.163721021521673 0.177083333333337 0.23072862937173
-0.160480529790754 0.177083333333337 0.242949516079113
-0.158061898276308 0.177083333333336 0.251089130394304
-0.159478657037917 0.177083333333336 0.253555098395399
-0.158801085006463 0.177083333333336 0.270732057854808
-0.161142401728964 0.177083333333336 0.280981327881548
-0.162741122591462 0.177083333333336 0.291268272824443
-0.159283459311127 0.173484329451302 0.302083333333329
-0.159131384036585 0.176293374110616 0.302083333333329
-0.161435931094374 0.160327334148514 0.302083333333329
-0.157643633282105 0.154854159624889 0.302083333333329
-0.159250584053084 0.137544541305023 0.302083333333329
-0.168452853696104 -0.0330865984610398 0.151041666666664
-0.17404455849457 -0.0473387335033915 0.151041666666664
-0.169352720431299 -0.0537189445394775 0.151041666666665
-0.173861676346212 -0.0728305880469502 0.151041666666664
-0.17298993258368 -0.0745243942199691 0.151041666666664
-0.174280168591931 -0.0946970087010094 0.151041666666665
-0.176038126683915 -0.100789489066647 0.151041666666664
-0.175781166370635 -0.0993562439457426 0.151041666666664
-0.177019590571218 -0.120434239803518 0.151041666666664
-0.180920314673971 -0.132271429249255 0.151041666666664
-0.176212429578938 -0.141088032209567 0.151041666666664
-0.175689836478481 -0.151703512627522 0.151041666666665
-0.181402728555553 -0.161368113614237 0.151041666666664
-0.14782871804717 0.177083333333336 0.171026574565307
-0.150694585785292 0.177083333333336 0.177987017076243
-0.146618081569877 0.177083333333336 0.187326095076947
-0.153223721046942 0.177083333333336 0.1973870827496
-0.15340492900423 0.177083333333336 0.200938309129508
-0.146256266914995 0.177083333333336 0.215421673757482
-0.152891149207212 0.177083333333336 0.230749268787075
-0.149381577270601 0.177083333333336 0.241488916333116
-0.149460806852069 0.177083333333336 0.247313363253079
-0.146541237289867 0.177083333333336 0.254734612245235
-0.153336360017079 0.177083333333336 0.260480765563111
-0.149572482227582 0.177083333333336 0.268518264761447
-0.146622376701442 0.177083333333336 0.282360304369984
-0.147771576681339 0.177083333333336 0.288923584143573
-0.147608119058981 0.177083333333336 0.299857129678008
-0.146481931046374 0.176141122879309 0.302083333333329
-0.155873010722008 0.165802241441169 0.302083333333329
-0.152275959527081 0.148052788159215 0.302083333333329
-0.150115728350678 0.142175723015119 0.302083333333329
-0.163914086274061 -0.0339245872696163 0.151041666666664
-0.164648341783647 -0.0494494602384767 0.151041666666664
-0.158522817760897 -0.0508940269080443 0.151041666666664
-0.158973774915692 -0.060122821811901 0.151041666666664
-0.168817308848432 -0.0726316857432068 0.151041666666664
-0.161148532845713 -0.0881735834074039 0.151041666666665
-0.167881597091661 -0.0997119565093936 0.151041666666664
-0.165638465438928 -0.109576514741768 0.151041666666664
-0.166058171605291 -0.115366997045057 0.151041666666664
-0.170291960213293 -0.13548669900493 0.151041666666664
-0.165296249230221 -0.142646637097425 0.151041666666664
-0.168400801301791 -0.155213738756391 0.151041666666664
-0.172269962230529 -0.156225072378408 0.151041666666664
-0.143080875649021 0.177083333333336 0.170030325262844
-0.142493308059565 0.177083333333336 0.174572089139668
-0.145560548723626 0.177083333333336 0.191601623762155
-0.137505103161147 0.177083333333336 0.188929898937406
-0.140467846192953 0.177083333333336 0.208518772377898
-0.144728559061802 0.177083333333336 0.211267881328359
-0.139081412313493 0.177083333333336 0.225673116608738
-0.137575993336828 0.177083333333335 0.226072750073235
-0.138374372960324 0.177083333333335 0.243104158646395
-0.145527657428187 0.177083333333336 0.252603322845628
-0.140260155941566 0.177083333333336 0.264074740750765
-0.138646038850463 0.177083333333336 0.264744493362265
-0.145363139897355 0.177083333333336 0.28286596625372
-0.140305902158141 0.177083333333336 0.291979371802129
-0.139502444645669 0.177083333333336 0.301136350103438
-0.145418867220095 0.167531902065585 0.302083333333329
-0.143489119518901 0.161448995227322 0.302083333333329
-0.141338114160231 0.156763846099714 0.302083333333329
-0.14677754030779 0.140922929142521 0.302083333333329
-0.152182916517418 -0.025098511929798 0.151041666666664
-0.156755652986629 -0.0396154431275576 0.151041666666664
-0.152129124738457 -0.0468440781409208 0.151041666666664
-0.152885351861042 -0.0644307003558021 0.151041666666664
-0.152652807318712 -0.0793431812104516 0.151041666666664
-0.158675843596332 -0.0823678283218699 0.151041666666664
-0.158551480111394 -0.0901206709540018 0.151041666666664
-0.155938526029972 -0.114385095979304 0.151041666666664
-0.155348874467145 -0.127397590648266 0.151041666666664
-0.156828565246748 -0.130700181371685 0.151041666666664
-0.161377250154443 -0.136735047298648 0.151041666666665
-0.160508130633161 -0.162504779171482 0.151041666666664
-0.153150933694458 -0.168469555987952 0.151041666666664
-0.162743090174541 -0.174972779141259 0.151041666666664
-0.13039989092225 0.177083333333335 0.165817550430576
-0.134827973323876 0.177083333333335 0.179457625366955
-0.133902424330903 0.177083333333335 0.182516421022098
-0.132607191052527 0.177083333333335 0.190396420043918
-0.12973541120039 0.177083333333335 0.207376762146185
-0.128751640483432 0.177083333333335 0.206519571981268
-0.1312795988656 0.177083333333335 0.228235058225982
-0.129696106372674 0.177083333333335 0.232716287754845
-0.130066814048556 0.177083333333335 0.2421854964912
-0.133202330509473 0.177083333333335 0.244736374636673
-0.12846643359653 0.177083333333335 0.268686576244656
-0.131541484689204 0.177083333333335 0.272692459830602
-0.128758583526398 0.177083333333335 0.284156485126416
-0.134907132524256 0.177083333333335 0.285207700164191
-0.133228762040937 0.176022535853347 0.302083333333329
-0.13384223484978 0.172410770719489 0.302083333333329
-0.131948999455389 0.165490308688825 0.302083333333329
-0.135013638877242 0.150210366550955 0.302083333333329
-0.128619821020296 0.142038084961584 0.302083333333329
-0.139304678140754 -0.0373402012886324 0.151041666666664
-0.138514600193445 -0.0364400542563653 0.151041666666664
-0.140097697392307 -0.0521619327793397 0.151041666666664
-0.145910588918291 -0.0630607097933307 0.151041666666665
-0.147372243171453 -0.0677800911650069 0.151041666666664
-0.140507895785798 -0.0867515618176158 0.151041666666664
-0.146516793113284 -0.0922286277640018 0.151041666666664
-0.141463372058364 -0.0999976210776206 0.151041666666664
-0.140335519304619 -0.113975170107659 0.151041666666664
-0.146810754339419 -0.13707081737594 0.151041666666665
-0.142162977595297 -0.143186612181855 0.151041666666664
-0.148435467615622 -0.145431006971902 0.151041666666664
-0.143358562588166 -0.164273896342559 0.151041666666664
-0.145522103276373 -0.176830242091029 0.151041666666664
-0.125279272642106 0.177083333333335 0.171801059027449
-0.118573746982915 0.177083333333335 0.173215646400153
-0.121100810877636 0.177083333333335 0.183799823620444
-0.126584996133531 0.177083333333335 0.194490598723925
-0.122228951597436 0.177083333333335 0.20754356038211
-0.122605710104808 0.177083333333335 0.211380823965867
-0.119649831610026 0.177083333333335 0.223655064715632
-0.120604641294946 0.177083333333335 0.231751330753145
-0.118404338866757 0.177083333333335 0.241064827289184
-0.120107444477532 0.177083333333335 0.247705829966361
-0.122661706995677 0.177083333333335 0.261117322612565
-0.124627265122428 0.177083333333335 0.270467275244076
-0.12123045788721 0.177083333333335 0.28456628801235
-0.123724741696516 0.177083333333335 0.296480149354881
-0.119740642697658 0.177083333333335 0.300585749879255
-0.123708005996231 0.169652089118099 0.302083333333329
-0.119852275032703 0.160691721256701 0.302083333333329
-0.125432145919006 0.153536001785499 0.302083333333329
-0.124115254676918 0.138171312100112 0.302083333333329
-0.135036504584701 -0.0304024198646712 0.151041666666664
-0.127541987488233 -0.0460666879712119 0.151041666666664
-0.131122857580137 -0.0551908830180619 0.151041666666664
-0.127903013480155 -0.054986908073322 0.151041666666664
-0.130186728741978 -0.0756358496341912 0.151041666666664
-0.137386730918483 -0.0799623035491867 0.151041666666664
-0.132808297690179 -0.0916559484399536 0.151041666666664
-0.137059480435244 -0.100258689109985 0.151041666666664
-0.138063490183138 -0.114478333336859 0.151041666666664
-0.13945239117105 -0.125181252903756 0.151041666666664
-0.137103867102951 -0.144166711243439 0.151041666666664
-0.131685541674028 -0.148301533575289 0.151041666666664
-0.138812512300762 -0.170688072467079 0.151041666666664
-0.14112819548604 -0.170634369622062 0.151041666666664
-0.11460993566328 0.177083333333334 0.170077997959162
-0.112760437411711 0.177083333333335 0.185679570265727
-0.111747962319014 0.177083333333335 0.187083923650957
-0.113054388320639 0.177083333333335 0.199698977524413
-0.114400736954319 0.177083333333334 0.203181604020947
-0.113744635040508 0.177083333333334 0.213383433936182
-0.117169504420092 0.177083333333335 0.230069034042604
-0.111137460950252 0.177083333333334 0.232317324623404
-0.11008859184712 0.177083333333334 0.244222860392763
-0.110668210156191 0.177083333333334 0.250871075467365
-0.114288984162689 0.177083333333335 0.262625435625594
-0.111809265219471 0.177083333333335 0.268877344786942
-0.109775928932102 0.177083333333334 0.286925612145338
-0.109655047575638 0.177083333333334 0.292444677493665
-0.109473144861862 0.177083333333334 0.300112274452697
-0.1106393922069 0.168209956490764 0.302083333333329
-0.114816329660441 0.16061329460232 0.302083333333329
-0.112390680404437 0.153629663013061 0.302083333333329
-0.112414145593016 0.14748799742984 0.302083333333329
-0.124801594604058 -0.0334967058535527 0.151041666666664
-0.125634864493721 -0.0348122710384378 0.151041666666664
-0.126003805260307 -0.0570360706045979 0.151041666666664
-0.12555688189072 -0.057611299639164 0.151041666666664
-0.118369969798487 -0.0708536781156107 0.151041666666665
-0.124310432249875 -0.0866685359366951 0.151041666666664
-0.127616288421431 -0.0956368206925344 0.151041666666665
-0.123872862751515 -0.107817083558862 0.151041666666664
-0.12895919018019 -0.111896705651309 0.151041666666664
-0.12359458420907 -0.126250387505098 0.151041666666664
-0.128423661236531 -0.133385086877163 0.151041666666664
-0.121372689182716 -0.147174867567853 0.151041666666665
-0.130347905188498 -0.15985162325672 0.151041666666664
-0.103737618803592 0.177083333333334 0.168406342742275
-0.0992376986590606 0.177083333333334 0.174131563407297
-0.10129046212377 0.177083333333334 0.185027864219064
-0.0987688427498774 0.177083333333334 0.191271500528784
-0.099435182027656 0.177083333333333 0.199770300473632
-0.100906968924812 0.177083333333333 0.216873886597118
-0.106893322838899 0.177083333333334 0.225252095587566
-0.105598929035651 0.177083333333334 0.227491153580478
-0.102775131648015 0.177083333333334 0.249291666319563
-0.107528462230001 0.177083333333334 0.253143767602681
-0.10164784470796 0.177083333333333 0.256931557582239
-0.105560624089742 0.177083333333334 0.269650777516123
-0.104258626341875 0.177083333333334 0.28076026670528
-0.102824652424157 0.177083333333333 0.287676235734643
-0.100849674159249 0.177083333333334 0.294528678550888
-0.102756949952205 0.167009996051187 0.302083333333329
-0.0993334470908085 0.157897394059671 0.302083333333329
-0.103117624314589 0.14986959394434 0.302083333333329
-0.100622260701376 0.136167880491579 0.302083333333329
-0.111174035657787 -0.033823455598835 0.151041666666664
-0.114059982264079 -0.049111574632035 0.151041666666664
-0.116389379716978 -0.0557055285369472 0.151041666666664
-0.113239546669393 -0.0637481959605003 0.151041666666664
-0.107952855313364 -0.0776640006319285 0.151041666666664
-0.114662445204593 -0.0909327012468087 0.151041666666664
-0.109721419767713 -0.0977727899078045 0.151041666666664
-0.118486941162592 -0.108325826943642 0.151041666666664
-0.113891772422006 -0.124897172995232 0.151041666666664
-0.118605070014484 -0.131836275530385 0.151041666666665
-0.111121855856818 -0.141006327976132 0.151041666666665
-0.111319415620945 -0.158000319613669 0.151041666666664
-0.116609941290677 -0.158537649254983 0.151041666666664
-0.0975435399019262 0.177083333333334 0.171995504824434
-0.095234972751589 0.177083333333333 0.170818668085793
-0.0929913975270483 0.177083333333333 0.186769557947485
-0.0930822279956544 0.177083333333333 0.199761540668121
-0.0971731070874767 0.177083333333334 0.203499417114388
-0.093632167254408 0.177083333333333 0.219922829660385
-0.0931027493377173 0.177083333333333 0.224377573028472
-0.0977919205635797 0.177083333333334 0.239535458298937
-0.0932423172769857 0.177083333333333 0.249613344543231
-0.0985359978840789 0.177083333333334 0.254973039739249
-0.0971574556052383 0.177083333333334 0.255006315886738
-0.0976016646325718 0.177083333333333 0.269361176713013
-0.0913588248099546 0.177083333333333 0.278493829092712
-0.0985047410422817 0.177083333333334 0.284118608417676
-0.0963014959525842 0.177083333333334 0.292628785810263
-0.0990495512241686 0.172329074995192 0.302083333333329
-0.0921554454828453 0.159743174927636 0.302083333333329
-0.0917498259242715 0.155531938179144 0.302083333333329
-0.0993486862764517 0.137369678391967 0.302083333333329
-0.105583190862456 -0.0321236765726146 0.151041666666664
-0.101102999933158 -0.0326939359976921 0.151041666666664
-0.1066030946159 -0.0535346463972237 0.151041666666665
-0.102143200244665 -0.0665069845689897 0.151041666666664
-0.0980957931960579 -0.0778703724889383 0.151041666666664
-0.0982615877017764 -0.0877480077223554 0.151041666666664
-0.106838501121936 -0.0980376180709124 0.151041666666664
-0.104536240275596 -0.10716888230165 0.151041666666664
-0.109240289581093 -0.124297716918773 0.151041666666664
-0.103853097547342 -0.135185246985631 0.151041666666664
-0.106629441461569 -0.138953449607284 0.151041666666664
-0.105405580947002 -0.161345368716319 0.151041666666664
-0.101172770820954 -0.162252088116682 0.151041666666664
-0.0812794697618392 0.177083333333333 0.163019122398964
-0.0860199197333744 0.177083333333333 0.169565367459298
-0.0806769815081156 0.177083333333333 0.192315035805301
-0.0881201823279987 0.177083333333333 0.198182334014545
-0.0827647526162039 0.177083333333333 0.208969325120789
-0.085474319100853 0.177083333333333 0.218274102077608
-0.0813828087919396 0.177083333333333 0.227538438181635
-0.0812103703565806 0.177083333333333 0.240645440905084
-0.088886083631199 0.177083333333333 0.237151787515839
-0.0871206933504294 0.177083333333333 0.259572786594386
-0.0837073118776994 0.177083333333333 0.267052329147737
-0.0861324702455739 0.177083333333333 0.269141415484002
-0.0856930741082463 0.177083333333333 0.278406650532016
-0.0828691529296883 0.177083333333333 0.291216261773053
-0.0819449933619682 0.177083333333333 0.296785298746739
-0.0891293288329778 0.172880769691214 0.302083333333329
-0.0871230157989025 0.160822560626856 0.302083333333329
-0.0830840697023717 0.147222270958358 0.302083333333329
-0.0899155661601164 0.145116280830755 0.302083333333329
-0.0866784361151946 -0.0329544878208516 0.151041666666664
-0.0866489544314959 -0.0405976504660456 0.151041666666664
-0.0864734756095258 -0.0453732044132498 0.151041666666664
-0.0917911545474299 -0.05827699838773 0.151041666666664
-0.0876193674587066 -0.0779528789054471 0.151041666666664
-0.0929937967671012 -0.0880014952837595 0.151041666666664
-0.0952577962666581 -0.0936246176456915 0.151041666666664
-0.0931504001258815 -0.101892704441714 0.151041666666664
-0.0884823347314463 -0.120469784985337 0.151041666666664
-0.0979218907462348 -0.135886151261721 0.151041666666664
-0.0891332220835104 -0.146985570383927 0.151041666666664
-0.0985551234662257 -0.158108563597119 0.151041666666664
-0.0947519543903342 -0.16871322551958 0.151041666666664
-0.0713811153222776 0.177083333333332 0.162536195031635
-0.0732463428689498 0.177083333333333 0.178902195312482
-0.0710888173158705 0.177083333333332 0.18593807651195
-0.0787742018474989 0.177083333333333 0.197992025602013
-0.0785678811860469 0.177083333333333 0.20433681042451
-0.0743201186648566 0.177083333333333 0.215547486242053
-0.075153143541042 0.177083333333333 0.226094650355512
-0.0782033916270164 0.177083333333333 0.232834016868217
-0.0782137692809281 0.177083333333333 0.248363276056657
-0.0798616334610163 0.177083333333333 0.254994677393162
-0.0757016112754753 0.177083333333333 0.261357495185683
-0.0721765679751378 0.177083333333333 0.275246466377182
-0.0704803398866352 0.177083333333332 0.278868134881168
-0.0704964793780164 0.177083333333332 0.292786435504234
-0.077804921887033 0.172574721351926 0.302083333333329
-0.0792604423412165 0.170754707136952 0.302083333333329
-0.0791210557876414 0.161452118729281 0.302083333333329
-0.0768297600802754 0.150931919887785 0.302083333333329
-0.0776280395892518 0.147868574202667 0.302083333333329
-0.0770290232756477 -0.0257245344533652 0.151041666666664
-0.0811064626552502 -0.0358541690962622 0.151041666666664
-0.0765173731484431 -0.0527245144198425 0.151041666666664
-0.0790972155030337 -0.0672081510353075 0.151041666666665
-0.0840836532073671 -0.0713329307305639 0.151041666666664
-0.0826336891994387 -0.0845947794991697 0.151041666666664
-0.084206788719073 -0.0943577207510695 0.151041666666665
-0.0816737531230277 -0.11141323676297 0.151041666666664
-0.0808946674763764 -0.123425115925969 0.151041666666664
-0.0841276211694727 -0.13134607432984 0.151041666666664
-0.0875430667377482 -0.145583732557295 0.151041666666664
-0.0876914995403584 -0.150312635798458 0.151041666666664
-0.0814259995828438 -0.162607131136437 0.151041666666664
-0.0795849327249186 -0.168336418184709 0.151041666666664
-0.0695314860398215 0.177083333333333 0.166951947961462
-0.0634679427941057 0.177083333333332 0.176761585762591
-0.0650641443039648 0.177083333333332 0.183211804284836
-0.0664862156705608 0.177083333333332 0.202038399418419
-0.0697406261747609 0.177083333333332 0.206903071003278
-0.0667411861632211 0.177083333333332 0.214482133998515
-0.0636336113141461 0.177083333333332 0.22520498840169
-0.0680552568517298 0.177083333333333 0.22764136312451
-0.0621832257550889 0.177083333333332 0.237090354163697
-0.0680283193909297 0.177083333333332 0.257553025785639
-0.0620952114843496 0.177083333333332 0.264278909312393
-0.07000558658077 0.177083333333332 0.269783239180471
-0.0688656074950444 0.177083333333332 0.285589676044779
-0.0613437003313322 0.177083333333332 0.293779476885388
-0.0677872103040774 0.177083333333333 0.292768989925149
-0.0707313797605779 0.171209753225222 0.302083333333329
-0.0671978544803249 0.155913087917733 0.302083333333329
-0.068034401237668 0.140696763129131 0.302083333333329
-0.0714436928401322 0.137125682952596 0.302083333333329
-0.0713019771922467 -0.0366442852232265 0.151041666666665
-0.0714960344312344 -0.0344348375854626 0.151041666666664
-0.0755519012450338 -0.0498673799442922 0.151041666666664
-0.0682665324544181 -0.0570494764624975 0.151041666666664
-0.0665433863534766 -0.0791633076079793 0.151041666666664
-0.0761356097037964 -0.0832461013727626 0.151041666666664
-0.0719482108669642 -0.100343323207156 0.151041666666664
-0.0728989735622492 -0.104848885356974 0.151041666666664
-0.0686337948580112 -0.121937234105722 0.151041666666665
-0.0689889792491167 -0.136596234489787 0.151041666666664
-0.0757235781582048 -0.135028049282337 0.151041666666664
-0.0683957810039919 -0.153068548149259 0.151041666666664
-0.0771104187102406 -0.170625085566457 0.151041666666664
-0.0541636268583328 0.177083333333332 0.174175183967512
-0.0609407958507949 0.177083333333332 0.175354811028809
-0.0528704453080128 0.177083333333332 0.188777724684931
-0.0562577194740677 0.177083333333332 0.197242346653122
-0.0541559718854513 0.177083333333331 0.20470926419408
-0.0609175434756761 0.177083333333332 0.217653352219727
-0.0543065455785115 0.177083333333332 0.229786793990789
-0.0570362884194028 0.177083333333332 0.232960034607319
-0.0583982910165898 0.177083333333332 0.237978562554326
-0.0538007341481468 0.177083333333331 0.259143306779126
-0.0567703676423701 0.177083333333332 0.26667535986077
-0.0530944958964431 0.177083333333332 0.263771295076949
-0.0544174650522357 0.177083333333332 0.283393866312052
-0.0537794775260677 0.177083333333332 0.295150416469997
-0.0612198699962368 0.177083333333332 0.300761462564912
-0.0540023751638826 0.172427241822634 0.302083333333329
-0.0598205169790505 0.157674572649098 0.302083333333329
-0.0558057551774444 0.144778349487263 0.302083333333329
-0.0546868742181551 0.142667916587991 0.302083333333329
-0.0543153024311731 0.137033593560556 0.302083333333329
-0.0564327608110963 -0.0435245440408505 0.151041666666664
-0.0639753392553187 -0.0454992650627441 0.151041666666664
-0.0590245768245822 -0.0695999465947536 0.151041666666664
-0.0625342575082924 -0.0713924979801682 0.151041666666664
-0.0587843433240482 -0.0844813052259948 0.151041666666664
-0.0567239200093365 -0.0932403405404405 0.151041666666665
-0.059168442627681 -0.0986250467334966 0.151041666666664
-0.0620401419596549 -0.124931297797568 0.151041666666665
-0.0589943292336051 -0.133208090032719 0.151041666666664
-0.0646974742768773 -0.141960369351111 0.151041666666664
-0.0590135737955491 -0.156461283661448 0.151041666666664
-0.0628557571032787 -0.173067070560028 0.151041666666664
-0.0483206541521043 0.177083333333332 0.172488706333398
-0.0439527562587107 0.177083333333331 0.179701960792079
-0.0429558632192989 0.177083333333331 0.182242024807553
-0.0507517941213473 0.177083333333332 0.202083888724208
-0.0497726274426529 0.177083333333332 0.212509545399913
-0.0443499779600422 0.177083333333331 0.211007404551299
-0.0500365964070481 0.177083333333331 0.231014560659379
-0.0438772272277653 0.177083333333331 0.236726634102199
-0.046605968741308 0.177083333333331 0.243954302374518
-0.04555657040531 0.177083333333332 0.244659570117639
-0.051071352808543 0.177083333333332 0.265802063884706
-0.0473532061435255 0.177083333333331 0.275376155242062
-0.0503336334353488 0.177083333333332 0.278982323157784
-0.0432650717242363 0.177083333333331 0.287209462749305
-0.0496035317882879 0.177083333333332 0.301433255806256
-0.0454539410706277 0.171071546752187 0.302083333333329
-0.0446594693351517 0.16566482693054 0.302083333333329
-0.0498617192820192 0.153361475586904 0.302083333333329
-0.0500362655616412 0.140473512875225 0.302083333333329
-0.0486071241722395 -0.0253194911554063 0.151041666666664
-0.0457789725490195 -0.0393641600404966 0.151041666666664
-0.049884587026418 -0.0532646749059585 0.151041666666664
-0.0556341930433351 -0.0633431029535486 0.151041666666664
-0.0478775719779006 -0.0762225806849816 0.151041666666664
-0.0517575045574674 -0.0850434847131296 0.151041666666664
-0.0483543418757544 -0.0911247141847997 0.151041666666664
-0.0486738930450527 -0.101235007977798 0.151041666666664
-0.0512095591251433 -0.114206195611652 0.151041666666664
-0.0485562504990108 -0.134314969492093 0.151041666666664
-0.0493901633814222 -0.144377336723447 0.151041666666664
-0.0498223878895521 -0.156906164693835 0.151041666666664
-0.0484703328360775 -0.173696343657914 0.151041666666664
-0.036698197052474 0.177083333333331 0.162780665395873
-0.0342008255205526 0.177083333333331 0.176511411238033
-0.0347892212605666 0.177083333333331 0.195221491031625
-0.0344590840972671 0.177083333333331 0.192309689478053
-0.0386545665326139 0.177083333333331 0.203883180985958
-0.0394996543020585 0.177083333333331 0.211563466496322
-0.0388557118816317 0.177083333333331 0.230709093819591
-0.0370979867755576 0.177083333333331 0.237236875517846
-0.0415742019858533 0.177083333333331 0.24424817739273
-0.0332473594849561 0.177083333333331 0.248461444643956
-0.0341709304296795 0.177083333333331 0.263313822141276
-0.0381259695960446 0.177083333333331 0.266958470397493
-0.038818186354696 0.177083333333331 0.278302937091348
-0.0350479959125356 0.177083333333331 0.288353863739333
-0.0377422943770995 0.176106404782175 0.302083333333329
-0.0418137773414673 0.172437298038356 0.302083333333329
-0.034419915669452 0.152530544820501 0.302083333333329
-0.0341381358442971 0.146565308651746 0.302083333333329
-0.0336285313503882 0.141352879861745 0.302083333333329
-0.0404091430202778 -0.0301958824401145 0.151041666666664
-0.0406465507181179 -0.0420248200402658 0.151041666666664
-0.0429418157851396 -0.0530437496053451 0.151041666666664
-0.0405795305160901 -0.0659126850270427 0.151041666666664
-0.0409122424897799 -0.0685782637868086 0.151041666666664
-0.0369490620868497 -0.0878024134110725 0.151041666666664
-0.0426356064035486 -0.100314664453507 0.151041666666664
-0.0383982356049742 -0.109174134025868 0.151041666666664
-0.0391816240322837 -0.124820815328901 0.151041666666664
-0.0434404578153763 -0.124223707185769 0.151041666666664
-0.0434663778837857 -0.143305209176123 0.151041666666664
-0.0473386849106221 -0.156867604951897 0.151041666666664
-0.0445090456173248 -0.159889830353369 0.151041666666664
-0.0445877100367006 -0.172565968118573 0.151041666666665
-0.0317992363789881 0.177083333333331 0.174226437184855
-0.0272739979891299 0.177083333333331 0.174897135471495
-0.0251809555852057 0.177083333333331 0.187268094506055
-0.0293268193753197 0.177083333333331 0.198572007121252
-0.0285455619023858 0.177083333333331 0.204725099925179
-0.0236565099355842 0.177083333333331 0.214926658702277
-0.0301389984385517 0.177083333333331 0.220145690467966
-0.0259939244716922 0.177083333333331 0.228649481767642
-0.0329089451433819 0.177083333333331 0.235634910077619
-0.0319056691720443 0.177083333333331 0.254592202001225
-0.0244832143588481 0.17708333333333 0.266727035204145
-0.0277294253338718 0.177083333333331 0.269062002014155
-0.025120474905059 0.177083333333331 0.287509061144337
-0.0324083019187593 0.177083333333331 0.293563277776391
-0.0263805372166191 0.177083333333331 0.299195544441276
-0.028332321536079 0.169523774796476 0.302083333333329
-0.023916088652016 0.16413524678652 0.302083333333329
-0.0242255735533488 0.148354233189996 0.302083333333329
-0.0272228015672585 0.138141744041305 0.302083333333329
-0.0276039761272703 -0.029672597732228 0.151041666666664
-0.03383312005386 -0.0484700179503011 0.151041666666664
-0.0356969338433594 -0.0506272767322333 0.151041666666665
-0.0302549397645887 -0.055734871903494 0.151041666666664
-0.0352873017826407 -0.0772380597718431 0.151041666666664
-0.0302932724574408 -0.0924432011911007 0.151041666666664
-0.0312312815427354 -0.0930725711134481 0.151041666666664
-0.0278848182350572 -0.106572882352102 0.151041666666664
-0.0321088244294298 -0.112492983316439 0.151041666666664
-0.028611713229182 -0.129456403464127 0.151041666666664
-0.02656858839666 -0.144743721833966 0.151041666666664
-0.0363647637546903 -0.146137274655077 0.151041666666664
-0.0310592085355695 -0.163686143745321 0.151041666666664
-0.0325450367524304 -0.170434579817023 0.151041666666664
-0.0155903182027419 0.177083333333331 0.159310911634484
-0.0213036799419132 0.177083333333331 0.170811534923972
-0.0205077220267458 0.17708333333333 0.191043684248083
-0.0202117199264957 0.17708333333333 0.204038644987818
-0.0156672024673157 0.177083333333331 0.2031007758356
-0.0180329544019601 0.177083333333331 0.208095162819728
-0.0210916265057907 0.17708333333333 0.229821955843056
-0.0222070617596827 0.177083333333331 0.224810689466213
-0.0192885883368067 0.17708333333333 0.23654286035323
-0.02214930335703 0.177083333333331 0.256110230122672
-0.0221810001752596 0.177083333333331 0.260216145330294
-0.015051428029787 0.177083333333331 0.267817287446373
-0.0155377982242591 0.17708333333333 0.281728989515037
-0.0224227595576928 0.177083333333331 0.292292329736937
-0.0224324030737139 0.17708333333333 0.30142771680871
-0.0225417252446216 0.172417885333225 0.302083333333329
-0.0224088062275218 0.164374764069285 0.302083333333329
-0.0200701435027599 0.14963511909886 0.302083333333329
-0.023753980326162 0.136885623454559 0.302083333333329
-0.0212527598840011 -0.0265590611739295 0.151041666666665
-0.0166976929918514 -0.0448927721647927 0.151041666666664
-0.0254862523425056 -0.0489494350974077 0.151041666666664
-0.0186762395135877 -0.0725728073098669 0.151041666666664
-0.0192742704534442 -0.0794336808142138 0.151041666666664
-0.0195781933542682 -0.0872339604461986 0.151041666666664
-0.0179598996505263 -0.0914992052109868 0.151041666666664
-0.0182193675282991 -0.110100943885948 0.151041666666664
-0.0226001005701081 -0.116170465838165 0.151041666666664
-0.0254565357488616 -0.137524719225772 0.151041666666664
-0.0261568445534441 -0.139900543148896 0.151041666666664
-0.018671928886855 -0.151232099921603 0.151041666666665
-0.0259176847869084 -0.173736741501693 0.151041666666664
-0.00722096803296852 0.17708333333333 0.166679701474101
-0.0075841456458449 0.17708333333333 0.174695445534356
-0.00698599799395077 0.17708333333333 0.188793243086975
-0.00543270271312403 0.17708333333333 0.195455998082368
-0.00483242598871824 0.17708333333333 0.20205552930627
-0.00580094431438672 0.17708333333333 0.214009072565
-0.00770697557318486 0.17708333333333 0.221958876063929
-0.0130556024358638 0.17708333333333 0.23320710867095
-0.0104831081829214 0.17708333333333 0.242892243457217
-0.014164702248405 0.17708333333333 0.25210700805111
-0.0123146876203756 0.17708333333333 0.253647202097097
-0.0138699249295554 0.17708333333333 0.277413871399393
-0.00479478168866162 0.177083333333329 0.27592048440483
-0.0121603188121777 0.17708333333333 0.28838285539381
-0.0107245935318641 0.17708333333333 0.294596292492001
-0.0122924064784549 0.169917285906333 0.302083333333329
-0.0105326524478536 0.156633106972588 0.302083333333329
-0.00917414955577025 0.150076801713049 0.302083333333329
-0.0134357245182651 0.141401703523312 0.302083333333329
-0.0103155317941436 -0.0380149189279515 0.151041666666664
-0.0111502309331841 -0.0336863885212182 0.151041666666664
-0.00909290293486636 -0.0496492491721351 0.151041666666664
-0.00568784716151141 -0.0737690090720133 0.151041666666664
-0.00896855519540903 -0.0763379762782425 0.151041666666665
-0.0137540672406897 -0.0933335784283367 0.151041666666664
-0.0140269709204767 -0.0963969341453831 0.151041666666664
-0.00596115754289699 -0.105026839849697 0.151041666666664
-0.0074003627092772 -0.116247712955672 0.151041666666665
-0.00997225489843194 -0.128438234009946 0.151041666666665
-0.0114880810100792 -0.14000858879691 0.151041666666665
-0.0133805809788752 -0.15634650436364 0.151041666666664
-0.0133457798289625 -0.174982997602909 0.151041666666664
-0.0115714872121999 -0.174162989055486 0.151041666666664
0.00459183430821996 0.17708333333333 0.173307053385105
-0.00060709143401 0.17708333333333 0.169392231759237
0.000985102486871838 0.177083333333329 0.184115225810448
0.00233301036470898 0.17708333333333 0.195398887011406
-0.00181051661161719 0.17708333333333 0.204643316609795
-0.00042991155159525 0.17708333333333 0.216075430929202
-0.00442847696512524 0.17708333333333 0.216853121851005
0.000835962087257065 0.17708333333333 0.232768659985108
-0.00169194053812488 0.177083333333329 0.247688526067068
-0.00276280635337576 0.177083333333329 0.25472226337365
-0.00197793330822173 0.17708333333333 0.261650682979902
0.00243494171942701 0.17708333333333 0.268730746398478
-0.00409880898492619 0.17708333333333 0.287616314740053
0.000242551355035739 0.17708333333333 0.29428169986498
0.000946836581950197 0.17708333333333 0.299949970598269
0.00349427258167181 0.168738634653006 0.302083333333329
-0.00159732957384985 0.166232668122136 0.302083333333329
-0.00372300102699654 0.150052450048563 0.302083333333329
0.00059490226561689 0.140897868207776 0.302083333333329
0.00152427192845479 -0.0327234000310505 0.151041666666664
0.00396108591360592 -0.040296457097085 0.151041666666664
-0.00187085350001877 -0.0481478511814462 0.151041666666664
-0.00396224682405991 -0.0668350572814291 0.151041666666664
0.0011728132618264 -0.0705882585241659 0.151041666666664
-0.00367073436515063 -0.0910636082762136 0.151041666666664
-0.00351287695692664 -0.092708276941397 0.151041666666664
0.00345967023830568 -0.107691332563624 0.151041666666664
0.00254938556755215 -0.114859894420232 0.151041666666664
0.00350651658731926 -0.128808660899886 0.151041666666664
-0.00367893204560636 -0.135768844725194 0.151041666666664
-0.00503608989320768 -0.155527841402061 0.151041666666664
0.00455417951820062 -0.163546106945743 0.151041666666664
0.0136184497344259 0.177083333333329 0.169580547966364
0.0122568421408065 0.177083333333329 0.172038348854762
0.00462875500401135 0.177083333333329 0.185984988351938
0.0138146046977158 0.177083333333329 0.188752721898845
0.00944237626579061 0.177083333333329 0.209265148291532
0.00666026512870671 0.177083333333329 0.213029888453086
0.0107915864503826 0.177083333333329 0.220901890881402
0.0132452410925564 0.177083333333329 0.232128115804212
0.00621118577087326 0.177083333333329 0.244720159147224
0.00684989739649449 0.177083333333329 0.260071718072473
0.0119355094962152 0.177083333333329 0.267002246962696
0.0135816155785353 0.177083333333329 0.268835623540905
0.0104968092875112 0.177083333333329 0.275766763800563
0.00804431511477926 0.177083333333329 0.287851638331432
0.00883607351736721 0.172346848729347 0.302083333333329
0.00910996331147274 0.162510830782917 0.302083333333329
0.0129621397344011 0.168617034787109 0.302083333333329
0.0138098337157885 0.150377280016831 0.302083333333329
0.00992375388555492 0.141282726529252 0.302083333333329
0.00971003521296182 -0.0359824988348321 0.151041666666664
0.0144974686576251 -0.0471517296843377 0.151041666666664
0.0114692779274701 -0.0461578908148181 0.151041666666664
0.0127059561957895 -0.0615481936920039 0.151041666666664
0.0145694822690509 -0.0752247523288698 0.151041666666664
0.00810610051236354 -0.085944098884907 0.151041666666664
0.00934166431398194 -0.0898897821889244 0.151041666666665
0.00520067402487082 -0.110533016189856 0.151041666666664
0.00946213626644847 -0.109380887106106 0.151041666666664
0.0144623863789725 -0.12996762790817 0.151041666666664
0.00611722324599564 -0.148348762972857 0.151041666666664
0.010600633171445 -0.163703439472949 0.151041666666664
0.0124196857557192 -0.162106006166584 0.151041666666664
0.014472630042644 -0.17576826246492 0.151041666666664
0.0145168584888321 0.177083333333329 0.170389229626594
