ply
format ascii 1.0
element vertex 854
property float x
property float y
property float z
end_header
0.384068478638866 0.0577636491230341 0.151041666666664
0.391876029387583 0.0703393340280702 0.151041666666664
0.402257795083177 0.0721959396600089 0.151041666666664
0.423348131452151 0.0878179607187402 0.151041666666664
0.431884722311719 0.0943998894357531 0.153397515871346
0.430356025866967 0.0953445537960738 0.156821924177509
0.439893583912343 0.096409855234314 0.160683641891131
0.432982062213066 0.0987250680147782 0.169076288220312
0.439651909142279 0.102927592183633 0.184310438332414
0.444953427534875 0.102588181711636 0.183080075371426
0.444534784903441 0.107375423669406 0.200433827468339
0.44376240681514 0.107592864523753 0.20122205056535
0.450183396294964 0.110837456448487 0.21298369629251
0.446702479690584 0.112673942670372 0.219640958846843
0.451545286429507 0.116843300273197 0.234754880157082
0.450318301431937 0.119666168908341 0.244987778959482
0.490215319889669 0.148121832151728 0.218749999999997
0.457497304916829 0.127558890116259 0.273598893338187
0.110879565461518 -0.16666666666667 0.0278590927777475
0.117522566412331 -0.166666666666671 0.0297351102285204
0.107922697663508 -0.16666666666667 0.047676921103666
0.115096845924381 -0.16666666666667 0.0604590807187418
0.117890875258705 -0.16666666666667 0.0666918105657428
0.106321037467748 -0.16666666666667 0.0760909078950106
0.116164115052473 -0.166666666666671 0.080968241379759
0.0960536469330285 -0.177083333333336 0.113782749679626
0.100396298771067 -0.177083333333336 0.116200784984499
0.0996351747644173 -0.177083333333336 0.131000947650781
0.0974227771328294 -0.177083333333336 0.147863323324113
0.102682461436844 -0.177004103257059 0.151041666666664
0.105162744458748 -0.167424175177923 0.151041666666664
0.121217392602851 -0.166687040003359 0.151041666666664
0.11958318644445 -0.159701917391414 0.151041666666664
0.132419150168113 -0.150134735387348 0.151041666666664
0.136759417237004 -0.147018875713595 0.151041666666664
0.152284503230257 -0.137605459700946 0.151041666666664
0.149674414377397 -0.131544520319124 0.151041666666664
0.168114946850799 -0.126841892420525 0.151041666666664
0.165349220929453 -0.118754014774069 0.151041666666664
0.175588499628355 -0.109652304722322 0.151041666666664
0.185880687446157 -0.10083362781755 0.151041666666664
0.20200932757511 -0.0893255618790987 0.151041666666664
0.206691659454365 -0.0890448462806713 0.151041666666664
0.213758500810384 -0.0759015789550529 0.151041666666664
0.223934271840521 -0.0730132651686958 0.151041666666664
0.233367664924226 -0.0603139274154731 0.151041666666664
0.235397385346384 -0.0520377385744424 0.151041666666664
0.246108073091806 -0.0463417627438834 0.151041666666664
0.252590403410569 -0.0372922545117384 0.151041666666664
0.260197348867253 -0.0384670354041606 0.151041666666664
0.283487158641744 -0.0221037714968506 0.151041666666664
0.276338891425303 -0.0159712986772131 0.151041666666664
0.29239194642091 -0.0124360002914908 0.151041666666664
0.309726764141764 0.00178420069131608 0.151041666666665
0.306342631729375 0.0103420462127987 0.151041666666664
0.322524751160293 0.0138947744198069 0.151041666666664
0.324523023276814 0.0268222993217977 0.151041666666664
0.340539098555427 0.0305548868925099 0.151041666666664
0.341397034564481 0.0386065118129193 0.151041666666664
0.361389264421157 0.0442290780681779 0.151041666666665
0.36895834713165 0.057856110211219 0.151041666666664
0.378704086389844 0.0659605346385028 0.151041666666664
0.394658208784557 0.0793066822083866 0.151041666666664
0.390328839865252 0.0811756965376332 0.151041666666664
0.411846934538383 0.090591886541702 0.151041666666665
0.410107388949109 0.0956241220578038 0.157835359126277
0.412482364178889 0.0973801877903902 0.164201097406903
0.420255100253486 0.0990678224574263 0.170318773074911
0.419710719450114 0.102269727497268 0.181925678844339
0.425901139897997 0.104066116935634 0.188437590558414
0.4321640761397 0.105604180321878 0.194013070333551
0.433272827211366 0.110254237748682 0.210869528505715
0.436891803035074 0.112015010639557 0.217252330235139
0.436097891927383 0.112313723666232 0.218335164956833
0.440546179368585 0.114966189002242 0.227950351799872
0.430350581194413 0.119445616285305 0.244188275700973
0.441311331854004 0.119850619044391 0.245656410702662
0.451833602575101 0.120754129087377 0.248931634608488
0.443373584285887 0.126059220769863 0.268162591957497
0.452675708402442 0.128690978323415 0.277702713089124
0.448064519028269 0.130028350133601 0.282550685901046
0.448848719107024 0.133184557221297 0.293991936593949
0.456094663220406 0.133163869538547 0.29391694374398
0.457180667715396 0.135615303684459 0.302083333333329
0.0955805570904608 -0.16666666666667 0.0339673337224348
0.0994432655414232 -0.16666666666667 0.0464913307576002
0.0995148572391221 -0.16666666666667 0.05321253562287
0.0948569149063498 -0.16666666666667 0.0742008137863348
0.0987150462062707 -0.16666666666667 0.074635747396963
0.0933451766841009 -0.16666666666667 0.0893662856193307
0.0894710681226579 -0.177083333333335 0.112862423368288
0.0847665033092315 -0.177083333333335 0.119311790441978
0.0849085993812147 -0.177083333333335 0.136069266793487
0.0806247899430553 -0.177083333333335 0.144687584324294
0.0906501017564967 -0.16944195637845 0.151041666666664
0.0966041501626036 -0.163604999729518 0.151041666666664
0.102730777820481 -0.164917488404815 0.151041666666664
0.111761400350518 -0.156886407196847 0.151041666666664
0.120772767197378 -0.150654520535279 0.151041666666664
0.129885690503324 -0.138239941793886 0.151041666666664
0.131240817877458 -0.135473642206833 0.151041666666664
0.13518480632904 -0.128095746092274 0.151041666666664
0.152310863970116 -0.123174251194607 0.151041666666664
0.158128821544752 -0.112618045938965 0.151041666666665
0.16616733376928 -0.109313534269218 0.151041666666664
0.174567909169305 -0.0964774743783214 0.151041666666664
0.183800095134468 -0.0897992672855101 0.151041666666664
0.184790124240593 -0.0905305331859654 0.151041666666664
0.201807661484159 -0.0731075701539929 0.151041666666664
0.21083158514649 -0.0658597534236516 0.151041666666664
0.218842134614422 -0.0589895504833167 0.151041666666664
0.224508491930954 -0.0548456239445296 0.151041666666664
0.225019565939256 -0.0531401291786849 0.151041666666664
0.242466497745364 -0.0432049043099866 0.151041666666664
0.257887857454037 -0.0240635128854199 0.151041666666664
0.257064262429236 -0.0260688637478931 0.151041666666665
0.268633837312812 -0.0209505226905531 0.151041666666664
0.274876215359061 -0.00704243959700844 0.151041666666664
0.287762776488407 0.000245821817074204 0.151041666666664
0.292013065271145 0.00191204498039195 0.151041666666664
0.297604315956065 0.00747453016189365 0.151041666666664
0.304937676092333 0.0182978964411625 0.151041666666664
0.318468605810098 0.0323828342906215 0.151041666666664
0.328660295063796 0.0328673003980401 0.151041666666664
0.34521243045551 0.0492028893046082 0.151041666666664
0.357714203210809 0.0543537262072301 0.151041666666665
0.369525360151329 0.0653680511029903 0.151041666666664
0.375677342269512 0.0804269251068963 0.151041666666664
0.376767674595096 0.0776260730310289 0.151041666666664
0.391380575316512 0.0948170908758945 0.154909871091852
0.392109096098333 0.0953729971914174 0.156925031485625
0.390813175064662 0.0977751691347861 0.165632904780334
0.407191546844458 0.0985140673598502 0.168311410846196
0.406668839641867 0.10123776031804 0.178184797819634
0.400078722407663 0.103397261632239 0.186012990083602
0.414426376730851 0.106099418142335 0.195808307432703
0.413106619579574 0.11002019432869 0.21002112110824
0.412502921913229 0.110300131741442 0.211035894229466
0.417767373348258 0.113837812660136 0.223859987559733
0.418713448528927 0.115393487151276 0.229499307590117
0.427246276881213 0.115623771502691 0.230334088363998
0.425508943834805 0.118939685137626 0.242354275290634
0.428765410074232 0.12160372315354 0.252011413098324
0.429756052737187 0.125326723150555 0.265507288087503
0.43196092078914 0.125951456769695 0.267771947456888
0.433528928703035 0.129248189353306 0.279722603072477
0.442734064895791 0.131692287978007 0.288582460587023
0.434273870902345 0.137690222055721 0.302083333333329
0.437873632628512 0.134975584720305 0.300484411277851
0.456200492879128 0.154140394116883 0.302083333333329
0.0790512007128342 -0.166666666666669 0.0505435399754469
0.0834324990495022 -0.166666666666669 0.0591854251427504
0.0777384079355015 -0.166666666666669 0.0727892306704
0.079054540909581 -0.166666666666669 0.0845727065043247
0.0806947446994158 -0.166666666666669 0.0937225756597422
0.0644771884830657 -0.177083333333334 0.116987942889418
0.0729990540178118 -0.177083333333335 0.125183564800549
0.0730226366428975 -0.177083333333335 0.128489688854908
0.0697554734250762 -0.177083333333335 0.148158750385996
0.0752010947285406 -0.17702120163594 0.151041666666664
0.0848025757549273 -0.165275391453625 0.151041666666665
0.0837444981320493 -0.164669303480559 0.151041666666664
0.0977608963565138 -0.154069802116839 0.151041666666665
0.0972417773315506 -0.149576995445324 0.151041666666665
0.113669925642959 -0.145371790989415 0.151041666666664
0.114502235503368 -0.13664039272958 0.151041666666664
0.1207658299857 -0.127488731347743 0.151041666666664
0.133966716090962 -0.121980724812907 0.151041666666664
0.139701663566437 -0.114809090876193 0.151041666666664
0.149979806410499 -0.105784083158125 0.151041666666664
0.154047786307751 -0.0995731737454676 0.151041666666664
0.161250440245495 -0.0886175755635348 0.151041666666664
0.180451059759757 -0.0846720542025178 0.151041666666664
0.17722518485218 -0.0805335735205219 0.151041666666664
0.190943551344844 -0.0754625208720385 0.151041666666664
0.199266849937148 -0.0639888973935796 0.151041666666664
0.216637473731734 -0.0566408934726629 0.151041666666664
0.215783478243844 -0.0421596601726177 0.151041666666664
0.225015623021599 -0.0476813492586614 0.151041666666664
0.228822823975465 -0.0335427351725966 0.151041666666665
0.241516468011762 -0.0277927215752721 0.151041666666664
0.248042318105681 -0.0187123541275257 0.151041666666664
0.251739852573355 -0.0127656043452291 0.151041666666664
0.272773372487744 -0.00655125030068295 0.151041666666664
0.285189155041031 0.00662092317351583 0.151041666666664
0.279960933321625 0.0124605875140069 0.151041666666664
0.302397648790422 0.0213053691418055 0.151041666666664
0.302481077380053 0.0318044724032554 0.151041666666664
0.308707604623372 0.0321697516442529 0.151041666666664
0.323066217960283 0.0471676925818125 0.151041666666664
0.333529116418789 0.0568713123890344 0.151041666666664
0.347357480664556 0.0617306364400072 0.151041666666664
0.351127811291287 0.0745555221675697 0.151041666666664
0.352452031478081 0.0743206946491548 0.151041666666664
0.375580034201346 0.0935958289910127 0.151041666666664
0.375599479390401 0.0952598970006384 0.156515043294046
0.385024233181 0.0969873832064702 0.162777180790188
0.382388924991917 0.101016085548546 0.177381226780215
0.385364825919602 0.100572090026857 0.175771743014091
0.392568014491449 0.104867310650554 0.191341917774994
0.383554798710928 0.107427739272879 0.200623471530922
0.393077852071466 0.107900017409003 0.202335479774371
0.397750520241422 0.108453145286772 0.204340568331288
0.398378806549447 0.111417286413694 0.215085579916378
0.406309538416832 0.114692783381188 0.226959256423544
0.404368524411331 0.119521962501076 0.244465030733139
0.405994071171973 0.117841305897967 0.238372650546867
0.409688604973615 0.122249298043165 0.254351622073214
0.412108052475305 0.12475946082436 0.263450962155046
0.412674880637353 0.125950978936245 0.267770215310628
0.414765009103263 0.126785181398 0.270794199234488
0.417710086295779 0.130432063223184 0.284014145850783
0.420347950826474 0.132760559999629 0.292454946665395
0.420186697345586 0.135080307340563 0.300864030776279
0.440494111093739 0.151172294569624 0.302083333333329
0.457093093987522 0.161026914120079 0.302083333333329
0.0720689772878092 -0.166666666666669 0.051730212256977
0.0751239871163627 -0.166666666666668 0.0600856574578653
0.0639940607702981 -0.166666666666668 0.07547612232176
0.0692803401751206 -0.166666666666668 0.0893153135956799
0.0506898483486251 -0.177083333333333 0.114092179827152
0.053375867035377 -0.177083333333334 0.127888358087743
0.0560548751104701 -0.177083333333334 0.13417332224038
0.0572521630042314 -0.177083333333334 0.1474888045549
0.066009136209488 -0.177083333333335 0.14749037987511
0.0619646748324284 -0.17183302809049 0.151041666666664
0.075172493437206 -0.163283033582637 0.151041666666664
0.0812713946592172 -0.152244741326152 0.151041666666664
0.0905872036324907 -0.144874575783043 0.151041666666664
0.0956641426466053 -0.145364755812613 0.151041666666665
0.101412994898661 -0.132721903385459 0.151041666666665
0.117454127954884 -0.12161978895598 0.151041666666664
0.115225279822436 -0.12332352806403 0.151041666666665
0.134244669198839 -0.109628107517538 0.151041666666664
0.142088007711539 -0.0993906770073903 0.151041666666664
0.142124358271082 -0.0968791379449855 0.151041666666664
0.147964877272701 -0.0893364038632082 0.151041666666664
0.156407977062065 -0.0838351327806382 0.151041666666664
0.160248173378333 -0.0783073072512848 0.151041666666665
0.182149719115243 -0.0696798851843991 0.151041666666664
0.184445738247847 -0.0557798995598113 0.151041666666664
0.188534340911001 -0.0574907708286069 0.151041666666664
0.205157213705954 -0.0413771978016032 0.151041666666664
0.212640280134492 -0.0350190446666252 0.151041666666664
0.218472079719758 -0.0307338647727154 0.151041666666664
0.231947833880245 -0.01788076375975 0.151041666666664
0.240081824361767 -0.0180650114261331 0.151041666666664
0.242339927850143 -0.00974223388583694 0.151041666666664
0.253171455871173 -0.00378088109959663 0.151041666666664
0.270275360236387 0.00689493431411817 0.151041666666665
0.268844656878491 0.0148967799239206 0.151041666666664
0.281565225100141 0.0215162845547567 0.151041666666665
0.286073358452773 0.0297349237171425 0.151041666666664
0.300989185280616 0.0425240244484829 0.151041666666664
0.303907798904665 0.0445057268966587 0.151041666666664
0.316756748779974 0.056557236023279 0.151041666666664
0.322101083534727 0.063083131896765 0.151041666666664
0.333787173444055 0.0716808695896659 0.151041666666664
0.349501533811744 0.0838920537448935 0.151041666666664
0.354770493894203 0.0934024833884704 0.151041666666664
0.362236599869685 0.0951080555421696 0.155964618007096
0.369663916002201 0.095647546777641 0.157920273735682
0.368895539738705 0.0990322454566393 0.170189806447052
0.371625242991053 0.101452662021319 0.178963816494014
0.374507861598374 0.104366226544658 0.189525487891117
0.37394868389626 0.105715721008294 0.194417405321798
0.376715978304551 0.106921874758536 0.198789712666426
0.374910063506063 0.110991096701202 0.213540642208592
0.383871288805455 0.114167037383189 0.225053427180794
0.377366865514458 0.114418820634674 0.225966141467426
0.385789966455474 0.116971337221402 0.235219014094316
0.390723414583143 0.118939391714461 0.242353211631658
0.393907998457872 0.120755081889498 0.248935088516167
0.39857528139745 0.124027521596702 0.260797682454785
0.4022426478451 0.126836747538608 0.270981126494193
0.402278061833334 0.1300746358355 0.282718471570426
0.399055748412048 0.130977148361513 0.285990079477225
0.404447779140648 0.134512475629953 0.298805640825317
0.406022387201951 0.137002898675212 0.302083333333329
0.420229051262123 0.149101303119494 0.302083333333329
0.430014502085672 0.152632359974938 0.302083333333329
0.432410794941092 0.162815235939772 0.302083333333329
0.442955664022237 0.172584876190247 0.302083333333329
0.0548528468873006 -0.166666666666668 0.061015661629417
0.0572627635197806 -0.166666666666668 0.0754082543515726
0.0337739147808633 -0.177083333333333 0.115270535600625
0.0401625399023841 -0.177083333333333 0.12268687118426
0.0425162444274876 -0.177083333333333 0.128006187587223
0.0456070549492151 -0.177083333333333 0.129886979176905
0.0394119940200712 -0.177083333333333 0.146633078568322
0.0495524832391119 -0.171383421186039 0.151041666666665
0.051716136716977 -0.171886412277543 0.151041666666665
0.0603659429018475 -0.16580081765722 0.151041666666664
0.0626812521196976 -0.156677693959947 0.151041666666664
0.0721793705692125 -0.144350308201738 0.151041666666665
0.0854184353825096 -0.139123557123046 0.151041666666664
0.0928831086315016 -0.132391116777053 0.151041666666664
0.0937158166068975 -0.126189673416926 0.151041666666664
0.100510592774027 -0.120982401496393 0.151041666666664
0.115322179905314 -0.112873901483219 0.151041666666664
0.122301996101491 -0.102704749932 0.151041666666665
0.133946848800134 -0.0929854707606169 0.151041666666664
0.13193553077817 -0.0898456397033932 0.151041666666664
0.140296553528528 -0.0805128048831559 0.151041666666664
0.154288324613409 -0.0752448016498791 0.151041666666664
0.158649074617692 -0.0690045559602749 0.151041666666664
0.169370477150473 -0.0688356639450925 0.151041666666664
0.177293216549379 -0.0537861112050708 0.151041666666664
0.177612511802962 -0.0560405945351253 0.151041666666664
0.196648169099473 -0.0419439870081462 0.151041666666664
0.20868034340895 -0.034026961337916 0.151041666666664
0.215107930992912 -0.019756775859291 0.151041666666664
0.218606897174982 -0.0138567133677309 0.151041666666664
0.22650608801316 -0.011980463132063 0.151041666666664
0.231402907651658 -0.000854216665247571 0.151041666666664
0.251129725618024 0.00703834049538331 0.151041666666664
0.250562109618182 0.00550685097040256 0.151041666666665
0.267304671477931 0.0252672097464352 0.151041666666664
0.276471876095903 0.0299077861965592 0.151041666666664
0.280499240907523 0.0392218597488905 0.151041666666664
0.285857559393386 0.0453774242640144 0.151041666666664
0.301195364694288 0.0498617630005941 0.151041666666664
0.306495698137803 0.0613243272845409 0.151041666666664
0.317497060475602 0.0675228603031095 0.151041666666664
0.326539936139359 0.0747029189558362 0.151041666666665
0.329898188670209 0.0812472815091018 0.151041666666665
0.343897781972357 0.0945052919411401 0.153779599953362
0.350138192417479 0.0957841779799928 0.158415561844203
0.345348246201225 0.0981942465814102 0.16715206052434
0.351417839160999 0.101594904040041 0.179479443811879
0.347858394137539 0.104275411702796 0.189196284089365
0.3564805460966 0.1046618949169 0.190597285740494
0.361408882548644 0.108731175603981 0.205348428231163
0.368668528836556 0.110275608698145 0.210946998197506
0.366865010969801 0.10997908910104 0.209872114658002
0.356475814023507 0.11505093335938 0.228257550094482
0.375962746137446 0.116865211443376 0.234834308148972
0.369217180402067 0.120086174334337 0.246510298628705
0.364595870469157 0.122773443281842 0.256251648563409
0.380641384324987 0.124950780349028 0.264144495431963
0.386147478474252 0.126788072121997 0.270804678108976
0.377527072653736 0.127568622011836 0.273634171459641
0.387188081261316 0.131061759554438 0.286296795051574
0.383979450934807 0.132078123360892 0.28998111384997
0.389604223721405 0.134951340842405 0.300396527220454
0.403298301093516 0.14376548612466 0.302083333333329
0.413239853110244 0.15487087475263 0.302083333333329
0.426593784416851 0.16472979753002 0.302083333333329
0.428540985580852 0.166152102982477 0.302083333333329
0.0461611961999026 -0.166666666666667 0.0755394159187132
0.0230150658400344 -0.177083333333332 0.111854296184001
0.0271830304953922 -0.177083333333333 0.12447087156829
0.033432440964254 -0.177083333333333 0.120946329782706
0.0291728209075671 -0.177083333333333 0.142428859709041
0.0202300616167508 -0.177083333333333 0.148476606901172
0.0345570332155972 -0.168578586086424 0.151041666666664
0.0340459982467652 -0.168252968033712 0.151041666666664
0.0447487506036409 -0.16322426932784 0.151041666666664
0.0499153258506687 -0.157337494272201 0.151041666666664
0.05179777946792 -0.147199793859118 0.151041666666664
0.0611915398481203 -0.143889805710914 0.151041666666665
0.070514348319827 -0.140317504899925 0.151041666666664
0.0787049888801742 -0.129003077211341 0.151041666666664
0.0971029042608444 -0.115351867462381 0.151041666666664
0.0919702346008544 -0.115154771673409 0.151041666666664
0.0989683090620847 -0.105394237650704 0.151041666666665
0.115496895111505 -0.100616059097943 0.151041666666664
0.120858441956561 -0.100325921622474 0.151041666666664
0.121853629953975 -0.0914598801177806 0.151041666666664
0.140570584262994 -0.0777661221086066 0.151041666666664
0.13848641172844 -0.0726055482381991 0.151041666666664
0.14926537619207 -0.0648229257227648 0.151041666666665
0.161993102097768 -0.0547649835599133 0.151041666666664
0.16636332825059 -0.0556506483541299 0.151041666666664
0.17914346307409 -0.0390346600374794 0.151041666666664
0.186241935620657 -0.030936911570937 0.151041666666664
0.190986758827203 -0.0298435768545762 0.151041666666664
0.209746767920163 -0.0145233138472365 0.151041666666664
0.2164464905304 -0.00599042054031092 0.151041666666664
0.224253951028452 0.00150514071430593 0.151041666666664
0.234086609650301 0.00954510211791942 0.151041666666664
0.245842166623398 0.013886572126348 0.151041666666664
0.252104734101257 0.0260546589945231 0.151041666666664
0.2548378319978 0.031475733448939 0.151041666666664
0.267040005233042 0.0393158695201636 0.151041666666664
0.276063390537668 0.0506940784004355 0.151041666666664
0.287582349952336 0.0585547837495939 0.151041666666664
0.295582100516605 0.0600168217297113 0.151041666666664
0.300156133009969 0.0723455779111228 0.151041666666664
0.307972557174865 0.0837130529433869 0.151041666666664
0.319832696141584 0.0856427277746516 0.151041666666664
0.333759094588836 0.0921626317672034 0.151041666666665
0.322281968267693 0.0979653778097676 0.166322411227134
0.327677820665375 0.100592041285568 0.17584406632691
0.327793355560525 0.101625962896959 0.1795920321682
0.341568496385763 0.1025373256636 0.182895722197279
0.342587596077714 0.104869248985587 0.191348944239483
0.345232311744339 0.108343342818576 0.203942534384067
0.350733934142206 0.10784433137395 0.202133617897299
0.350498943818479 0.11083252532136 0.212965820956657
0.351035589850701 0.115548443067954 0.230061022788062
0.356913039376957 0.117145576405444 0.235850631136463
0.353682639104143 0.119936815053233 0.2459688712347
0.357387589629666 0.122915143726061 0.256765312673701
0.358827227744461 0.123501122842944 0.258889486972402
0.357642417307894 0.126593808883979 0.270100473871157
0.360991488750588 0.129247748571736 0.279721005239274
0.360728246734566 0.129981514654097 0.282380907287836
0.37689756420217 0.132171961382757 0.290321276679231
0.368859793085785 0.136603839788112 0.302083333333329
0.373948920908235 0.135303470868998 0.30167299856685
0.393917609387673 0.160841413433931 0.302083333333329
0.399180625766831 0.154466920174225 0.302083333333329
0.412179979696656 0.171603049117619 0.302083333333329
0.0249101233614391 -0.166666666666666 0.0850624035124814
0.0199836226202172 -0.177083333333332 0.112775221674017
0.0189940898067793 -0.177083333333333 0.127870599820576
0.0189345468135236 -0.177083333333332 0.134677350659001
0.00743880429157694 -0.177083333333332 0.145819971747861
0.0135469008683229 -0.173007258814809 0.151041666666664
0.0182042905685602 -0.173097305682934 0.151041666666664
0.0286678637812802 -0.159359107626364 0.151041666666664
0.0399909165009523 -0.155232049575579 0.151041666666664
0.0458356181743382 -0.145560136902996 0.151041666666664
0.056648598278821 -0.13842891519058 0.151041666666664
0.0628826274621789 -0.139264461775523 0.151041666666664
0.0655174069823316 -0.129361319410992 0.151041666666664
0.0763191917296203 -0.116790297134401 0.151041666666665
0.0785564418802411 -0.117604386209338 0.151041666666664
0.0857590741730905 -0.10943229989268 0.151041666666664
0.0983776499437607 -0.103170676341089 0.151041666666664
0.108798327835676 -0.0943677688734071 0.151041666666664
0.118201324880849 -0.0800089129919696 0.151041666666664
0.125995006318076 -0.0752925509733644 0.151041666666664
0.126417088959325 -0.0735887002503321 0.151041666666664
0.135332610534914 -0.0638801471262173 0.151041666666665
0.147851918576714 -0.0620924192546384 0.151041666666664
0.156206685826397 -0.0490217786378146 0.151041666666664
0.155829090705091 -0.0447741458010452 0.151041666666664
0.172294106338408 -0.0316674663684204 0.151041666666664
0.176217667855584 -0.0263359387805646 0.151041666666664
0.184608811016667 -0.0210320063694771 0.151041666666665
0.189805990738661 -0.0164867346081385 0.151041666666664
0.199090159384092 -0.00901054320925996 0.151041666666664
0.220293065301621 0.00855077123639794 0.151041666666664
0.222559288745649 0.0187834124103278 0.151041666666664
0.22707225946041 0.0210557792812859 0.151041666666665
0.240079015111269 0.0235020783383476 0.151041666666664
0.246761168988548 0.0349188389519473 0.151041666666664
0.259802795174823 0.0407476975278108 0.151041666666665
0.261816551779692 0.0516848700045409 0.151041666666665
0.281957709873902 0.0646635981072173 0.151041666666664
0.285766703626913 0.0646374723701143 0.151041666666664
0.289893506186398 0.0704439120486291 0.151041666666665
0.302413164142807 0.09122108784177 0.151041666666664
0.310288432402966 0.0945019852947323 0.153767613360129
0.312619396340492 0.0961572578125159 0.159767976237095
0.320446834402878 0.0977798816114159 0.165649987508108
0.312555010891576 0.100914283341892 0.177012193781082
0.318261793422127 0.101725271971187 0.179952027562277
0.323777579537018 0.104798965307961 0.191094165908086
0.334894144480924 0.107197046589227 0.199787210552674
0.326907937352381 0.109117319997639 0.206748201658169
0.326582252351996 0.112627221020677 0.219471592866679
0.328127864955905 0.113329631052361 0.222017829231533
0.335110909791528 0.11434149497225 0.225685835941135
0.338787032829673 0.117987226337542 0.238901612140319
0.339683521878425 0.121653381617506 0.252191425030187
0.339536180976612 0.123931605325385 0.260449985971248
0.341853267791077 0.125739983448043 0.267005356665883
0.34716613892549 0.127350907245095 0.272844955430198
0.349124948332329 0.130423847870105 0.283984365195861
0.350431849330358 0.13091125237424 0.28575120652335
0.35949266397741 0.138190263278239 0.302083333333329
0.364498463184163 0.138336199862227 0.302083333333329
0.379489983518926 0.154406740068426 0.302083333333329
0.386253400210992 0.161245492912667 0.302083333333329
0.393989977649307 0.174172247944355 0.302083333333329
0.000230708666403606 -0.177083333333332 0.119094484362315
0.00584220190851847 -0.177083333333332 0.120460885611464
0.00148842984655047 -0.177083333333332 0.129270582897713
0.001262781405962 -0.177083333333332 0.140167353528891
0.00414172617968163 -0.173850990837375 0.151041666666664
0.00907243222803631 -0.168940347154944 0.151041666666664
0.0195598067743209 -0.159099609603208 0.151041666666664
0.0282065469829928 -0.148289433736345 0.151041666666664
0.0285838090586931 -0.146457014794884 0.151041666666664
0.0386286812459241 -0.142809355923821 0.151041666666664
0.0400507747215795 -0.135432060831103 0.151041666666664
0.0535997308317712 -0.126826392966379 0.151041666666665
0.0641187995858196 -0.120456802749108 0.151041666666664
0.0627362242549385 -0.111170555006456 0.151041666666664
0.0764278111453368 -0.108318679683442 0.151041666666664
0.0857071109135833 -0.101108393011097 0.151041666666665
0.0851082696749802 -0.0929915383580901 0.151041666666664
0.100863992548592 -0.0803987640126339 0.151041666666664
0.110751903075093 -0.070378054899701 0.151041666666664
0.11724304328653 -0.0701807941412726 0.151041666666664
0.116826979009748 -0.0647883653117693 0.151041666666664
0.1290252733148 -0.0530506584900631 0.151041666666664
0.139012243219687 -0.0495168908138099 0.151041666666664
0.146862715620829 -0.0342656034798524 0.151041666666664
0.146526344556407 -0.039300419201076 0.151041666666665
0.163248124197601 -0.0268543467008623 0.151041666666665
0.173522425489517 -0.0180938876085285 0.151041666666664
0.179669534577097 -0.0157687987315163 0.151041666666664
0.194364954110458 0.00185627828619325 0.151041666666664
0.192788791419121 0.00524349582258123 0.151041666666664
0.21300482304509 0.013842706870009 0.151041666666664
0.21601332816181 0.0182509169977542 0.151041666666664
0.224982639652436 0.0267898796948398 0.151041666666665
0.2313745117487 0.03811182103038 0.151041666666664
0.245641724706701 0.0532847328143677 0.151041666666664
0.244267939247102 0.0469389425039294 0.151041666666664
0.256027273599222 0.062293821258652 0.151041666666664
0.263519655189474 0.0714832178243179 0.151041666666664
0.275106402024337 0.0806439153145136 0.151041666666664
0.288388401074209 0.0883507551676123 0.151041666666664
0.287611373242962 0.0951027188247966 0.155945272406606
0.299144449122547 0.0950043172954397 0.155588566862691
0.292597735577693 0.098652228287038 0.168812244207234
0.292931326123581 0.101314783289499 0.178464006091155
0.308136463838234 0.101980888740895 0.180878638352467
0.299468993839787 0.107014067193708 0.199123910243912
0.308888036177056 0.106787062987617 0.198301019996834
0.310998202977096 0.110151569904986 0.210497357572297
0.309819088221255 0.110474516978765 0.211668040714745
0.322441534864831 0.114175648095931 0.225084641014477
0.318250395719327 0.116255912628752 0.232625599945949
0.31826592307094 0.118716683508313 0.241545894384357
0.31997061383171 0.121319081099875 0.250979585653769
0.321709308154816 0.121956719079941 0.253291023331512
0.322593366110951 0.126019086131859 0.268017103894714
0.333954075906487 0.1265316465931 0.269875135566715
0.3275851953818 0.130007217089378 0.282474078615722
0.340079358997683 0.132104067633087 0.290075161836669
0.340549184946599 0.133857521654472 0.29643143266419
0.338313951121629 0.138289052799759 0.302083333333329
0.360057772742264 0.149018002819301 0.302083333333329
0.368720774967347 0.15871707095113 0.302083333333329
0.381549864418492 0.168695674677847 0.302083333333329
-0.0128013193810834 -0.177083333333331 0.124620542637176
-0.0141522349218177 -0.177083333333331 0.131299653167761
-0.0167887280226375 -0.177083333333331 0.150301455412396
-0.0102250577866671 -0.170805027462123 0.151041666666664
0.000645386118034875 -0.171573804140277 0.151041666666664
-0.00175090130845928 -0.165672788295367 0.151041666666665
0.00677278649313725 -0.156669337232724 0.151041666666665
0.0154890501550924 -0.149328341694471 0.151041666666664
0.0229669728515171 -0.145395024115422 0.151041666666664
0.0352050004146646 -0.134242988088992 0.151041666666664
0.0336936374405768 -0.133054504251957 0.151041666666664
0.0421215599439076 -0.116018718709866 0.151041666666664
0.0471136767378983 -0.119284269995198 0.151041666666664
0.0585059214800799 -0.105183768002035 0.151041666666664
0.0665272902592929 -0.0935741427136233 0.151041666666664
0.0802114596284858 -0.0900038063006366 0.151041666666664
0.0790539171785 -0.0927505873084479 0.151041666666664
0.0888580412929759 -0.0761859854674061 0.151041666666664
0.0990705928146159 -0.0662520825156274 0.151041666666664
0.110466882328193 -0.0590906181737054 0.151041666666664
0.114783628849044 -0.052311756372714 0.151041666666665
0.117836025661087 -0.048010038912175 0.151041666666664
0.130865209146437 -0.0369900278892158 0.151041666666664
0.139891208628784 -0.0306742662309077 0.151041666666664
0.144775955137608 -0.0308753067388088 0.151041666666664
0.152602143831701 -0.0172666266408898 0.151041666666664
0.165785123651286 -0.0091404555506682 0.151041666666664
0.166382724154944 -0.00238742336569233 0.151041666666664
0.177965466666905 0.00691519918280314 0.151041666666664
0.194859258758607 0.0109868576496364 0.151041666666664
0.203339907044075 0.0167123350723364 0.151041666666664
0.213186811698493 0.0340412011760788 0.151041666666664
0.211729582117939 0.0322028059661211 0.151041666666664
0.21723016012784 0.0438493212735415 0.151041666666664
0.229322140853632 0.0463006428173107 0.151041666666664
0.232066250051535 0.0590095459400403 0.151041666666664
0.251699964180851 0.0722331203353093 0.151041666666664
0.262952454187914 0.0788288079761689 0.151041666666664
0.260242695428373 0.0756715011765905 0.151041666666664
0.271776258645889 0.0930522978778199 0.151041666666664
0.274197875641087 0.0956524652213741 0.157938103094198
0.282166778833585 0.0981519568624899 0.166998760293244
0.282866744204442 0.100692076140955 0.176206692677681
0.281580204752584 0.103290455720398 0.185625818653161
0.291933927004271 0.104628302432991 0.190475512986312
0.288579636404772 0.106621608255135 0.197701246591586
0.291980248529616 0.109227712610754 0.207148374880705
0.3035292850172 0.109977873267085 0.209867707259907
0.304356586861686 0.113279855512268 0.221837392898693
0.307564873235828 0.115898930646153 0.231331540259028
0.300245162279859 0.117786675741985 0.238174616231418
0.305256516659513 0.119034549702996 0.242698159340085
0.300400602908148 0.122820953891971 0.256423874525118
0.309713489973865 0.125791000075455 0.267190291940248
0.322517677691644 0.127014047188309 0.271623837724346
0.317513789827027 0.129603824560738 0.281011780699401
0.311177262374399 0.132198717868315 0.290418268939367
0.326259386122369 0.134545826646622 0.298926538260734
0.331412620004116 0.134556461886967 0.298965091006982
0.338735678708095 0.144003601031735 0.302083333333329
0.34298654338777 0.156557771366511 0.302083333333329
0.352808588008455 0.168489860998134 0.302083333333329
0.365630633359943 0.174450712276765 0.302083333333329
-0.0265203898598453 -0.17708333333333 0.133355137720818
-0.03043252260444 -0.17708333333333 0.147802272470309
-0.0282369506970855 -0.172757522313685 0.151041666666664
-0.0229114319600529 -0.168432945757522 0.151041666666664
-0.0146724119950699 -0.167808304145177 0.151041666666664
-0.00598712867100905 -0.14919968798328 0.151041666666664
-0.000665712149944036 -0.149745250725114 0.151041666666664
0.0113229958365116 -0.14448072565882 0.151041666666664
0.0161117772243914 -0.130750866695804 0.151041666666664
0.0198853774427849 -0.130637715672004 0.151041666666664
0.0289267129333619 -0.121752225006367 0.151041666666664
0.0436868950019268 -0.114691278530202 0.151041666666665
0.0461888884837919 -0.108074200251251 0.151041666666664
0.0504709976982857 -0.103725713849446 0.151041666666664
0.0568806016919312 -0.0912281237855975 0.151041666666664
0.0722730175321941 -0.0845128421655722 0.151041666666664
0.084655451697929 -0.0721914553026873 0.151041666666664
0.0874875786200901 -0.0721341125941167 0.151041666666664
0.0893354715628288 -0.0582814221157361 0.151041666666665
0.100049000482272 -0.055047272977825 0.151041666666664
0.107550607510962 -0.049412035010853 0.151041666666664
0.113445576103062 -0.0431490497352964 0.151041666666664
0.128046294897447 -0.0372247996583772 0.151041666666664
0.130973281098195 -0.0316001548059579 0.151041666666664
0.142381838892371 -0.0213979698879217 0.151041666666664
0.150835868094674 -0.00883241048345865 0.151041666666664
0.156457265755321 -0.0109995552972877 0.151041666666664
0.162071316035333 0.00719299373740627 0.151041666666664
0.170417320273831 0.00433085349508809 0.151041666666664
0.187117319351819 0.0232557021017741 0.151041666666664
0.190200826101458 0.0284187523080611 0.151041666666664
0.204737768455126 0.0341320078963143 0.151041666666665
0.203802224653511 0.044141983075809 0.151041666666664
0.211636898927039 0.049554039347716 0.151041666666664
0.226078272192299 0.0535233275181248 0.151041666666664
0.228178176143914 0.061346752606478 0.151041666666664
0.238000870514326 0.069599394097324 0.151041666666664
0.25165167611437 0.0867318210698772 0.151041666666664
0.25524911280981 0.0884858164774328 0.151041666666664
0.264944259775801 0.0972008724866685 0.16355107943089
0.257793035027549 0.0983851756656027 0.167844178454526
0.27051852347074 0.101782916928727 0.18016099053335
0.275572888407533 0.102925037158514 0.184301176366332
0.275469783187742 0.103550062416757 0.18656689292746
0.267065425681198 0.107292502743988 0.200133239113674
0.274598835647343 0.109383225740343 0.207712109975463
0.281415902436457 0.111579205518765 0.215672536672241
0.280301780535703 0.113164436427773 0.221418998717394
0.282636069925471 0.116772847439088 0.234499488633413
0.28144489981819 0.119048919229495 0.242750248873641
0.288842748352538 0.122392613244033 0.254871139676341
0.298007860829415 0.121412987084108 0.251319994846614
0.291789212980966 0.125860083322514 0.267440718710835
0.296495059223954 0.12776405266585 0.274342607580429
0.294308431179697 0.129499171483442 0.280632413294199
0.308759882282285 0.129546108523613 0.280802560064824
0.307779348150295 0.136353938439009 0.302083333333329
0.315760580081414 0.136242117382303 0.302083333333329
0.319478662147987 0.149764149091626 0.302083333333329
0.337375226744976 0.159137249708208 0.302083333333329
0.345335165916683 0.166745928884571 0.302083333333329
0.346957675457269 0.166319126313273 0.302083333333329
-0.0462478695642037 -0.17708333333333 0.143368068739142
-0.0411526307827622 -0.174368184688697 0.151041666666665
-0.0324103005471799 -0.167479254190706 0.151041666666665
-0.0265913413605394 -0.163855053888377 0.151041666666665
-0.0242140818433615 -0.153876549264091 0.151041666666664
-0.0131908850023179 -0.148197657631815 0.151041666666664
-0.011939646357055 -0.144567868340549 0.151041666666664
0.00170405028368899 -0.130545562585664 0.151041666666664
0.0112906975677179 -0.121486175459158 0.151041666666664
0.0139377083751688 -0.120253272603387 0.151041666666664
0.0185629431905369 -0.121381874669048 0.151041666666664
0.0305577868870871 -0.108540369839252 0.151041666666664
0.041905491664947 -0.103926602603512 0.151041666666664
0.0477816669197865 -0.0872346236006287 0.151041666666664
0.0488765194578935 -0.0861089620641648 0.151041666666664
0.0612835637849714 -0.0847191324653547 0.151041666666664
0.0777420329187092 -0.0648852587463117 0.151041666666664
0.0792194170355986 -0.0699263657528522 0.151041666666664
0.0926523264734117 -0.0587833739220676 0.151041666666664
0.0913889736653106 -0.0548302972499113 0.151041666666664
0.10286217145423 -0.043515993558738 0.151041666666664
0.110648889299898 -0.0356478011445532 0.151041666666665
0.113237675267462 -0.0301699563915794 0.151041666666664
0.122861784454214 -0.023736246311539 0.151041666666664
0.135083760613264 -0.00333387944200496 0.151041666666664
0.147334393467298 -0.00577446225069128 0.151041666666664
0.143900868754552 0.00425120630076648 0.151041666666664
0.155911757887094 0.00600496884782923 0.151041666666664
0.169365100906971 0.0198684350632159 0.151041666666664
0.182009777504359 0.0336172755505513 0.151041666666664
0.176826055312212 0.0378639750111053 0.151041666666664
0.198998322041434 0.0426329359413108 0.151041666666664
0.208163932701946 0.0577668164200681 0.151041666666664
0.209548369324443 0.0577241056185939 0.151041666666664
0.22007996370618 0.0635069726186063 0.151041666666664
0.229371529544674 0.0729203925780089 0.151041666666664
0.229543269414874 0.0825551964704876 0.151041666666664
0.247923266418744 0.0949071546435521 0.155236352249589
0.24290130189063 0.0960382265592576 0.15933648794402
0.248148601442504 0.0962507127982276 0.160106750560288
0.248345052818872 0.0999545854482132 0.173533288916486
0.250327595509026 0.103089797783039 0.184898433630233
0.258540526817984 0.10357896821729 0.186671676454393
0.257775415717141 0.106552548488394 0.197450904937144
0.265766546469856 0.109616897003396 0.208559168304026
0.26852400823077 0.10849308867296 0.204485363106197
0.266054064401316 0.113493545518647 0.222612019171815
0.270033393677688 0.115712478892024 0.230655652650307
0.271034027876564 0.11976319558212 0.245339500651903
0.270184933130252 0.121476851893861 0.251551504781964
0.279294001929487 0.124155992000597 0.261263387668883
0.276205420963762 0.125645365077786 0.266662365073692
0.282010642766738 0.126709450674576 0.270519675362059
0.274925637127802 0.129074489689354 0.279092941790626
0.283697451865238 0.131974823047142 0.289606650212607
0.292998201508933 0.131813060736979 0.289020261838272
0.293289295220237 0.140504660259441 0.302083333333329
0.30095804588243 0.141955807617066 0.302083333333329
0.314273247053245 0.150082552626094 0.302083333333329
0.322194892079849 0.161645145391042 0.302083333333329
0.333562816518962 0.174194427582399 0.302083333333329
-0.0563365292958706 -0.176149914730327 0.151041666666664
-0.0487641094659367 -0.165123912523252 0.151041666666664
-0.0381938893058087 -0.161112771217048 0.151041666666664
-0.0295379027023454 -0.155768815850135 0.151041666666664
-0.0235423994839216 -0.151817085989606 0.151041666666665
-0.0146569920829812 -0.138876371989868 0.151041666666664
-0.0107810563219283 -0.133626118875024 0.151041666666664
-0.00672172369945957 -0.124731027155963 0.151041666666664
0.00637557315777897 -0.120900915182525 0.151041666666664
0.00499787934652758 -0.120017561959752 0.151041666666664
0.0140676927298718 -0.114966106266763 0.151041666666664
0.0259181978355402 -0.105549282436929 0.151041666666664
0.0314447567921334 -0.0950509158212587 0.151041666666665
0.0390663187588429 -0.0857224207056997 0.151041666666664
0.0477610740158859 -0.078937816589186 0.151041666666664
0.0574272852433797 -0.0739317651241512 0.151041666666664
0.0628734069273952 -0.0584650103315347 0.151041666666665
0.0716579033627893 -0.052358671666811 0.151041666666664
0.0760320060525184 -0.049151753056393 0.151041666666664
0.0830561441756999 -0.0495120404909735 0.151041666666664
0.0990487645223446 -0.0296599042314329 0.151041666666664
0.107231349423377 -0.0281110951858059 0.151041666666664
0.112960129367978 -0.0187201243178496 0.151041666666664
0.118121568535518 -0.00989136448488269 0.151041666666664
0.131960703808657 -0.00300707922839304 0.151041666666664
0.133433441251571 -0.00106758431495616 0.151041666666664
0.141980225856264 0.0104570685511276 0.151041666666665
0.151908128051476 0.0139383591318264 0.151041666666665
0.155385078864561 0.0247921593201109 0.151041666666664
0.162935278315546 0.0328343373019873 0.151041666666664
0.170368397433608 0.0396696792068707 0.151041666666664
0.190741895893643 0.0562643931336327 0.151041666666664
0.19838332686479 0.0638274953414092 0.151041666666664
0.197052127313603 0.0652434308418581 0.151041666666664
0.209836838326352 0.0794623429306795 0.151041666666664
0.217188579662586 0.0842151121421513 0.151041666666664
0.229993445719797 0.0943569744310651 0.153241948979321
0.229548370006056 0.0948862134249676 0.155160440332218
0.234883878267848 0.098281059593028 0.167466757691438
0.232684666328909 0.0991500123620489 0.170616711479138
0.240772542829661 0.101274806782397 0.178319091252901
0.249017042518567 0.102211803649036 0.181715704894468
0.247764892020978 0.104622274931722 0.190453663294205
0.245112373302175 0.106389117223488 0.196858466601858
0.251224828726756 0.112783108877377 0.22003668634721
0.247479656320375 0.113925910985917 0.224179343990664
0.259218025582502 0.11411669211664 0.224870925589536
0.248492977633995 0.118166251381652 0.239550577925204
0.250313333643791 0.120860087712356 0.249315734624006
0.263877193162081 0.121119505254746 0.250256123215167
0.264944955333154 0.124138777836729 0.26120098632486
0.266585240455413 0.127077343612984 0.271853287263784
0.263999999557755 0.12900175430087 0.27882927600737
0.264228285087263 0.131064871127056 0.286308074502295
0.27528896172818 0.132967605232279 0.293205485633729
0.275993281442184 0.138210165275482 0.302083333333329
0.282589170966517 0.14640904055652 0.302083333333329
0.289616113131845 0.155634210928261 0.302083333333329
0.311677119869535 0.168120094450298 0.302083333333329
0.312830773543327 0.173186628169466 0.302083333333329
-0.0556800113899431 -0.161129385528097 0.151041666666665
-0.0500143037454551 -0.160783228255802 0.151041666666664
-0.0399438236743358 -0.148582873167932 0.151041666666664
-0.0330295729248462 -0.143189472542738 0.151041666666664
-0.0343449157574861 -0.142484603507948 0.151041666666664
-0.0293013272844301 -0.130855891713391 0.151041666666664
-0.0151145153206865 -0.129930790604719 0.151041666666664
-0.012948063107423 -0.124479049913114 0.151041666666664
-0.00379173740197159 -0.117333468991283 0.151041666666664
0.00618268927087736 -0.111642504467619 0.151041666666664
0.00948130226476194 -0.101233568855606 0.151041666666664
0.020037728469805 -0.0955026123442381 0.151041666666664
0.03107120827876 -0.0816515939758585 0.151041666666664
0.0386071845392101 -0.0776362416537839 0.151041666666664
0.0423861583987323 -0.0722860147650471 0.151041666666664
0.0519611165259699 -0.0635830464552612 0.151041666666664
0.0469143083732712 -0.0592829102063012 0.151041666666664
0.0667581484762815 -0.0498274150113844 0.151041666666664
0.0737287836006757 -0.0386319690806995 0.151041666666664
0.0741413004856795 -0.0401268157120127 0.151041666666664
0.0872009965544034 -0.0249166549142398 0.151041666666664
0.095573691265102 -0.0236541160379132 0.151041666666664
0.108414157834856 -0.0108993498605359 0.151041666666664
0.110466882147005 -0.00376966511582236 0.151041666666664
0.119809104384116 0.00611760720189648 0.151041666666664
0.132037784918143 0.0166401944092411 0.151041666666664
0.132466771295339 0.0129421938100745 0.151041666666664
0.14434123025901 0.0292414985700386 0.151041666666664
0.159694755108557 0.0391558194091579 0.151041666666665
0.161515557790594 0.0477979716033541 0.151041666666665
0.168519841056222 0.040256366575492 0.151041666666664
0.177363217950331 0.0618025449908853 0.151041666666664
0.185065085838864 0.06414790819212 0.151041666666664
0.195820411591089 0.0796629049509707 0.151041666666664
0.204588087469075 0.0827065047076214 0.151041666666664
0.215834582604453 0.0950559680125867 0.155775800712335
0.214985400031248 0.0962478234159648 0.160096276549582
0.222005481568792 0.0952353493428361 0.156426058034491
0.227890697906018 0.0970803229513943 0.163114087365515
0.227742909846479 0.100505511613874 0.175530396267005
0.222534655212634 0.105084306376202 0.192128527280441
0.223294282790408 0.106672280359138 0.197884932968585
0.228285253930927 0.10825798644158 0.203633117517438
0.228483851051139 0.110166583898913 0.21055178330027
0.236250592919801 0.1116256479863 0.215840890617047
0.228977718246657 0.115819463202649 0.231043470776313
0.245771528712143 0.117031525691057 0.235437197296795
0.249271094226981 0.119007638376813 0.242600605782663
0.236608663203057 0.123302611593341 0.258169883692573
0.24291717638468 0.124679302145689 0.263160386944833
0.252549933113505 0.125732129098306 0.266976884648076
0.255328159213337 0.127858388763206 0.274684575933339
0.249521026866436 0.129822128931811 0.281803134044529
0.255889735803714 0.132707977369339 0.292264334630567
0.260211307101004 0.13742272060825 0.302083333333329
0.266744104915784 0.135306083302394 0.301682468637897
0.276881375644843 0.159165378784228 0.302083333333329
0.281040287487303 0.159355153388959 0.302083333333329
0.292687386802748 0.168151745764936 0.302083333333329
-0.0672887068883086 -0.154169775241518 0.151041666666664
-0.0541943290374188 -0.155823226048125 0.151041666666664
-0.0567486000582027 -0.15194754435738 0.151041666666664
-0.0503644391381016 -0.140158749207915 0.151041666666664
-0.0338573249740545 -0.135363637008194 0.151041666666664
-0.0377934200270668 -0.131702171547625 0.151041666666664
-0.0178195048674043 -0.117693713946395 0.151041666666664
-0.015482362660712 -0.110905624171575 0.151041666666664
