ply
format ascii 1.0
element vertex 835
property float x
property float y
property float z
end_header
-0.0749924263620934 -0.0443607654177064 0.26979477875837
-0.0677240285896463 -0.0523902031755783 0.269881627603094
-0.0764055178056372 -0.0599901142864364 0.269770528388067
-0.069110257711475 -0.08163059351812 0.26986506378786
-0.0697702333982191 -0.0881471008727969 0.269857177850995
-0.0729637442407154 -0.10218389412959 0.26981901913487
-0.0759742832180507 -0.111045241439561 0.26978304671834
-0.0721529252979396 -0.125943871172024 0.269828707472061
-0.0758009230099328 -0.136227566923563 0.269785118169885
-0.0745948903562648 -0.14657679821335 0.26979952884827
-0.0778765599410566 -0.158396614180028 0.269717777020341
-0.0703273391168017 -0.174876127137903 0.269850521089826
-0.071563527492799 -0.18124532024733 0.269835750085861
-0.0700750125220298 -0.200120192684421 0.269853536097251
-0.0697434849731785 -0.203452201798465 0.269857497463361
-0.071975616909165 -0.218531386184446 0.269830826099743
-0.071441592352918 -0.237400840203193 0.269837207068041
-0.0759175898649422 -0.258059520435951 0.269783724137542
-0.0721209724820923 -0.252680500083509 0.269829089270806
-0.0774335721739303 -0.277598514510158 0.269733662500463
-0.0736271752834815 -0.294202407145399 0.269811091910546
-0.0732793324519736 -0.301009991287267 0.269815248225185
-0.0765262493589459 -0.316916289981981 0.269766198971246
-0.0740547948994019 -0.330095233695108 0.269805982356723
-0.0734065028739383 -0.332830627478893 0.269813728687513
-0.0770032870274671 -0.35334311810925 0.269749092466364
-0.0750547989299308 -0.373237031030966 0.2697940334792
-0.0838894878250074 -0.381223846699273 0.269502154257208
-0.0753925346818626 -0.40447908564831 0.269789997932331
-0.0772043588199322 -0.402885875924473 0.269741882059667
-0.076060786229084 -0.42178011828111 0.269782013108622
-0.0788768394976765 -0.457746478873239 0.261966353923297
-0.0823640446454089 -0.457746478873239 0.258151912511051
-0.078850043018209 -0.457746478873239 0.280668522722126
-0.0800752743599905 -0.45774647887324 0.289036661843679
-0.0812584904413487 -0.457746478873239 0.304448354965053
-0.0803125787863544 -0.457746478873239 0.321796868425761
-0.0759894474600758 -0.457746478873239 0.318664022359284
-0.0825998324459157 -0.457746478873239 0.340223038597066
-0.0862539222382745 -0.468944356986205 0.340595985114908
-0.0769511111755733 -0.482137400781019 0.340595985114909
-0.0803993232744872 -0.489361895535154 0.340595985114908
-0.0513310056217474 0.283355519338379 0.270077505037277
-0.0510676230827232 0.274141676048136 0.270080652150293
-0.0568536098655313 0.26191319592756 0.27001151638153
-0.0514653233260925 0.250503733495275 0.270075900097947
-0.0542486221216437 0.24829683913955 0.270042642935573
-0.0586907732227337 0.234146542187804 0.269989564430063
-0.0599235368447616 0.227734571040511 0.269974834347899
-0.0541623580572741 0.213836371153692 0.270043673690159
-0.0596388647109704 0.208653496473197 0.26997823584665
-0.0583497479344142 0.202519160993373 0.269993639283042
-0.0532499273363118 0.192244569147399 0.270054576169149
-0.0522872537261323 0.176795928268498 0.270066078991849
-0.0548490095046951 0.171665708212188 0.270035469009182
-0.0547483270620296 0.158517941029166 0.270036672046509
-0.052454836307242 0.137568466945709 0.270064076576183
-0.06015894511908 0.138960720727567 0.269972021494598
-0.061050358936189 0.135241121368509 0.269961370143006
-0.056074194655059 0.109340623268354 0.270020829480882
-0.0553472282286507 0.109700908183724 0.270029515878664
-0.0550327705180083 0.0935098784687692 0.270033273280191
-0.0589776034503497 0.0819952136921533 0.269986137144618
-0.0591643299700387 0.0795151490721979 0.269983905981296
-0.0550090714978766 0.0663462519278095 0.270033556455738
-0.0567269311307717 0.0538284554365905 0.270013030044115
-0.0598737212150447 0.037304560160601 0.269975429586358
-0.0631308450352727 0.0401933248527651 0.269936510769617
-0.0625546246111977 0.0177826395315946 0.26994339592914
-0.0610578685913579 0.00404952486126485 0.269961280411418
-0.064049563920134 -0.00239580521483083 0.269925533154429
-0.0556070527277037 -0.00678812746129774 0.27002641128006
-0.0601264959036801 -0.027716116316962 0.269972409224736
-0.0560825371423164 -0.0313846047021204 0.270020729797925
-0.0602025123332749 -0.0468407031526601 0.26997150091739
-0.05977426278205 -0.0555042978943952 0.269976617998202
-0.0660643636339964 -0.0753421624126475 0.269901458656448
-0.060513957674126 -0.0781061459424656 0.269967779510157
-0.0641647009616886 -0.0915625564394846 0.269924157401566
-0.0591473718798621 -0.100682241208451 0.269984108610622
-0.0618467788256561 -0.112162922972652 0.269951853857645
-0.0662414232169709 -0.128173616753706 0.269899343001704
-0.0615685632326801 -0.145261467394474 0.269955178208292
-0.0664192792596005 -0.154339987728795 0.269897217830199
-0.0676880824374127 -0.16306137876382 0.269882057117533
-0.0634520429912177 -0.175704281429828 0.269932672830049
-0.0667985147000451 -0.184722166135055 0.269892686410634
-0.0609470056980407 -0.200764433665588 0.269962605093212
-0.0665963561326874 -0.217536015882762 0.269895101968859
-0.0647096650998616 -0.220676465507597 0.269917645718071
-0.0653386231040714 -0.241080081196467 0.269910130406202
-0.0643708927845253 -0.251319258113909 0.269921693650659
-0.0707691536779841 -0.263591781777272 0.269845241923025
-0.0698179253539916 -0.279083432751733 0.269856607987953
-0.061949529758882 -0.285545398460108 0.269950626104278
-0.0639074975536531 -0.31278652648808 0.269927230681201
-0.0710135379438464 -0.319309371909094 0.269842321817134
-0.0633623106387151 -0.333702970557378 0.269933745026618
-0.0625626436212954 -0.333898147629821 0.269943300111356
-0.0718723142330125 -0.355726131800702 0.269832060445794
-0.0691192592433546 -0.372584183853507 0.269864956230091
-0.067346953732765 -0.39202073708179 0.269886133206215
-0.0671328804719319 -0.405527649231411 0.26988869113108
-0.0639892440934517 -0.414737996754531 0.269926253905746
-0.0646274834364656 -0.423166889690946 0.269918627692744
-0.0738903014798096 -0.433350559662114 0.269807947860526
-0.0706500714230536 -0.457746478873239 0.268130935187108
-0.0718517425017379 -0.45774647887324 0.280346780301941
-0.070978014838674 -0.457746478873239 0.289499443875672
-0.0636476843889347 -0.457746478873239 0.297785500720837
-0.0730082491731819 -0.457746478873239 0.320273374381267
-0.0676076043946093 -0.457746478873239 0.324213240647007
-0.0704221745267299 -0.457746478873239 0.338800791504023
-0.0745655173093591 -0.468076698430273 0.340595985114909
-0.0681078640686299 -0.483540735845967 0.340595985114909
-0.0661332974734169 -0.495432626386705 0.340595985114909
-0.0414816836761631 0.275053295148634 0.270151706902739
-0.0417643566629501 0.268493032019485 0.270155084514024
-0.0474812255138594 0.256352393281207 0.27012350540287
-0.0494611588419201 0.245352733860238 0.270099847517383
-0.0486628530679759 0.23951940255977 0.270109386336855
-0.0470966104369383 0.225986796295669 0.270128101102795
-0.0498708249660836 0.226447231913069 0.27009495248677
-0.0463398488970239 0.214988892670723 0.270137143517303
-0.05124299225182 0.196753569815562 0.270078556694015
-0.0460747126379254 0.193968025140433 0.270140311585221
-0.0493896557697764 0.186059674258309 0.270100701895391
-0.0424244725301526 0.172294100294 0.270162972125881
-0.0450130261543034 0.169633493917331 0.27015299749585
-0.0494918190347588 0.155399941906174 0.270099481163971
-0.0469063348580565 0.150681029114413 0.270130374673218
-0.0479753452740357 0.13827767852255 0.270117601250171
-0.0512259012058362 0.133120905044141 0.270078760912008
-0.0434971698048843 0.111342542623113 0.270171110204708
-0.048171691078978 0.105661044446732 0.270115255147651
-0.0495697464598321 0.0947622541822648 0.270098550022466
-0.050640814211866 0.0848821273371848 0.270085752016661
-0.0481916888979749 0.0772154399625163 0.270115016197125
-0.0516733918420808 0.0710143243726567 0.270073413922753
-0.0516213143566764 0.0562348832513995 0.270074036187741
-0.0475941726349802 0.0450790951884154 0.270122155816993
-0.0510899306636535 0.030443588275827 0.270080385600814
-0.0531683285814306 0.0189364404295162 0.270055551178747
-0.0481100257487874 0.0130227330875996 0.270115991976159
-0.0530082270812137 0.00250618719426008 0.270057464204254
-0.0524425898704372 -0.0130021173028375 0.270064222906767
-0.0521369359170881 -0.0305153753489693 0.270067875113699
-0.0490086614903792 -0.03713000347175 0.270105254331024
-0.050604708987181 -0.0444383284539788 0.270086183431829
-0.0506447496968628 -0.0547104771209566 0.270085704992222
-0.0473026204429146 -0.0629278011253325 0.270125639524386
-0.0462153173272028 -0.0831778447869297 0.270138631523781
-0.0481172777241252 -0.0891372782444444 0.270115905323544
-0.0550021882477047 -0.102321417664659 0.27003363870252
-0.0555187508626778 -0.114995438731104 0.270027466383978
-0.0491826804862064 -0.131426088285285 0.270103175007737
-0.0565132979730413 -0.134973714004836 0.270015582710263
-0.049453766540143 -0.149817234076346 0.270099935846736
-0.0571953147642823 -0.155463078556609 0.270007433408002
-0.0548276456835363 -0.165864313947669 0.270035724281836
-0.0517990237406777 -0.193044542796369 0.270071912768635
-0.054042069715281 -0.199582962544255 0.270045110995031
-0.0583305809382175 -0.220394179809198 0.269993868306209
-0.0559638777800301 -0.22032707970213 0.270022147638397
-0.0537347562537871 -0.233713396406757 0.270048783031144
-0.0546887544636978 -0.246713773348351 0.270037383869321
-0.0575291195877619 -0.267522757508769 0.270003444831126
-0.0531195525642481 -0.27010912830759 0.270056133995053
-0.057009031787274 -0.294826040041472 0.270009659271508
-0.0512904653012031 -0.292428921279858 0.270077989446649
-0.0573213368379968 -0.309701301453923 0.270005927591748
-0.0561662021749687 -0.325740664140303 0.270019730098727
-0.0524493770473722 -0.339083335649646 0.270064141807947
-0.0544254369877757 -0.353799769614725 0.270040530204909
-0.0614283392875885 -0.376606356610095 0.269956853720285
-0.0560787065532574 -0.384709518888249 0.27002077556898
-0.0622796891914293 -0.398268402340669 0.269946681085556
-0.0568499173532162 -0.413156639474912 0.270011560502729
-0.0573924375756427 -0.421512710596121 0.270005078021166
-0.0604281378926534 -0.430564050955944 0.269968804956081
-0.0531587581351138 -0.45774647887324 0.269982907088432
-0.0619916301434356 -0.457746478873239 0.277087651018956
-0.0601680408745351 -0.45774647887324 0.300170406266173
-0.0596304919705344 -0.457746478873239 0.30595023498291
-0.0630524725380951 -0.457746478873239 0.316527207933963
-0.0589110433654955 -0.457746478873239 0.321573395357258
-0.0542359268003392 -0.457746478873239 0.338351155829819
-0.0578756238759922 -0.478861030040103 0.340595985114909
-0.0553645094343067 -0.478406990474649 0.340595985114909
-0.063450426849681 -0.496627045037391 0.340595985114909
-0.039968771058551 0.278501254092784 0.27013362936803
-0.0331702282716528 0.267581382180746 0.270052394740354
-0.0328172996583315 0.262053231549986 0.270048177656577
-0.0381103515437607 0.260274797409569 0.270111423430364
-0.0365777360157898 0.245494094385682 0.270093110468942
-0.0358462759714336 0.231011617772944 0.270084370377686
-0.0381291081313391 0.228139197661532 0.270111647549629
-0.0414976891233023 0.218429028299497 0.270151898149096
-0.0370307663080783 0.203371176568331 0.2700985236506
-0.0365219643238556 0.193259073336454 0.270092444062511
-0.0387722715650472 0.187424408586157 0.27011933259975
-0.0407164693473035 0.16773880021418 0.270142563487298
-0.0355584188781104 0.165041601315829 0.270080930822397
-0.0335296421355611 0.154271713029409 0.270056689315285
-0.0332825142806959 0.149460668710853 0.270053736426716
-0.0347248262003891 0.135007611061818 0.270070970365733
-0.036955562810651 0.129241901043165 0.270097625056842
-0.0377793950113619 0.121884579042612 0.270107468887232
-0.0372852963887624 0.108242416484031 0.270101564987102
-0.0358635634867406 0.0951009620705667 0.270084576943256
-0.0342753775337526 0.0844609227930101 0.270065599980308
-0.0342482737454303 0.0780331867041656 0.270065276121766
-0.0357588549009722 0.0655279144144802 0.270083325798232
-0.0439137649722889 0.0490728479397118 0.270166132380139
-0.0442827386450778 0.0371016336352719 0.270161723576683
-0.0395978458503971 0.0353660913803385 0.270129197246012
-0.0427939736098426 0.024829901399947 0.270167387231231
-0.0397056900259528 0.0202772223505004 0.270130485857663
-0.0447329695824942 0.00209718262423158 0.270156343844038
-0.0448743982559004 -0.0179301919665088 0.270154653936953
-0.0412654980788595 -0.0260370543704274 0.270149123737927
-0.0386569365959437 -0.0277230073617031 0.270117954481885
-0.035810916960391 -0.0440106243475133 0.270083947878897
-0.0381615358831954 -0.0624926228237489 0.270112035023302
-0.0398021243344468 -0.0703282983977232 0.27013163813476
-0.0426323521845574 -0.0834730918421924 0.2701654560444
-0.0438285738861138 -0.0938410732167494 0.270167150313891
-0.0407554706839034 -0.105347126905174 0.270143029507614
-0.0426717499559628 -0.118859067241573 0.270165926801647
-0.0455894829744113 -0.122373810751129 0.270146109511671
-0.0394870915370818 -0.139625307407775 0.270127873861621
-0.0396211517811815 -0.160705588344225 0.270129475724602
-0.0435174854617251 -0.159837492835013 0.270170867456391
-0.0448469558647857 -0.165514107187126 0.270154981841402
-0.0375791609221183 -0.184884507456355 0.270105076324267
-0.039025418483986 -0.192195504501449 0.270122357409088
-0.0416493620826397 -0.201539862278613 0.270153710463405
-0.0435496303417431 -0.223526258642674 0.270170483362704
-0.0420755101215226 -0.23868912453287 0.270158802433605
-0.045442735657188 -0.242683168073761 0.270147862970325
-0.0402487808456962 -0.266360872015167 0.270136975157197
-0.0389502721262804 -0.273779568676145 0.270121459498083
-0.0487477671861831 -0.285011226198439 0.270108371712546
-0.0476237779624477 -0.301113423092146 0.270121802067986
-0.0444631028946677 -0.307268123026444 0.270159568435043
-0.0393717324471004 -0.332364609122615 0.270126495455539
-0.0397025021556801 -0.344204097898634 0.270130447766346
-0.0470320000312746 -0.367278745656932 0.270128873121507
-0.0437657087378088 -0.361178923178862 0.270167901478821
-0.0472161132975406 -0.381877357940612 0.270126673183505
-0.0475613046647812 -0.387557627695118 0.27012254855076
-0.0485668266947791 -0.408401828344151 0.270110533739603
-0.0448682292035589 -0.420248029925109 0.270154727649907
-0.0421048557609058 -0.456295427473978 0.256088942861388
-0.0491607202697307 -0.457746478873239 0.273767012722357
-0.0479983055241604 -0.45774647887324 0.2770520178687
-0.0491353109248249 -0.457746478873239 0.291098812708699
-0.0452866909814114 -0.457746478873239 0.297287671108252
-0.0475083864173014 -0.45774647887324 0.322210565994548
-0.0512948352246612 -0.457746478873239 0.328622070065596
-0.0504587562092202 -0.457746478873239 0.335023802375252
-0.0469823416820626 -0.468066812183442 0.340595985114909
-0.0438544262497304 -0.484984380983381 0.340595985114909
-0.0281102510194231 0.275183987769006 0.269991933935589
-0.0294862851834779 0.2683676587021 0.270008375933012
-0.0298037230847438 0.26372386446773 0.270012168944328
-0.0300804161340444 0.247032439581149 0.270015475102359
-0.0236300539512016 0.245805888942705 0.269938400825309
-0.0265083805452694 0.231086600116162 0.269972793458632
-0.0288255881434727 0.226051632859186 0.270000481376821
-0.0296175456240676 0.216093800815516 0.270009944341619
-0.0233782304109447 0.212392586020094 0.269935391828797
-0.0300330603510596 0.192667160886592 0.27001490925619
-0.0259253254379048 0.186639504271386 0.269965826632644
-0.0239436611305174 0.176830860585184 0.269942148063981
-0.0261057281422616 0.171871775576942 0.269967982233776
-0.0294476734730605 0.15610991240071 0.270007914568273
-0.0308054943087931 0.145638807762442 0.270024138937744
-0.029307158234831 0.138052455138498 0.270006235575668
-0.0312659691842336 0.130427818457064 0.270029641073457
-0.0320797133731539 0.115532800183271 0.270039364363915
-0.0267918989472426 0.100665299843193 0.269976181171638
-0.0323686773378042 0.0975548168738053 0.270042817145021
-0.0329275234902336 0.0816635768515575 0.270049494702336
-0.0247655856117071 0.0677694226703014 0.269951969099356
-0.0301168282462346 0.0608421375052442 0.270015910184475
-0.0342720604138198 0.0557171174811935 0.270065560344608
-0.027847144950623 0.0446980212364733 0.269988790126068
-0.0270694381062929 0.0284539537790928 0.269979497439691
-0.0324718430608602 0.0143808460836236 0.270044049854642
-0.0286487176125356 0.00927659040135969 0.269998367981027
-0.0341019563320653 -0.0057058183854332 0.270063527799961
-0.0321152530362469 -0.00485420231659702 0.270039789021285
-0.0303788108429452 -0.0240778146709618 0.270019040569819
-0.0342167761577073 -0.0404278185320771 0.270064899762465
-0.0352988755230651 -0.0439554298824109 0.270077829583135
-0.0265005630652549 -0.0610579674627645 0.269972700048897
-0.0324761606866578 -0.0693905439105472 0.270044101445216
-0.0298199155907799 -0.0887143123200945 0.270012362425819
-0.0319708215620151 -0.0982033019461422 0.270038063234245
-0.0259428286863102 -0.1073615707166 0.269966035775973
-0.0313740301861693 -0.119798522678309 0.27003093227593
-0.0326646642780841 -0.131056478669335 0.270046353842464
-0.030621251759941 -0.13881429356004 0.270021937454966
-0.0347984122152444 -0.149834149790512 0.270071849632468
-0.0337781516499587 -0.163462804069866 0.270059658713068
-0.0301439379927876 -0.174513498555715 0.270016234114211
-0.0359472959847209 -0.183649110036927 0.270085577448587
-0.0331104250496769 -0.193183834185266 0.27005168016186
-0.0315508798264417 -0.206741900602546 0.270033045422104
-0.0308549514311654 -0.21993620436138 0.270024729892461
-0.0357821214335645 -0.232722016481348 0.27008360380606
-0.032502738815396 -0.253127807104224 0.27004441902274
-0.0299147320252504 -0.263336577531649 0.270013495371215
-0.0320333102922987 -0.281346090253596 0.27003880990142
-0.030786597641311 -0.292029833635844 0.270023913144689
-0.0309116161986032 -0.299271043110364 0.270025406970097
-0.0310122571347547 -0.309643080625662 0.27002660951147
-0.0364392943248538 -0.32675848222358 0.2700914562528
-0.0314541347944714 -0.343458617016544 0.270031889432225
-0.0379269535413831 -0.359645140823242 0.270109232038928
-0.0369053114493951 -0.371929692593977 0.270097024611902
-0.0296821315821281 -0.383687623766509 0.270010716068211
-0.0282469129291178 -0.390601016124332 0.269993566885428
-0.0326923412487597 -0.410763650209712 0.270046684549863
-0.029214811966834 -0.424541087403085 0.27000513214587
-0.0385511812159028 -0.435911494079667 0.270116690828894
-0.0363603051101973 -0.457746478873239 0.271258905141206
-0.0371045382620707 -0.457746478873239 0.280905801354348
-0.0333794249657709 -0.457746478873239 0.296740526701876
-0.0329747125869974 -0.457746478873239 0.304918801960535
-0.030108287019827 -0.457746478873239 0.308423359862707
-0.0384249686388222 -0.45774647887324 0.325079021450748
-0.0293364725443729 -0.457746478873239 0.335507124816226
-0.0341316413494624 -0.474362895876221 0.340982413102223
-0.0304115677698776 -0.484410395094744 0.341139183512937
-0.0150323229503102 0.282754806439531 0.269835668004673
-0.0166439952531378 0.263395233212283 0.269854925602008
-0.0178180898357865 0.262316880054023 0.269868954657832
-0.015766128655935 0.245227822171657 0.269844436123835
-0.0223943554351207 0.238818956992229 0.269923635674596
-0.0218230249104786 0.232032492795812 0.269916808943648
-0.0187945799296197 0.218088728464327 0.269880622571337
-0.0146261197099916 0.214987608944724 0.269830814351468
-0.0227307757207944 0.20021566244577 0.269927655503184
-0.0232143994903425 0.186786928854517 0.269933434241082
-0.0144233966074292 0.181013282071854 0.269828392047707
-0.0183747590607291 0.178808892697912 0.269875606203412
-0.0205372212369836 0.170396900888535 0.269901445094959
-0.0189797722876449 0.15059464943033 0.269882835403223
-0.0233632053784129 0.152556177976736 0.269935212297247
-0.015692256074678 0.130938780870089 0.269843553432966
-0.020327079843317 0.120127801134092 0.269898934151304
-0.0146191336327631 0.122723827624582 0.269830730876023
-0.0233979401865423 0.112632051058225 0.269935627337542
-0.020091071911902 0.0939063450013149 0.269896114132804
-0.0147732109587711 0.0835400909696949 0.2698325719197
-0.0182619087503272 0.0737379565673212 0.269874257774309
-0.0204519722672735 0.0598881040516897 0.269900426469567
-0.0183722558678218 0.054994799884909 0.269875576293187
-0.0176393524252275 0.045711180285348 0.269866818955012
-0.014794290106502 0.0423628464710234 0.269832823790839
-0.0248328979327664 0.0152022921555575 0.269952773402794
-0.0209527700090232 0.00908537657428825 0.269906410416328
-0.0175883516653635 0.00131469371930328 0.269866209555635
-0.0210774184748153 -0.0136787437429763 0.269907899819576
-0.0189169531635101 -0.0243234493152633 0.269882084788228
-0.0151290130952007 -0.0393988730215712 0.269836823338715
-0.0214241902247231 -0.0528570387077171 0.269912043336044
-0.0243652023839567 -0.0535003924028264 0.269947184988488
-0.0182481372082352 -0.0691852519230499 0.269874093220503
-0.0223394577130079 -0.0726522558387542 0.269922979711083
-0.0216065423705062 -0.0929678794171753 0.269914222230718
-0.0239617043734082 -0.0978275041355905 0.269942363659612
-0.0241074725541462 -0.109678391959241 0.269944105418731
-0.0206522150621187 -0.119776382992971 0.269902819136553
-0.0211461308900325 -0.145252822745424 0.269908720852501
-0.0179500422680501 -0.155410195809482 0.269870531334929
-0.023587886775603 -0.168144148707302 0.269937896976923
-0.0157984430816195 -0.168011117920071 0.269844822243393
-0.0261643719332042 -0.185673152933958 0.269968682958427
-0.0173762959517662 -0.192524784104385 0.269863675738098
-0.0171183512257975 -0.211440184796106 0.269860593600583
-0.0208418610237589 -0.224921917604025 0.269905085183789
-0.0270237679138656 -0.241738657986514 0.269978951734355
-0.0222986024811901 -0.253439561533862 0.269922491538889
-0.0240016351222357 -0.261561044108509 0.269942840785317
-0.017957247173269 -0.269677111524423 0.269870617425112
-0.0271596721147606 -0.293395915168029 0.269980575630461
-0.0226848998101966 -0.30922850211217 0.269927107339757
-0.0270392368927849 -0.322385367398231 0.269979136570544
-0.0226723643894718 -0.33001688958338 0.269926957556154
-0.0195937928265457 -0.350088950725181 0.269890172229867
-0.0268725506627882 -0.358711818546591 0.269977144865225
-0.0197403802117878 -0.362033163233391 0.26989192377752
-0.025179973210557 -0.382545147081069 0.269956920546065
-0.0232625892801379 -0.39464513990077 0.269934010052658
-0.0240503199966305 -0.414592246181285 0.269943422512573
-0.0273841625368176 -0.430359701587149 0.269983258028208
-0.0228785912781531 -0.457746478873239 0.260055125262555
-0.018149431599205 -0.457746478873239 0.266205142419153
-0.0172313063904264 -0.457746478873239 0.277864280752573
-0.0209194384968361 -0.457746478873239 0.295075258000225
-0.0173497032928521 -0.457746478873239 0.29792613495215
-0.0253932801761577 -0.45774647887324 0.312088418021627
-0.0220911928098753 -0.457746478873239 0.323055072285658
-0.0189482917019508 -0.457746478873239 0.332758971262063
-0.0257365866595197 -0.471301060884657 0.34133619539807
-0.0288783284393663 -0.484909301611501 0.341203796901469
-0.021134036721937 -0.497440415824398 0.341758564815692
-0.00841993603890796 0.27852300671262 0.269706795875216
-0.0106115848288987 0.267267305678357 0.269782845359203
-0.00558040147144517 0.254730279007193 0.269604970557956
-0.00601025745642683 0.255885451253293 0.269620385134186
-0.013219209753571 0.243637419513578 0.26981400342447
-0.00973562374393671 0.229566921940805 0.269753976254534
-0.0125479286920351 0.222583113357105 0.269805982401611
-0.00678174722518886 0.212203817367007 0.269648050650699
-0.00722713793288171 0.201886281328687 0.269664022299939
-0.00657349813784916 0.195935740528057 0.2696405828672
-0.0126529494609685 0.180896038911053 0.269807237276858
-0.0119408696167259 0.176615797647291 0.269798728756307
-0.0127906705490074 0.169222653124537 0.269808882882639
-0.00812760990319956 0.162684488127744 0.269696313100379
-0.00932073041800477 0.142838543155035 0.26973909823719
-0.0122109137125459 0.143563861022035 0.269801955467128
-0.0107803481339558 0.12163230371012 0.269784861883138
-0.00555530895125185 0.111980048084273 0.269604070743649
-0.00817276257811808 0.102852196452026 0.269697932269063
-0.00504155374307738 0.0869707063240041 0.269585647552868
-0.0129644398214661 0.0828115929802389 0.269810959222024
-0.00619747020639479 0.0701026066171066 0.269627098557533
-0.00684736951489439 0.0613333989853058 0.269650403856942
-0.0146122609432389 0.062285692559211 0.269830648755429
-0.0135719514120525 0.0410088331009151 0.269818218274356
-0.0115270850830777 0.0377828138556264 0.269793784515521
-0.00632983997274575 0.0264923805989459 0.269631845319065
-0.00974213424105205 0.00781764090985614 0.269754209720061
-0.00627658961914525 0.00905562669167537 0.269629935768743
-0.0094544967806905 -0.0137054564040538 0.269743895080474
-0.008312807418139 -0.0237251290805642 0.269702954257677
-0.0085016975461814 -0.0369937324415866 0.26970972783157
-0.00724553176989613 -0.0462702757183906 0.269664681900393
-0.0145792345174179 -0.0624787368525027 0.269830254128302
-0.00828775584385906 -0.0625346834629003 0.269702055911684
-0.00897406484497019 -0.0803978325266672 0.269726666857639
-0.015401333959858 -0.0871851973247046 0.269840077254259
-0.00588635859896364 -0.108630569574931 0.269615942138276
-0.00549338459663123 -0.117810507140053 0.269601850144848
-0.00974733619324828 -0.127871374808007 0.269754396261348
-0.0109483309229192 -0.132673015674979 0.269786869080819
-0.011340731594794 -0.14519354885516 0.269791557809489
-0.00619321772725091 -0.163767395548267 0.269626946064219
-0.0147896980390394 -0.17551110234414 0.269832768921009
-0.0125955227641131 -0.185409086855349 0.269806551095057
-0.0143311108134218 -0.200865304985728 0.269827289340502
-0.00882883561618516 -0.211699555336243 0.269721458957561
-0.00568388328952792 -0.224828752019688 0.269608681401655
-0.0127902080955945 -0.231990116711272 0.269808877356862
-0.00933950933406765 -0.25110073177038 0.269739771646526
-0.0119349613479113 -0.255666787242046 0.269798658159411
-0.0061476348092846 -0.275794797111979 0.269625311467078
-0.00915317409420164 -0.286415112858425 0.26973308969057
-0.00856310130400453 -0.314090297897503 0.269711929761842
-0.00695499057713028 -0.314452526916903 0.269654263133363
-0.0130324796108442 -0.335521432723166 0.269811772217858
-0.00600272544665284 -0.351509697428316 0.269620115037356
-0.0128967424491764 -0.358447315735021 0.269810150317674
-0.0165619914605993 -0.371690710566284 0.269853945752683
-0.0110992501049192 -0.390916816821835 0.269788672388373
-0.0138567870537596 -0.403799007470241 0.269821621726835
-0.0152055642618677 -0.418097101322913 0.269837738035543
-0.0108175838516719 -0.434799660840903 0.269785306806375
-0.00767094666652783 -0.436917093266964 0.269679937219808
-0.00680195108600086 -0.457746478873239 0.261994864055946
-0.00586836653700378 -0.457746478873239 0.278669099697293
-0.0145102864947725 -0.45774647887324 0.289577845438396
-0.00882058413733929 -0.457746478873239 0.302055024954903
-0.00583482811453146 -0.457746478873239 0.31558781796295
-0.0156032340415076 -0.457746478873239 0.323949285094296
-0.0163214214056742 -0.457746478873239 0.342120608856602
-0.0108232964884829 -0.45774647887324 0.342335656504772
-0.0118753364586941 -0.477623649883744 0.342934671422081
-0.0144156363115592 -0.492942735111155 0.342611984289522
-0.00432051482545974 0.273372109791264 0.269559791196906
0.00348235915721788 0.271216985763844 0.269279981213985
0.00436745748611395 0.253526955522584 0.269248241710202
0.00242589120470702 0.25032911718166 0.269317866008793
-0.00111665679010807 0.238082675799339 0.269444901290425
-0.00386102781678713 0.233665943950408 0.269543314056261
-0.00303250102586286 0.223172928123508 0.269513603200013
4.90565178034765e-005 0.212028559791043 0.269403098972266
-0.00144954862809764 0.204286272161058 0.269456838745741
-0.000958627822405999 0.193133070779518 0.269439234393477
0.00342708556294184 0.176087315674737 0.269281963317439
-0.00151167419349288 0.17390460245246 0.269459066559932
0.00382615709720744 0.157756595403444 0.269267652667359
0.00251452516926365 0.150291030752221 0.26931468760707
0.00118934457763897 0.146785618510325 0.26936220839999
0.00470248344207687 0.132374300668537 0.26923622772571
-0.00375968792430325 0.122694957989485 0.269539680021718
0.00203199106542799 0.110335716298746 0.269331991213364
0.00181676152402888 0.105196987426895 0.269339709314981
-0.00227970612491991 0.0990932185135131 0.269486608078876
0.00130927555800187 0.0850449624017557 0.269357907691605
0.00119101328481454 0.0805248222142735 0.269362148560381
0.00131732304078579 0.0626773872122284 0.269357619109984
-0.00300898700920251 0.0487666422243177 0.269512759990624
0.0027039191487514 0.0444803683676466 0.269307895965134
-0.000341214423161333 0.0409665385971487 0.269417094034286
0.00419769056196188 0.0281086973063685 0.269254329528646
-0.000654491089680916 0.00640040359964089 0.269428328092264
-0.00376504506118756 -0.00299720337975719 0.269539872127907
-0.00140550266680215 -0.00449508602704535 0.269455259263654
0.000375858339669377 -0.0276146154377357 0.269391379904087
0.00451679044272679 -0.0366534235157351 0.269242886651011
0.00219648487271609 -0.0438638900598756 0.269326092488162
-0.00417895256493149 -0.0582230185297822 0.269554714793802
0.00156995412557522 -0.0753267529965876 0.269348559794189
-0.00162020679091197 -0.0767601023905337 0.26946295852388
-0.00108314431967346 -0.0886931965761508 0.269443699537865
0.000554028217732379 -0.109194694457968 0.269384990756877
-0.000996350712907191 -0.110419153675139 0.269440587131119
-0.00418570607907013 -0.124295245892528 0.269554956973886
0.00190939596703353 -0.146231051394176 0.269336387456653
0.00487112644522094 -0.148520937335426 0.269230180210919
-0.00142102615033369 -0.168371672053716 0.269455815933629
0.00227226461298608 -0.172577651063088 0.269323375037147
0.00442356123485255 -0.187212999476464 0.269246229837524
-0.00317339539121069 -0.204600343484297 0.269518655652487
0.00231195872585328 -0.212111278824495 0.269321951611743
0.00106123250212195 -0.230944654458001 0.269366802481318
0.00455243377491964 -0.237021760465344 0.269241608486043
0.00175136392718365 -0.243215660169328 0.269342054463769
0.00162589726911257 -0.264211684482629 0.269346553680791
-0.00346582588804878 -0.281294993060194 0.2695291421697
0.00422865658141852 -0.288532321251415 0.269253219091467
0.00422359165208199 -0.309356299478282 0.269253400719133
-0.00556364493905543 -0.314148051049139 0.26960436967102
0.00505467860979046 -0.334712406834242 0.269223598055659
0.0034893941523551 -0.345854345616614 0.269279728940031
0.00273432554798057 -0.351846613356658 0.269306805595858
0.00129250131082074 -0.369484644420625 0.269358509213791
-0.00570925627522121 -0.386193885458656 0.269609591273416
-0.000813097165039272 -0.395122806345999 0.269434015684212
0.00153406095897394 -0.417144375638988 0.269349846918184
0.00229837246247495 -0.421619643824921 0.269322438813271
6.79575893661196e-005 -0.457746478873239 0.259544963546689
0.000288329564347243 -0.457746478873239 0.270145890046679
-0.00121053776518265 -0.457746478873239 0.285897476930521
-0.00376237601690507 -0.457746478873239 0.29397271017306
-0.00435296694104316 -0.457746478873239 0.298233195089947
0.00563068478925769 -0.457746478873239 0.317448405970994
-0.00576294216067602 -0.457746478873239 0.332824588091958
0.00419701229429112 -0.457746478873239 0.335994709794388
-0.0035095075130542 -0.463660642940683 0.3440820835475
-0.000323683065996505 -0.473451109213448 0.344763063738021
-0.0045580696536827 -0.495070693259517 0.343864163206607
0.00543971913680683 -0.499859881429943 0.345995009438525
0.00625626993528783 0.274774780892686 0.269180509156746
0.0102418197072333 0.265178452280636 0.269037587892595
0.00610623845965488 0.259114488279139 0.269185889264733
0.0121279224918358 0.254509310793376 0.268969952507335
0.00854748209700488 0.242941753102226 0.269098346605197
0.0107554844068495 0.225765465863214 0.269019167947437
0.00903407077605368 0.219193445282908 0.269080897602396
0.00743706105276002 0.222104779149339 0.269138166150419
0.00962466598945285 0.205553024144764 0.269059718939645
0.0140490561074576 0.192971304858113 0.268901060921316
0.0115168540919346 0.18675725055427 0.268991865335727
0.00833752602333824 0.181905457406075 0.269105875600989
0.00760955956322772 0.167596782378628 0.269131980377667
0.0106569762382581 0.149526749633374 0.269022700436752
0.00509824699338183 0.144652006463858 0.269222035699443
0.0116753255314164 0.13745210578414 0.268986182571802
0.01164835340574 0.122033440419613 0.268987149788502
0.00617901721082888 0.11594460358875 0.269183279428771
0.0100918054807883 0.103402801842203 0.269042967382028
0.00639440533177624 0.0951393576219255 0.269175555640514
0.00538982349913102 0.090699893878759 0.269211579806232
0.01451026579369 0.0730873298861598 0.268884522005692
0.0114843820383175 0.0597842474679753 0.268993029779083
0.0123337773621325 0.0525414969589227 0.268962570580129
0.010121459520443 0.0357307528483603 0.269041903992263
0.00709241726306316 0.0314091865124868 0.2691505250291
0.00517685902070277 0.0165157008712362 0.269219216683004
0.0120724430535544 0.0073565214953985 0.268971941992327
0.0111112702186033 -0.00131170424232667 0.269006409517386
0.0100246369917593 -0.0135320103082745 0.269045376034764
0.00836028651678629 -0.0181435895791365 0.269105059412838
0.00734555458237766 -0.025894273162062 0.269141447559804
0.0115047233742099 -0.0473657306726959 0.268992300341588
0.0114126579893254 -0.0576912189699699 0.26899560179357
0.0101151659213052 -0.0719409992842308 0.269042129679859
0.00612208672928125 -0.0708533187640884 0.269185320947973
0.0112114524374738 -0.0896523249571683 0.269002816996859
0.00913511664255796 -0.100773255177045 0.269077274111584
0.00927648779503042 -0.113974295901578 0.269072204561589
0.00551267722613482 -0.12783826100695 0.269207174288556
0.0108500428921489 -0.143369347717734 0.26901577709322
0.008447392935779 -0.151698481568819 0.269101935788689
0.011336665580109 -0.165720756304116 0.268998326870865
0.0148366613715804 -0.174238169383126 0.268872817505366
0.0158059874835309 -0.187196414896093 0.26883805760492
0.0088057921345603 -0.204607799519396 0.269089083642939
0.013201299759904 -0.211629870980817 0.268931461346807
0.00818038120954111 -0.222175078623643 0.269111510792299
0.0154007121466642 -0.240651996890833 0.268852590722504
0.0158168457611531 -0.25057503366642 0.268837668228585
0.00658168079318765 -0.268138303598991 0.269168839968342
0.0147963097248756 -0.271421721421997 0.268874264509841
0.0152670198869619 -0.281202349252293 0.268857384908465
0.00668080197119436 -0.295518945032985 0.269165285496594
0.00905473147231642 -0.310600420091717 0.269080156712683
0.0164094305991249 -0.33612702563505 0.268816418218171
0.00822281674925998 -0.339871247235977 0.269109989059708
0.0157558243975618 -0.357219228035153 0.268839856446252
0.0167431794093605 -0.372884398055383 0.268804450031949
0.00853970880590543 -0.382903571171281 0.269098625354341
0.0170429478368457 -0.403045329155276 0.268793700377557
0.00672691556604136 -0.405834566526383 0.269163631869455
0.0113499542998311 -0.428178996344897 0.268997850339211
0.0075580243475315 -0.457746478873239 0.256116995541924
0.0152795806701129 -0.457746478873239 0.265863519019335
0.00702327900597776 -0.45774647887324 0.28522345582183
0.0126254227238329 -0.457746478873239 0.295646614503968
0.0128092469879652 -0.457746478873239 0.296910391730178
0.012888994058735 -0.457746478873239 0.319340834153946
0.00720111358953066 -0.45774647887324 0.321716700844515
0.0165528654656901 -0.457746478873239 0.343433390463157
0.00770713083014635 -0.45774647887324 0.341599677649947
0.0122475016021799 -0.477913962339016 0.347450194768832
0.0121641840092264 -0.481721721565755 0.347432385366191
0.0181296411488994 0.275372755891577 0.268754731705531
0.0162878597230525 0.271335700498302 0.268820777732989
0.0189275167334096 0.25670474446943 0.268726119997311
0.0170407723015793 0.249083896613276 0.26879377839195
0.0213407601064371 0.237383095472396 0.268639581423384
0.0194919444662167 0.230844630100887 0.268705879696798
0.0209408214828313 0.221339111778924 0.268653923167168
0.0141947720982979 0.217624484878535 0.268895835566018
0.0146870227314836 0.20527441210218 0.268878183526324
0.0164674052207532 0.189686229863211 0.268814339256249
0.0150505176698323 0.188133141601359 0.268865148648057
0.019185362505659 0.17496721419281 0.268716873683544
0.0236351960956073 0.169270701747444 0.268524665765944
0.0197998077536563 0.153732313156512 0.268694839761846
0.0208585731388201 0.14480320816387 0.26865687258142
0.0176734365114326 0.129322630475805 0.268771091140798
0.0228295147982343 0.123511363617423 0.268572854430823
0.0234299038147824 0.112331995233787 0.268536944518045
0.0235691737006932 0.107770540754013 0.268528614636389
0.0158878600741466 0.088806931420365 0.268835121665132
0.0149718785121462 0.0832715627917563 0.268867968637388
0.019619621157851 0.0673953481484911 0.268701301228277
0.0230825911970224 0.0548437508876915 0.268557717659236
0.0169745104066072 0.0537232924542402 0.268796154534349
0.017811427639074 0.045407160242327 0.268766142798027
0.0235049039531038 0.0325142435207827 0.268532458679112
0.017511274194875 0.0205261459333983 0.268776906259065
0.0216130894015873 0.00259991854832159 0.268629815732487
0.0248743779673281 0.0023506076890425 0.268450548965496
0.0201577275688587 -0.0177713019079464 0.268682004806726
0.0237189725852426 -0.0288426294704507 0.268519655003999
0.020337225361901 -0.0361403238495883 0.268675568040668
0.0167534883971428 -0.0367106229648955 0.268804080353071
0.0236960476519877 -0.0583963364089378 0.268521026168913
0.0229946785924822 -0.0730500805417049 0.268562975806661
0.0204312913137107 -0.0776970120476029 0.268672194848632
0.0238064883905375 -0.0830189711250805 0.268514420589564
0.0242983287791777 -0.102682956391901 0.268485003086961
0.0223574261405479 -0.113180771219873 0.268601090561156
0.0243898184284781 -0.133516704851856 0.268479530992643
0.0192357198947636 -0.14027994836347 0.268715067874528
0.0236065020968722 -0.148232577850293 0.268526381984867
0.0184319086032086 -0.166085116383574 0.268743892436383
0.0166942593342999 -0.178724884937428 0.268806204299081
0.0203976157026976 -0.190702251186904 0.268673402451391
0.0245917934195751 -0.20932863211093 0.268467450651208
0.0262098248736219 -0.216898250380463 0.268370674449801
0.0161986433147435 -0.225303714311907 0.268823977021065
0.0256645458599626 -0.24127896739161 0.268403288174037
0.024174462104508 -0.258710436554488 0.268492411685988
0.0266725527485009 -0.26198022739402 0.268342998197956
0.0176913394214476 -0.277546958951636 0.268770449144919
0.0273985291947889 -0.280321553197129 0.268299576765939
0.0234755194707985 -0.303519707990837 0.2685342161966
0.0177402548997307 -0.311130355696212 0.268768695042626
0.0195120135094586 -0.321857177787139 0.26870516002368
0.0200445429706455 -0.340135857865149 0.26868606359078
0.0238055340004147 -0.355557391765986 0.268514477672664
0.0270670666232197 -0.365912549689369 0.268319401898821
0.0234474476700696 -0.376422428942963 0.268535895201192
0.019934306817633 -0.40654508656669 0.268690016643996
0.0216670166556628 -0.40812387246917 0.268627881908607
0.0281985838537193 -0.455537498478086 0.256088942861387
0.0189010491242488 -0.457746478873239 0.261990672814794
0.027527998477694 -0.457746478873239 0.27255614776085
0.0218180682404613 -0.457746478873239 0.287575240423862
0.025523986449252 -0.45774647887324 0.288913083663254
0.0239031070212977 -0.457746478873239 0.303607763569658
0.0242468901371487 -0.457746478873239 0.319742774091523
0.0273199484680438 -0.457746478873239 0.328006180368582
0.0216302602895124 -0.45774647887324 0.339927863004583
0.0176126473534443 -0.462473963521696 0.348869982352682
0.0209377447611258 -0.474679613925979 0.349879705424259
0.0257732418352273 -0.481655555340208 0.351348087357065
0.0216200800022181 -0.499903214625352 0.350086908267065
0.0268289758035966 0.275046073381963 0.268333642366802
0.0317202878389533 0.274151320219834 0.26804108773352
0.0308900411819192 0.263946004460427 0.268090745678981
0.0240074909962806 0.247219711783189 0.268502398407543
0.0262162433559136 0.236276448103682 0.268370290553472
0.0319908049529606 0.232115061810779 0.268024907813999
0.0303140185207251 0.220050448710239 0.26812519821384
0.0277410419784451 0.211578909427721 0.268279090707987
0.0286074730347955 0.201150662905146 0.268227268534688
0.0303419079692221 0.198203280362154 0.268123530115931
0.0284267637857902 0.180185751167722 0.268238076949218
0.0322572733537442 0.166420611750788 0.26800897005237
0.0286604445812958 0.160190653442866 0.268224100249523
0.0257285781643523 0.147080809119027 0.268399458333047
0.026172916680296 0.146959043670497 0.268372881968537
0.0282041195595582 0.138944334902744 0.268251393539836
0.0248348576832697 0.132554361868072 0.268452912716188
0.0310259782555907 0.11886977036886 0.268082615136408
0.0259855722288864 0.105447203770604 0.268384087241659
0.0319322846874307 0.0906548468285056 0.268028407974017
0.02669333812218 0.0871401806554396 0.268341755002401
0.0341071077430276 0.0714042856015461 0.26789832946811
0.0339189494725264 0.0626773768135536 0.267909583416627
0.0270915972028301 0.0474153471843044 0.268317934698473
0.0264347913722512 0.038329899445277 0.268357218961574
0.0255991871003195 0.0242770438276287 0.268407197351743
0.0283320539523831 0.0254820821056547 0.268243741646211
0.0301832204121927 0.0151407434250167 0.268133021389381
0.0307081563212461 0.00656944065006325 0.268101624408109
0.0289902530734438 -0.0119689745967857 0.268204374048909
0.0332513373768125 -0.0311752094718214 0.267949514014066
0.0281929479864776 -0.0413996265927783 0.268252061723636
0.0354390014672162 -0.0527561204036787 0.267818667472058
0.0302932409492927 -0.065488753589105 0.268126440942733
0.0325791384483746 -0.0747194168381301 0.267989718954904
0.0325055378132892 -0.0743891914489763 0.267994121088044
0.0259368047003619 -0.0904437809264333 0.268387004079988
0.0358184460223783 -0.10945680893614 0.267795972485133
0.0350548993523268 -0.109595567526962 0.267841641032639
0.0364756970958841 -0.127508430892728 0.267756661591575
0.036615774107596 -0.146605600429184 0.267748283434856
0.029775976687013 -0.156870400608557 0.268157379074561
0.031639814651435 -0.16461825889282 0.268045900921412
0.0287880317940622 -0.171009788202645 0.268216469121111
0.0331742831689106 -0.182216598987173 0.26795412270911
0.0283960868098678 -0.206423628848877 0.26823991177214
0.0372552005539117 -0.210410212439141 0.267710038651419
0.0275766463340104 -0.219218201403429 0.268288923388283
0.036317252509186 -0.248078444376485 0.267766138332707
0.0370976485424736 -0.258892805570234 0.267719462006665
0.0351347129198272 -0.262462107396764 0.267836867297329
0.0382456404292948 -0.283058111038336 0.267650799377287
0.0384410364742386 -0.296842946700751 0.267639112529696
0.0311299783363816 -0.307802677526208 0.268076394779728
0.0349126229958075 -0.313975491121972 0.267850150734535
0.0318481700209965 -0.331035245783627 0.268033438962679
0.0315283924505653 -0.35288181649757 0.268052565203076
0.0291929527765306 -0.358669470527676 0.26819225036167
0.0297128524492294 -0.368643118342175 0.268161154603111
0.0366108129979333 -0.388315538457119 0.26774858016416
0.0297478718291594 -0.40380563525292 0.268159060056335
0.0300052339887564 -0.422368457810231 0.268143666948785
0.0328467496654035 -0.43335523222683 0.267973712840206
0.0380623269121401 -0.45774647887324 0.257204549321715
0.0287749845208672 -0.457746478873239 0.272062967942601
0.040373475032664 -0.457746478873239 0.281731779814743
0.0358346263478473 -0.457746478873239 0.285907535710052
0.0334936569353819 -0.457746478873239 0.307594322434525
0.0346667543000824 -0.45774647887324 0.313979517660936
0.0296551404147386 -0.457746478873239 0.332811028206815
0.0295483637091006 -0.457746478873239 0.328769410676004
0.030174389878427 -0.462108567710523 0.352684571729034
0.0358977839345015 -0.466574963325092 0.354675122330784
0.0319008115984774 -0.48233905844629 0.353208829405811
0.036844556075143 -0.49504393760144 0.355052234251718
0.0321603092548933 0.278442358450466 0.268014769579404
0.0392161678299207 0.266187415109807 0.267592751089684
0.0350870257096878 0.258862384533142 0.267839719520654
0.032030663372891 0.252760437362895 0.268022523839037
0.0400071057354865 0.241629057286931 0.267545444242925
0.0387729208147691 0.229747838921645 0.267619262170358
0.0352889873048204 0.221405300860445 0.267827639980446
0.0383927620619621 0.20851762180085 0.267641999874212
0.0397858990942858 0.195950228561453 0.267558674850035
0.041122644035727 0.192574234884994 0.267478722697462
0.0342410147347538 0.189182235980295 0.267890320346922
0.0359908345867634 0.175779143332329 0.267785661739699
0.0380427229576248 0.165129526342698 0.267662936089498
0.042137034036774 0.151184483324764 0.267418050940555
0.0386602914848317 0.14532051218005 0.267625998651711
0.0408626836023554 0.138607233909782 0.267494271210561
0.034968874689996 0.129592798560452 0.26784678626021
0.036953908660636 0.114547969486416 0.267728059243586
0.0388106760069166 0.101497009301346 0.267617003991712
0.0395907151023109 0.0947283346554959 0.267570349014509
0.0428393461003729 0.0803981313879844 0.267376044900718
0.0390542930893463 0.0729266997093963 0.267602432992009
0.0373170035367757 0.0569500807758685 0.267706342148547
0.0375578359420115 0.0454525276224236 0.267691937703382
0.0351340922053881 0.0401412305316976 0.267836904422928
0.039103002988224 0.0333134791563587 0.267599519600571
0.0363369176256794 0.0183208662303156 0.26776496214094
0.0349535822318697 0.00736648566666811 0.267847700918576
0.0415737100326466 0.000211967644324438 0.267451743955079
0.0375346012518635 -0.014868568775429 0.267693327395188
0.0435462062089647 -0.0271369645587636 0.267333766837418
0.043606492998042 -0.0324462747706227 0.267330161019726
0.0416551093741162 -0.0510021622233242 0.267446875372924
0.0399222321025968 -0.0489835835560547 0.267550520626186
0.0459963740713077 -0.0760775318534998 0.267187219662495
0.0361660670454685 -0.0730652745177479 0.267775180897887
0.0460650257960438 -0.0960101414014571 0.267183113529006
0.0419230408933386 -0.108847159593168 0.267430850100607
0.0416076095735934 -0.117967278365217 0.267449716387077
0.0443844397224898 -0.132969021671919 0.267283631189481
0.0384147201791057 -0.134841984988167 0.26764068653561
0.0397934253738056 -0.151328980940826 0.267558224695163
0.03819777856136 -0.161226868556302 0.267653662047081
0.0424460914146304 -0.176849390445873 0.267399565886405
0.04608287003768 -0.19094336584601 0.267182046245722
0.0422577848375067 -0.198114624470944 0.2674108287053
0.0408098202515979 -0.218001863941321 0.267497433024422
0.0399182531042435 -0.22847345346075 0.267550758614356
0.0467187783578113 -0.24243235122236 0.267144011885197
0.044560709306929 -0.255948900499633 0.267273088316063
0.048577638422009 -0.263028125130625 0.267032831465613
0.0422238221367085 -0.270029321285935 0.267412860050961
