ply
format ascii 1.0
element vertex 845
property float x
property float y
property float z
end_header
-0.00697194027056445 0.0717621377862357 0.249281180980004
-0.00863052412574145 0.0703066433093677 0.251782845922513
-0.0123752096228565 0.0719253894145426 0.271141787268969
-0.00631182904871543 0.0771944688466981 0.269987494089708
-0.0139029156887614 0.0753332274264145 0.287919208369907
-0.0101315475167315 0.0787734347759662 0.295938173435277
-0.0133678465746598 0.078031978328705 0.298933545200473
-0.0118211298243265 0.0815618505324874 0.312237169719856
-0.00911459202305985 0.0843652324695129 0.317190541929271
-0.0100986221781248 0.0858233554351272 0.326433357193173
-0.00613494735307458 0.0903358692055656 0.33087820800034
-0.0091057487362977 0.0933374647119935 0.339912784090741
-0.00899986017932263 0.11521099310196 0.338874239541182
-0.0108159025085659 0.113339978551416 0.339321550016779
-0.00678515135188832 0.121345219367201 0.337887348379112
-0.0105856745130784 0.22187079028574 0.273809523809524
0.00169758397877228 -0.191652201298319 0.181975002871039
-0.00251797810436103 -0.185312446177113 0.183212065350219
-0.0026173091795554 -0.180618768067296 0.183361845489187
0.00178394570377585 -0.162576840297299 0.18210522668214
0.00227219385490811 -0.154336870727838 0.182841450223309
0.00350285390976185 -0.151563360388437 0.18456466867563
-0.00363806052400149 -0.139736362345431 0.184616692652775
0.00392899295815217 -0.118392658758801 0.184728635861992
0.00372950668740242 -0.119932254280869 0.184651878750302
-0.00104438229062097 -0.108612045454083 0.18099004786643
0.00151805488897264 -0.0934369057752285 0.181704293106079
-0.00145468375628977 -0.0889499240850383 0.181608736533864
0.00197429671611453 -0.0745794986877694 0.182392254694523
-0.00384220929213448 -0.0646267138783563 0.184695243771799
0.00121593521718667 -0.0598218956246543 0.181248730470351
-0.00114592370008388 -0.0482307480201178 0.181143160941977
0.00223721933971778 -0.0383522709887222 0.182788712570612
-0.000729359542168404 -0.0299976693405868 0.180515028835889
0.000699969117831873 -0.0160155620310976 0.180470711366932
-0.000628569894133604 -0.000671033283228981 0.180363049332397
-0.00501349903099112 0.00945737845932574 0.185145925500266
-0.00285546802135212 0.017831473886054 0.183720962355194
0.00332812287450916 0.0242399523987539 0.18443367294905
0.00231187981607424 0.0445961675900394 0.182901292208981
0.00443151953209815 0.0507231023647657 0.184921994974973
0.00512036368642198 0.0617982515698353 0.185187044231204
0.00318934791011013 0.0687258639576621 0.184224415841822
-0.00403276070508043 0.0749997586294306 0.184768562983348
0.00228757728312464 0.0773872008396819 0.198078388251987
0.000811612679070959 0.0997495225528715 0.180639057356186
0.00153968741499592 0.112467984295459 0.181736912533057
-0.00504675659499486 0.0722514957546451 0.235045378558855
0.00514923553979626 0.072709551012576 0.238705199214444
0.00160686224816018 0.133928571428571 0.197079355997958
-0.00277985772156981 0.0842426520740361 0.258356185399939
0.00481273650654063 0.0794798180301116 0.268726953565558
0.00419818355296254 0.0827176401128956 0.277185837657082
-0.00184233306456807 0.133928571428571 0.242448176275063
0.000606056685198049 0.133928571428571 0.251844264087533
-0.00523138500122789 0.0857906450236881 0.302758227542772
0.0013744062447884 0.135992088631117 0.268418464055875
-0.00179331186500233 0.147838301044794 0.273809523809524
-0.00177169484564887 0.158241926506015 0.273809523809524
0.00455856081656059 0.0999345383840461 0.338805255864195
0.00137357178844131 0.179006295798931 0.273809523809524
0.00133191126183617 0.204480857358148 0.273809523809524
-0.00189297312372671 0.206054148987573 0.273809523809524
-0.00392516430541062 0.211696722715464 0.273809523809524
0.00797044502786421 -0.193472721165742 0.186283681162806
0.0129598288922067 -0.185825414260977 0.18820346588334
0.0139510896646538 -0.178075335094585 0.188584877163119
0.0070744238063015 -0.171981903227793 0.185938915577075
0.00666296721072468 -0.160174868784714 0.185780597815437
0.0119840043304158 -0.158074475487155 0.187827994054636
0.00706331611919649 -0.133315044355125 0.185934641628915
0.0102867121909202 -0.129693233509494 0.187174920327643
0.00881040335783966 -0.127562607160487 0.186606875210732
0.0119192749427528 -0.109334867308465 0.187803087875279
0.00535889483692793 -0.0925522566161624 0.185278824793807
0.0111219953817402 -0.092801960129289 0.187496315504013
0.00974282069601529 -0.084841134556252 0.186965645072434
0.00950199473259872 -0.0741655804790354 0.186872981525702
0.0132485552535984 -0.0536850776775258 0.188314560253323
0.00947468876137355 -0.0495381311497999 0.186862474900484
0.0140832105780927 -0.0438425024392131 0.188635713843114
0.00638320718363787 -0.0295900034873193 0.185672953456931
0.00903785804200872 -0.0143104873310449 0.186694393838112
0.0106862726592135 -0.00384573297042041 0.187328660769914
0.0148857261267278 0.00148424404880992 0.18893756401598
0.00642737716364464 0.0228988100433163 0.185689948912689
0.0105910441811747 0.0230757367461652 0.187292019336408
0.00672900435448391 0.0375482966170202 0.185806007185216
0.0137702123817285 0.0439223372178692 0.18851528030437
0.0127182353165738 0.0552774998194224 0.188110506979457
0.0124299924748952 0.0644481578693426 0.187999598655242
0.00696133733889182 0.0621802510446248 0.203481090035614
0.00528001962153191 0.0667934401521257 0.210348089861347
0.0103725969340108 0.0630668942421817 0.22784472165966
0.0146645648919657 0.0617063076437977 0.229777742979399
0.00565703818244661 0.0718255473582382 0.239301155245989
0.0112890167065736 0.0689017344837037 0.256529708218642
0.00685644278512541 0.0728445283498871 0.253533472066357
0.0056394492727068 0.0762756744118684 0.260402185152274
0.0107036822614956 0.0734404164392867 0.274490898679178
0.00659519757891445 0.0780625827047828 0.276366755091516
0.00718029367344811 0.0810593309827307 0.29366937645726
0.0146685558711969 0.0777898674106524 0.299435240218924
0.0104091372131913 0.0803534647664993 0.303617035414311
0.00684514166835455 0.0850595276847163 0.310242703850503
0.00566771782764443 0.08980647584537 0.325169991388383
0.00965732905730519 0.0887594600109381 0.337867003270037
0.00550101265014976 0.0951800668773429 0.338957728815737
0.0127257024833367 0.105034747695182 0.340154914559658
0.0127154628259739 0.107998348909764 0.339939592388688
0.00808534708457928 0.126549051987917 0.337728590682887
0.0105075693870318 0.218959678948667 0.273809523809524
0.021807195216229 -0.201698119882138 0.191058394948649
0.0197226339118631 -0.186111701951984 0.190419657415017
0.0163432524426025 -0.174579531150086 0.189384169621801
0.019090939853215 -0.16893847805455 0.190226097885639
0.0234312568514431 -0.158883235843802 0.191556029209235
0.0154823126139342 -0.148841695462638 0.189120366114742
0.014959602218697 -0.144227041389925 0.188960200641097
0.0238763921475084 -0.136363824320271 0.191692424632362
0.0170418738205023 -0.116783741532036 0.189598236579164
0.0201139564141701 -0.108018941453825 0.190539563876608
0.0239568020621753 -0.0969807871701084 0.191717063308359
0.0169698015235567 -0.0914860581893052 0.189576152661028
0.0195393044429817 -0.0873296531423045 0.190363482807654
0.0151895177747912 -0.0723922137893246 0.189030649850211
0.0161497909291684 -0.0572035605053869 0.189324890420136
0.0233228975520712 -0.0580638076889061 0.191522826467017
0.0176274513950019 -0.0404302614085385 0.189777665399465
0.0236462517143197 -0.0306480843806184 0.19162190651789
0.0244036806653227 -0.0242353576948053 0.191853992904149
0.0205869703223738 -0.0135875557950326 0.190684501680293
0.0158768277924132 -0.00228628107535118 0.189241250855122
0.0179992937645391 0.00618195865267621 0.189891602887185
0.020822271178759 0.0218953158535744 0.190756601017623
0.0162154652748403 0.0332187783973464 0.189345013920217
0.017772868777052 0.0390865184818624 0.189822223235093
0.024616549317343 0.0524738310336729 0.197911214680337
0.0180951761200035 0.0550374557523501 0.205305805554549
0.0230679229962072 0.0551863199694827 0.211396632616069
0.0242290698954173 0.0556584069602739 0.214269577023218
0.025026446404436 0.0591542011890781 0.229111107162946
0.0227358868807288 0.0601821441052891 0.231985580711645
0.0153686285575181 0.0640367616740956 0.24080741209284
0.0192930048604704 0.0662146762345908 0.254644666199625
0.0252790638863601 0.0659544576731029 0.257441634581871
0.016102651767477 0.0683777827174415 0.26060083462905
0.0194498352103775 0.0729676254747653 0.282845615583014
0.0227209044790391 0.0728712007590387 0.28475192982215
0.0241770610643425 0.0752435768600394 0.295448221940048
0.019404370467283 0.0760948266759107 0.295819463827321
0.022262247046889 0.0788149132891538 0.309205469467655
0.0163165514910051 0.0830937381730253 0.322690472353595
0.0253750750275613 0.0835269033069463 0.330581638205603
0.0244233304820035 0.0843709256844147 0.333549920317183
0.0189514196980615 0.0919666008290904 0.341289823304072
0.0184329609799887 0.0949700376648854 0.341321578593917
0.0155386180387836 0.113721263724031 0.339855537404079
0.0197272387018291 0.138101250596155 0.33812651942019
0.0161187614188191 0.136121732467549 0.338058167717645
0.0246029753779049 -0.198721473157569 0.191915059476245
0.0237944597205716 -0.184001963515895 0.191667319438192
0.0295822809115487 -0.182379349727911 0.193235987252703
0.0291055590532678 -0.174587280846783 0.193124333646854
0.0312951078917494 -0.163361347115068 0.193637150541556
0.0328734767247195 -0.156322241147758 0.194006822224322
0.0333107292073686 -0.149622641936362 0.194109231659732
0.0311838747856034 -0.13196513134215 0.193611098500569
0.0267085440190232 -0.128613440937247 0.192560233939527
0.0302797184849455 -0.114259191880884 0.193399334954455
0.0290805448379563 -0.100103021699364 0.193118475037083
0.0316103987662103 -0.0924736677797934 0.193710995200478
0.0242574119235431 -0.0780509331586836 0.191809174200484
0.0271159175675553 -0.0754855193235087 0.192658337296217
0.0341606686136872 -0.0626111641276544 0.194308297001127
0.03287429111254 -0.0573395434628929 0.194007012963083
0.0341648366068238 -0.0472332103767498 0.194309273191866
0.0269037706150197 -0.0345080571207005 0.192608650100614
0.0271383607112721 -0.0241544179761887 0.192663593732185
0.0288672347578676 -0.0219982165399307 0.193068515423962
0.0300759325114169 -0.00607672411022471 0.193351605993907
0.034358234724114 0.00326037305864476 0.194354569199978
0.0315361305386928 0.0131376765502157 0.193693600748643
0.0326859996763998 0.0243865061888995 0.193962912996969
0.0307335138493566 0.0440940492755965 0.193505618918309
0.0312394301473225 0.0490787141950978 0.193624110189362
0.027789326091801 0.0531222319091134 0.196127595306283
0.0333200454614809 0.0531959165652078 0.212474948166541
0.0273569218272401 0.0576296931091756 0.225041528500807
0.030177021394705 0.056477021870548 0.222913776191083
0.0354079881506977 0.059195905729763 0.237759277001992
0.0316692784936102 0.0605496465184248 0.240709638987984
0.0266185820217281 0.0632486600069685 0.247084806572567
0.0306191959064197 0.0672223602953555 0.266731320545435
0.0355123358280489 0.0670928811538943 0.269710907656142
0.0345354889118993 0.0692016457531872 0.277850842552218
0.0350289664608502 0.0713590789715421 0.286761475255622
0.0318792570092138 0.0742749565022897 0.296360635232389
0.0311297276509864 0.0762037763200699 0.303482357270909
0.0281836078343873 0.0792756614683849 0.314499996653778
0.0285883818831834 0.0800031522010256 0.317756238348971
0.0342496334474054 0.0815177117458921 0.327507238441938
0.0324281008311071 0.0840004081648985 0.336568138526492
0.0276610905204971 0.0901240558464653 0.341531896608492
0.0277890184233256 0.113710079267434 0.340450586064452
0.0357636132005962 0.117472736035361 0.340168810015329
0.0264714651865609 0.129401901268812 0.339201538657191
0.0269338271052885 0.226254114215476 0.27219962515101
0.0367223811250026 -0.201949951982776 0.194908278801982
0.0413405476988752 -0.198296577482898 0.195840078866703
0.0392011854548671 -0.188717189077906 0.195484117213966
0.039131514918356 -0.176556308317587 0.195472524955856
0.0367197978207735 -0.162732100994327 0.19490767376316
0.0337512848250754 -0.155271968142947 0.19421241472642
0.0372133717596847 -0.146187549252113 0.195023274315296
0.0407639713894914 -0.145615456053296 0.195744144175609
0.034200322953937 -0.131716404915887 0.194317584492354
0.040031666909207 -0.121259662599769 0.195622298371403
0.0345162195742263 -0.102867281362874 0.194391571023742
0.0375724181373503 -0.0911844731069977 0.195107367003804
0.0404803832630219 -0.0877152067924517 0.19569695885275
0.0362738969345359 -0.0789861228802698 0.194803238774632
0.042545626079827 -0.0666702280284602 0.196040588010661
0.0410528846104984 -0.0676015125736835 0.195792215523944
0.0440556173133102 -0.0568066194792431 0.196291830630555
0.0418589350044965 -0.0378741148315649 0.19592633167526
0.0379190886151358 -0.0273491524658041 0.19518856111776
0.0427241825395097 -0.0234038304071094 0.196070297449851
0.0449331876442942 -0.00590990075333971 0.196437846755822
0.0416257782002881 0.00692958177352221 0.195887537459084
0.0425591483780907 0.017222915951176 0.196042837942692
0.0352488667037499 0.0279312799461477 0.194563165198428
0.0354777745937832 0.0415242336546108 0.194616777993575
0.0365360558029346 0.049930356316418 0.201708973091511
0.0373327533858953 0.0502455820100969 0.203857101582354
0.041509385184414 0.0511113225242557 0.210624756646963
0.0357515773210283 0.055243604331354 0.221985059587998
0.0455024656706628 0.0548729370289703 0.228492951194948
0.0380463990835955 0.0580198277949772 0.234640877655929
0.0457312327328449 0.0591896266687134 0.245404485409179
0.0405218819953125 0.0622199558274725 0.252975663817539
0.0413917050815533 0.0639659596736703 0.260467684028149
0.0438157478474053 0.0658542324943236 0.269779239067482
0.0394111626926839 0.0687445669786752 0.277907355724389
0.0360150279655702 0.0714214959555037 0.287398666620407
0.04581383883449 0.0722796332412566 0.29627836475254
0.0436966408865091 0.0733571945253055 0.298830335754841
0.0459619144385761 0.0749693191715228 0.306764509365674
0.041944038353089 0.0793430070864384 0.32172346360384
0.0378366447292323 0.0829830942643004 0.334829116744424
0.0393916355232368 0.0875220899706779 0.340771789339571
0.0362186654303765 0.0852098499328917 0.338984357524288
0.0371113223193724 0.107516098371391 0.340910078986585
0.0368722492913746 0.118366525125211 0.340100295961776
0.0421520950513826 0.129932622643501 0.339165125712089
0.0380582567055428 0.221522967129319 0.273809523809524
0.0484221457058518 -0.203993813805939 0.194427361371021
0.0462293853293674 -0.190942512677011 0.196653516949846
0.0468427503788363 -0.192139715230508 0.196755572801935
0.04723859697398 -0.174807589911973 0.196821436452951
0.0461571085101931 -0.166394612268274 0.196641491040685
0.0486356005586397 -0.159739680679762 0.197053879418731
0.0457293073170032 -0.157334282384835 0.196570310566131
0.0472459992653482 -0.137230847701029 0.196822668096576
0.0452989767224839 -0.124169451679331 0.196498709232566
0.0453680214605343 -0.120209419682124 0.196510197366069
0.0483928544305112 -0.113177272631381 0.197013489665567
0.0518805800493677 -0.101592219483971 0.197591906454628
0.0448007681110859 -0.0920753588202212 0.19641581389251
0.0529971879553119 -0.0857503263008296 0.197705253035039
0.051616708590834 -0.0736989928341716 0.197549896465446
0.048029020853392 -0.0567137765300083 0.196952952558401
0.0465123499002018 -0.0569649725446448 0.196700598521272
0.049902215474989 -0.0428281141297046 0.197264627430326
0.047596124988364 -0.0362886680099092 0.196880924397667
0.0528359773352901 -0.0235458571294088 0.197688888586598
0.0531399834203658 -0.00851409286296942 0.197719748165851
0.0463697884373372 0.00432845566670651 0.196676878174669
0.0453557129431409 0.0043736627971846 0.196508149391161
0.047648769150102 0.0166360768030535 0.196889683691645
0.0495858059144578 0.0276614339352783 0.197211981053853
0.0554631348670589 0.0518966424197412 0.197955570669756
0.0511575721734451 0.0487563039856134 0.208206747924375
0.0485596613782255 0.0505542460673698 0.213368044650446
0.0520362999594497 0.0521772720676768 0.221571334098722
0.0549646855415181 0.0549530166515075 0.233763902768866
0.0556553381052234 0.0550529180522377 0.234559008591836
0.0548457558726223 0.0582384651116125 0.246012910027871
0.0550660617351532 0.061759704008991 0.259352716569813
0.0514795256869139 0.0638107517314211 0.264861393048938
0.0471709808887955 0.0669570569681484 0.275939959503955
0.0550630714347571 0.0672923141835511 0.280099827702972
0.0515884886939028 0.0679888556547613 0.281052536308122
0.0555798986397813 0.0717031288423927 0.296956319737931
0.0479845787680894 0.073812337167862 0.302775325268483
0.0475364097926278 0.0782796340207685 0.320018261411344
0.0462902681032153 0.0789027015089501 0.322127337732952
0.0499769199437131 0.0795978368523979 0.325749337686868
0.0465274311099952 0.0835287645200093 0.337351773284156
0.0469010943978401 0.0861917010267729 0.339828637809228
0.0564698631651028 0.108461901630626 0.340842133031442
0.0513706326025091 0.11938687108124 0.340022080599485
0.0503016678162938 0.131500736969453 0.33902973058663
0.0584779986529855 -0.202728697381847 0.194859965875827
0.0538727927544613 -0.196380799346808 0.196579416190074
0.0573783983815796 -0.189071636834926 0.198056296284897
0.0592316539565207 -0.182761623732027 0.198338112070127
0.055205885093176 -0.173634437115483 0.197929457311588
0.0577943186064857 -0.162111225123108 0.198192208529624
0.0556119308483546 -0.151427353229385 0.197970674911423
0.0556863512810733 -0.139752462568111 0.197978229310346
0.055120041070638 -0.12957211446113 0.197920743307011
0.0564153724592707 -0.121253583922553 0.198052232062033
0.0544705579543047 -0.118497262720922 0.19785481444346
0.0593883233797391 -0.104078125229273 0.198354015542853
0.0565627367498776 -0.0936855336613221 0.198067190973149
0.0543236632861739 -0.0801149120073641 0.197839903203601
0.0566979383300729 -0.0713332283125884 0.198080915250667
0.0617201374960813 -0.0607660285758438 0.198590717392118
0.0548747504811903 -0.0530190260500996 0.197895843922569
0.0634160469684497 -0.0364012570643431 0.198762868725059
0.0636369085594514 -0.0320568035860589 0.198785288328172
0.06132577543474 -0.0204963786337556 0.19855068580103
0.0620199714701536 -0.00976924240696542 0.19862115346146
0.0576705233760171 -0.00365885420859923 0.198179642107723
0.0645428478380397 0.00993436882477076 0.19887724999058
0.0638654057596649 0.0174738872909357 0.198808483020007
0.0577005627691835 0.0301642999326638 0.198182691398772
0.0565850001255377 0.0480470681602136 0.198069450922666
0.0652951238006631 0.0500512924345258 0.201548233961366
0.060895800369812 0.0495167593345112 0.216436070711235
0.0598684793239626 0.051392331875547 0.223031243610229
0.0608369746177302 0.0533454996186633 0.230769858852178
0.0608502037271317 0.0554061094700925 0.238503408178359
0.0592854793630258 0.0570676289813194 0.244066287180513
0.065273192710894 0.0593501492614127 0.255183840974889
0.0620367655662971 0.0633700419263076 0.268877315352499
0.0595327708096756 0.0630320999809454 0.266540446245018
0.0647128691574218 0.0654774828677906 0.277609161925918
0.0647623705275798 0.0679735598888027 0.286690959329056
0.0563060630288033 0.0722466807910964 0.299436865291871
0.0591255140155961 0.0731254565026632 0.304219586969227
0.0647371739654611 0.0747078883578837 0.311174773696475
0.0637308929564988 0.0784245103278341 0.324571189616187
0.062131700646574 0.0804600012317787 0.331785518613637
0.0594444887233231 0.082833766487414 0.336576563707777
0.0583035865440092 0.0921074628367309 0.341663932105356
0.0639781448013672 0.106634243442849 0.340973430930906
0.0605863318853012 0.110828056664652 0.340672149832258
0.0616166455614787 0.128543969808716 0.339281925831614
0.0617037620854653 0.141898358078129 0.337816690553687
0.0637187917262598 -0.203668493361133 0.194538604168323
0.0631757401565352 -0.196440489929927 0.196564915870797
0.0618144401962611 -0.183395751266664 0.19860029003488
0.0625456327210125 -0.182734997145109 0.198674513199397
0.0674418263348155 -0.174554544359616 0.1990046969662
0.0653937858716341 -0.166770067155888 0.198926119063253
0.0695343567038604 -0.151176851732579 0.19908498182932
0.0662760568384494 -0.141986112878673 0.198959969469848
0.062827785934563 -0.12394071702118 0.198703154499299
0.0693915252308711 -0.126238422863176 0.199079501762972
0.0689081118634116 -0.117561361431698 0.199060954468934
0.0670754122611168 -0.0952939563622905 0.198990638626026
0.0728215439219032 -0.091520188632627 0.19921110252021
0.0710900890737482 -0.0877632226904586 0.199144671171093
0.0676842836899682 -0.0709894297833695 0.199013999414498
0.0663880197847103 -0.0609764293773288 0.198964265192362
0.067811731842289 -0.0525674457101169 0.199018889263465
0.0722559919545328 -0.0348239562395878 0.199189403785052
0.0693872803447437 -0.0405768298606208 0.199079338897904
0.0703591492610689 -0.0218144918024126 0.19911662694116
0.0701160866595733 -0.00879742447386318 0.199107301271158
0.0725478305521767 -2.06111408633379e-005 0.199200600861191
0.0677737257687219 0.00694096170429939 0.199017431070811
0.0693250451149741 0.0305040824884888 0.199076951096523
0.0700501183440447 0.0335938679771591 0.199104770241138
0.0734841400285849 0.0396028043838554 0.199236524582664
0.0761984846452448 0.0503455502771647 0.199340666816026
0.0721087224447177 0.0490575530971935 0.219015270651413
0.0751010510203376 0.0500543391677905 0.22339538351522
0.0747487757647419 0.0533283716281588 0.235211161674097
0.0757258655860502 0.0529349027150619 0.234027221708421
0.0719914472144142 0.0569627278887908 0.247729739613692
0.0662829163024251 0.05760198404339 0.249058967295991
0.0666101327057326 0.0621208607656138 0.265625897930241
0.0727672066079075 0.0632196031975067 0.270676339025893
0.0675277866611846 0.0657230413043326 0.278831093531572
0.0754006684440668 0.0671855693064762 0.285757104904882
0.0716855266632679 0.0710650613351053 0.298930118860147
0.0733651226505587 0.0731836675917049 0.306985990804649
0.0713357016943971 0.0751448079721245 0.313676181274431
0.0722273229342299 0.0773288037223138 0.321658907121496
0.0678163406680818 0.0795967311982419 0.329311088431557
0.0767670911592663 0.0821134653533254 0.335602927294253
0.0763317565048385 0.0938853118310274 0.341702425265566
0.0775452484005849 0.100157224671533 0.341465883893296
0.0738311103538166 0.116688529464634 0.340228923941079
0.0727121809586689 0.130328808614943 0.339130917970714
0.0752562012076283 0.143876386072793 0.337342632518018
0.0728676461343598 -0.205345046877019 0.193965309418759
0.0724298501356852 -0.19751125123007 0.196304801462308
0.0724286958012455 -0.192342250769092 0.197560479545939
0.0741071527779551 -0.173103909225786 0.199260427936252
0.0748440834089883 -0.169219192640546 0.199288702018062
0.0768476009976763 -0.163239795974988 0.199365571695914
0.0733876874383853 -0.15474332518836 0.199232823951545
0.0751526781356293 -0.142987027010293 0.19930054198261
0.0772358019530244 -0.128167080095038 0.19938046594119
0.0732951994193949 -0.11588390133271 0.19922927543055
0.0803118840970211 -0.109535874184656 0.199404761904761
0.0755866132466063 -0.110129091909226 0.199317190926637
0.0782898988213346 -0.0968913981928828 0.199404761904761
0.0788337227173107 -0.0739370202980099 0.199404761904761
0.0768259471120993 -0.0699925716210217 0.199364740893521
0.0739261554648159 -0.0629759007864296 0.199253483547427
0.0754295874745771 -0.0511610975322769 0.199311166262527
0.0752595588847291 -0.0485123056663456 0.199304642714642
0.084088883097855 -0.0379950732239441 0.199404761904761
0.0759513102810881 -0.0181441793461608 0.199331183388551
0.0791116863855984 -0.0136221559542351 0.199404761904761
0.0754600588951207 0.00192596469211852 0.199312335370446
0.0804552880211429 0.0128826638885474 0.199404761904762
0.0789069162607429 0.0242187607578194 0.199404761904761
0.080459099631286 0.0326237580523362 0.199404761904761
0.0818047429150979 0.0434807237737013 0.199404761904761
0.0777436338250781 0.0483424333225272 0.207134765622308
0.0835901860268756 0.0477710651793049 0.21660349707235
0.0816509880506179 0.0514044413100425 0.229910636991982
0.0826918312287212 0.0533013175780572 0.236637741236714
0.0778673527384617 0.0543961845695896 0.239881419096827
0.0819484813727295 0.0577285027550014 0.252312847248394
0.0828324352360944 0.0586583530458301 0.255613545767668
0.0817114943681183 0.0630705884215723 0.271232602022063
0.0783321342773366 0.0634646567311401 0.27260121328409
0.0773142193809895 0.066560719875054 0.283559278562685
0.0795720787299142 0.0681460641990454 0.289192724794641
0.0806448297028318 0.0695140619878728 0.294046798746018
0.0870107177668989 0.0725439952753085 0.304796473100758
0.0803411619458859 0.0759980518989271 0.317010640645267
0.078427001614811 0.0758620258296708 0.316513442018907
0.0855200283657077 0.0793101179386435 0.328762071074405
0.080043255932783 0.0826376089544164 0.336357767119978
0.07842678566426 0.0897049283965195 0.341484994389732
0.07919732365513 0.0975215323319142 0.341607730147498
0.078392916312937 0.121357126509855 0.339867572949316
0.0821635345159134 0.126366629697078 0.339459354628599
0.0861902615633381 -0.204039607205843 0.19441170239236
0.0829448138680868 -0.196313029688235 0.196595879116639
0.088397205287426 -0.186640664164613 0.198416576701298
0.0800325442508175 -0.182941144667956 0.198926584954756
0.084685400359953 -0.169159056749374 0.199404761904761
0.0811837416044494 -0.170365952807913 0.199404761904762
0.0816843465588225 -0.151978674846001 0.199404761904761
0.0853334803981818 -0.143870110827614 0.199404761904761
0.0886730246228972 -0.139550246445933 0.199404761904761
0.0832626080844146 -0.124950821569129 0.199404761904761
0.0831437110653622 -0.117656573470345 0.199404761904761
0.0875412613913224 -0.101564269620576 0.199404761904762
0.0875263208902055 -0.0870876199633973 0.199404761904761
0.0871672137059581 -0.0844166055503454 0.199404761904761
0.0926231195222922 -0.0729429365251729 0.199404761904762
0.0843371853417409 -0.0710179481582132 0.199404761904761
0.084995480675013 -0.0509701939966892 0.199404761904761
0.0863084737710246 -0.045365707439093 0.199404761904762
0.0840035001724519 -0.0297130045408442 0.199404761904761
0.0924351999013192 -0.028623287837578 0.199404761904761
0.092337260710992 -0.00460626690197774 0.199404761904761
0.0911992845462583 0.00273241223803917 0.199404761904761
0.0861666933339921 0.0193786784640095 0.199404761904761
0.0883815236331322 0.0175210503286627 0.199404761904761
0.0956967627575361 0.0359465883984113 0.199404761904761
0.0929315195500856 0.045259084871082 0.199404761904761
0.0884414875090369 0.0467051718907603 0.199404761904761
0.0929834990112537 0.0487342039356354 0.22046222208649
0.0941790399056692 0.0481536418953236 0.21840587206903
0.0967449675341597 0.0520283137764104 0.232129955004317
0.0865298356735479 0.0542707364251924 0.240072613209277
0.0941945015999454 0.0565083664448515 0.247998295927905
0.0934500167532201 0.0596835975063561 0.259244960358898
0.0881118812902854 0.0604527095824948 0.261969154366391
0.0906164373968026 0.0620412389023533 0.267595723221752
0.0971334453486317 0.0652394216852379 0.27892368262104
0.0874421577655058 0.0674834332202426 0.286871968659006
0.0936645513676536 0.0699443659852222 0.295588589421036
0.089880836263898 0.0717760743446084 0.302076498128914
0.0877790050538802 0.0753001369099409 0.314558723308247
0.0933398515218265 0.0774288486114161 0.322098617480693
0.0935943642372411 0.0828483367339751 0.336592815544666
0.0876823459371337 0.0871297820907443 0.340493670839699
0.0953487986193135 0.0960181190250533 0.341680440191796
0.0971691089182081 0.108086140997277 0.340869127456434
0.0957825345150318 0.115430575986969 0.34032535328097
0.0901786721059986 0.137402142864949 0.338520187641717
0.0960394458360111 0.142063266622906 0.337784273699341
0.0925510102521743 -0.201056438558417 0.195431792062286
0.0933716529036862 -0.193420393500949 0.197298572005083
0.0933717259089215 -0.186933196093202 0.198373222234039
0.0966045994688957 -0.181024931392943 0.19903392421599
0.094949999191894 -0.169898063627916 0.199404761904761
0.0981387393398248 -0.163617312961771 0.199404761904761
0.0992492075014693 -0.155084393682612 0.199404761904761
0.0970329738392392 -0.144857387831069 0.199404761904761
0.0914274561057352 -0.132158092669052 0.199404761904761
0.0973788807065319 -0.116087070661363 0.199404761904761
0.100124028166148 -0.116220296973002 0.199404761904761
0.101242814969251 -0.103209577858829 0.199404761904761
0.0972339172465713 -0.0933057765441141 0.199404761904761
0.0963476448044073 -0.0848093877395887 0.199404761904762
0.0953235301491793 -0.0741602072335705 0.199404761904761
0.0948657201456401 -0.0666492698404025 0.199404761904761
0.0957277465565613 -0.0504415751777027 0.199404761904761
0.0955023537082779 -0.0448052494911456 0.199404761904762
0.0957669944546739 -0.0295200617982307 0.199404761904761
0.0950793095304088 -0.0265282519022895 0.199404761904762
0.104040371313083 -0.0092851559060729 0.199404761904761
0.104281909452771 0.000317556149190432 0.199404761904761
0.0957581317508197 0.00803939891716893 0.199404761904761
0.102877454673737 0.0216702196029716 0.199404761904761
0.102303170165447 0.0356169382272707 0.199404761904761
0.0981848349665395 0.0429096817306815 0.199404761904762
0.096782509879961 0.0481107440768513 0.208326940288143
0.0979738702999024 0.0483568181805128 0.219125522215933
0.105594815869948 0.0504043039373251 0.226377714194427
0.10671050357333 0.0528232776200886 0.234945715939958
0.102529754704477 0.0548189200948823 0.242014279078666
0.101169546056431 0.0565872724922852 0.24827778104879
0.0985841558425148 0.0601493435787435 0.260894632362204
0.105208686777 0.0603868225410505 0.261735782548364
0.103271594109576 0.0635560955303417 0.272961343495061
0.10310937555702 0.0668568724433703 0.284652691174436
0.106106298925937 0.0675415710017669 0.287077892608129
0.106460363233106 0.0689048724173785 0.291906704509591
0.104959728475066 0.0724267325099103 0.30438112853303
0.104358441441977 0.0747877883581402 0.312743985381402
0.103544807159214 0.0770552500170218 0.320775331728679
0.100812652108133 0.0793651342141255 0.32895693865305
0.106826474869718 0.0832744163047077 0.337068070074953
0.104829117467169 0.0957014964897663 0.341695753105724
0.105991657501828 0.107669567560082 0.340899053849477
0.10454304577923 0.119923966229193 0.339980909179798
0.100928714180505 0.134660431110693 0.338756914263492
0.102123699921511 0.22141624419413 0.273809523809524
0.101417505331449 -0.205589610779418 0.193881681189866
0.102459027893385 -0.19524668676071 0.196854920193117
0.106541505166089 -0.191352566517799 0.197718252872908
0.105011434042839 -0.181322510606605 0.199017254916507
0.106218563714567 -0.178672929300805 0.199165674773342
0.104333336707996 -0.156621556204397 0.199404761904762
0.0998513785708936 -0.150454723523045 0.199404761904761
0.104617524048822 -0.136962930123944 0.199404761904761
0.109314172580283 -0.131370111704607 0.199404761904761
0.10212375548432 -0.125450101442359 0.199404761904761
0.107717737978658 -0.114681712992004 0.199404761904762
0.102381501169454 -0.100895260349791 0.199404761904761
0.103598052924897 -0.0944605860150193 0.199404761904762
0.104517979665318 -0.0851674271415815 0.199404761904761
0.111889433617359 -0.0651973029009354 0.199404761904761
0.106311805397253 -0.0545795745908349 0.199404761904761
0.105304051623308 -0.0525171706743249 0.199404761904761
0.10915073456397 -0.0423599493972514 0.199404761904762
0.107347434356879 -0.0344893546741889 0.199404761904761
0.110266533476405 -0.0203516931975414 0.199404761904761
0.110749584156322 -0.00872554976633113 0.199404761904761
0.112146135250911 0.00317744777076132 0.199404761904762
0.106046997748728 0.00728670843025924 0.199404761904761
0.107922487400105 0.021244341337376 0.199404761904761
0.107693716138641 0.027105844202281 0.199404761904761
0.115413812617029 0.0432862578674502 0.199404761904761
0.108253905895389 0.0490780839260568 0.204549334605835
0.107611811999344 0.0478378225944733 0.217287240502167
0.109472838027847 0.0503854061757549 0.226310778346686
0.109127633388576 0.0524401347117673 0.233588624240003
0.113303882571726 0.0541047990808099 0.239484863343933
0.107118050718146 0.0557846344235955 0.245434838017797
0.110968333176948 0.0590772603996471 0.257097315088641
0.109954098761037 0.0620759078382022 0.267718520548974
0.109624525357233 0.0632109309144077 0.271738770859033
0.107291807120991 0.066045344133226 0.281778258919382
0.108560786872613 0.0684072556984674 0.290144146716333
0.108617490649667 0.0708333544409901 0.298737385414581
0.11082128399755 0.0729733245111534 0.306317156714778
0.11404248356472 0.0763211196565416 0.318175042914106
0.111827698999382 0.0785665995262681 0.32612852979181
0.116565545773947 0.0782242231952594 0.324915833257483
0.111021714701469 0.0817672349116603 0.33509420003212
0.117220156657366 0.0912479168825446 0.341617363876884
0.11169888353893 0.0995577139980588 0.341500338273651
0.115648531428363 0.122559509064982 0.339769592257585
0.111255974241379 0.118828089794343 0.340064914385945
0.123486445767153 0.2219639746475 0.273809523809524
0.11563763020767 -0.204834428980249 0.194139914378564
0.115257933227891 -0.197895338540089 0.196211497153084
0.112609717221708 -0.192378575899748 0.197551655273085
0.113926635778129 -0.179886538805079 0.199097692806348
0.111782114484079 -0.172822123147818 0.199404761904761
0.116510103118203 -0.161882002647248 0.199404761904762
0.111332205727263 -0.153366153675443 0.199404761904761
0.115329842624286 -0.145676072587033 0.199404761904761
0.11260464349475 -0.131703316931687 0.199404761904761
0.115194210729069 -0.129513808455166 0.199404761904761
0.11805281920782 -0.110932961171805 0.199404761904761
0.111186804457264 -0.0963317754432978 0.199404761904761
0.114250733425695 -0.0938254118557734 0.199404761904762
0.119220260619113 -0.0905319482954361 0.199404761904761
0.117598996061393 -0.0738826748327144 0.199404761904761
0.115878339594416 -0.0535726309987737 0.199404761904762
0.117171033121402 -0.0427926042094009 0.199404761904761
0.118463976846344 -0.0431207971058505 0.199404761904761
0.119544430440027 -0.0306944123958047 0.199404761904761
0.115610552299123 -0.0230319854870167 0.199404761904761
0.1220517611967 -0.0160563626402574 0.199404761904761
0.120113676377166 -0.00291368040305027 0.199404761904761
0.118858627671359 0.0108445885149655 0.199404761904761
0.117312770584714 0.0301030748210798 0.199404761904762
0.124811366270259 0.0351743252864088 0.199404761904762
0.121682066307268 0.043807000753968 0.199404761904761
0.124747974639797 0.0511239774462956 0.199495236109515
0.119952532175841 0.047692513428352 0.215704203764019
0.126319613660521 0.0508707890053333 0.228030003719295
0.117646540539096 0.0521044196626357 0.232399521957719
0.118788629750306 0.0546940778720371 0.241572088082185
0.126692472384142 0.0576790573714638 0.252144881719298
0.118216787588988 0.0592986079580094 0.257881327862294
0.125334338323578 0.0609996055823811 0.263906259310955
0.122731569863273 0.0642282874292287 0.275342246356485
0.118159287221598 0.065333829695544 0.279258075674945
0.126316970769257 0.068861580507436 0.291753364618959
0.120766383215868 0.0703213588033892 0.296923897509388
0.124900209761166 0.0750742198545637 0.313758525381907
0.119837259016011 0.0754044105934384 0.3149280605642
0.122201767150513 0.077073353346432 0.320839453698709
0.125011432384018 0.0801849719682779 0.331796956484856
0.121129962383926 0.0847502700988588 0.33858008455615
0.122354309239393 0.0879226245377372 0.341055739977922
0.124879624846508 0.103846382275914 0.341173709253003
0.119901952258967 0.115984199580627 0.340282914861241
0.128770254108639 0.133402611100187 0.338865517759621
0.126013587729463 0.147037573127576 0.336152323494935
0.121247637298395 -0.207195229564603 0.193332642456162
0.123031201564898 -0.201496520700552 0.195281306689125
0.121885865628966 -0.186156482142296 0.198488334521838
0.121645206539908 -0.1835456028755 0.198875277855632
0.119346987663851 -0.17076760061969 0.199404761904761
0.126296726338275 -0.161458626552651 0.199404761904761
0.119666277365048 -0.155090785085288 0.199404761904761
0.1267317036395 -0.141857714393887 0.199404761904761
0.124104810232367 -0.130157643863226 0.199404761904761
0.12268500921117 -0.122044535684101 0.199404761904761
0.125748816176327 -0.113433515571086 0.199404761904762
0.126604987712243 -0.108770710922738 0.199404761904761
0.123334750529153 -0.0966524512708479 0.199404761904761
0.126300441758686 -0.0800684665243293 0.199404761904761
0.12898131687728 -0.070124656013434 0.199404761904761
0.125368469032743 -0.0616960815430792 0.199404761904761
0.132419331675774 -0.0473671212331507 0.199404761904761
0.127271649358336 -0.04268337402198 0.199404761904761
0.129067316063252 -0.0259191803233614 0.199404761904762
0.132341997886505 -0.0169946891898532 0.199404761904761
0.13109763883024 -0.0123983107423634 0.199404761904762
0.127487607328264 0.00285423450929161 0.199404761904761
0.132104166617444 0.0150742752651512 0.199404761904761
0.130367939916591 0.0209840430880801 0.199404761904761
0.127326768324474 0.0376636336772863 0.199404761904762
0.131377734941586 0.0474281591770794 0.199404761904761
0.131780533257547 0.0484666169859157 0.207011804235238
0.136971439541716 0.0479529766825281 0.217695116137394
0.13460036752718 0.0491063892020338 0.221780501832518
0.129446640380814 0.0532097567675821 0.236314624594867
0.131002605078683 0.0561623393131289 0.246772668262038
0.127928523073557 0.0568130543776397 0.24907750020308
0.136788391640292 0.0579161123673552 0.252984530216946
0.128590836044048 0.0619915941147518 0.267419881446433
0.136164720940357 0.0632323638029131 0.271814686123196
0.129874362719651 0.0667875292260698 0.284407077585869
0.132546705066614 0.0677007515528921 0.287641709920243
0.128017930510005 0.0713147089275129 0.300442342401147
0.127878982956691 0.074642698880892 0.312230078635255
0.129700344122553 0.0755525788831833 0.315452872460342
0.136481495857628 0.0770547401261351 0.320773525695801
0.134054422903058 0.0805841455453542 0.332904851722244
0.135134976170885 0.0839056438175212 0.337772149208788
0.138460745575227 0.0869782177244896 0.340386222439264
0.13380138423969 0.108619558207707 0.340830807074791
0.138166863730865 0.118506393302141 0.340089574264819
0.13490269846416 0.127875995908001 0.3393363582122
0.131062033443575 0.136711198658149 0.338579845586305
0.128781225728604 -0.205854754987602 0.193791015558861
0.129502329426102 -0.194868076499059 0.196946893991801
0.127345620555851 -0.186888480573607 0.198379849262889
0.133064671232981 -0.175547971601438 0.19934072347758
0.135848406837421 -0.172924079070761 0.199404761904762
0.132895061767236 -0.158611687986358 0.199404761904762
0.135829442246513 -0.151229949052986 0.199404761904761
0.136828014137805 -0.135773789283675 0.199404761904761
0.137203728248051 -0.129575681495626 0.199404761904761
0.138250199714934 -0.116043139946368 0.199404761904762
0.13086584515237 -0.114377467121792 0.199404761904762
0.136968495124537 -0.0958362535862952 0.199404761904761
0.137379451578758 -0.0983153119947761 0.199404761904762
0.134395177150197 -0.0795958992403165 0.199404761904761
0.134881307697178 -0.0795956157686787 0.199404761904761
0.138686384887768 -0.0618183178180851 0.199404761904761
0.134867743953097 -0.0474924341338704 0.199404761904761
0.139940996506951 -0.0477850613288118 0.199404761904761
0.141596476211635 -0.0346479707248471 0.199404761904761
0.139253125512967 -0.0242231428417044 0.199404761904761
0.135189501924566 -0.0128306339981587 0.199404761904761
0.135189955656042 0.00814473819030423 0.199404761904761
0.1392455001929 0.0142627955700875 0.199404761904761
0.141021095416427 0.0122510348751777 0.199404761904761
0.145740457623483 0.0254402324631629 0.199404761904761
0.147189390919746 0.0493989891049613 0.199404761904761
0.145808684609108 0.0507117600588774 0.200512100895548
0.142565828299969 0.0494298239323631 0.222926107241032
0.138650771623949 0.0501135709059916 0.225347938162674
0.141959673039598 0.0522203856989582 0.232810273512691
0.147500330577895 0.0543549709568397 0.240370971814553
0.138159802176846 0.0565170897904706 0.248029194007131
0.146806820463229 0.0598031915309605 0.259668562243806
0.142891216257284 0.0624524288558752 0.269052157520572
0.140162062645796 0.0647740106398588 0.277275197282975
0.144210088152843 0.0653014771968475 0.279143483165202
0.139673529230666 0.0668815042846743 0.284739937125389
0.140998384758696 0.0722284594602249 0.303678845640123
0.1417903417378 0.071975176163566 0.302781716521542
0.146984086399717 0.0738943474705227 0.309579418879837
0.141132282835583 0.0769061637800638 0.320247268464663
0.147616675795701 0.0783215286319522 0.325260488992012
0.146820369543733 0.0830042463892574 0.336766719141737
0.148593762323767 0.0990801060565423 0.341527786801936
0.140262937072777 0.0932329993252512 0.341703460122167
0.146691224207483 0.114154373683969 0.340423181497856
0.143565026770305 0.132874306875829 0.338911132939301
0.153838259884292 0.221254709424591 0.273809523809524
0.137531311704017 -0.203812402399642 0.194489394706525
0.136863513329106 -0.197708568038157 0.196256868328365
0.142287375904417 -0.181122720618955 0.199028446421104
0.145266444343224 -0.178153020419139 0.1991947981679
0.143012439997607 -0.171618328377415 0.199404761904761
0.146322883721367 -0.165275334860214 0.199404761904761
0.143499477774244 -0.150940031671469 0.199404761904761
0.137943985891055 -0.142792851219206 0.199404761904761
0.142375946734493 -0.134849693398685 0.199404761904761
0.143148898827196 -0.120339171393844 0.199404761904762
0.140792819418631 -0.110522572655706 0.199404761904761
0.141272421513312 -0.103179785606505 0.199404761904762
0.145409988039808 -0.0917726411527781 0.199404761904761
0.142511538298946 -0.0821407254813502 0.199404761904761
0.141664842217354 -0.0759642764907511 0.199404761904761
0.143710446803659 -0.0596535372395205 0.199404761904761
0.152017546571588 -0.0470963573945846 0.199404761904761
0.146238429776109 -0.046747039663872 0.199404761904761
0.147650030448581 -0.0401821547085587 0.199404761904761
0.146234160056529 -0.0216636164173244 0.199404761904761
0.147152210833484 -0.00415557816781406 0.199404761904761
0.145999568823824 -0.000439222508865887 0.199404761904761
0.151425526095639 0.012439598876787 0.199404761904761
0.152843369662038 0.0188482633617783 0.199404761904761
0.150533213544 0.0318519910012232 0.199404761904761
0.147828118493516 0.0511162183226237 0.199652092313551
0.153421376198134 0.0470067669709169 0.199404761904761
0.152733678449103 0.0486213741643871 0.220062579178469
0.153635211403568 0.049027936168724 0.221502621287091
0.1532426386647 0.0518466820385287 0.231486615616912
0.157596881470633 0.0540181963850719 0.239178116704423
0.156679156019326 0.0546989970450104 0.241589511786672
0.148569161172772 0.058070790472003 0.253532399869297
0.151220231995309 0.0602378452360331 0.261208105121143
0.153881716261205 0.063929070042952 0.27428241875018
0.158177816105794 0.0666066570558118 0.283766428586034
0.15005500725147 0.0675777393241452 0.287206000760555
0.156838943045638 0.0697252615030403 0.294812521620396
0.158809817117473 0.0723447105280622 0.30409060677636
0.153273021505967 0.0743949398691732 0.311352516526992
0.148849450337344 0.0786257676403266 0.326338103177476
0.154181836994073 0.0783442442950309 0.3253409478421
0.149523932971072 0.0832590617914082 0.337050943457046
0.153996249289217 0.0875714831805056 0.340806805626838
0.156766850582427 0.109030799955723 0.340801263707192
0.157313955054967 0.118152071642551 0.340116735049657
0.160841008111731 0.131747117632528 0.339008457430562
0.157131072919413 0.221265202089751 0.273809523809524
0.150191259938348 -0.20741876453761 0.193256205035493
0.151452471102238 -0.195615530097223 0.196765319022165
0.154098370329047 -0.182487568457081 0.198951992635636
0.15295575476416 -0.182965920007867 0.198925197130804
0.150565382878746 -0.179531647148989 0.199117572539298
0.151082468177475 -0.162171577041258 0.199404761904761
0.149742264126061 -0.147532318997785 0.199404761904761
0.156854836728778 -0.143871366565522 0.199404761904761
0.155764965766077 -0.128262278621924 0.199404761904761
0.14866525646462 -0.126448922346036 0.199404761904761
0.15535256455087 -0.11290052632975 0.199404761904761
0.153263144795528 -0.100363648483007 0.199404761904761
0.154216170087426 -0.0904176487063867 0.199404761904761
0.157455040160144 -0.0782224400507148 0.199404761904762
0.152505602506809 -0.0653874297613056 0.199404761904761
0.158799576290963 -0.0597892089387633 0.199404761904761
0.157070607503795 -0.0486760575725292 0.199404761904761
0.158532204803502 -0.0405215410445462 0.199404761904761
0.155108527806958 -0.0319134230470017 0.199404761904761
0.161084916528564 -0.0178329107594031 0.199404761904761
0.158538955353855 -0.0164817575088262 0.199404761904761
0.163457212367915 -0.00232010298642973 0.199404761904762
0.161597940304502 0.0108945114949399 0.199404761904761
0.165290797446454 0.0189871744025683 0.199404761904761
0.16120922324721 0.0339390837831384 0.199404761904761
0.159608107736575 0.0384892984736032 0.199404761904761
0.161432317883419 0.0503161436315765 0.201460154258693
0.159958781910459 0.0476271087941775 0.215819768891244
0.166324468025939 0.0503692635911047 0.226253601332134
0.160384946723763 0.0515017562747872 0.230264888995051
0.165020146644793 0.0538527392902973 0.238592067882584
0.165229421374686 0.0553681492833263 0.243959648174171
0.160341854310823 0.0591018093348468 0.257184267386279
0.159569316560827 0.060644973913838 0.262650154386476
0.167048736339016 0.0642025730552508 0.275251166076156
0.160395960350921 0.065591168155984 0.280169568178544
0.159206351212528 0.0686676973468203 0.29106663070762
0.163483871619959 0.0702936254221951 0.296825665908038
0.168516320803423 0.0734658672649537 0.308061742529986
0.165039136969383 0.0746434309920748 0.312232671772147
0.161833689540411 0.078985454129556 0.327612112270475
0.161478415463823 0.0797216323692007 0.330219654670474
0.160400702680173 0.0821409976434994 0.335643381352922
0.163030301996966 0.0926448209840564 0.341693044937374
0.168447607183886 0.101040718536283 0.341405767633254
0.165588741417875 0.109856294881234 0.340741960632656
0.166765192619551 0.122393915726433 0.339783086257301
0.166794059311474 0.141223331022585 0.337949383821759
0.157651393833265 -0.201321011458316 0.195341321789222
0.160763104508233 -0.202377361672715 0.194980104550477
0.156734172625338 -0.195175081881867 0.196872314789563
0.156336745751445 -0.183011267780143 0.198922656914409
0.162702551057591 -0.167096235672985 0.199404761904761
0.165022881966376 -0.162202005681824 0.199404761904762
0.164874546873705 -0.1487685724228 0.199404761904761
0.157200952821919 -0.141424100645402 0.199404761904761
0.159508861416974 -0.127166869918624 0.199404761904761
0.159320389173061 -0.122610322499196 0.199404761904761
0.158977738854555 -0.112481015992204 0.199404761904761
0.166795207443288 -0.103692723717036 0.199404761904761
0.160468162527362 -0.0907838759295482 0.199404761904761
0.164375755147658 -0.0831969652073747 0.199404761904762
0.166148143300015 -0.071660471287497 0.199404761904761
