ply
format ascii 1.0
element vertex 851
property float x
property float y
property float z
end_header
0.43385268203231 0.227092245389842 0.271755749368957
0.445185639016598 0.219460327395184 0.273809523809524
0.459164133073786 0.221044550938542 0.273809523809524
0.471380653191425 0.201565808034577 0.273809523809524
0.474847626124795 0.203596069360819 0.273809523809525
0.487466960115276 0.185986549107545 0.273809523809525
0.45176207701945 0.232142857142857 0.0173510357280956
0.448930019157369 0.232142857142857 0.0259698425638697
0.450125754678093 0.232142857142857 0.042198757052902
0.455834776247121 0.232142857142857 0.0338970284885085
0.456373852727089 0.232142857142857 0.0571019328330847
0.4428036310495 0.232142857142857 0.0698853012382868
0.448935390072998 0.232142857142857 0.0764931331027429
0.445784835199319 0.232142857142857 0.0914758658638302
0.450976766550639 0.232142857142857 0.104456099296589
0.446534589432403 0.232142857142857 0.116120663470603
0.458230074733714 0.232142857142857 0.116440700877689
0.454401436791771 0.232142857142857 0.118790392099512
0.444762838083415 0.232142857142857 0.146359399859953
0.446203433925872 0.232142857142857 0.146714076891662
0.457616494709436 0.232142857142857 0.15616424028722
0.460034344144524 0.232142857142857 0.159779240048014
0.441344419900725 0.232142857142857 0.183508791932247
0.45417445020838 0.232142857142857 0.186354050520772
0.462886690780181 0.232142857142857 0.198590710340965
0.456802538622828 0.232142857142857 0.20935581279747
0.453832643923265 0.232142857142857 0.227173932452127
0.46390500238646 0.232142857142857 0.222118495829972
0.459884560262294 0.232142857142857 0.241610186537721
0.456243791629947 0.232142857142857 0.25722499239773
0.453879317395595 0.232142857142857 0.254329808694275
0.453736418712678 0.224340011821912 0.273213337231955
0.473409686625375 0.224325092067734 0.273221238760684
0.469394409962609 0.218516325267998 0.273809523809524
0.485023181626484 0.205713456511972 0.273809523809524
0.483702222988035 0.207470815522756 0.273809523809524
0.467852672360657 0.232142857142857 0.017127657004875
0.46987870949233 0.232142857142857 0.0161484352974974
0.469842903447762 0.232142857142857 0.02923356235038
0.464409759477621 0.232142857142857 0.0489064268101167
0.473129883285983 0.232142857142857 0.044499881536613
0.468833803838586 0.232142857142857 0.0740749863538312
0.4674054297006 0.232142857142857 0.0723652194908003
0.479193941723859 0.232142857142857 0.0740375072323012
0.463299275327481 0.232142857142857 0.0964153103094191
0.464289843013289 0.232142857142857 0.11208434148085
0.477256056822767 0.232142857142857 0.117112898890756
0.462926112516342 0.232142857142857 0.129419865000113
0.466766418238507 0.232142857142857 0.141315716365118
0.480910649417008 0.232142857142857 0.136880687610244
0.474093990017698 0.232142857142857 0.150642343185645
0.465185209999399 0.232142857142857 0.175101772676619
0.468812000201467 0.232142857142857 0.177107868546276
0.467147885168928 0.232142857142857 0.192517992745151
0.467483659004328 0.232142857142857 0.197549426394194
0.464234414910304 0.232142857142857 0.216669785372979
0.46497543945958 0.232142857142857 0.230582287533692
0.458256250083862 0.232142857142857 0.241359976961434
0.472517987572164 0.232142857142857 0.245851336963626
0.464664988919803 0.232142857142857 0.256534483655568
0.461357520808328 0.231162866576539 0.266659700457104
0.471077156821723 0.225931297584353 0.272370589421259
0.483259521425169 0.22389480902888 0.273449117434354
0.494171062730219 0.217624482855101 0.272167951966846
0.488211876287882 0.232142857142857 0.0100357543082418
0.48357511654139 0.232142857142857 0.0364361812984905
0.480811452823162 0.232142857142857 0.0491005332573476
0.487590142448673 0.232142857142857 0.0465902016807374
0.477080689801736 0.232142857142857 0.0691907667303333
0.491094753602704 0.232142857142857 0.0752864953971803
0.484856453220623 0.232142857142857 0.105294140594072
0.482613110956236 0.232142857142857 0.106042538463721
0.491671627435684 0.232142857142857 0.113118215056797
0.485467068082403 0.232142857142857 0.136216265012262
0.483445754935414 0.232142857142857 0.143655389061364
0.492486546405628 0.232142857142857 0.146223967635983
0.481529313446659 0.232142857142857 0.168095750368934
0.485275995628516 0.232142857142857 0.177263004374587
0.486450608887916 0.232142857142857 0.180928330662729
0.485378478435999 0.232142857142857 0.184781416295749
0.487790765799272 0.232142857142857 0.207237478560707
0.482087544084854 0.232142857142857 0.214724863575957
0.490771555121633 0.232142857142857 0.2197782776636
0.483048618334195 0.232142857142857 0.232916506137704
0.492135894332941 0.232142857142857 0.241836210902174
0.486596656841166 0.232142857142857 0.260540278961527
0.485411647582992 0.231664920728685 0.264223721249298
0.496454147174705 0.231603018506815 0.129640829188368
-0.201767876592567 -0.223485326655546 0.185606855417417
-0.174215878215829 -0.224866400471805 0.184831009712934
-0.140946378428772 -0.230983655246747 0.164005469600557
-0.1368146350224 -0.229684245205393 0.172235075097348
-0.145843011767468 -0.22807083229355 0.178157363761007
-0.1361920139016 -0.224291300720575 0.185154083444685
-0.125598666603871 -0.226997369593135 0.181049546268107
-0.108491887393933 -0.227937194490814 0.178592804179445
-0.102822063055037 -0.226914346753131 0.181232322421835
-0.0727716967366421 -0.231299813391699 0.161094554958796
-0.194268214032768 -0.215949808802155 0.189650757469988
-0.1873355717556 -0.214250343153694 0.19041103649944
-0.180932577586001 -0.212603065054017 0.191147968720456
-0.168935744505524 -0.212477265242275 0.191204246974072
-0.165598920368871 -0.217721724162773 0.188844673833574
-0.151850546948542 -0.2136553975614 0.190677193487017
-0.138373456881087 -0.222671728957294 0.186063910117849
-0.132795255517281 -0.215117329638591 0.190023178325383
-0.121826534950501 -0.217598393201338 0.188913957455877
-0.106969390554455 -0.226629050908893 0.181860405935736
-0.0940383664490033 -0.224334719016996 0.185129692352494
-0.0937056754514669 -0.224219530399021 0.185194401851298
-0.0844852528097622 -0.222108111871558 0.186380533233712
-0.0747723810856001 -0.222470975218588 0.186176687526268
-0.0651164731529385 -0.224686382023895 0.184932138659045
-0.0335133504122903 -0.222915941886229 0.185926718644328
-0.0216732003979921 -0.229220337112464 0.174348839955863
0.010280913694003 -0.22958561713751 0.160755910566193
0.0282910100757322 -0.231161845052192 0.162364849796948
-0.204126304882205 -0.200573935767722 0.195560799622873
-0.195309176237323 -0.203825475904745 0.194484924242706
-0.18065116963537 -0.202001867060039 0.195108504322926
-0.174586819522123 -0.210206655800257 0.192220034933308
-0.162945731083569 -0.206260766586949 0.193652180552427
-0.156838235953785 -0.20579154653798 0.193812629585467
-0.138241302961199 -0.206389030375959 0.193608320958264
-0.13046137039198 -0.209420666535307 0.192571657901419
-0.128318530608949 -0.206245557768896 0.193657381183038
-0.110906580224835 -0.210255232047025 0.192198303689854
-0.10584891999213 -0.210397851256674 0.192134501050248
-0.101503475730836 -0.211879436334681 0.191471693851892
-0.0833500391636297 -0.214489603185049 0.190304000276266
-0.0735328883626087 -0.210105121571486 0.192265457648957
-0.0586035145832183 -0.218738397877543 0.18827353713894
-0.0500862320641655 -0.22031890376766 0.187385656497573
-0.041512973773299 -0.218977247420339 0.188139358654333
-0.0248582595814256 -0.223166410813655 0.185786012739139
-0.0219936928764601 -0.219009831860755 0.188111289546915
-0.00992924699036265 -0.215212492773671 0.18677943100427
0.0032419436482802 -0.21852502463733 0.181504203092886
0.0173442611300208 -0.224563625919796 0.184732603588171
0.0333003743355416 -0.218280916847314 0.188530536213143
0.0364879375362349 -0.221767142006147 0.186572079842098
0.0536748676793195 -0.225419730358525 0.18452274510418
0.0521960986192942 -0.219743046462878 0.187709155800108
0.0876324020469895 -0.22557297491968 0.184185374671346
0.0895051005844081 -0.222863108107543 0.185956399071082
-0.203612847385659 -0.193635531424167 0.197246309681413
-0.196506530437166 -0.198011924018746 0.196183175656206
-0.19468235718015 -0.196325206191536 0.196592921142763
-0.177668978092312 -0.198382194454925 0.196093227807441
-0.169465223870973 -0.200623463244299 0.195548768173593
-0.159815939504711 -0.195214454946623 0.196862750098116
-0.147527295845747 -0.19804550519337 0.196175017958152
-0.144812930120899 -0.200825216526135 0.195499757310427
-0.130453783317622 -0.205463913534789 0.193924663158349
-0.126431655407935 -0.197824227739304 0.196228771725746
-0.113060410395171 -0.204840623525439 0.194137796163905
-0.0949226773663856 -0.201366527473127 0.195325757661942
-0.0823577333461749 -0.20494569479537 0.194101867213943
-0.0782153279028152 -0.200309610132358 0.195625010858639
-0.0645086351111164 -0.205097202418875 0.194050059428357
-0.0569408319514802 -0.206403867509917 0.193603247424425
-0.0442699477100113 -0.20250755942324 0.194935583641319
-0.0255675164130155 -0.204833982360784 0.192210607782051
-0.0220385521073227 -0.209450730446975 0.191129285802134
-0.00393569911907154 -0.212471544367048 0.184723173352953
0.00456463302342481 -0.213348430503666 0.184958918953156
0.0141393067491368 -0.208104233262448 0.188657298185986
0.0206926934199515 -0.207559623739115 0.190716896654934
0.0368606183120756 -0.217571863131797 0.188925109444931
0.0379927633354995 -0.208650215828806 0.19283511226816
0.0524745782816534 -0.208846262678151 0.192768074366696
0.0640197725587337 -0.210248951020724 0.19220111359224
0.0724544130804931 -0.212799963585703 0.19105988348925
0.0788775267628596 -0.210733306588284 0.191984430553576
0.102727544061916 -0.219748467888477 0.187706110206373
0.113910346492996 -0.219408507222062 0.187897089877137
0.124401605339474 -0.213725002825385 0.190646054627226
0.132560533900819 -0.218403320996129 0.188461773246276
0.147279598653378 -0.21856570437069 0.188370551153619
0.173189132874055 -0.227245110309656 0.180504140988248
0.175981153110478 -0.225233514721512 0.184624775976305
0.186935825557177 -0.222528471867676 0.186144387639258
0.192961256757588 -0.223809623866066 0.185424675004758
0.211855636081549 -0.221547303820225 0.186695578318588
0.229734239132241 -0.227021641419135 0.180996111442223
0.237314521236617 -0.225905162981466 0.183454057165898
0.246171509634969 -0.222945685159962 0.185910009768313
0.258179326900719 -0.225723574995655 0.183853826116319
0.284209663791716 -0.224423165952047 0.185080005526326
0.301152029974528 -0.226612512158311 0.181896816268346
-0.210089412009456 -0.182073945546556 0.198975162278714
-0.199435546498772 -0.191168860570072 0.197745478870201
-0.180469206999379 -0.186715605713751 0.198405470047217
-0.176751341544401 -0.184478378763285 0.198737036529695
-0.163101002560879 -0.189487956223288 0.197994595993311
-0.166093342983083 -0.186801052098925 0.198392806532071
-0.142817217931513 -0.188904058986934 0.198081132029696
-0.137528293820277 -0.1936220547188 0.197249583506536
-0.131746935013524 -0.192366679639153 0.197554545169075
-0.121775448593566 -0.187700350566594 0.19825952670118
-0.110255178889872 -0.188180882759304 0.198188309800801
-0.0996702863367194 -0.191427384250912 0.197707164568884
-0.0876614285788021 -0.191298040804938 0.197726333813831
-0.0823260371865046 -0.193618423057527 0.197250465726899
-0.0723494344861616 -0.192027330490531 0.197618250002436
-0.0599905748603739 -0.192088983189153 0.197609112812124
-0.0490140400763511 -0.200746927710492 0.195518775600469
-0.0369888890400388 -0.194877466463853 0.194970697944685
-0.0237150334625262 -0.203034547003371 0.191642982167772
0.00145990022562758 -0.204599181809504 0.181616602385521
0.00376292084174973 -0.200903298416949 0.184664735645003
0.0148743575691487 -0.200862103413566 0.188934080537507
0.0237651200485996 -0.202360716089877 0.19165832936931
0.0324856483739841 -0.206231466554833 0.193662199650782
0.0417475920310766 -0.20767187921228 0.19316965288392
0.0569469873477292 -0.201747814371244 0.195195377226903
0.0661458819546224 -0.202728804932359 0.194859929099104
0.0741633481852575 -0.201840778690918 0.195163588228901
0.0839035774022769 -0.208268312817278 0.192965703382179
0.087255991542328 -0.207573007919262 0.193203461761856
0.100217477774731 -0.206215944389099 0.193667507430125
0.111494393683997 -0.20535638504727 0.193961432349872
0.133479286705692 -0.210625621484392 0.192032604946714
0.141070690529957 -0.211252820392368 0.191752019000501
0.160740280390318 -0.206588575736207 0.193540086746683
0.156773228601427 -0.212274603864516 0.191294910292704
0.183826743647325 -0.21316423212772 0.19089692301174
0.182304208730124 -0.20732029250174 0.193289877388095
0.193869573931566 -0.209387981977212 0.192582834332932
0.21238485021999 -0.215418962566789 0.189888238740045
0.238496107709313 -0.21789965258026 0.188744719003652
0.251328931684658 -0.217718689267043 0.188846378746655
0.253195048668573 -0.217873650376222 0.188759326259305
0.262563508336748 -0.223185896551912 0.185775066237839
0.276048321305152 -0.217269946610349 0.18906017589956
0.302916396644639 -0.22379207536559 0.185434533224177
0.313168662337878 -0.221368178723165 0.186796205407078
0.325642652529996 -0.226470501590893 0.182209454878394
0.346189084145282 -0.228005228753658 0.178371123881847
0.351342554178322 -0.224662355095762 0.184945636264144
0.403003732553914 -0.229730634238907 0.165682375577842
0.401785714285714 -0.225312695413241 0.18077544512995
0.401785714285714 -0.224546216859714 0.186302722459618
0.401785714285714 -0.222449206455552 0.1956170127161
0.401785714285714 -0.222372122183012 0.201334776471819
0.401785714285714 -0.222871628987813 0.222922105228025
0.401785714285714 -0.223221444765535 0.237964796485319
0.402308373415119 -0.228532889525942 0.244571051108287
0.401785714285714 -0.225169206595787 0.259729842681716
0.403205782801746 -0.225778028063607 0.267560532473856
0.412350769156199 -0.224520770293939 0.273117607219055
0.47714532824508 -0.228385659369674 0.270676704816725
-0.208895737297789 -0.17420704263701 0.199404761904761
-0.195877018741155 -0.175145927123557 0.199363244539197
-0.187875203193424 -0.180221466454351 0.199078931384064
-0.180185098446836 -0.175421067882088 0.199347832159928
-0.169424960405647 -0.175818489072551 0.199325570077967
-0.158213510524968 -0.181352598995748 0.199015569474963
-0.152738542124175 -0.177021743096324 0.199258168187128
-0.142055870157847 -0.181894404140034 0.198985219531834
-0.134422014253621 -0.185314667796879 0.19861309496304
-0.119971145037889 -0.187070886772541 0.198352815893856
-0.108954120823958 -0.178403079554558 0.199180790769449
-0.105674279094104 -0.180141742667386 0.199083397219108
-0.0941143574794991 -0.181477438470545 0.199008576424047
-0.0826986642825485 -0.183819034889767 0.198834754076339
-0.0751244421152659 -0.182552259708355 0.198948368868276
-0.059997750152723 -0.182507979700987 0.198415878297327
-0.0439756480174237 -0.186172782059209 0.196278524794757
-0.0376029976194061 -0.185640135472702 0.195114529061464
-0.0124533389122147 -0.185425336369604 0.188008581755133
-0.0129973093036484 -0.185234845367305 0.188217887367667
0.00471851195965184 -0.189147554915489 0.185032422172459
0.0139019173126439 -0.190734254557736 0.188565956925144
0.0232514882099368 -0.189661624084168 0.191500945687125
0.0290261142252974 -0.188521867211979 0.193105726777136
0.0338913044283242 -0.194924734796812 0.19424520888788
0.0450481282849282 -0.191647330511566 0.196456971362008
0.0662242915005538 -0.196773392179269 0.196484045679037
0.0663745339947577 -0.195013190601674 0.196911642186416
0.0867634967542805 -0.200419648150127 0.195598279901982
0.0953151248719229 -0.195363042602369 0.196826654480747
0.103019827768195 -0.193705285820906 0.197229364612848
0.112889515200886 -0.193948827141819 0.197170202401229
0.133146245242891 -0.196660208979569 0.196511540678191
0.142346529606877 -0.19425101467408 0.197096793574074
0.143936401241947 -0.194578551233725 0.197017226841078
0.165596142445934 -0.200117741249698 0.195671620556723
0.170719476689174 -0.197309866657908 0.196353722756774
0.193165603666283 -0.201541193114647 0.195266031029739
0.195727624056091 -0.201272773181866 0.195357816789444
0.213996013402756 -0.207777586645779 0.193133506398861
0.21947508269108 -0.203298963752223 0.19466496421743
0.23799798894695 -0.210065229550781 0.192283303885986
0.247832970992131 -0.201678151056577 0.195219198484117
0.27394304224811 -0.211186925453664 0.191781497995907
0.280001730165138 -0.205375726429216 0.193954818595754
0.286140724851628 -0.203414128219358 0.19462558391509
0.29765504654005 -0.211220260386505 0.191766585161153
0.308764346199289 -0.204612729543651 0.194215724140542
0.330575871403376 -0.21324105528217 0.190862555130661
0.348856378268219 -0.210388060764735 0.192138880959731
0.357178400374647 -0.212675138950063 0.191115725484598
0.37008728677509 -0.208417659458064 0.192914634541121
0.389055379516654 -0.215915640946192 0.188440301758914
0.401785714285714 -0.218079606555364 0.184415616479906
0.401785714285714 -0.213233046006462 0.191379954472921
0.401785714285714 -0.21717035586959 0.216983238849803
0.401785714285714 -0.212305460973784 0.226829450447013
0.401785714285714 -0.210138783403779 0.236268351521692
0.401785714285714 -0.217578547562386 0.242424759449473
0.401785714285714 -0.218966020199955 0.252170700471527
0.402243212048763 -0.219170997998389 0.264124552406727
0.40477214278587 -0.220148730832201 0.269649012452687
0.425648414749202 -0.217164359787224 0.273809523809524
0.431150188715028 -0.21580265416971 0.273809523809524
0.449053794942738 -0.221905986886545 0.273809523809524
0.466760797686206 -0.219843192286575 0.273809523809524
0.493251123416339 -0.217592897760332 0.272655153487179
-0.20510836486967 -0.164344239007699 0.199404761904761
-0.198975756538702 -0.165992266077467 0.199404761904761
-0.19225742013248 -0.169733907938159 0.199404761904761
-0.177716027423007 -0.167004928009968 0.199404761904761
-0.180128776566053 -0.167142875894052 0.199404761904761
-0.166076191886701 -0.171007280859521 0.199404761904761
-0.14828035622258 -0.166558063800892 0.199404761904761
-0.146406589833332 -0.174708924790829 0.199387723812024
-0.134875392132914 -0.171831792385235 0.199404761904761
-0.126606234071813 -0.171012856567391 0.199404761904761
-0.1174073347209 -0.176684178769612 0.199277077306442
-0.100428534150054 -0.174613171421184 0.199393087565679
-0.0926660184961269 -0.170179741955413 0.199404761904761
-0.0844885273415888 -0.176225048814283 0.199302796087778
-0.0735046012803057 -0.179752468132454 0.199105202955214
-0.061001468840561 -0.178384586542589 0.198517765522337
-0.0485619769938097 -0.178535588545591 0.197041629428861
-0.0294721993843937 -0.176033828222601 0.193210204924432
-0.0225127560874366 -0.179568777167576 0.191274588259807
-0.00876089150481954 -0.182879907312062 0.186587824341627
0.00518545414493444 -0.179741975361837 0.185212089341202
0.013311340614359 -0.179608665730219 0.188338718421854
0.0164892954380132 -0.177013812273344 0.189428919153751
0.0315631636343553 -0.181348922167281 0.193699932202835
0.0418235692247862 -0.184810763366742 0.195920447276098
0.0472236143258077 -0.1827107886725 0.196818943537962
0.0643293205229923 -0.180540690719104 0.198855574887927
0.0684798723715534 -0.181919492988467 0.198983814146279
0.0779781455209627 -0.186533468984351 0.198432463479727
0.0845289515358405 -0.181248018725015 0.199021427679343
0.106815323283499 -0.184342734604485 0.198757139566892
0.111188664678779 -0.19199695697588 0.197622751485584
0.121986551132629 -0.191888891068492 0.19763876730945
0.138390349396552 -0.184520913018491 0.19873073277344
0.157827812492113 -0.189495175261223 0.197993526101401
0.167505243368645 -0.194943938853784 0.196928465149142
0.179647871088497 -0.188412576607771 0.198153971793952
0.180405537799154 -0.192074830143639 0.197611210353242
0.199526401324746 -0.193036040380835 0.197391940886155
0.211125778434647 -0.197107851442126 0.196402797250176
0.216038087920897 -0.194987861862213 0.196917795163819
0.234411850190234 -0.198066056443508 0.196170025551093
0.244973304764773 -0.194942208626865 0.196928885464063
0.255162450656341 -0.192676397996593 0.197479306918185
0.282476183370872 -0.192936011858928 0.19741624028865
0.286701289134705 -0.19188410857924 0.197639476094554
0.29714415289681 -0.202622954524862 0.194896124473891
0.313027034750758 -0.201650109562161 0.195228787227552
0.319706813190806 -0.197657468726449 0.196269281615283
0.349434814363724 -0.20324560094559 0.194683211542418
0.348101564442605 -0.198728909422731 0.196009002164664
0.356741575461958 -0.197354186707238 0.196342956320395
0.387224322404033 -0.199594674235253 0.189604217174809
0.401785714285714 -0.201299328270798 0.192759372651841
0.401785714285714 -0.206486782169908 0.20233863704802
0.401785714285714 -0.202739965305814 0.216622909025571
0.401785714285714 -0.199273380815378 0.21576629091485
0.401785714285714 -0.202482377334081 0.22812193843709
0.401785714285714 -0.20587546824649 0.251090142593976
0.401785714285714 -0.205330591589416 0.258898158358857
0.402251290460103 -0.199715670856133 0.264163749059069
0.408512216126654 -0.208306302183678 0.272643303783067
0.427636661697806 -0.203252069983025 0.273809523809524
0.439630819781736 -0.202166079016955 0.273809523809524
0.441439879996481 -0.202367187114003 0.273809523809524
0.455291246711526 -0.203203566249098 0.273809523809524
0.47733940697363 -0.210073242249473 0.273809523809524
-0.204690069522255 -0.157819623070541 0.199404761904761
-0.201657512387254 -0.157890452312038 0.199404761904761
-0.193608319500164 -0.156484732731333 0.199404761904761
-0.176097861591198 -0.156592556744521 0.199404761904761
-0.165585849478935 -0.156275733491961 0.199404761904761
-0.167431512983647 -0.164311252890091 0.199404761904761
-0.14628184325344 -0.156896123755649 0.199404761904761
-0.138447138119807 -0.162509600953664 0.199404761904761
-0.129678713218704 -0.162901763984053 0.199404761904761
-0.11975841462718 -0.167827279974342 0.199404761904761
-0.11205295313245 -0.162040900189665 0.199404761904761
-0.105263207345238 -0.164969130950694 0.199404761904761
-0.0913609437410117 -0.163013410034923 0.199404761904761
-0.0873290482101522 -0.168055791436445 0.199404761904761
-0.0669187965520798 -0.164362970596539 0.198984629694949
-0.0623238259925584 -0.166919742658547 0.198651997655625
-0.0602609104696522 -0.168854457089025 0.198442591633195
-0.0377120304395132 -0.166841065465991 0.195140065770783
-0.00777727458666771 -0.174323791868163 0.186209354217526
-0.0135326051072667 -0.170801661666554 0.188423855225161
0.00662877165251851 -0.173785225351676 0.185767440256921
0.00991006846153035 -0.168401389335101 0.187029997648526
0.0221885476007141 -0.16838114575799 0.19117524643246
0.0277729938827561 -0.171969824781403 0.19281223193863
0.032875593521737 -0.173468123494151 0.194007318001924
0.0459174383188496 -0.176886541916269 0.196601613082821
0.0536269976335335 -0.178291210985619 0.197769184852964
0.0696049418675334 -0.171057913945901 0.199087689995609
0.0743926369447297 -0.171652301250314 0.199271381209663
0.0873111528171874 -0.177803607098949 0.199214371024504
0.0971955764552456 -0.173407180781279 0.199404761904761
0.110454783647921 -0.178045051694374 0.199200846181085
0.124945747443481 -0.180106469274145 0.199085373105624
0.143129144298309 -0.177552098987816 0.199228459589277
0.146365189658526 -0.176081479527332 0.199310838314287
0.16636167692839 -0.181881135980714 0.198985962765605
0.171924907727147 -0.183887613777136 0.198824590395604
0.183548588012899 -0.176317144256093 0.199297637237865
0.191381159529486 -0.178191758995868 0.199192628174475
0.210775689825656 -0.184981440162342 0.198662480705789
0.222829329763508 -0.184850456342777 0.198681893061029
0.227727827070396 -0.185408468512062 0.198599193300904
0.238299232962876 -0.187001860198811 0.1983630459236
0.264948772003278 -0.189704182720067 0.197962550313306
0.273758741774325 -0.181535080842356 0.199005347509141
0.278197883064542 -0.189006671883712 0.198065924365032
0.285161641299958 -0.182238771807606 0.198965929314241
0.300291001419541 -0.187833910224374 0.198239732595838
0.317088083267315 -0.19341095751372 0.19730086423981
0.333785135716457 -0.185565943364753 0.198575854862676
0.345687268302882 -0.192675402625856 0.197479548718361
0.368694988617676 -0.188509000700284 0.19464323240196
0.397647836917073 -0.18765245555161 0.185770943898886
0.401785714285714 -0.19049795713832 0.194118705929295
0.401785714285714 -0.194120346446798 0.191715476916562
0.401785714285714 -0.196389527279973 0.207213062081837
0.401785714285714 -0.198320047193202 0.226842799933328
0.401785714285714 -0.18950798146987 0.235219493539178
0.401785714285714 -0.19019810291442 0.243484667259036
0.401785714285714 -0.191356250330354 0.257409099307931
0.40642197900802 -0.198274623830216 0.271536310433952
0.404470800572713 -0.1921526965173 0.269247222835143
0.422362653337514 -0.194074350266043 0.273809523809524
0.429791667291657 -0.198275458895411 0.273809523809524
0.459370670795775 -0.196700406954771 0.273809523809524
0.465150391417006 -0.199930482670715 0.273809523809524
0.479546325368585 -0.200037571668417 0.273809523809524
-0.205205528821958 -0.15330720828466 0.199404761904761
-0.19750203907354 -0.152592213754055 0.199404761904761
-0.195591450462275 -0.153592338878938 0.199404761904761
-0.185284806236077 -0.153653577408707 0.199404761904761
-0.17134753884936 -0.148377863626394 0.199404761904761
-0.163146473692239 -0.154763285074386 0.199404761904761
-0.14917330545164 -0.150239864764064 0.199404761904761
-0.144704209302974 -0.15554623530911 0.199404761904761
-0.13793087276168 -0.148407453229521 0.199404761904761
-0.117472560730244 -0.152550255198359 0.199404761904761
-0.116176682190994 -0.152676999267149 0.199404761904761
-0.104671900068765 -0.15343144558927 0.199404761904761
-0.0961208582372867 -0.154285264718654 0.199404761904761
-0.0773334223542851 -0.15435729147621 0.199384211378135
-0.0701503654327495 -0.15535924150066 0.199108616457142
-0.0584280197485858 -0.159341926420771 0.198256535369044
-0.0543994053434818 -0.157095901415749 0.197847591760296
-0.0339793244990046 -0.157746918431543 0.194265824175617
-0.0311885314652436 -0.158382836319016 0.193612189147168
-0.00468538033970227 -0.155807109270197 0.185019673989622
0.00530965872543622 -0.157876407564645 0.185259880022848
0.0131277131913317 -0.161965014552343 0.188268063380955
0.0171161567800001 -0.162433442613183 0.189620997873946
0.0275570370017454 -0.158141578319012 0.192761652415048
0.0397476943391596 -0.15885171918625 0.195575049082205
0.0428451602377005 -0.159701831912162 0.196090426542769
0.0501868902279526 -0.163076341110455 0.197311993553497
0.0624978032433113 -0.16232028200247 0.198669658041457
0.0726776045292832 -0.159873618180287 0.199205579945912
0.0907945031527415 -0.159926946163288 0.199404761904761
0.101983411353702 -0.161922288341887 0.199404761904761
0.115450028077398 -0.162379285857033 0.199404761904761
0.125599681411896 -0.167225036860495 0.199404761904761
0.139363505146229 -0.169736258503795 0.199404761904761
0.151475887573361 -0.168580594624217 0.199404761904761
0.164972525464545 -0.16417507544721 0.199404761904761
0.165106493453557 -0.172848019812393 0.199404761904761
0.177866406904081 -0.172073718658131 0.199404761904761
0.200534341453054 -0.1708671578299 0.199404761904761
0.197887324332756 -0.169217959708578 0.199404761904761
0.210846830586844 -0.176696661856653 0.199276378049549
0.235995149380039 -0.167180324393276 0.199404761904761
0.250410878384981 -0.1774265109123 0.199235494574068
0.258793174939306 -0.177942054264369 0.199206615720515
0.275112377195231 -0.17357153045971 0.199404761904761
0.28936139825045 -0.177623260025437 0.199224473408143
0.290809824976936 -0.178431585546756 0.199179193967995
0.303935523751888 -0.176033623024218 0.19931351906061
0.323386043185497 -0.180801447442991 0.19904644296972
0.334378959115515 -0.176489405903238 0.199099269774832
0.345599992179598 -0.175538539503032 0.198282694668862
0.370276137313546 -0.174074828449901 0.194272909644127
0.39335491860617 -0.183466593469387 0.187422746847676
0.390523502718161 -0.179199542699714 0.188512201799844
0.401785714285714 -0.185586245417096 0.195233724889396
0.401785714285714 -0.182307595208184 0.207724933557131
0.401785714285714 -0.18461143168775 0.22185780456179
0.401785714285714 -0.17598793905966 0.239399419859005
0.401785714285714 -0.184374638008973 0.250498640069049
0.401785714285714 -0.185119417464323 0.251589523161988
0.401891669104756 -0.182122064697533 0.262418857316684
0.406754212521626 -0.183707935562302 0.271712261902155
0.424481386449354 -0.183085420874346 0.273809523809524
0.440442238058385 -0.178615882443423 0.273809523809524
0.452469260106427 -0.182059108523362 0.273809523809524
0.46074554790731 -0.184838071440031 0.273809523809524
0.480577285861191 -0.185708364105797 0.273809523809524
-0.212588950091035 -0.138176060214795 0.199404761904761
-0.196659770230029 -0.136167539622002 0.199404761904761
-0.189521045313332 -0.145216075193876 0.199404761904761
-0.180514628331543 -0.140502303036225 0.199404761904761
-0.169961488177879 -0.140431167432869 0.199404761904761
-0.164214905381637 -0.144898109733411 0.199404761904761
-0.150839874767173 -0.14545329290406 0.199404761904761
-0.143979524663889 -0.143708937485858 0.199404761904761
-0.134040121743817 -0.140692658657347 0.199404761904761
-0.120230376494243 -0.148077022577402 0.199404761904761
-0.119521891078605 -0.146855048196154 0.199404761904761
-0.0983157840627516 -0.148081154958664 0.199404761904761
-0.0917550918140318 -0.144428294627095 0.199404761904761
-0.0886508540763494 -0.143728501366121 0.199404761904761
-0.0701099847720803 -0.150357889794882 0.199107067157853
-0.058692069051826 -0.1458550838213 0.198283338945683
-0.0518513749634938 -0.147787761245605 0.197588941853897
-0.044154501348302 -0.150667728433527 0.196308283629398
-0.0213439496296324 -0.153040199991596 0.19091645028968
0.0025902419988625 -0.149103040980973 0.183321031211502
0.0025354386518008 -0.15517579604932 0.183238393900643
0.0167046192203264 -0.150577761592979 0.189494897247732
0.0222381132866082 -0.148926049705643 0.191190434023199
0.0254898126325404 -0.150865292888435 0.192186798301854
0.0371623420599091 -0.15527967970467 0.195011322587288
0.0497922617081513 -0.152217117622487 0.197246332574148
0.0656282938394602 -0.152093874462049 0.198935116514556
0.0665498331706891 -0.152784176696029 0.198970473544573
0.071799371516751 -0.158225083513826 0.199171884464956
0.0922445214356708 -0.158617970453148 0.199404761904761
0.106816550685726 -0.16022897888506 0.199404761904761
0.111453803648339 -0.158445474543354 0.199404761904761
0.120045344058044 -0.151644187702944 0.199404761904761
0.131846870239526 -0.161159624764658 0.199404761904761
0.145084352509649 -0.159008208773874 0.199404761904761
0.163181884928859 -0.152929131358989 0.199404761904761
0.165983666595214 -0.15893161158733 0.199404761904761
0.18603928076831 -0.154355053403081 0.199404761904761
0.197591849809218 -0.158339512926611 0.199404761904761
0.210460683715678 -0.159940905274546 0.199404761904761
0.221704114548359 -0.158705326013259 0.199404761904761
0.222827704006421 -0.157592077477106 0.199404761904761
0.248541047325934 -0.165730003151493 0.199404761904761
0.249426581172489 -0.16580946895135 0.199404761904761
0.26153075586031 -0.160561084625574 0.199404761904761
0.272902779639667 -0.166245625954809 0.199404761904761
0.29296695266284 -0.168032887438623 0.199404761904761
0.307418764602996 -0.167429156452034 0.199404761904761
0.331151715525531 -0.163992232297724 0.199223090587047
0.323074662541667 -0.1674922709165 0.199404761904761
0.340570066474394 -0.16533207352642 0.198793281129312
0.361611973383035 -0.173623189934111 0.19606190462696
0.376676573977564 -0.165613012279913 0.192773855593769
0.401785714285714 -0.166028379499244 0.188729599997439
0.401785714285714 -0.168842740992073 0.204275085296561
0.401785714285714 -0.172272690860675 0.220107820421618
0.401785714285714 -0.16545019159296 0.220203476423471
0.401785714285714 -0.171762055128875 0.231907821744345
0.401785714285714 -0.173166708307666 0.252546608016358
0.401785714285714 -0.175571704326766 0.252894527726993
0.401854623497706 -0.16861186135262 0.262239111111761
0.405501837951712 -0.167672113882186 0.270621939340476
0.417774060155033 -0.17249782630312 0.273809523809524
0.438723053634428 -0.167940264352692 0.273809523809524
0.45046467321733 -0.17245390700317 0.273809523809524
0.46818970501921 -0.174009667404284 0.273809523809524
0.480534708458873 -0.1762198779318 0.273809523809524
0.488709390215387 -0.169908637581868 0.273809523809524
-0.209447185294319 -0.132190356158267 0.199404761904761
-0.19434246662277 -0.130398005439121 0.199404761904761
-0.186882059727894 -0.128587479363315 0.199404761904761
-0.176325536756461 -0.127242874090683 0.199404761904761
-0.174964523463915 -0.130570456636106 0.199404761904761
-0.162451319985334 -0.136175214461263 0.199404761904761
-0.152919903956187 -0.134557131422904 0.199404761904761
-0.140500225246309 -0.132824325009259 0.199404761904761
-0.137171759560858 -0.136998208204918 0.199404761904761
-0.118371383669084 -0.134964929992249 0.199404761904761
-0.120830891449857 -0.130035445840436 0.199404761904761
-0.0947508950250304 -0.13157299986744 0.199404761904761
-0.0957013595444735 -0.138123835845297 0.199404761904761
-0.0831723153789529 -0.134037913576023 0.199404761904761
-0.0815125762721251 -0.138974973174347 0.199404761904761
-0.05592454679812 -0.134296348425021 0.19800240847582
-0.0439064719261966 -0.135748520984378 0.196267014805819
-0.0321480178383972 -0.1422426271407 0.193836911616812
-0.0207523541499546 -0.137091212067963 0.190735177502544
-0.01143216729951 -0.144117013731689 0.187615661564501
0.00552846878781819 -0.137232056929593 0.185344072425333
0.0165885530982342 -0.137220006435502 0.189459333031698
0.0170999274591195 -0.141022232443158 0.189616024992424
0.0299427838731606 -0.136608575353675 0.193320421089509
0.038709507353997 -0.138306345884742 0.195373686051287
0.0477411193921103 -0.140758347109318 0.196905049553536
0.0554162043286969 -0.140034244546371 0.197950806762917
0.0734414513545793 -0.144909562805054 0.199234886730999
0.079636667225178 -0.14426570826914 0.199404761904761
0.0891312285935709 -0.14418438663587 0.199404761904761
0.101984818190927 -0.149280114850104 0.199404761904761
0.114794672463041 -0.149992977813881 0.199404761904761
0.123324269530375 -0.144422900443808 0.199404761904761
0.129072003642723 -0.141422490850353 0.199404761904761
0.148536926603603 -0.149111082630911 0.199404761904761
0.158235780903834 -0.151852720062691 0.199404761904761
0.170578021780618 -0.143306377733911 0.199404761904761
0.185408117920918 -0.149052903799737 0.199404761904761
0.197537419646863 -0.147895002786254 0.199404761904761
0.209086137098604 -0.144600320898548 0.199404761904761
0.218370643856718 -0.148887364845467 0.199404761904761
0.233633770178036 -0.145942426882777 0.199404761904761
0.240521139502037 -0.147781752850477 0.199404761904761
0.265018639250767 -0.152996202547431 0.199404761904761
0.26448578077865 -0.149971976033961 0.199404761904761
0.278641872219545 -0.148672830161591 0.199404761904761
0.288683506991347 -0.155834694280098 0.199404761904761
0.30544111893041 -0.151096599594046 0.199404761904761
0.31746750530461 -0.159537718002303 0.199404761904761
0.337762643586091 -0.154878324315309 0.198969446739248
0.350783556581194 -0.160775521685421 0.197756512383984
0.372502577196454 -0.156983478021805 0.193751452453071
0.389357850205861 -0.161648348016008 0.188950475649807
0.401785714285714 -0.157930210771988 0.190906763700808
0.401785714285714 -0.163108903704874 0.195991649659517
0.401785714285714 -0.159224567759361 0.210425172244039
0.401785714285714 -0.155098086981486 0.222115962002737
0.401785714285714 -0.160485382496526 0.232769632821133
0.401785714285714 -0.154232546356104 0.23702272657151
0.401785714285714 -0.155430824917185 0.257507431805902
0.403950166554762 -0.158699494539945 0.268553044144544
0.407661222872504 -0.160165513834406 0.272192616220356
0.43020221935056 -0.159057418924614 0.273809523809524
0.434205736966674 -0.158403720565371 0.273809523809524
0.447176935838173 -0.159051216111543 0.273809523809524
0.45778860045916 -0.160082981914857 0.273809523809524
0.475078802153242 -0.165656833795704 0.273809523809524
-0.215823169006417 -0.117934805968369 0.199404761904761
-0.198393818000228 -0.124728054869837 0.199404761904761
-0.192820216508852 -0.120965038346317 0.199404761904761
-0.178620193887596 -0.118829094454751 0.199404761904761
-0.175438154024533 -0.125627617832063 0.199404761904761
-0.16379381184672 -0.122053971514553 0.199404761904761
-0.145062702457835 -0.120946063931157 0.199404761904761
-0.142037307259018 -0.125077790727558 0.199404761904761
-0.137479686821237 -0.124746876252084 0.199404761904761
-0.123211886172271 -0.125156245191973 0.199404761904761
-0.116656695423617 -0.124064715476273 0.199404761904761
-0.108258010527144 -0.128552319491553 0.199404761904761
-0.0947411160308534 -0.128954422904876 0.199404761904761
-0.0822634765929359 -0.129029609140434 0.199404761904761
-0.073983527483428 -0.127989464082474 0.199255684760241
-0.0584937830656168 -0.13000296580989 0.198263210986387
-0.0501512840964601 -0.130613305958946 0.197306069162969
-0.03163643888767 -0.131625568555484 0.193717094088974
-0.0310898110251439 -0.131932889359619 0.193589067712905
-0.00868693765120146 -0.126860125994563 0.18655936882847
0.00486867786333195 -0.135163303412188 0.185090202093842
0.0114299211331232 -0.126756752976797 0.187614797298286
0.0279815972988518 -0.132060424451049 0.192861089198257
0.0306771591476735 -0.133797544538449 0.193492420015134
0.039282903021518 -0.127425434166924 0.195497713938955
0.043126989303948 -0.129052164350878 0.196137319181213
0.060964594309037 -0.128607767201622 0.198514022398156
0.0679306009895427 -0.130654258844264 0.199023449958668
0.0770799980357214 -0.133430986286416 0.199374488156418
0.0922789810198897 -0.137099706173396 0.199404761904761
0.0930206675171985 -0.136242172263209 0.199404761904761
0.11174170471623 -0.139718794247038 0.199404761904761
0.134156543221764 -0.133240669927746 0.199404761904761
0.138130159135742 -0.137045048233625 0.199404761904761
0.13886620999792 -0.139219809100208 0.199404761904761
0.159772163693883 -0.137379977400125 0.199404761904761
0.172496622649322 -0.136224741834096 0.199404761904761
0.175512276735214 -0.135702127739353 0.199404761904761
0.197942135741535 -0.140313032254576 0.199404761904761
0.208672323729914 -0.135414892128301 0.199404761904761
0.218937350279752 -0.135527882877987 0.199404761904761
0.235179539918552 -0.139544613397623 0.199404761904761
0.24637182600906 -0.14441672012082 0.199404761904761
0.255684807431393 -0.13709062040867 0.199404761904761
0.271585528503071 -0.146616846440454 0.199404761904761
0.279499247913178 -0.146432348757455 0.199404761904761
0.301499624960332 -0.143962495729951 0.199404761904761
0.31363470304037 -0.147005498347125 0.199404761904761
0.323606199420766 -0.143642639897892 0.199404761904761
0.327930451944236 -0.147443824089161 0.199346681962123
0.345966458489784 -0.143372399222333 0.198245494768275
0.35315508331465 -0.149210142360012 0.197469019562353
0.389790814735614 -0.143066235555985 0.188794121017138
0.401785714285714 -0.150309813147701 0.19352254618532
0.401785714285714 -0.152680493653027 0.199814774930461
0.401785714285714 -0.14221411447907 0.214439086042305
0.401785714285714 -0.148040782256317 0.220112433402374
0.401785714285714 -0.143998122637482 0.233930668621485
0.401785714285714 -0.148249780815294 0.245039225531903
0.401785714285714 -0.152947473172576 0.248114312414865
0.403437263163169 -0.15075240866331 0.267869172955752
0.40983030161831 -0.148936644392162 0.273341364237462
0.425631982914705 -0.148678564279673 0.273809523809524
0.434901519939812 -0.152291940325444 0.273809523809524
0.452755530666847 -0.146663328319505 0.273809523809524
0.458261627240813 -0.149901990386076 0.273809523809524
0.475556733608028 -0.153846324587237 0.273809523809524
-0.210952373495714 -0.108563565429878 0.199404761904761
-0.200445757231999 -0.108786608229676 0.199404761904761
-0.198333419197795 -0.11688618647745 0.199404761904761
-0.178899079603217 -0.111786722861311 0.199404761904761
-0.168839308932655 -0.116911224849029 0.199404761904761
-0.162455962498845 -0.113247675940497 0.199404761904761
-0.15594815473721 -0.116152531381773 0.199404761904761
-0.146660087351674 -0.117172671276039 0.199404761904761
-0.135563187387466 -0.11091449766001 0.199404761904761
-0.119569113855389 -0.117370665019268 0.199404761904761
-0.110517532273934 -0.1168261798638 0.199404761904761
-0.104892529236355 -0.115247310675535 0.199404761904761
-0.0906072196717227 -0.112500845564925 0.199404761904761
-0.0896445599341276 -0.11428783028248 0.199404761904761
-0.0781736741055496 -0.119619729448627 0.199404761904761
-0.0607579498057664 -0.119644117679597 0.198493045967951
-0.0571472630433759 -0.122020388486532 0.198126526086375
-0.0388141452487472 -0.117273419505378 0.195398193419796
-0.0188015625070867 -0.114941167390436 0.19013742878679
-0.0162975956855127 -0.118666567608751 0.189370179779259
0.00311029418133166 -0.115517438812133 0.184105211670726
0.0144409765252082 -0.125562666960562 0.188773372844199
0.0243367220248308 -0.122920881806922 0.191833475878915
0.0291313027247429 -0.123210323021448 0.19313036310344
0.036896801728888 -0.120753378780788 0.194949130063614
0.0505310528633021 -0.124543779680132 0.197369257675472
0.0561038158573036 -0.117932190827372 0.19802060603176
0.0662044059682811 -0.118043420171649 0.198957220415216
0.08104959496016 -0.119692115637451 0.199404761904761
0.088576962787307 -0.126244115962569 0.199404761904761
0.0930891355156043 -0.120502892858526 0.199404761904761
0.104856358507663 -0.122572843155372 0.199404761904761
0.128068608002273 -0.129738513402932 0.199404761904761
0.138292706379513 -0.130431738703991 0.199404761904761
0.154731747530109 -0.125044470782083 0.199404761904761
0.161875103469261 -0.126403872910935 0.199404761904761
0.174343439615712 -0.125364235401887 0.199404761904761
0.188456698697446 -0.127070218820554 0.199404761904761
0.190459224379036 -0.130412562869813 0.199404761904761
0.209054644059395 -0.126612197743191 0.199404761904761
0.217124755951486 -0.133831470850045 0.199404761904761
0.230968014947101 -0.130716304151114 0.199404761904761
0.245257036491142 -0.129229220143698 0.199404761904761
0.254674554541076 -0.133033325362399 0.199404761904761
0.26377062585084 -0.129164877687996 0.199404761904761
0.27388513423655 -0.13213486269017 0.199404761904761
0.287164090795141 -0.132749690900309 0.199404761904761
0.318781931132588 -0.128396512107496 0.199404761904761
0.310308137468808 -0.136002226817745 0.199404761904761
0.3333492077799 -0.134373395185691 0.19913877861363
0.347779474893459 -0.132816357475191 0.198061455940955
0.366414575885985 -0.136412816417355 0.19517733063953
0.372180543323277 -0.129907584252121 0.193826876397917
0.401785714285714 -0.131104676710817 0.190651765624297
0.401785714285714 -0.131306184358631 0.19310345841894
0.401785714285714 -0.141424967256973 0.216483906471247
0.401785714285714 -0.132794210329529 0.215229751238204
0.401785714285714 -0.141590830515867 0.238254596424929
0.401785714285714 -0.134097771733184 0.242702113529719
0.401785714285714 -0.137615785566876 0.24834048887235
0.402831741707662 -0.137733031979954 0.266980112919736
0.403867778627945 -0.131726160778865 0.268443193575455
0.426747477961646 -0.137001245657216 0.273809523809524
0.433970416573042 -0.140482188803132 0.273809523809524
0.44122013716578 -0.137959613005456 0.273809523809524
0.456567485297417 -0.141502462591784 0.273809523809524
0.478636633589719 -0.135417880530326 0.273809523809524
-0.206623507759094 -0.104076846456231 0.199404761904761
-0.201317710294555 -0.100124606948564 0.199404761904761
-0.184203237842546 -0.098716900887505 0.199404761904761
-0.180528246080755 -0.100323813544986 0.199404761904761
-0.170727820324508 -0.100800073616704 0.199404761904761
-0.157009619944232 -0.108064696523432 0.199404761904761
-0.146142387262058 -0.108006487450556 0.199404761904761
-0.143038673330624 -0.103554422767563 0.199404761904761
-0.133457920102521 -0.102966850679855 0.199404761904761
-0.123402725688172 -0.106639392541157 0.199404761904761
-0.111399731861893 -0.110100581518734 0.199404761904761
-0.103079749609294 -0.10151128510763 0.199404761904761
-0.0898175280729381 -0.108905770890884 0.199404761904761
-0.0792123129756341 -0.108917619002614 0.199404761904761
-0.0732015016198952 -0.108303440421143 0.199225680493474
-0.0637767311420999 -0.106876389567187 0.198799481682459
-0.0409542285931219 -0.105119672422813 0.195775800464224
-0.041753371871227 -0.111666798758176 0.195908767362581
-0.0179901206163315 -0.106051306551054 0.18988879211158
-0.00652797984635103 -0.112048231635464 0.185728658199919
0.00607224309803074 -0.107517898285679 0.18555330259093
0.015897422614265 -0.107155229832576 0.189247561384674
0.0236867805176844 -0.106747326693518 0.191634325086654
0.0348740435214249 -0.108610976634131 0.194475377405325
0.0400632932277027 -0.113245795154459 0.195627560573554
0.0481785873304838 -0.11181765717717 0.196977838446955
0.0563121555648327 -0.109958655201358 0.198041754541712
0.0605187644097218 -0.113911955998401 0.198468766320115
0.0773800495963547 -0.107794351662492 0.199386000342254
0.0806590598321992 -0.113923683225605 0.199404761904761
0.0920472888369709 -0.118170706144875 0.199404761904761
0.11907835300001 -0.115768751882261 0.199404761904761
0.12796441690272 -0.11957075941846 0.199404761904761
0.137322900852455 -0.114659380886835 0.199404761904761
0.146809584624475 -0.116634569722353 0.199404761904761
0.167488299221171 -0.120790866693768 0.199404761904761
0.163619212415633 -0.118826085352693 0.199404761904761
0.188779039537065 -0.114409630432346 0.199404761904761
0.19247037547779 -0.111821293709869 0.199404761904761
0.210967192778907 -0.117255886165325 0.199404761904761
0.219520358793567 -0.116683631693875 0.199404761904761
0.223560526018632 -0.121126788835795 0.199404761904761
0.237821836732831 -0.11537583830949 0.199404761904761
0.250776747844435 -0.116503046581159 0.199404761904761
0.276213378866596 -0.122887158988772 0.199404761904761
0.286495192461752 -0.118156589739964 0.199404761904761
0.289862812590082 -0.122548236389487 0.199404761904761
0.316527719662536 -0.122165322201266 0.199404761904761
0.324647486192135 -0.119278530173154 0.199404761904761
0.329851557301109 -0.117186139803554 0.199272974223923
0.352693923795755 -0.126765286207336 0.197545750422206
0.36938714192114 -0.118417117021418 0.194481122335493
0.373089191119555 -0.123703997102687 0.193614060893154
0.401785714285714 -0.12987577853349 0.183816558042506
0.401785714285714 -0.12919914551291 0.199177409166877
0.401785714285714 -0.123011047407926 0.213609950210364
0.401785714285714 -0.121528200935071 0.225899975156886
0.401785714285714 -0.1201458297613 0.232071887074147
0.401785714285714 -0.130185888549472 0.253456351055931
0.401785714285714 -0.124802366611299 0.256103624470681
0.403819918519335 -0.119468890570829 0.268379380097307
0.406366955842836 -0.127556363165233 0.271507170066402
