ply
format ascii 1.0
element vertex 849
property float x
property float y
property float z
end_header
0.186444363607382 -0.149398154136201 0.283759959238242
-0.135783379188967 0.172923754708646 0.204597855093948
-0.13156185563477 0.172923754708646 0.217966912362182
-0.137746447036748 0.172923754708646 0.236242819493582
-0.134256301988994 0.172923754708647 0.238790948577768
-0.132689614220805 0.172923754708646 0.247352555439127
-0.129045056967596 0.172923754708646 0.249147388651139
-0.130878956332236 0.172923754708647 0.257273501060126
-0.138830110057737 0.172923754708647 0.277869498191693
-0.132354379378171 0.172923754708647 0.280977902109918
-0.140561309017199 0.172923754708647 0.293999459959414
-0.133177550445465 0.172923754708646 0.296898411522464
-0.136345088590857 0.172923754708647 0.315525318965983
-0.128092931399953 0.172923754708646 0.315217378949486
-0.134423280898669 0.172923754708647 0.335371510173068
-0.129447979225852 0.172923754708647 0.334640043994419
-0.131246485441909 0.172923754708646 0.343528037427762
-0.137333157729002 0.172923754708647 0.355205758054536
-0.13363606900623 0.172923754708646 0.356778281904496
-0.129833483369712 0.172923754708647 0.373924612679445
-0.13910006805096 0.172923754708647 0.381645560792698
-0.136185852951506 0.172923754708646 0.389759980399186
-0.130552714073318 0.172923754708646 0.404071134116962
-0.126399554807763 0.172923754708647 0.407760593331406
-0.138330367578134 0.172923754708647 0.420822129847921
-0.129580653164924 0.172923754708646 0.427368843389622
-0.138593512519916 0.172923754708646 0.445894912316274
-0.132518338557195 0.172923754708647 0.454238783380285
-0.134281004989825 0.172923754708646 0.452733631410582
-0.128719070845701 0.171134628697991 0.462747537904516
-0.127543902694995 0.16485254199274 0.462747537904515
-0.110509204054839 0.15564634457755 0.462747537904515
-0.11589245628862 0.154345144733859 0.462747537904516
-0.0979463149672444 0.144211395009499 0.462747537904516
-0.0856963252243601 0.128616117873765 0.455940748033146
-0.0828584773384241 0.126763244149821 0.462930202763574
-0.0854092133687475 0.125900413035183 0.466184995002161
-0.0820066753404011 0.115998115050322 0.471111729034209
-0.0654658030927969 0.109472002419897 0.472260567106466
-0.060943734311459 0.103831403453091 0.472936892011089
-0.0547689561884699 0.0968207037805604 0.47170274863155
-0.0515827253079647 0.0900775969858948 0.470515711531564
0.138001636724362 -0.0861882282976519 0.267228583153163
0.138985626175372 -0.0874837484421934 0.275589013949535
0.138877284366262 -0.0955505706537874 0.274668491685319
0.14394550507197 -0.0996569933099668 0.279163380733696
0.155821690384092 -0.109670693058956 0.283326913797485
0.156863721310473 -0.114144696073489 0.283692227246328
0.166486733908843 -0.127307889074101 0.287065846811331
0.176705785710626 -0.135341284315208 0.288170469607414
0.178973316361498 -0.140774043154883 0.286783385555096
0.199943228401701 -0.153213420067994 0.282422409727461
0.219837444233996 -0.165213977624672 0.278215274451446
-0.118558905350013 0.172923754708646 0.195697180000461
-0.117258448780125 0.172923754708647 0.205646185902938
-0.116416028577856 0.172923754708646 0.210114395600279
-0.128540161721527 0.172923754708647 0.236266704838076
-0.123451589983517 0.172923754708646 0.235173139026771
-0.12057676294534 0.172923754708646 0.240138368066457
-0.121853320994125 0.172923754708646 0.262348233372601
-0.12635162696147 0.172923754708646 0.27294606415859
-0.118285021980196 0.172923754708647 0.265065432218156
-0.114830628971124 0.172923754708647 0.272563694324886
-0.116789802222817 0.172923754708647 0.285240602367946
-0.118313953387651 0.172923754708646 0.29841099046901
-0.121020032102444 0.172923754708647 0.307285269807247
-0.122881013397007 0.172923754708647 0.32775958020606
-0.119655317926599 0.172923754708647 0.323602854619925
-0.115979233570298 0.172923754708647 0.327571079491118
-0.120155999880115 0.172923754708646 0.346820306076286
-0.115011899626054 0.172923754708646 0.352513984391144
-0.119233191787656 0.172923754708646 0.368760132441228
-0.119766423898615 0.172923754708647 0.375847944428745
-0.114855258638152 0.172923754708646 0.383337587230336
-0.124253666044399 0.172923754708647 0.394803934929446
-0.119576077538464 0.172923754708647 0.407843181063247
-0.117259530271361 0.172923754708646 0.4084933243618
-0.113290089415834 0.172923754708646 0.416602579798949
-0.11219040399693 0.172923754708647 0.43057491177363
-0.117514150822588 0.172923754708646 0.443943869203851
-0.126638649373949 0.172923754708646 0.452456829837354
-0.119416406439058 0.172923754708646 0.457767006819126
-0.113039129961988 0.172578808916045 0.462747537904516
-0.10905236131713 0.158634395184561 0.462747537904516
-0.104340051118208 0.159917966759819 0.462747537904516
-0.0984853689864566 0.152877836568557 0.462747537904515
-0.0872768513886012 0.142489206263395 0.462747537904516
-0.0801610669278306 0.139862269534019 0.462747537904516
-0.0700698799723689 0.126864149864469 0.462549563805047
-0.0742606934759623 0.121026224200771 0.470226595180318
-0.0688090536655701 0.117622347028736 0.470825803914517
-0.0558432391652997 0.110679001408263 0.472048090480712
-0.0477827962689576 0.0959554330020086 0.471550428855674
-0.037481634355804 0.0916001480679997 0.470783737039111
0.13810087076321 -0.077908749422861 0.268071721576635
0.14123291640448 -0.0795003624727235 0.278212405962864
0.148773175833431 -0.0876198026747929 0.280855857426183
0.157112881491786 -0.0975949754061177 0.283779577403455
0.163635843487178 -0.0973419715187959 0.286066386444228
0.16924669448871 -0.100842896502919 0.288033429147496
0.170180898989757 -0.106955691106504 0.288170469607414
0.189040977712921 -0.128683001078334 0.288170469607414
0.196258088923209 -0.128581811796581 0.288170469607414
0.203752374857124 -0.134981064010677 0.288170469607414
0.215553703830822 -0.159980379971732 0.280050060310533
-0.102297311809891 0.172923754708646 0.191719705998292
-0.10686504802304 0.172923754708647 0.193653079614267
-0.114294538360794 0.172923754708647 0.217176164790448
-0.115196619292348 0.172923754708646 0.227517387025084
-0.104810207270698 0.172923754708646 0.222043627834899
-0.102772638382024 0.172923754708646 0.233918866796518
-0.106451882367036 0.172923754708646 0.252157926618762
-0.105701184381011 0.172923754708647 0.254076854194197
-0.107246230694848 0.172923754708647 0.266112972127005
-0.105548923403302 0.172923754708646 0.270553328221997
-0.113946496801786 0.172923754708647 0.285150584246976
-0.106400517034772 0.172923754708647 0.295977911861044
-0.101006338618399 0.172923754708646 0.300165432012968
-0.111181222867244 0.172923754708646 0.318349981732434
-0.103536347679398 0.172923754708646 0.31384997248276
-0.110194817094626 0.172923754708647 0.335074296587137
-0.111679702894455 0.172923754708646 0.341313003509553
-0.0997544024988 0.172923754708646 0.345432086569107
-0.106028626637862 0.172923754708647 0.352702829172832
-0.10437449460036 0.172923754708646 0.370165290599024
-0.108576833220355 0.172923754708646 0.377847808558629
-0.109016638645032 0.172923754708646 0.38043322608197
-0.107869963920638 0.172923754708647 0.400032160446072
-0.109943990281249 0.172923754708647 0.40290287392633
-0.105744514877843 0.172923754708647 0.414929724020051
-0.104513610221053 0.172923754708647 0.413392963828643
-0.103748227286674 0.172923754708646 0.434379127750599
-0.106903590813789 0.172923754708646 0.441885024132363
-0.107162054584853 0.172923754708646 0.451523519568941
-0.109164704433748 0.16934681795755 0.462747537904516
-0.10762314474925 0.171985567478674 0.462747537904516
-0.0966059974676984 0.16445709042355 0.462747537904515
-0.0854287394733033 0.154103016269688 0.462747537904516
-0.0801327355164588 0.139879600777771 0.462747537904516
-0.0712850649946705 0.146590499549073 0.462747537904516
-0.0615790553583163 0.128539445609287 0.456229972989344
-0.0532677960816411 0.126259342592538 0.464831032311594
-0.050498380671355 0.122594035706089 0.469950602158218
-0.0419669527345955 0.111940619393444 0.47182599888406
-0.0363434734258964 0.109303771932391 0.472290181916983
-0.0299639738048994 0.103692010626281 0.472912353699309
-0.018524750463522 0.0930546815482309 0.471039788923915
0.14307742762668 -0.0738741849193726 0.278859051603558
0.150453703894627 -0.0751952615845471 0.281445014126212
0.154693529421451 -0.080543226993549 0.282931405025452
0.162762276421705 -0.0942714298258076 0.285760132772283
0.171445919674415 -0.0961359325688571 0.288170469607414
0.18507860330119 -0.11219411062318 0.288170469607414
0.19073170012901 -0.113747267594857 0.288170469607414
0.204744369429911 -0.12312657166488 0.288170469607414
0.199575050850372 -0.123294381902761 0.288170469607414
0.223793663921787 -0.147518129656767 0.284419055056902
0.237393910985686 -0.153339139823511 0.282378335107109
-0.0967357265567014 0.172923754708646 0.183051360097332
-0.0927478629780437 0.172923754708647 0.185957293778699
-0.0930333278539803 0.172923754708646 0.18898796451284
-0.0905499840784728 0.172923754708646 0.204359628580316
-0.0914604594085548 0.172923754708646 0.214038362257694
-0.0856165871481466 0.172923754708646 0.221802443804593
-0.0939476630346964 0.172923754708647 0.236518526482556
-0.0978018279094492 0.172923754708646 0.246098819940296
-0.089674961254322 0.172923754708647 0.256235997630729
-0.0874543342347218 0.172923754708646 0.255975417696346
-0.0937037199328833 0.172923754708646 0.278255161448284
-0.0970916037743805 0.172923754708647 0.284362312789666
-0.0856866802793878 0.172923754708647 0.282717655570853
-0.0878262413674434 0.172923754708646 0.302234123449896
-0.0917837077003962 0.172923754708646 0.311650434604058
-0.0992085965551939 0.172923754708646 0.322282185246915
-0.0930602999140205 0.172923754708646 0.331361279371114
-0.0884828337762588 0.172923754708646 0.328390666629297
-0.0839846036561336 0.172923754708646 0.339692688359549
-0.0971376098499333 0.172923754708646 0.362147973533651
-0.087727371826847 0.172923754708646 0.361045402436713
-0.0872599805841443 0.172923754708646 0.367341336925983
-0.100829985806092 0.172923754708647 0.387126911852265
-0.0870950465774262 0.172923754708646 0.386307265283643
-0.101052017902689 0.172923754708646 0.407348221539954
-0.099400712496465 0.172923754708646 0.413421332152699
-0.0887561606457319 0.172923754708646 0.419350954548764
-0.0898616863933604 0.172923754708646 0.434847862834369
-0.0864183205703121 0.172923754708647 0.43703134376617
-0.096290628489143 0.172923754708647 0.460936996726865
-0.0942109610313975 0.172923754708647 0.456497479037163
-0.0927166576518034 0.172923754708646 0.46075995358591
-0.0762947262498807 0.162498969627616 0.462747537904516
-0.0763612090576572 0.157259161968416 0.462747537904516
-0.0647522666793942 0.143144719934246 0.462747537904516
-0.0525761872431235 0.136955728866681 0.462747537904516
-0.041514204847866 0.128847449400704 0.455068113695269
-0.0497474565714733 0.125417276112662 0.468007495696583
-0.0425361933039968 0.120753328709865 0.470274634916598
-0.0383548008340782 0.115985156705795 0.47111401018386
-0.0294744839716204 0.111727623568219 0.471863494055704
-0.0169638390848283 0.103276685172455 0.472839241002554
-0.00753999950019772 0.0948118316508839 0.471349112567393
0.155593060759889 -0.0693693180924362 0.283246761208525
0.158124585660755 -0.0698611332725232 0.284134258948713
0.168804975540303 -0.0790632476596868 0.287878572061803
0.181448624484232 -0.0961102112256847 0.288170469607414
0.184447441099096 -0.100395638607127 0.288170469607414
0.199743034931025 -0.107598874757044 0.288170469607414
0.201290942490943 -0.111965416988956 0.288170469607414
0.218041227852186 -0.13164103524447 0.288170469607414
0.229688683304005 -0.138205156905165 0.2876839813741
0.245001050595762 -0.155868864383001 0.281491468527572
0.253174581464494 -0.161752304421405 0.279428862018417
0.262573579225348 -0.159072585734528 0.280368313286752
-0.0798089951728349 0.172923754708647 0.161431587492819
-0.0713877404762703 0.172923754708647 0.172482312244987
-0.0800720978096164 0.172923754708646 0.185884278289131
-0.0776721482650059 0.172923754708646 0.192531563391697
-0.0814481345945883 0.172923754708646 0.212426959644046
-0.0783076305868665 0.172923754708646 0.216395827401293
-0.0756892676108146 0.172923754708647 0.220817145260522
-0.0785946696061052 0.172923754708646 0.241054721581626
-0.0815574392966089 0.172923754708646 0.251587715749381
-0.0773794427842045 0.172923754708646 0.249326448901725
-0.0748960447018781 0.172923754708646 0.264901197570023
-0.0818475473973632 0.172923754708647 0.280646032655212
-0.084775383125444 0.172923754708646 0.28391261663018
-0.0832397266433186 0.172923754708647 0.298359934887664
-0.0849081049538889 0.172923754708647 0.303315631073057
-0.0802885147871409 0.172923754708646 0.318215539516929
-0.0797661224681982 0.172923754708647 0.327641130833491
-0.079230178513524 0.172923754708646 0.326473357195278
-0.0850615914744653 0.172923754708646 0.336859534115012
-0.0808840331172658 0.172923754708646 0.342477284501469
-0.0764153673981902 0.172923754708646 0.357953504086211
-0.0730133667837788 0.172923754708646 0.363298353019842
-0.0827402977334827 0.172923754708647 0.372889619802455
-0.0775111664872119 0.172923754708647 0.383481012771433
-0.0778464515976744 0.172923754708646 0.39201854436149
-0.0801594054639247 0.172923754708647 0.40641044004316
-0.0802271815278401 0.172923754708647 0.414213548048178
-0.0822812052759144 0.172923754708646 0.418385386683141
-0.0801536531887498 0.172923754708646 0.430658980113705
-0.0740112097589748 0.172923754708647 0.440128841692733
-0.0803817023537699 0.172923754708647 0.454217649943334
-0.0758966128472133 0.169639281603338 0.462747537904516
-0.0690649064241983 0.166077115881926 0.462747537904516
-0.0630505181304609 0.166136874868602 0.462747537904516
-0.0556983913949063 0.156231158542489 0.462747537904515
-0.0491754800525232 0.144775231848734 0.462747537904515
-0.0442123999165442 0.138387655499608 0.462747537904516
-0.0335559584999063 0.128929062626291 0.454760250326993
-0.0349930104489526 0.124864272572164 0.469550956198596
-0.0264190125714659 0.125075882397071 0.469295309263981
-0.0176460725304446 0.112454960536723 0.471735455750499
-0.0123272168202552 0.108490324514229 0.472433378857748
-0.000121984928609284 0.100989098970517 0.472436540915813
0.168029487827834 -0.0630256008609398 0.287606702884405
0.166155980753277 -0.0643849694547873 0.28694989192658
0.178642252528428 -0.0783029686232294 0.288170469607414
0.189381111945109 -0.0856801428030057 0.288170469607414
0.201077229222729 -0.0906399706760313 0.288170469607414
0.209279133004709 -0.0985933536722793 0.288170469607414
0.223424436206331 -0.114525490799978 0.288170469607414
0.226986300299555 -0.115002935032036 0.288170469607414
0.233930703510041 -0.13070192355865 0.288170469607414
0.244441273200745 -0.137534228162648 0.287919194443743
0.252092580808107 -0.150591804923549 0.283341491153656
0.275002859164324 -0.166137142275942 0.277891632941325
-0.0668660773634387 0.172923754708646 0.155630710868923
-0.0589063892190898 0.172923754708646 0.165296241898353
-0.0703150164816178 0.172923754708646 0.182903642944267
-0.065091041212586 0.172923754708647 0.184247658659643
-0.0673351457275876 0.172923754708647 0.19804551982743
-0.0673423347179715 0.172923754708647 0.208256916759224
-0.0632897181483853 0.172923754708647 0.214488167022895
-0.0653038763733377 0.172923754708646 0.217762743298803
-0.0709140227990143 0.172923754708647 0.240251629975601
-0.0632482350924218 0.172923754708646 0.248261008404399
-0.0657078497808134 0.172923754708646 0.253226952146142
-0.0651966866303727 0.172923754708646 0.26954566247871
-0.0629462736704114 0.172923754708646 0.271537114592982
-0.0668287491264602 0.172923754708646 0.286661409907877
-0.0646505715849207 0.172923754708647 0.288506354255322
-0.0730334067630403 0.172923754708647 0.308136700888788
-0.0662255392736303 0.172923754708646 0.302668505601187
-0.0729495976569988 0.172923754708647 0.320552916113312
-0.0694990816152542 0.172923754708646 0.33192047458171
-0.0623679772327549 0.172923754708646 0.338505393490957
-0.0661630887783464 0.172923754708646 0.349603689442792
-0.0723313161179841 0.172923754708646 0.367805437929081
-0.067289152504719 0.172923754708646 0.362628917331957
-0.0704142774969159 0.172923754708646 0.385254096237614
-0.0670017451201839 0.172923754708646 0.383934653253287
-0.0669851901411946 0.172923754708647 0.399180840916717
-0.0629822150638176 0.172923754708647 0.404299846734589
-0.0690681684905953 0.172923754708647 0.422186090186351
-0.0655684748802421 0.172923754708646 0.413760965266551
-0.0660155555192478 0.172923754708647 0.425753229199841
-0.0603431993359606 0.172923754708646 0.442931954953583
-0.0706178046573029 0.172923754708647 0.459823390330097
-0.0681579940965788 0.172923754708646 0.461607525168859
-0.0584961090032355 0.163726604205933 0.462747537904516
-0.0558577408595343 0.15949160230636 0.462747537904515
-0.0448284164948171 0.157960217955259 0.462747537904515
-0.0346430655298018 0.143070033106065 0.462747537904516
-0.0270597791163716 0.140441453375459 0.462747537904516
-0.0193113790751904 0.127452930419094 0.460328551666154
-0.0146435998506038 0.126099904174172 0.465432469739881
-0.00924235894847247 0.116221639331669 0.471072380463471
-0.00793427490299589 0.112205199567956 0.471779422952129
0.00862747381321185 0.105103634689306 0.473029561980861
0.0137861968246457 0.102754051384025 0.472747238055624
0.177631705603633 -0.0622770706380179 0.288170469607414
0.184565210215342 -0.0705411287141254 0.288170469607414
0.194081693660591 -0.0776371818001154 0.288170469607414
0.20976472799586 -0.0897669441858449 0.288170469607414
0.20835633027557 -0.0925657033972608 0.288170469607414
0.222152376331602 -0.09549562498206 0.288170469607414
0.230924074188812 -0.106382864427576 0.288170469607414
0.238613399549722 -0.117213652375482 0.288170469607414
0.256012063560231 -0.128074523048302 0.288170469607414
0.256662170848964 -0.135249320871928 0.288170469607414
0.266714396554948 -0.145457976515251 0.28514130007883
0.295798144505197 -0.163517102084975 0.27881016222298
-0.057857674360579 0.172923754708646 0.155075710627311
-0.0541357011059753 0.172923754708646 0.162179905155045
-0.0543441698566799 0.172923754708646 0.166179034168225
-0.0594225356758265 0.172923754708646 0.182221272889176
-0.0596410743621034 0.172923754708646 0.187790421664682
-0.0518026932774157 0.172923754708646 0.194221602586579
-0.0532057257083104 0.172923754708646 0.198967782293547
-0.047751840981616 0.172923754708646 0.211512971532147
-0.0505133903794828 0.172923754708647 0.229054721755344
-0.0592630181094454 0.172923754708646 0.240229233767526
-0.0579662589077822 0.172923754708647 0.246772919444035
-0.0515532192225799 0.172923754708646 0.259742270850021
-0.0544360157840671 0.172923754708646 0.267935898927309
-0.0475534944167505 0.172923754708647 0.273651223589566
-0.0501492440904962 0.172923754708646 0.278145311758247
-0.0453118119914568 0.172923754708647 0.292118727501433
-0.0517338743415288 0.172923754708646 0.308501808320766
-0.0568060750795729 0.172923754708646 0.313793824942558
-0.0472535894557515 0.172923754708646 0.316237443918444
-0.0559736274712817 0.172923754708646 0.33578096696197
-0.0525110289061907 0.172923754708647 0.334546306854682
-0.0601154610011088 0.172923754708647 0.351945018400627
-0.0531592421846157 0.172923754708647 0.354637781373565
-0.0594695144560487 0.172923754708646 0.372550172606713
-0.0553316572550361 0.172923754708647 0.372107290858135
-0.0549822928690315 0.172923754708646 0.392154165638865
-0.0477590220178395 0.172923754708646 0.391342784342414
-0.0496013150304783 0.172923754708647 0.411131177455104
-0.0544467692131988 0.172923754708647 0.420031359025811
-0.0586042478199263 0.172923754708646 0.426618381790139
-0.0574091956784433 0.172923754708647 0.435277129498077
-0.0540247142915232 0.172923754708646 0.445524790127093
-0.0527816662150284 0.172923754708647 0.45456968956467
-0.0481351926542913 0.172923754708647 0.45748820405709
-0.042184971294567 0.163626422401361 0.462747537904516
-0.0324040333951913 0.160047012561332 0.462747537904516
-0.0279699237407378 0.149572546950662 0.462747537904516
-0.0227580453224489 0.138834538241907 0.462747537904516
-0.0190949205813915 0.13948518210307 0.462747537904516
-0.00441567215089015 0.127734686330948 0.459265705253317
-0.000633170877193251 0.126290254384988 0.464714426106232
-0.00198894977557051 0.125058637260514 0.469360361781986
0.0151256262907781 0.114976874249527 0.471291505323609
0.0209823828849333 0.103117361823008 0.472811194178969
0.031888638072988 0.0966437642603571 0.471671600708
0.0384186521059747 0.0891091403806489 0.470345227219932
0.194183863708143 -0.0674552317289035 0.288170469607414
0.217850891066661 -0.0734081874784586 0.288170469607414
0.215779666466108 -0.078444843712993 0.288170469607414
0.227930047317991 -0.0987571573961382 0.288170469607414
0.246671719957883 -0.107480153632958 0.288170469607414
0.247790046292749 -0.111228132763592 0.288170469607414
0.26095556306473 -0.126832796359452 0.288170469607414
0.267253979814259 -0.12127991306243 0.288170469607414
0.268209116083484 -0.130943908365402 0.288170469607414
0.292605061848521 -0.146402208900289 0.284810272678054
-0.0352258648633507 0.172923754708646 0.141293278979555
-0.0405382725685345 0.172923754708646 0.147869626242977
-0.0404307122403696 0.172923754708647 0.165831110596232
-0.0314450531265117 0.172923754708647 0.168044366382369
-0.0376149516771412 0.172923754708647 0.176198979734421
-0.0422642219475589 0.172923754708646 0.190289591889252
-0.0386889383798297 0.172923754708646 0.200186975084274
-0.0316031949025809 0.172923754708646 0.196734310023143
-0.033223934687124 0.172923754708646 0.208693186663257
-0.0475905851844299 0.172923754708646 0.236513911261959
-0.031380407206157 0.172923754708646 0.229017830989081
-0.0401542250359448 0.172923754708646 0.239136096155668
-0.0432121508024802 0.172923754708646 0.251662014499192
-0.0370140108079174 0.172923754708647 0.262051601059907
-0.0352658526373979 0.172923754708646 0.272157123521264
-0.0367027011065188 0.172923754708646 0.288636379641318
-0.0432683927457771 0.172923754708646 0.300874062646596
-0.0350483218762631 0.172923754708647 0.304318245163372
-0.0356028990675655 0.172923754708646 0.308420849824848
-0.041925920094485 0.172923754708646 0.324013493815135
-0.0418677562997734 0.172923754708647 0.330092872234649
-0.036120696752003 0.172923754708647 0.340564898790005
-0.0457906299042279 0.172923754708646 0.353509976975566
-0.0379339402968951 0.172923754708646 0.347952851558954
-0.0312474301079088 0.172923754708647 0.365565829234025
-0.0376816303367298 0.172923754708646 0.380482545206772
-0.0439115264653652 0.172923754708647 0.393082852106532
-0.0361262042787557 0.172923754708646 0.402569163567569
-0.0351461042268215 0.172923754708646 0.401589400797966
-0.0384084668652791 0.172923754708647 0.42150526773445
-0.0387116085568308 0.172923754708646 0.418889271262738
-0.0395531032512208 0.172923754708647 0.429686871501421
-0.0339243663244895 0.172923754708646 0.440647792402143
-0.0344441012957819 0.172923754708646 0.453976131886829
-0.0300849332739166 0.172923754708647 0.461695232312323
-0.0331420047762595 0.164380064334577 0.462747537904516
-0.0182788004147438 0.154268282266863 0.462747537904516
-0.0172513709815336 0.147708841278114 0.462747537904516
-0.0121485763582525 0.148709332732059 0.462747537904516
0.00269169390661642 0.139009532998382 0.462747537904516
0.00789920947092028 0.12816976818059 0.457624479058132
0.0109990660894638 0.12264580229591 0.469941489316834
0.0237492916909588 0.113740987852329 0.471509067205619
0.0264992348346519 0.109845419503844 0.472194831838449
0.0344773088627513 0.10674812150238 0.472740071258409
0.0445334564307625 0.0891759459548891 0.47035698748082
0.0535873703220958 0.0925382261387652 0.470948873601024
0.226239269462077 -0.071078117075477 0.288170469607414
0.232361608649223 -0.0813680146901302 0.288170469607414
0.235873408042936 -0.0857861024184343 0.288170469607414
0.253475979987545 -0.0989368430256524 0.288170469607414
0.256635021975651 -0.0965352279863234 0.288170469607414
0.267461470049573 -0.113051277823325 0.288170469607414
0.277853228357629 -0.125260858716288 0.288170469607414
0.283292849738308 -0.128647098413582 0.288170469607414
0.287815621663338 -0.136521889378478 0.288170469607414
0.304581515206973 -0.14942457122581 0.283750697979416
0.324889107030921 -0.161853085475068 0.279393530366198
-0.0289078766303029 0.172923754708647 0.136633694718653
-0.0257869058590079 0.172923754708647 0.144914946479435
-0.0233296432829093 0.172923754708647 0.147832135762791
-0.0299229292167493 0.172923754708646 0.165462814139011
-0.0200017829339942 0.172923754708646 0.161707629040847
-0.0245915238075164 0.172923754708646 0.177339861060232
-0.0287343639762188 0.172923754708647 0.187543588878996
-0.0284482102429523 0.172923754708646 0.196960453011718
-0.0321868610346525 0.172923754708647 0.214941510739916
-0.0246630971132152 0.172923754708647 0.207480312557057
-0.0223007768626021 0.172923754708647 0.227239643410186
-0.0302882757718585 0.172923754708646 0.235211967184359
-0.0210304454548152 0.172923754708647 0.243166213244588
-0.0191263039700367 0.172923754708646 0.253890234788258
-0.0232226699909376 0.172923754708646 0.260256187465335
-0.0271479706823352 0.172923754708646 0.27106298978898
-0.0169765256749315 0.172923754708646 0.279014586792731
-0.019733574411988 0.172923754708647 0.289949052113159
-0.0259026789836559 0.172923754708646 0.308993331412718
-0.0320827598731456 0.172923754708647 0.313174657926221
-0.0149819074779413 0.172923754708646 0.313358714434059
-0.027282808707842 0.172923754708647 0.33909339419656
-0.0241857798816359 0.172923754708646 0.338393389300533
-0.0205509908331648 0.172923754708646 0.349574335315757
-0.0210346627630976 0.172923754708646 0.355942018287693
-0.0269169292825236 0.172923754708646 0.373653659190883
-0.0266646606577657 0.172923754708646 0.38347861274474
-0.0222633926205571 0.172923754708646 0.385977340223524
-0.028620164348368 0.172923754708647 0.396754384237772
-0.0163197281470704 0.172923754708647 0.403467030560486
-0.029693755513027 0.172923754708647 0.426010642488
-0.0238957927332975 0.172923754708647 0.429872051912712
-0.0305742328624524 0.172923754708646 0.442464649427205
-0.0187390833977925 0.172923754708647 0.443189046062313
-0.0314513440286842 0.171342548308168 0.462747537904516
-0.0172562026297618 0.16790298912236 0.462747537904516
-0.0147211267974726 0.170042290867542 0.462747537904515
-0.00940188099731764 0.15422164524919 0.462747537904516
-0.00286484106373693 0.154676801185943 0.462747537904516
0.016497127643618 0.141763823045687 0.462747537904516
0.0113828758307499 0.139362581154958 0.462747537904516
0.0252492411528042 0.12748100441281 0.460222650273283
0.020134667296151 0.122357306522428 0.469992275281931
0.0377900089591162 0.114765985176526 0.471328629628659
0.0355253308785646 0.113359909854937 0.471576151078774
0.0550697434261966 0.0982345221960822 0.471951633153622
0.0532199323303657 0.0957789405632455 0.471519359635053
0.0597753094368716 0.0891546506240168 0.470353238712104
0.233524315603567 -0.0702795197677243 0.288170469607414
0.252846917607942 -0.080321831106167 0.288170469607414
0.25350213772475 -0.0846704478971793 0.288170469607414
0.265597617219746 -0.0917324339323471 0.288170469607414
0.274007059410824 -0.0987705290908795 0.288170469607414
0.285699828203788 -0.111284804371278 0.288170469607414
0.299215340720275 -0.12126987647444 0.288170469607414
0.29815551259402 -0.132707687269295 0.288170469607414
0.32041386957005 -0.145704377457213 0.285054917251193
0.320922294916602 -0.147740087876018 0.284341241317865
-0.00758328377762728 0.172923754708646 0.121865842206591
-0.0107135154737649 0.172923754708646 0.124481676705501
-0.013288095015584 0.172923754708647 0.141464125602594
-0.00513033987380825 0.172923754708647 0.143562288490959
-0.0168587666269621 0.172923754708647 0.162727793250853
-0.0164332234142674 0.172923754708646 0.168357376187549
-0.00471087397868795 0.172923754708647 0.177974384254738
-0.00835821736193858 0.172923754708646 0.184055138419391
-0.0120680868848949 0.172923754708646 0.195227714397066
-0.0091881699505638 0.172923754708646 0.210449016203775
-0.0074356915485692 0.172923754708646 0.214477725470544
-0.00772886889756818 0.172923754708646 0.222291337082367
-0.0113551585300892 0.172923754708646 0.23595689427267
-0.0130138714648741 0.172923754708646 0.239958374249348
-0.0112000162460483 0.172923754708646 0.254962767882459
-0.00529679125260902 0.172923754708646 0.257182994158571
-0.0140233571340921 0.172923754708646 0.274121588094811
-0.00962548227000403 0.172923754708646 0.287153348123639
-0.0156352907788006 0.172923754708646 0.294056376389057
-0.00857312980611515 0.172923754708646 0.300172580411837
-0.00607671562459945 0.172923754708647 0.308802518191062
-0.0140760708293708 0.172923754708646 0.319685830360893
-0.0117229952411296 0.172923754708646 0.333989168527342
-0.0130490273290194 0.172923754708646 0.348977648416458
-0.00915843135380866 0.172923754708646 0.35115626734359
-0.0122788874642431 0.172923754708647 0.357866089136845
-0.0105589934788154 0.172923754708646 0.370476201549626
-0.0145395152043102 0.172923754708647 0.375133694315697
-0.0151241754454593 0.172923754708647 0.396288255811479
-0.0167533162875014 0.172923754708646 0.403838265580811
-0.0121765715731044 0.172923754708646 0.406083019742041
-0.0149875791972939 0.172923754708646 0.419519035925926
-0.00694002464371789 0.172923754708647 0.424226889774158
-0.010247912511952 0.172923754708646 0.434093643168746
-0.0120373219760806 0.172923754708646 0.45304802093299
-0.012006633359242 0.172923754708647 0.459600094797586
-0.00599774334103826 0.169761362791799 0.462747537904516
0.00271872141713874 0.155831520112936 0.462747537904516
0.00581730621133147 0.158461102117772 0.462747537904516
0.0178478920880378 0.150123292076213 0.462747537904515
0.0314427756950501 0.137913205308598 0.462747537904516
0.0275420023503121 0.141390809056558 0.462747537904515
0.0364152758591913 0.126011264538049 0.465766838302615
0.0497362913359702 0.125532443539816 0.467573058363852
0.0545217383689558 0.115842429588722 0.471139135454495
0.0646961173195062 0.105329962222867 0.472989719933676
0.0561953438800204 0.105284501411055 0.472997722724061
0.0738384878572587 0.0975203121870252 0.471825905680552
0.0871810232015132 0.0905676985129123 0.470601987592888
0.257699070283215 -0.0745770095504514 0.288170469607414
0.260974888697337 -0.0742134020283813 0.288170469607414
0.276167438912797 -0.0891128990827521 0.288170469607414
0.280032972192319 -0.0918304374868783 0.288170469607414
0.288215322346116 -0.105472697706996 0.288170469607414
0.299922284562834 -0.112503473685976 0.288170469607414
0.314600809745157 -0.130007893839173 0.288170469607414
0.322605158596597 -0.132287589896899 0.288170469607414
0.329586583677139 -0.145080058552663 0.285273789922267
0.336449503919554 -0.151564028216724 0.283000650747403
0.0030244907745787 0.172923754708646 0.106459075891808
0.00574039053917432 0.172923754708646 0.11845579848809
-0.000373143315594453 0.172923754708647 0.136267536964758
0.010559460239573 0.172923754708646 0.134857728226177
0.00108644288066963 0.172923754708646 0.151177470051147
-0.000712399052148521 0.172923754708646 0.154912859338851
-0.000570027412730931 0.172923754708646 0.171960071078207
0.000978438019043088 0.172923754708646 0.175975992451667
0.00195590374950936 0.172923754708646 0.191426490801396
0.00852796429213923 0.172923754708647 0.192924617216886
0.00373777542578837 0.172923754708647 0.210997559989646
0.0114500429917914 0.172923754708647 0.212517241120881
0.00225704222129465 0.172923754708646 0.220827118752301
-0.00412087310898255 0.172923754708646 0.235114028942523
0.00518690667277387 0.172923754708646 0.241099043434066
0.00328329998146645 0.172923754708646 0.259163748555047
0.00319997995578688 0.172923754708646 0.263951029917694
0.00520600218939635 0.172923754708647 0.279401574891105
-0.00418111588110615 0.172923754708646 0.286962333738402
-0.00034935733588633 0.172923754708647 0.297734445605658
-0.00236590679594867 0.172923754708646 0.30092104904487
0.0038205565642574 0.172923754708646 0.303138698086576
0.00294690136619188 0.172923754708647 0.326792297895152
0.00555105529901334 0.172923754708647 0.326505820177521
-0.00212086937402629 0.172923754708647 0.346669500460443
0.000941073500459876 0.172923754708647 0.353809541870494
0.000343743234808287 0.172923754708647 0.365611873331731
-0.000934545423713206 0.172923754708646 0.365348885161322
0.0100089461356344 0.172923754708646 0.372686505997377
0.0033503454715046 0.172923754708647 0.379277459263603
0.00583085412406967 0.172923754708647 0.394779345739756
0.000636542241744945 0.172923754708646 0.405664034816973
-0.00434148093661898 0.172923754708646 0.420696473469952
0.0113843539823002 0.172923754708646 0.427330875209233
-0.00409547041542841 0.172923754708647 0.43798534799482
-0.00264207463968079 0.172923754708647 0.451847471844653
0.00920234395172805 0.172923754708646 0.45621372671019
0.0040360714710101 0.172923754708646 0.459367613826523
0.0166094087929045 0.161487384430008 0.462747537904516
0.0175610016995808 0.159007766319029 0.462747537904515
0.0273327785973328 0.143431362706659 0.462747537904516
0.0473764342806463 0.128902627023963 0.454859971340548
0.0528651882811794 0.127487187548787 0.460199326099354
0.0521918300164888 0.127001435951631 0.462031689932185
0.0556135709291365 0.12565981229717 0.467092594880511
0.0646126459720625 0.116727411625226 0.470983345765537
0.069810547205416 0.108021075196234 0.47251598415625
0.0806122626757877 0.105906178680111 0.472888284448047
0.0857316249001242 0.0971698700072193 0.471764214848493
0.104962685212131 0.0878026202434185 0.470115231177751
0.268861724790121 -0.0708010443619578 0.288170469607414
0.281556969823656 -0.0749385906601224 0.288170469607414
0.288685708082475 -0.0889184246696805 0.288170469607414
0.292007119500531 -0.0937389447980881 0.288170469607414
0.302714152921494 -0.106753164600235 0.288170469607414
0.311736668934304 -0.108952522873265 0.288170469607414
0.328090135861592 -0.122754432134889 0.288170469607414
0.341646889711274 -0.141796921210431 0.286424786687482
0.341923297874552 -0.14373312015747 0.285745997318488
0.361443432657242 -0.160579940480384 0.279839867396234
0.0239279737353767 0.172923754708646 0.0984191898536093
0.0185241362396762 0.172923754708646 0.109147536855667
0.0117526364351483 0.172923754708646 0.124367415303186
0.0266682099092641 0.172923754708647 0.118717655739245
0.0161958659612511 0.172923754708646 0.143890225160323
0.0235731104995954 0.172923754708646 0.141518999933323
0.0160788804314447 0.172923754708646 0.153240591378024
0.0173619068733466 0.172923754708647 0.162988019857572
0.0218918960866994 0.172923754708646 0.176489001172243
0.00832067671081454 0.172923754708646 0.196916002209145
0.0246359694735952 0.172923754708646 0.196603913433801
0.0165615483435695 0.172923754708646 0.207114483106152
0.0260825688500197 0.172923754708647 0.212868569335311
0.020705781584971 0.172923754708646 0.223030268164026
0.0241214192595675 0.172923754708646 0.228362276111222
0.0120747684560709 0.172923754708647 0.244660503932272
0.0206472340368372 0.172923754708647 0.249638596151047
0.016930982205601 0.172923754708646 0.270856763265704
0.0166539487086575 0.172923754708646 0.271077239451473
0.0117020663475312 0.172923754708647 0.291467887736246
0.0193919271701522 0.172923754708647 0.29243610915816
0.0161635962598891 0.172923754708646 0.304612907385981
0.0194114592182626 0.172923754708646 0.313920346007423
0.0204135145689175 0.172923754708646 0.322926550840608
0.0227392311181712 0.172923754708646 0.326790556723984
0.0203191439078841 0.172923754708646 0.346350143539003
0.0239009106521018 0.172923754708647 0.342246180060201
0.0205786664297868 0.172923754708647 0.358600042853572
0.0243166664780657 0.172923754708647 0.368098261622125
0.0112852597141057 0.172923754708647 0.386892238926013
0.0175533203901949 0.172923754708646 0.389738506783593
0.0200766246493571 0.172923754708646 0.393777853003126
0.0195843712343295 0.172923754708647 0.410185303810867
0.0178049155041642 0.172923754708647 0.411340733084383
0.0204905072192094 0.172923754708647 0.427610329729054
0.0156026673114718 0.172923754708647 0.438072549094376
0.0176250968181278 0.172923754708647 0.448153061667518
0.016077079134379 0.169720653610992 0.462747537904516
0.0249888305378862 0.166916216666045 0.462747537904516
0.0328254775543929 0.158105523434441 0.462747537904516
0.044040303229811 0.156408468471176 0.462747537904516
0.0470904770860172 0.14374439165562 0.462747537904516
0.0555993225975973 0.139234676721802 0.462747537904515
0.0689422696329497 0.127197891846316 0.461290614291312
0.06615520158534 0.125122174294558 0.469120685857278
0.0772905023478637 0.121299195131897 0.470178542163759
0.0792253001241206 0.11370236469338 0.471515866315285
0.0845068336443971 0.107396686882003 0.472625899676849
0.097702124543927 0.103789881345268 0.472929582578811
0.108413270765242 0.0937550306287021 0.471163076359035
0.276515411275606 -0.0645343561376911 0.288170469607414
0.283226036963993 -0.0727241645518313 0.288170469607414
0.29509740427968 -0.0768693443619465 0.288170469607414
0.302125475490328 -0.0817989845097964 0.288170469607414
0.31742159393616 -0.0950844024938434 0.288170469607414
0.329410223917897 -0.106566754362266 0.288170469607414
0.333700300228132 -0.118412780303607 0.288170469607414
0.347792631681395 -0.125919741266316 0.288170469607414
0.363261771179952 -0.134373778052616 0.286983171526096
0.377744350924362 -0.15191209528029 0.281905893087769
0.397606346429127 -0.16812742560744 0.349274419863749
0.403099119497587 -0.16847876138597 0.364365689839532
0.0414420864418487 0.172923754708647 0.0780743952982618
0.0359601478802899 0.172923754708646 0.0988232636750046
0.0343321016180885 0.172923754708646 0.107289021029989
0.0244367251627412 0.172923754708646 0.119512956401294
0.03226058808753 0.172923754708647 0.123081932645353
0.03428414875442 0.172923754708646 0.134260162730479
0.0298584498357506 0.172923754708646 0.155801406533106
0.0384839859754394 0.172923754708647 0.155945904286004
0.0318610543572998 0.172923754708647 0.166055747271651
0.0329143790830533 0.172923754708646 0.171484899349162
0.0283933194099862 0.172923754708647 0.188005815971155
0.0355802055143183 0.172923754708647 0.200074523043879
0.0271871889853256 0.172923754708646 0.202715285592447
0.0360111307501905 0.172923754708646 0.219248854116459
0.0330952421326552 0.172923754708646 0.225105091959513
0.0358672289248597 0.172923754708646 0.233055460299737
0.0307099056894624 0.172923754708646 0.240609695914321
0.0311773855239425 0.172923754708647 0.255637480499237
0.0289230953104025 0.172923754708647 0.264538601671293
0.0343356287864405 0.172923754708646 0.271855300310963
0.026023699221244 0.172923754708647 0.287234754234895
0.0377030072958653 0.172923754708646 0.291874277172182
0.0277813515672152 0.172923754708647 0.298745851891994
0.0336185438250408 0.172923754708646 0.311154711292912
0.0371390314118519 0.172923754708646 0.319161463836089
0.0379313942562676 0.172923754708647 0.326285273406441
0.0287180354831048 0.172923754708647 0.344319274357607
0.0408151772934829 0.172923754708646 0.345453398670785
0.0298409873361141 0.172923754708647 0.355663877350254
0.0313913477153235 0.172923754708646 0.370114794182088
0.0261858991399548 0.172923754708647 0.386842692157455
0.0295125633286012 0.172923754708647 0.398188907877089
0.037021883368739 0.172923754708647 0.398825619416254
0.0350323349780085 0.172923754708646 0.401238049757663
0.0289286686611922 0.172923754708646 0.417803642646657
0.0358400070229873 0.172923754708646 0.432349173849446
0.0285850012724067 0.172923754708646 0.442151010058096
0.035071071762444 0.172923754708647 0.448129778057268
0.0341044094602757 0.172923754708647 0.455881090467516
0.037089145419293 0.172923754708647 0.45656055421462
0.0423433461368572 0.165968420898867 0.462747537904516
0.0565309600843693 0.147324452402602 0.462747537904516
0.0552268946755019 0.146721598655678 0.462747537904516
0.0641269180869067 0.144996988929882 0.462747537904516
0.0757267725370862 0.126951977585601 0.462218257967524
0.0852562294626264 0.126290940301295 0.464711838676278
0.085948276010727 0.123233990814905 0.469837946303933
0.090511647449081 0.110689321568036 0.472046273749507
0.100273975229581 0.111144800410262 0.4719660925659
0.112461291915159 0.0987949086941348 0.472050281978826
0.120952146527658 0.0882398825058474 0.470192205567113
0.297847141943265 -0.0708119831646463 0.288170469607414
0.304243245161456 -0.0779508047334034 0.288170469607414
0.310015051573183 -0.0832205102309054 0.288170469607414
0.314325975973506 -0.0836719717942567 0.288170469607414
0.332173593032902 -0.101251054594406 0.288170469607414
0.350043794573912 -0.109631096782793 0.288170469607414
0.353727123047817 -0.113240590257786 0.288170469607414
0.37414342276577 -0.131319492881041 0.283168300422666
0.37792338193157 -0.141829686322392 0.2818431286985
0.396459095253672 -0.158976770922362 0.274911324532744
0.396459095253672 -0.155710376770299 0.281723977213458
0.396459095253672 -0.15044624797228 0.294115709356584
0.396459095253672 -0.155892703877465 0.311619685283094
0.396459095253672 -0.155251010136986 0.318092464703006
0.396459095253672 -0.151863045616607 0.331867935224121
0.396459095253672 -0.150349810041863 0.344253292008176
0.399571432419349 -0.162526256731806 0.354673449249172
0.401951033341315 -0.162713687233757 0.361211349049588
0.40327631517404 -0.167335450780363 0.364852530959412
0.0434408528494867 0.172923754708647 0.0795773994640447
0.0462957371163696 0.172923754708647 0.0861200226071114
0.0461131744544268 0.172923754708646 0.103042708101865
0.0451617340119241 0.172923754708646 0.110706038874382
0.0484227347917587 0.172923754708647 0.112482750911046
0.0464136079320222 0.172923754708646 0.126235102430294
0.0436032802613628 0.172923754708646 0.14649155725158
0.0432798457374271 0.172923754708646 0.154267314878063
0.0456718004679457 0.172923754708646 0.167280569228164
0.0491829130783079 0.172923754708646 0.16390637648821
0.0418278355636624 0.172923754708647 0.184549690694455
0.0467934609905884 0.172923754708646 0.182895227854251
0.0536717433836437 0.172923754708646 0.191425133012454
0.0495122441458386 0.172923754708646 0.204005604581806
0.0424370512636221 0.172923754708647 0.215761158422655
0.0489512141306585 0.172923754708647 0.227780869440348
0.0513255826363058 0.172923754708646 0.227533813973475
0.0429718365731743 0.172923754708646 0.244963822154151
0.0466386361036086 0.172923754708646 0.255356261659549
0.0413315483049999 0.172923754708646 0.268852253167984
0.0500903779761408 0.172923754708647 0.274476072921215
0.0440754411251129 0.172923754708646 0.285218654407359
0.0535822410139021 0.172923754708646 0.28677382410415
0.0402055277230143 0.172923754708646 0.305174184065686
0.0473672258646789 0.172923754708646 0.30744489324018
0.0505592583145218 0.172923754708646 0.317744639814991
0.050740419254339 0.172923754708647 0.329210742323963
0.0504176132493127 0.172923754708647 0.336810395264803
0.0429539125062434 0.172923754708646 0.355552805199466
0.0493284428344559 0.172923754708647 0.353788845363828
0.0423762905014369 0.172923754708647 0.375638697177911
0.0411110689026123 0.172923754708647 0.386497512411133
0.049278918106303 0.172923754708647 0.390731426671086
0.0514749363689045 0.172923754708646 0.396258424192726
0.0492922801080276 0.172923754708647 0.408864871275562
0.046205572439139 0.172923754708646 0.423799527139669
0.0510785945616456 0.172923754708646 0.42237027481389
0.0451523785751391 0.172923754708647 0.443037915645489
0.0510861172334848 0.172923754708646 0.44719028675435
0.0542974571382376 0.172923754708647 0.458108726940042
0.0517439688180719 0.162523245788855 0.462747537904516
0.0659580564047575 0.155223309293885 0.462747537904516
0.0675149690089057 0.147696003605324 0.462747537904516
0.0702173540270161 0.151405843464455 0.462747537904516
0.0912153650733599 0.138477937335481 0.462747537904516
0.0903065100963194 0.127050414788967 0.461846930786496
0.101616901831882 0.125122853570451 0.469118123476447
0.101815832363874 0.125383318520707 0.468135591339936
0.116024145052279 0.110577192809634 0.472066012573205
0.117929936090115 0.100641209824712 0.472375299512507
0.124598655470094 0.102881554819641 0.47276968339322
0.141209210361991 0.0908324925430483 0.470648601171347
0.31137503693373 -0.0703346059292263 0.288170469607414
0.326490466802665 -0.0822990978253212 0.288170469607414
0.327850999689753 -0.0868132126551049 0.288170469607414
0.331624637385839 -0.083694981954523 0.288170469607414
0.355406406415997 -0.0962453475520987 0.288170469607414
0.358386315588486 -0.109535748637795 0.288170469607414
0.383088804852109 -0.133701110848193 0.280032243422387
0.378390705370643 -0.129612677439299 0.281679295233551
0.396459095253672 -0.143496537159006 0.283503832783822
0.396459095253672 -0.142165014884138 0.303968928558344
0.396459095253672 -0.14170947940854 0.307027776213598
0.396459095253672 -0.150694772955337 0.306848518912528
0.396459095253672 -0.14860770170149 0.328548721308081
0.396459095253672 -0.138212064115313 0.340093485216984
0.396906300661921 -0.141982082191479 0.347351059925765
0.400815354333988 -0.145065498611697 0.358091096621206
0.401549400659097 -0.146895452341894 0.360107872324275
0.407561601928219 -0.153698189663267 0.376626259552406
0.416587251359115 -0.156790237272699 0.384845135267488
0.420658992274456 -0.159777144232648 0.387195955981031
0.42493739199971 -0.164350348125336 0.389666091214107
0.0597453358068924 0.172923754708646 0.0693823109122299
0.0577962383381456 0.172923754708646 0.0884289294570817
0.0653824314626753 0.172923754708646 0.0856884954270878
0.0537225774134073 0.172923754708646 0.0999004840729248
0.0598476896670809 0.172923754708646 0.113054269349322
0.0591295094805399 0.172923754708646 0.116429891333633
0.0636484216342842 0.172923754708647 0.132940899677716
0.0609122051973462 0.172923754708646 0.132794147203948
0.0635235509951378 0.172923754708646 0.145972966501089
0.0621569680246432 0.172923754708646 0.160442706255114
0.0593309285282308 0.172923754708646 0.169016687907944
0.0611507917979284 0.172923754708647 0.173600303079138
0.0600773276603415 0.172923754708647 0.189328778009068
0.0661350292965212 0.172923754708647 0.192586474290829
0.0640517107588459 0.172923754708646 0.204582346065152
0.0664646930344002 0.172923754708647 0.215296989412205
0.0560027525935235 0.172923754708647 0.233370221395737
0.0537177366041416 0.172923754708647 0.242029352551499
0.0650990528165577 0.172923754708647 0.244932417067711
0.0592386462259177 0.172923754708646 0.256044753968544
0.0593443929080785 0.172923754708646 0.2658484738927
0.0585627531420651 0.172923754708646 0.280191982152333
0.0556595740400247 0.172923754708646 0.292719730644998
0.0586163862449689 0.172923754708646 0.297061678686861
0.0627234393625212 0.172923754708646 0.294557069927922
0.0628884933847024 0.172923754708646 0.30305168707708
0.0626192857124755 0.172923754708647 0.320453460977755
0.0561707955269228 0.172923754708646 0.333791633106868
0.0626575406635406 0.172923754708646 0.345201204973889
