ply
format ascii 1.0
element vertex 864
property float x
property float y
property float z
end_header
0.16282501613104 -0.173321660938542 0.241666666666666
0.165399781827375 -0.163598197297788 0.241666666666666
0.157406620852293 -0.150477242727577 0.241666666666665
0.163787623436959 -0.135864684408277 0.241666666666666
0.159641100201069 -0.13135424120468 0.241666666666666
0.160812262517761 -0.11452160359847 0.241666666666666
0.162580372125907 -0.113741182333473 0.241666666666666
0.161248490998379 -0.0996190186706904 0.241666666666666
0.161303399716991 -0.0831633803231147 0.241666666666666
0.161695084438979 -0.0810679486586336 0.241666666666666
0.170759866599558 -0.0698365879139728 0.241666666666666
0.166089436022298 -0.0546823603176945 0.241666666666666
0.168377989473205 -0.0456960574501925 0.241666666666666
0.164463923717924 -0.038615908841693 0.241666666666666
0.171170502118659 -0.0297543484331469 0.241666666666666
0.170906079425191 -0.0116942525918384 0.241666666666666
0.166784202014181 -0.000743801156552655 0.241666666666665
0.17183197998283 0.00866073303015893 0.241666666666666
0.166263240570998 0.0232598119898835 0.241666666666666
0.170085576532847 0.0242446077536409 0.241666666666666
0.171057903667797 0.0485500035291836 0.241666666666666
0.175752805488377 0.0600642793577496 0.241666666666666
0.178596213163378 0.0658567872736656 0.241666666666666
0.170599787223202 0.0809393663183578 0.241666666666666
0.174122828603441 0.0915596640204037 0.241666666666666
0.172086810262985 0.107654250508493 0.241666666666666
0.179680799974417 0.115814467600245 0.241666666666666
0.180917548953536 0.114250548021255 0.241666666666665
0.179898658996475 0.136515979597394 0.241666666666666
0.173805860613499 0.147475839604259 0.241666666666666
0.179750274458161 0.152251861678102 0.249829665249777
0.178284484961701 0.152870699263736 0.252072951497702
0.18227942938 0.156058405915339 0.26362838810976
0.175125202856641 0.159445980145768 0.275908344695068
0.177721060412907 0.161513159937693 0.283401871440796
0.17905438401418 0.161283311785325 0.282568671888464
0.17716557036954 0.166939571909999 0.303072614840407
0.177137949364051 0.168744012140025 0.30961371067425
0.175918215698452 0.169499081618181 0.312350837532566
0.175839983604987 0.171997635665385 0.321408095953677
0.179977152480125 0.174705799585562 0.331225190164321
0.177317116178558 0.176794432049291 0.33879648284534
0.175604399386382 0.179934571398981 0.350179487987966
0.177833130289818 0.18413382888182 0.365401796363256
0.182246710703075 0.183822616116861 0.36427365009028
0.176269893095368 0.186619366596598 0.374411870579325
0.182521236358483 0.187898016781599 0.379046977499954
0.18209168843993 0.193608861261226 0.399748788738603
0.176105197480262 0.194620929726759 0.403417536926159
0.180024019279933 0.19646110851048 0.410088185017151
0.183111300139951 0.198500402331254 0.417480625117457
0.177810690338614 0.201541177391701 0.428503434711574
0.179421703252754 0.204576126433751 0.43950512498901
0.178139108715282 0.206250462220563 0.445574592216201
0.181336043930264 0.209396561256638 0.456979201221974
0.17789320647113 0.211646444166763 0.465135026771177
0.186042316553843 0.212976369732887 0.469956006948376
0.186287917333339 0.217025639554605 0.483333333333331
0.183044081297639 0.22454661422797 0.483333333333331
0.182066721295449 0.250040402760291 0.483333333333331
0.187693019160134 0.248099268112309 0.483333333333331
0.182731542316518 0.273880970493113 0.483333333333331
0.188866019169757 0.282443099929458 0.483333333333331
0.164865399780682 -0.246830965848453 0.241666666666666
0.162759389884679 -0.246164195827364 0.241666666666666
0.166409152846845 -0.229446372644303 0.241666666666666
0.165720089740862 -0.22037402196469 0.241666666666666
0.166512973871625 -0.216402035271057 0.241666666666666
0.166702568915256 -0.201329996107996 0.241666666666666
0.168921467702033 -0.194705654846411 0.241666666666666
0.168855082938973 -0.181848395184303 0.241666666666666
0.173042369343321 -0.179618108413022 0.241666666666665
0.165531126246005 -0.168606310707152 0.241666666666666
0.172837800618852 -0.1584122210085 0.241666666666666
0.170386149233887 -0.146329419230299 0.241666666666666
0.167316974669247 -0.136272959654098 0.241666666666666
0.169692604267094 -0.130323589899357 0.241666666666666
0.171112092566989 -0.115100104640256 0.241666666666666
0.178221818598695 -0.105073269477608 0.241666666666666
0.176196910363834 -0.099773069628863 0.241666666666666
0.171220714814079 -0.0931457424638243 0.241666666666665
0.173792195676388 -0.0859921210441755 0.241666666666666
0.172983812666692 -0.0723065625127568 0.241666666666666
0.174251708140428 -0.0487258293108626 0.241666666666665
0.173040994584903 -0.0419942043357937 0.241666666666666
0.173930091474649 -0.0327327775359215 0.241666666666666
0.183032500322906 -0.0188207775213447 0.241666666666666
0.175530287480643 -0.0140190593153829 0.241666666666665
0.178830405961805 -0.0099843447013149 0.241666666666666
0.177237943905405 0.0110239798852725 0.241666666666666
0.177754695699873 0.0209700216803194 0.241666666666666
0.178169397817536 0.0357601320433358 0.241666666666666
0.182068129692324 0.035941503942965 0.241666666666666
0.184910614009421 0.0535125142360792 0.241666666666666
0.180177238501098 0.0641519460060407 0.241666666666666
0.18568171079469 0.0753339252954547 0.241666666666666
0.188104296397381 0.097194076861369 0.241666666666666
0.181272467588896 0.0969107548082139 0.241666666666665
0.182182049680876 0.108645604631282 0.241666666666666
0.183344699968213 0.123687382658434 0.241666666666666
0.183727539380355 0.13186587124123 0.241666666666666
0.185309147847283 0.150107129318187 0.242055010445088
0.187490245244442 0.151061779948157 0.24551561897873
0.193761105639189 0.15431832183764 0.257320583328102
0.192258843643934 0.156720170504549 0.266027284745647
0.187017537598786 0.157501126187383 0.26885824909592
0.193643185140679 0.1603068250803 0.279028907582746
0.187599399159663 0.164971416105313 0.295938050048417
0.188240259309574 0.166220313901075 0.300465304558056
0.191048686921742 0.167034344482522 0.3034161654158
0.191562020144014 0.171217492445169 0.3185800767804
0.187008034348793 0.172204916657121 0.322159489548723
0.193922024879961 0.176438921659876 0.337507757683711
0.189230179128938 0.177838169892487 0.342580032526924
0.185997769380375 0.178627805856973 0.345442462898187
0.192220950230606 0.182457772341109 0.359326091403179
0.190433999896178 0.183979819362975 0.364843511857444
0.18802424278441 0.186586789032884 0.374293776910864
0.189072473849614 0.188408153536198 0.380896223235378
0.19245824944806 0.191986047942741 0.393866090459093
0.193974572611507 0.193564488747498 0.399587938376339
0.195944520853303 0.19811956407822 0.416100086450209
0.193106151425116 0.200348394992753 0.424179598515388
0.18848826793768 0.203278556912862 0.434801435475783
0.188223207374601 0.203182740034747 0.434454099292617
0.196169384959939 0.208061459886755 0.452139458756146
0.197843674929291 0.209699927613543 0.458078904265753
0.195598131816235 0.211684124600796 0.465271618344545
0.198077481960026 0.213636221130851 0.472347968265995
0.194131471178335 0.216202799529006 0.481651814959308
0.196297901697853 0.228381071753792 0.483333333333331
0.193210813580662 0.24205854529017 0.483333333333331
0.189707705300907 0.248846753775019 0.483333333333331
0.199063299140269 0.260054104812243 0.483333333333331
0.173629653939715 -0.255643378939485 0.241666666666666
0.17010427883158 -0.246875439837306 0.241666666666666
0.172617423404799 -0.226168703906162 0.241666666666666
0.174900743252585 -0.220329543281529 0.241666666666666
0.17406967339351 -0.216386650078256 0.241666666666666
0.179883075260496 -0.210285645369986 0.241666666666665
0.179670508463021 -0.19164645808303 0.241666666666666
0.180534453002021 -0.192279563393438 0.241666666666666
0.175981712879965 -0.181290528867696 0.241666666666666
0.175822714812492 -0.164087551304671 0.241666666666666
0.184544240290397 -0.153644731984441 0.241666666666666
0.184407849492293 -0.145783026528887 0.241666666666666
0.177796682091645 -0.14367439040339 0.241666666666665
0.184261564153441 -0.128904668995978 0.241666666666666
0.187112154278256 -0.114625331837069 0.241666666666666
0.179351403283177 -0.108996034750373 0.241666666666666
0.18788713828659 -0.0946043272171799 0.241666666666666
0.180894896714059 -0.0837164496073931 0.241666666666666
0.189058482866067 -0.0835098848440256 0.241666666666666
0.183405097664281 -0.0740043621458551 0.241666666666666
0.18202023630464 -0.0542314107277179 0.241666666666666
0.189580431488285 -0.0404645052064769 0.241666666666666
0.188625537903268 -0.0285138850222916 0.241666666666666
0.191299868909344 -0.0251929321021638 0.241666666666666
0.193137852552179 -0.0161217920108518 0.241666666666666
0.193612241929967 0.00720064679577705 0.241666666666665
0.195213673507761 0.00796100177777497 0.241666666666666
0.189845509891185 0.0265434440735669 0.241666666666665
0.187646754865288 0.0306796451185778 0.241666666666666
0.19145456804908 0.0379740932482239 0.241666666666666
0.193240507194559 0.0504157210114784 0.241666666666666
0.199028585076365 0.0651119789571547 0.241666666666666
0.197711205614761 0.0807042212630092 0.241666666666666
0.194254814884496 0.0831464714719704 0.241666666666665
0.198910136124833 0.0975969150270572 0.241666666666666
0.196532276299876 0.114196562332806 0.241666666666666
0.202139218092196 0.133053894088214 0.241666666666666
0.201776569327323 0.140089029018446 0.241666666666666
0.203408938318871 0.15050588870358 0.243500513217135
0.199516636591998 0.150881066035889 0.244860531046755
0.198538339276229 0.154856624832696 0.259271931685181
0.196561644345673 0.155551049189055 0.261789219976982
0.201858406917105 0.159247416546425 0.275188551647446
0.198402345944179 0.160741016579084 0.280602851765839
0.200026240088802 0.163717699417301 0.291393327054375
0.204604330002245 0.166970160316268 0.303183497813132
0.205202011013459 0.167605780052779 0.305487619357986
0.200418230783559 0.171848787704328 0.320868522094849
0.196539434330869 0.171167136211987 0.318397535435113
0.202311352058239 0.173408300052144 0.326521754355682
0.197140458854085 0.17615452009634 0.33647680201589
0.196633643600563 0.179557310957588 0.348811918887916
0.20505735399862 0.18258572231291 0.359789910050957
0.196944621568597 0.185474893640782 0.370263156114491
0.196842614455688 0.186189509650899 0.372853639151167
0.201313925237299 0.19001717790751 0.386728936581382
0.198746918593132 0.190560998203336 0.388700285153754
0.203633279566294 0.19398177010411 0.401100583294058
0.206688925457683 0.19643768456451 0.410003273213007
0.199348925931593 0.198560013885076 0.417696717000059
0.206121253230665 0.199837033169018 0.422325911904348
0.199334984991728 0.205159166914499 0.44161864673172
0.204602734475143 0.205144457632597 0.441565325584821
0.201793719967827 0.210348415409488 0.460429672526053
0.205600131327897 0.211477282552512 0.464521815919515
0.201476456984405 0.213878102105735 0.473224786799948
0.205065773359555 0.214668946667294 0.476091598335602
0.199806352279679 0.219831111687575 0.483333333333331
0.206795107245072 0.248589662840687 0.483333333333331
0.201004456757835 0.253858161676705 0.483333333333331
0.208616853909976 0.262150307740974 0.483333333333331
0.185510076143844 -0.256377113502924 0.241666666666666
0.182605953979693 -0.240306714537216 0.241666666666666
0.181011724112643 -0.23807522368506 0.241666666666666
0.188706161021468 -0.224080613963763 0.241666666666665
0.185920050699485 -0.213964756066169 0.241666666666666
0.188477986564539 -0.198928035331013 0.241666666666666
0.190686911818355 -0.192076964272177 0.241666666666666
0.185863440498072 -0.182578903107533 0.241666666666665
0.191369061717274 -0.174419625940976 0.241666666666665
0.185925648957645 -0.164741099828984 0.241666666666666
0.188927054208793 -0.153633869958501 0.241666666666666
0.189733204277365 -0.146360119194059 0.241666666666666
0.192008812138095 -0.137062805592314 0.241666666666665
0.194434537146192 -0.120915360517627 0.241666666666666
0.189784134965952 -0.111547579135263 0.241666666666666
0.188855364993394 -0.110326311742299 0.241666666666666
0.195375641377115 -0.0929947246454739 0.241666666666666
0.191186638531202 -0.0904241257361891 0.241666666666666
0.191876843475437 -0.0769945900506485 0.241666666666665
0.197611613144356 -0.0713811024640596 0.241666666666666
0.194356892059712 -0.0492694742947409 0.241666666666666
0.192398079722798 -0.0459448821284827 0.241666666666666
0.19820564006248 -0.0302956466534049 0.241666666666665
0.196568957313984 -0.0234791847487676 0.241666666666666
0.198973553240465 -0.0172701440235953 0.241666666666666
0.199376656107534 -0.00821507369499065 0.241666666666666
0.204719583285701 0.0190127033737448 0.241666666666666
0.201856765664486 0.0199819247709936 0.241666666666666
0.201532149466573 0.0238091576630854 0.241666666666666
0.200132580664385 0.0394706560276414 0.241666666666666
0.202069661807285 0.0468646896300505 0.241666666666666
0.207306651679159 0.0576796014209262 0.241666666666666
0.208277928914648 0.082417307875518 0.241666666666666
0.20962516942589 0.0937227237302109 0.241666666666666
0.205009376817378 0.0918558178726484 0.241666666666665
0.209786697311558 0.105935174655915 0.241666666666666
0.206889818555874 0.12347582922082 0.241666666666665
0.208179022514833 0.133833484685586 0.241666666666666
0.209246480450634 0.14509734660937 0.241666666666666
0.208497456500505 0.152438983917175 0.250507983366419
0.207955379813747 0.153923883072783 0.255890742805495
0.210357739981557 0.155893037812329 0.263028928736349
0.206542888905971 0.158444739303268 0.272278846641003
0.208873268929264 0.159833482869402 0.27731304206824
0.205901104516289 0.162229222221302 0.285997597218877
0.215738666146249 0.164629529748891 0.294698712006387
0.20768174168438 0.168369223771513 0.308255102838393
0.215798773536882 0.170485462261863 0.31592646736591
0.210938216704944 0.172721212904886 0.32403106344687
0.208696290089522 0.174560707854476 0.330699232639135
0.206393264817979 0.177763305000646 0.342308647293999
0.215550817543911 0.179610992609495 0.349006514876077
0.211699629038489 0.182192251375869 0.358363577904182
0.215155423485309 0.183406255087082 0.362764341357327
0.213851630893097 0.186504421046 0.373995192958409
0.213452882176019 0.190615772504138 0.38889884199416
0.216017541141754 0.191049215575562 0.390470073128071
0.211011968332369 0.193519387153249 0.399424445097187
0.217238629747737 0.197991569011522 0.415636104333425
0.210327123168191 0.198074501036987 0.415936732925737
0.213929423329576 0.202415757889858 0.431673789017393
0.209586925005547 0.203102281236397 0.434162436148599
0.217373516618022 0.206596911681498 0.446830471512088
0.211743126388882 0.209223746018704 0.456352745984464
0.211504925916783 0.210468440062118 0.460864761891838
0.211690647386459 0.212773638295674 0.469221105488478
0.209975718633297 0.217276238862835 0.483333333333331
0.210311359849262 0.217994852460054 0.483333333333331
0.213786123441357 0.234837544293638 0.483333333333331
0.214275695500069 0.255652906715632 0.483333333333331
0.214664060599218 0.276395321796789 0.483333333333331
0.21565760300346 0.282232262945887 0.483333333333331
0.192679352139305 -0.251272013135204 0.241666666666666
0.189939037723734 -0.244201801788963 0.241666666666666
0.196124677427169 -0.236276310340898 0.241666666666666
0.195575053276391 -0.22545378020902 0.241666666666666
0.191265425413844 -0.215629775167221 0.241666666666666
0.197865530038661 -0.203123632611708 0.241666666666666
0.196724801731459 -0.194860888486322 0.241666666666666
0.197626009573739 -0.185221571038624 0.241666666666666
0.200626246549468 -0.178051083497804 0.241666666666666
0.196461669080224 -0.164252511113496 0.241666666666666
0.202036624295694 -0.148511485121092 0.241666666666665
0.197728208838094 -0.144467995665227 0.241666666666666
0.198267324365981 -0.138331655198006 0.241666666666666
0.200174037600154 -0.128298141757296 0.241666666666666
0.20577370985189 -0.118731115766819 0.241666666666666
0.199308972122105 -0.107851478185078 0.241666666666666
0.200639405160284 -0.0969960533193456 0.241666666666666
0.202676758585249 -0.0827833762620586 0.241666666666666
0.205678357552879 -0.0722485103573881 0.241666666666666
0.208417065305105 -0.0625344193611372 0.241666666666666
0.206673903753583 -0.051473518541377 0.241666666666666
0.202329547609994 -0.0434107387246486 0.241666666666666
0.208153412934346 -0.0277190591073711 0.241666666666666
0.208538849057383 -0.0288997174965453 0.241666666666666
0.206333876207425 -0.0144193901341524 0.241666666666666
0.207238635641813 -0.00046401323666604 0.241666666666666
0.209800920998254 0.0175776246524813 0.241666666666666
0.215805593389837 0.0192089410159823 0.241666666666666
0.215008411283364 0.0330008460904136 0.241666666666666
0.212363973823112 0.0418002015286297 0.241666666666666
0.21798394269359 0.0506106420899298 0.241666666666666
0.21807119531531 0.0652249690266316 0.241666666666666
0.216891100941796 0.0771912635279734 0.241666666666666
0.213780119421403 0.0929166588889351 0.241666666666666
0.215707783069644 0.094787997416585 0.241666666666666
0.217090660987977 0.111498619700949 0.241666666666666
0.217819101148302 0.127243688671107 0.241666666666666
0.224302802331165 0.137067239184922 0.241666666666666
0.216680463423514 0.150612784406863 0.243888010141538
0.216673166799437 0.151773724264048 0.248096417123835
0.222229031133194 0.152299070557662 0.250000797438182
0.221423449736341 0.154701271357828 0.258708775338782
0.22573752955958 0.157886672932353 0.270255856046435
0.226279200530956 0.160991921895451 0.281512383537668
0.220127142211547 0.163029464274972 0.288898474663431
0.216189521190425 0.167102340083407 0.30366264946901
0.226217558468269 0.169407350063187 0.312018310645711
0.218014727830956 0.170966273177929 0.31766940693665
0.225302465261222 0.173676829725539 0.327495174421735
0.226069596506604 0.174268017052998 0.329638228483775
0.219875868124088 0.177761127897218 0.342300755294073
0.220220944955368 0.179652440208896 0.349156762423906
0.226082839762309 0.183997525287011 0.364907695832073
0.220570244950881 0.184350474251233 0.366187135827377
0.219755333306744 0.186685605279363 0.37465198580435
0.219010044599906 0.188994860204419 0.383023034907677
0.225417006377368 0.191092450578713 0.390626800014495
0.225121597539546 0.194079526188817 0.401454949101116
0.222565047010771 0.194667472482503 0.403586254415732
0.219693618049863 0.19818105727008 0.416322999270695
0.221610170060851 0.201375749589272 0.427903758927771
0.228026630900362 0.204482379034144 0.439165290665428
0.22167730961483 0.206361110945141 0.445975693842791
0.230211194476842 0.207629224897318 0.450572606919438
0.221567186289869 0.212108926989245 0.46681152700267
0.22711450747478 0.214856758490926 0.476772416196264
0.222817751389926 0.216361391044333 0.482226709202365
0.228566490070614 0.226324198588554 0.483333333333331
0.222969210174848 0.233587138662596 0.483333333333331
0.228627444404915 0.244382472697031 0.483333333333331
0.225399970573753 0.274516648655297 0.483333333333331
0.233625646105407 0.280540496019573 0.483333333333331
0.204908485149046 -0.253488716661477 0.241666666666666
0.207055060281466 -0.241141892729004 0.241666666666666
0.205356233316435 -0.237453484077785 0.241666666666666
0.20239800007413 -0.228343079899091 0.241666666666666
0.201775096004179 -0.218688675371055 0.241666666666666
0.208694711731454 -0.208486048507764 0.241666666666665
0.204949871225804 -0.196822035204463 0.241666666666666
0.20232660283109 -0.184953505362837 0.241666666666666
0.205556978537475 -0.171879154879769 0.241666666666666
0.211426673142146 -0.174542049395033 0.241666666666666
0.20408564183199 -0.153723616518285 0.241666666666666
0.205647777805158 -0.143561858443728 0.241666666666666
0.209623697619283 -0.13844293180262 0.241666666666666
0.208454928556261 -0.126735299546825 0.241666666666666
0.208018699409097 -0.11782782752093 0.241666666666666
0.215502509252336 -0.113628918177238 0.241666666666666
0.211739222961086 -0.0987875033876779 0.241666666666666
0.215018426328757 -0.0898385222961917 0.241666666666666
0.211301056202284 -0.0772869014134927 0.241666666666665
0.211906763965972 -0.0620253415676484 0.241666666666666
0.213137255467963 -0.0597611036278771 0.241666666666666
0.217680658934381 -0.0463533382406379 0.241666666666666
0.221813321630796 -0.0417737384774634 0.241666666666666
0.220062823038248 -0.0240250002168935 0.241666666666666
0.221341873723322 -0.0123345958855856 0.241666666666666
0.218364212257425 5.80126050361315e-005 0.241666666666666
0.215747042077684 0.0020811762901514 0.241666666666666
0.223630800454128 0.0222653659342831 0.241666666666666
0.217394283360065 0.032434087193793 0.241666666666666
0.221525296747168 0.0420169970449836 0.241666666666666
0.227755284013503 0.0603982756680815 0.241666666666666
0.229290214103363 0.0547260103340592 0.241666666666665
0.221549318932232 0.0722831015822174 0.241666666666666
0.228905513409632 0.0859730494702708 0.241666666666666
0.225095958554677 0.101214367183407 0.241666666666666
0.228034065374605 0.102616051878978 0.241666666666666
0.232656057619775 0.129688334577247 0.241666666666665
0.229904970560067 0.133322823827563 0.241666666666666
0.228284301834519 0.150169636502382 0.24228159898779
0.231507921833822 0.152146911586737 0.249449221168575
0.230897808222689 0.153662333837482 0.254942626827528
0.228616811043875 0.157956416121097 0.270508675105634
0.231114953229257 0.15825941393021 0.271607042163669
0.228887677120403 0.160575137947911 0.280001541727834
0.230896317473811 0.16472749470641 0.295053834977396
0.235561022787478 0.166233997520743 0.300514907679352
0.228473306977443 0.167214089483467 0.304067741044226
0.234359404543093 0.170974194864386 0.317698123050056
0.232179502091261 0.173837448265759 0.328077416630031
0.234167671598652 0.175041645639149 0.332442632108575
0.228025509765921 0.176643797857552 0.338250433900286
0.228156041160029 0.180608976418402 0.352624206183363
0.23107848281744 0.181086079241214 0.354353703916058
0.234513549921517 0.184733073040123 0.367574056437105
0.230517293369143 0.186808472718532 0.375097380271337
0.238412919577024 0.189841324697326 0.386091468694465
0.231751010256775 0.191228469910148 0.391119870090942
0.230245102233763 0.19453560365027 0.403108229898886
0.238740277183455 0.197938565141159 0.415443965303358
0.234855645530264 0.19928144901699 0.420311919353246
0.231748817608701 0.199913154848857 0.422601852993764
0.230761553316895 0.204519168384466 0.439298652060346
0.235452330713993 0.207008538181303 0.44832261757388
0.234001008588882 0.209446881643679 0.457161612624994
0.231661979556399 0.210995742063126 0.462776231645491
0.240058549838978 0.214427384830678 0.475215936677866
0.23847707163903 0.216399312245343 0.482364173556027
0.23646932003746 0.222944064774877 0.483333333333331
0.232294721761285 0.236991716137769 0.483333333333331
0.235097881655237 0.25286896599328 0.483333333333331
0.241178085977986 0.264225669827443 0.483333333333331
0.240093565198903 0.283119753322239 0.483333333333331
0.215385106014427 -0.248175367006795 0.241666666666666
0.211735774198864 -0.239968333574594 0.241666666666666
0.213277331736593 -0.236141844798368 0.241666666666666
0.208859193638413 -0.215702330696486 0.241666666666666
0.21632575506594 -0.221672448768463 0.241666666666666
0.218919835487366 -0.208031980945167 0.241666666666666
0.218076850796791 -0.19064222603237 0.241666666666665
0.218070943389985 -0.183253236483819 0.241666666666666
0.218576258373673 -0.17200457602947 0.241666666666666
0.219072562776726 -0.167541278671685 0.241666666666666
0.213740266259588 -0.151842929695855 0.241666666666666
0.215803284921441 -0.148589556786243 0.241666666666665
0.219308805695087 -0.140431452425403 0.241666666666666
0.221369593931031 -0.12148964363211 0.241666666666666
0.222866897977147 -0.120327606677093 0.241666666666666
0.222668735644235 -0.10397690079579 0.241666666666666
0.221479992894725 -0.102183919142185 0.241666666666666
0.220257126705754 -0.0858913233093832 0.241666666666666
0.221265036762996 -0.0758456911681546 0.241666666666665
0.222846383223177 -0.0709377713807027 0.241666666666666
0.221725269238364 -0.0585784528363781 0.241666666666666
0.229401196811832 -0.0449971857266061 0.241666666666666
0.229156518409326 -0.0368186537286336 0.241666666666666
0.230108423960275 -0.0204803128707691 0.241666666666666
0.2328017057052 -0.0118584272732709 0.241666666666665
0.22638719932736 -0.00043235689818313 0.241666666666666
0.227743435022231 0.0078755447895843 0.241666666666666
0.230078310564463 0.0123863735352465 0.241666666666666
0.234747519867526 0.030014554198013 0.241666666666666
0.232551727300621 0.0406313465408272 0.241666666666666
0.234610636738056 0.0540799352015177 0.241666666666666
0.237477301987331 0.0713694876751226 0.241666666666666
0.231069171882883 0.0727131636505352 0.241666666666666
0.236672157355664 0.0953575535113893 0.241666666666666
0.233066008074756 0.0984850008791039 0.241666666666666
0.242645038543625 0.114820797851838 0.241666666666666
0.241529143988645 0.124821111819097 0.241666666666666
0.239655483983513 0.126790197223599 0.241666666666666
0.24575659934465 0.145253489558845 0.241666666666666
0.245250947066626 0.150789741683797 0.24452948027042
0.244472397704708 0.154193364193589 0.256867611868417
0.241696924462837 0.155426053994136 0.261336112395396
0.244366942849437 0.15951772876903 0.276168433454388
0.244964967260812 0.161155127668642 0.282104004465483
0.246824720086991 0.162311393653563 0.286295468660822
0.242039295465658 0.164049191393538 0.292594985468232
0.244983424909003 0.16803815105272 0.307054964232771
0.241311301686049 0.171527126932994 0.319702501798759
0.24226655605192 0.172731524306126 0.324068442276365
0.243030459797075 0.174797968906294 0.331559303951972
0.240760989021899 0.177264969554304 0.34050218130101
0.242006240081912 0.180249671781766 0.35132172687556
0.249274781642824 0.180623877301785 0.352678221885629
0.245080587143014 0.184574665822551 0.366999830273407
0.24293450368507 0.185182411989446 0.369202910128401
0.244584994062289 0.189240786739263 0.383914518596486
0.247081254288673 0.191450564867147 0.391924964310064
0.245023980531463 0.194499250253934 0.402976448837167
0.242511055461624 0.196186124000318 0.409091366167812
0.240473819209834 0.197193339332197 0.41274252174587
0.250395204860276 0.200874147599971 0.426085451716553
0.241615415441117 0.203971131234674 0.437312017392351
0.251275850590118 0.20477914691695 0.440241074240603
0.244553216301391 0.207660204849963 0.450684909247775
0.249382145463092 0.211160884603171 0.46337487335315
0.249466779847054 0.213542674667916 0.472008862337851
0.250089961009026 0.216052920882013 0.481108504863954
0.243679111886423 0.230112214176476 0.483333333333331
0.252179802157358 0.248879461714888 0.483333333333331
0.252571086439214 0.262917354828748 0.483333333333331
0.250829948344466 0.271742091316361 0.483333333333331
0.255083308847796 0.277796758948314 0.483333333333331
0.216319667463805 -0.249677593617383 0.241666666666666
0.225159638103118 -0.239831785403799 0.241666666666666
0.220354294216354 -0.236708859895608 0.241666666666666
0.217328760163642 -0.227765720816047 0.241666666666666
0.225266179546747 -0.209354154610765 0.241666666666666
0.219454867895527 -0.199975992575713 0.241666666666665
0.225458810939403 -0.194858377068176 0.241666666666666
0.224273691106448 -0.189421872942247 0.241666666666666
0.224619377810525 -0.176128679838701 0.241666666666666
0.22880348145563 -0.166158355891323 0.241666666666666
0.22467484342813 -0.159438315699048 0.241666666666666
0.226276235729607 -0.141845048072751 0.241666666666666
0.230695910330005 -0.140196278883304 0.241666666666666
0.231989628475124 -0.123175157773249 0.241666666666666
0.232539718635813 -0.120568251196351 0.241666666666666
0.235265506540871 -0.104610604850893 0.241666666666666
0.234270749272406 -0.0903049568514673 0.241666666666666
0.23403358582914 -0.0822800784433722 0.241666666666665
0.238489578332257 -0.0729717910169913 0.241666666666666
0.231274804275706 -0.0656698044143537 0.241666666666666
0.231526190455671 -0.0615362429519114 0.241666666666666
0.233388345893047 -0.0490287424647274 0.241666666666665
0.236872249403525 -0.0379999798676098 0.241666666666666
0.233889002059568 -0.0251247957364074 0.241666666666665
0.241269204154216 -0.0155165415236355 0.241666666666666
0.242685536997482 -0.0103559303495508 0.241666666666666
0.240833039707643 0.0155614164209665 0.241666666666666
0.237716334477907 0.0149821682498484 0.241666666666666
0.242952966674397 0.0372233686723761 0.241666666666665
0.24127389821659 0.0349766118338688 0.241666666666666
0.243203436911484 0.0539350802592463 0.241666666666665
0.243989436450202 0.065761702372473 0.241666666666666
0.244652161398871 0.0727334599493228 0.241666666666666
0.245932410028944 0.0866504402096896 0.241666666666666
0.251573929953064 0.100299596830189 0.241666666666666
0.250884601818103 0.10484614050181 0.241666666666666
0.247949370430643 0.123924501934685 0.241666666666666
0.247609343454761 0.138740616447033 0.241666666666666
0.256517874213253 0.144004414889677 0.241666666666666
0.249920142269484 0.152095208170169 0.249261796283517
0.250291609919212 0.153720770755696 0.255154460656053
0.254666427249462 0.156580418784321 0.265520684759819
0.256921262290793 0.159106111415077 0.274676320546313
0.250700436050276 0.160258388307093 0.27885332427987
0.252226028377823 0.162725155653835 0.287795355911808
0.254141482870058 0.166959672387091 0.303145479069861
0.254907311921573 0.167467067817883 0.304984787506486
0.258061537570838 0.168355341783264 0.30820478063099
0.251161819867712 0.172583938436434 0.323533443498731
0.251495522679527 0.173645086077786 0.327380103698631
0.258932436156695 0.178538155603616 0.345117480729765
0.253819993718109 0.181132448845655 0.354521793732157
0.259914949881643 0.183293770016362 0.362356582975967
0.259005348996321 0.182750700802288 0.360387957074951
0.255367746668706 0.1863081375843 0.373283665409742
0.255699373328654 0.189940805869811 0.386452087944721
0.258756325080463 0.191242069173042 0.391169167418935
0.250953367296679 0.195590833247853 0.406933437190125
0.255942374537302 0.19681289072916 0.411363395559865
0.255282145155197 0.199602515042752 0.421475783696632
0.251674226812515 0.200994575263787 0.426522001997886
0.255470672427313 0.202348156774984 0.431428734975975
0.253815464925114 0.206639031638758 0.446983156357157
0.257478647119202 0.209388494111235 0.456949957819885
0.257228823345974 0.210902134165285 0.462436903015816
0.253008775190035 0.214205263696212 0.47441074756543
0.256325702821856 0.21483678394821 0.476700008478918
0.25749703239322 0.227306600924677 0.483333333333331
0.257724888595445 0.246320113599972 0.483333333333331
0.25590454641517 0.266390867083723 0.483333333333331
0.265231921994922 0.275393901036397 0.483333333333331
0.266988253756734 0.273212013968579 0.483333333333331
0.233046607771814 -0.249343715066511 0.241666666666665
0.229837977481483 -0.241615258600824 0.241666666666666
0.226921812582515 -0.232838090042143 0.241666666666666
0.229340356307216 -0.217157180893108 0.241666666666666
0.23190993585915 -0.206930586749652 0.241666666666666
0.23632102080446 -0.200838398857762 0.241666666666666
0.232075716592306 -0.190030392778955 0.241666666666665
0.233191122748283 -0.18567164807765 0.241666666666666
0.230743353902287 -0.177948385233731 0.241666666666666
0.235367789877244 -0.170345410046639 0.241666666666666
0.234578592246338 -0.151213687396274 0.241666666666666
0.237676267666254 -0.147783450390739 0.241666666666666
0.236096080961769 -0.143206333810375 0.241666666666666
0.236694960527052 -0.132028832033525 0.241666666666665
0.239523257815548 -0.108872882003526 0.241666666666666
0.240402047775043 -0.103671969725469 0.241666666666665
0.246943773232759 -0.0926880416518929 0.241666666666666
0.245705333410445 -0.0846541290853831 0.241666666666666
0.243276438979227 -0.076340047162899 0.241666666666665
0.24386659558433 -0.0633077659408581 0.241666666666666
0.241909947325403 -0.0575052372346426 0.241666666666666
0.24508008128953 -0.0476379013807268 0.241666666666666
0.249268997787117 -0.0245868102297952 0.241666666666665
0.245301877781683 -0.0167581229183495 0.241666666666665
0.247480113973979 -0.00678172214808773 0.241666666666666
0.248617742106432 -0.00252636994230073 0.241666666666666
0.251073179930352 0.0114715352151068 0.241666666666666
0.255852807490417 0.0151550099131287 0.241666666666666
0.258045910551229 0.0375686498231092 0.241666666666666
0.250308160111611 0.0450728489278384 0.241666666666665
0.259214441702133 0.0480723465365348 0.241666666666666
0.255107638808403 0.064098742600973 0.241666666666666
0.260063640239496 0.072247997522048 0.241666666666666
0.261260343744802 0.0930218321806304 0.241666666666666
0.255705712677346 0.0999569127768002 0.241666666666666
0.262984248519859 0.113720933806116 0.241666666666666
0.260650825876436 0.123738397012256 0.241666666666665
0.259048832021774 0.136096742154579 0.241666666666666
0.257924926342282 0.139696219697003 0.241666666666666
0.266491025886758 0.151637029285368 0.247600897826117
0.261549523051408 0.155047926963953 0.259965401910987
0.260615613192709 0.156458393580863 0.265078343397284
0.2669834674008 0.159804283834626 0.277207195567177
0.267971913185076 0.16126597262959 0.282505817448922
0.264504914148062 0.163676491466283 0.291243948231932
0.262391186720694 0.164375126132822 0.293776498898134
0.261427246742223 0.168455769236075 0.30856883014743
0.265638539221648 0.170396685274128 0.31560465078537
0.261586746597708 0.174834328980461 0.331691109220827
0.264456234480666 0.175050514860276 0.332474783035155
0.270145034560922 0.176441809275063 0.337518225288757
0.265903354112819 0.179200416362016 0.347518175978963
0.263767091275533 0.182890878286803 0.360896100456318
0.267269718791749 0.186374046544715 0.37352258539125
0.266465169306661 0.185726935173674 0.371176806671223
0.262085954801867 0.190566494508384 0.388720209259549
0.269810423845317 0.193746936315846 0.4002493108116
0.261687566862335 0.194173292135503 0.401794850657856
0.269032193575112 0.198034498735145 0.415791724581557
0.270879001791044 0.198278974849865 0.416677950497417
0.262305005649413 0.202185270785961 0.430838273265765
0.272577088271501 0.204393203006932 0.438842027566784
0.268392602434806 0.20669580754424 0.447188969014523
0.266185867689651 0.209106647009771 0.455928262077077
0.268371161861794 0.212195097944183 0.467123896714322
0.266306160407285 0.212460026154511 0.46808426147676
0.270762079459574 0.214684027076297 0.476146264818232
0.270467401943482 0.217871765856482 0.483333333333331
0.265171409384366 0.237041170147187 0.483333333333331
0.275028483749867 0.258113884766753 0.483333333333331
0.269949601029799 0.270019901568385 0.483333333333331
0.24287343909192 -0.250337856084602 0.241666666666666
0.234919079802492 -0.243631719805157 0.241666666666666
0.240371767671057 -0.232884153927593 0.241666666666666
0.237429714088332 -0.217098068640847 0.241666666666666
0.243718151955777 -0.212670968650799 0.241666666666666
0.245019493935969 -0.204580408875559 0.241666666666666
0.240123644959735 -0.198041916818237 0.241666666666666
0.241074834710065 -0.185265106920493 0.241666666666666
0.243462689889115 -0.183695865934367 0.241666666666666
0.246170604278989 -0.172874565094702 0.241666666666665
0.249555567150238 -0.156083965460235 0.241666666666666
0.250825294844689 -0.155035805612397 0.241666666666666
0.248088498383573 -0.135450245275959 0.241666666666666
0.247403686842707 -0.124136374390821 0.241666666666666
0.251655454924485 -0.111967347077102 0.241666666666666
0.252816327690132 -0.105827034156408 0.241666666666665
0.247189736118937 -0.089999617973308 0.241666666666666
0.248220793509254 -0.0882849791100074 0.241666666666666
0.255385955444857 -0.0740122668878345 0.241666666666666
0.259055448628899 -0.0682189560217724 0.241666666666665
0.256085883352359 -0.0606017516709381 0.241666666666666
0.253171238278041 -0.0523165126219789 0.241666666666666
0.259454596245519 -0.0339414837401646 0.241666666666666
0.257113882299251 -0.0226441058372056 0.241666666666666
0.256850998194382 -0.0218868534824468 0.241666666666666
0.25903411671494 0.000308877297129939 0.241666666666666
0.257704942330139 0.00519882498257547 0.241666666666666
0.262594421675406 0.0170075893702229 0.241666666666666
0.257995886380382 0.0227260182202947 0.241666666666665
0.268372926433783 0.0421290528236804 0.241666666666665
0.266044116406926 0.0567136279465231 0.241666666666666
0.268933388545255 0.0683886453941221 0.241666666666666
0.266923420091947 0.0739934483632801 0.241666666666665
0.272741520034994 0.0840277384786697 0.241666666666666
0.271948652747466 0.0951774942103806 0.241666666666666
0.272393803748657 0.111796438230952 0.241666666666666
0.267541859113473 0.124691397424366 0.241666666666666
0.273325737852454 0.125938958462032 0.241666666666666
0.267652084613539 0.145820253940958 0.241666666666666
0.268137646326518 0.152122542932464 0.249360884796837
0.270402322862376 0.15353615818077 0.254485240071948
0.270765354116259 0.155415424694984 0.261297581185973
0.277688360092093 0.158210785067855 0.271430762537628
0.269649120345599 0.162924151079098 0.288516714328385
0.270624607765081 0.16201562464175 0.285223305992999
0.272192216028982 0.165954674105622 0.299502360299533
0.278563328050513 0.169850885539788 0.313626126748388
0.276304931013311 0.171181493755008 0.318449581528561
0.277298926547541 0.17450543529637 0.330498869615999
0.275059080451982 0.175588530476077 0.334425089642435
0.277897828196917 0.177465535144032 0.341229231563772
0.276886138105002 0.180349706157236 0.351684351486633
0.275459000537186 0.181955798746281 0.357506437121924
0.275636689410808 0.183850706497382 0.364375477719665
0.277747459999414 0.186878700986641 0.375351957743231
0.271373836402104 0.190055070383698 0.386866296807562
0.278749152231627 0.189704973713479 0.385597196378016
0.273348486602426 0.193378295585843 0.398912988165339
0.281794703124116 0.196799563923798 0.411315085890426
0.279926574217046 0.199513667866537 0.421153712682855
0.273142155399759 0.199742065326172 0.421981653474028
0.282436459067203 0.204560038656304 0.439446806795758
0.280902608061531 0.205902104153452 0.444311794222919
0.279019639736685 0.209643393708956 0.457873968861621
0.273815998353058 0.211914412124253 0.466106410617073
0.274021386999581 0.213923814363472 0.47339049373424
0.274789399194547 0.215467440304423 0.478986137770189
0.284075492752918 0.219921904005525 0.483333333333331
0.276637429719994 0.242548519226732 0.483333333333331
0.280931693172697 0.257611684606497 0.483333333333331
0.285960559585966 0.271871205581403 0.483333333333331
0.281242390331612 0.282686926671198 0.483333333333331
0.251423693389028 -0.250469301732872 0.241666666666666
0.247283601211117 -0.242564317194519 0.241666666666665
0.245796451375436 -0.227277043359025 0.241666666666666
0.254287438735389 -0.225395553815553 0.241666666666666
0.248126806280645 -0.208913200554098 0.241666666666666
0.251900961395324 -0.204424586592317 0.241666666666666
0.250402671724996 -0.197424453341196 0.241666666666666
0.257285496375367 -0.18479947807663 0.241666666666666
0.253379092930432 -0.173295962165229 0.241666666666666
0.259221854550872 -0.170169917904258 0.241666666666666
0.252827758331164 -0.155091150133739 0.241666666666665
0.25803107259341 -0.142709884501108 0.241666666666666
0.259866479319141 -0.131837607843191 0.241666666666666
0.261278927025657 -0.121909185018782 0.241666666666666
0.264196739287798 -0.119445419482758 0.241666666666666
0.25641672923174 -0.104233142784694 0.241666666666666
0.260641272937891 -0.0941389368701516 0.241666666666666
0.266672054578495 -0.0902341787636279 0.241666666666666
0.260429895369786 -0.0687760499066849 0.241666666666666
0.268855192328309 -0.0653781807805576 0.241666666666665
0.268943806051028 -0.0534017654952926 0.241666666666666
0.265024951524364 -0.0472967942919115 0.241666666666665
0.267333999574391 -0.0335610240235576 0.241666666666666
0.270040846983878 -0.0260770361472257 0.241666666666666
0.265159557941307 -0.00644907916467273 0.241666666666665
0.266191471592368 -0.00737782253587984 0.241666666666666
0.2718785184418 0.0168721819537254 0.241666666666666
0.272635024484544 0.0186923983876305 0.241666666666665
0.268247269908216 0.0384133177646989 0.241666666666665
0.268760992055504 0.0348666707302627 0.241666666666666
0.278974168497944 0.0521774961095199 0.241666666666666
0.278878482509763 0.0739113614602414 0.241666666666666
0.28030591278719 0.0794259523573811 0.241666666666666
0.282888481365652 0.0826721818766768 0.241666666666666
0.279240387439715 0.0919122588900066 0.241666666666665
0.278396986870276 0.119925231932507 0.241666666666666
0.286169279820442 0.127974896989759 0.241666666666666
0.282769035119691 0.135547621665092 0.241666666666666
0.278516717723187 0.145529479093041 0.241666666666666
0.283853902501626 0.151743908232225 0.24798833400847
0.284024315925711 0.153209582925972 0.253301404773303
0.281837721842489 0.1556194636972 0.262037222569008
0.280354699242767 0.160444570873436 0.279528236082861
0.286792833427713 0.160936099516326 0.281310027413339
0.279611775742899 0.162438204585989 0.286755158290866
0.280019518987608 0.164139844776836 0.292923603982687
0.282210285785167 0.167175356485187 0.303927333925457
0.288259986504114 0.169207538475779 0.311293993641352
0.280803138571558 0.172130538276384 0.321889867918546
0.289492449695868 0.176322561441327 0.337085951891466
0.289111559938819 0.176902933841686 0.339189801842765
0.282812021919493 0.179886626363372 0.35000568723388
0.286692037777945 0.18216164855463 0.358252642677188
0.282286485228551 0.185833375000634 0.371562651043954
0.28721253109526 0.188132067084742 0.379895409848845
0.289965802112586 0.188857785952654 0.382526140745026
0.290997927568383 0.191579388131142 0.392391948642048
0.291993033692996 0.194518942768775 0.403047834203464
0.287608859692988 0.196279814694965 0.409430994935905
0.284951974205215 0.200183032868497 0.423580160814957
0.282657757893292 0.202050574890281 0.430350000643924
0.293604386035354 0.203449927094097 0.435422652382758
0.293638427005844 0.206618204678854 0.446907658627504
0.291086798060943 0.208206635377691 0.452665719910783
0.29228112268572 0.211492215288197 0.464575947086371
0.292796589692975 0.214588096972002 0.475798518190163
0.292571733448814 0.216403562305623 0.482379580024541
0.295213984524131 0.229407417054815 0.483333333333331
0.291533746787936 0.233671385062286 0.483333333333331
0.297331274965201 0.265332591861849 0.483333333333331
0.298147777596138 0.266268324588785 0.483333333333331
0.257744180714873 -0.256032629464886 0.241666666666666
0.252941235484193 -0.235560920581829 0.241666666666666
0.258742342756081 -0.236504612693954 0.241666666666665
0.26174390683721 -0.2242091143899 0.241666666666666
0.263630322391922 -0.218091853168855 0.241666666666666
0.265074061488097 -0.203789204914707 0.241666666666666
0.263126796760744 -0.195480029603195 0.241666666666666
0.265455593839265 -0.184898428637878 0.241666666666666
0.261860508103759 -0.174737993446316 0.241666666666666
0.26040464672955 -0.16374042179594 0.241666666666666
0.261798736255417 -0.161360744005737 0.241666666666665
0.265027440520301 -0.142469391244327 0.241666666666666
0.271015010951638 -0.135907390583452 0.241666666666666
0.26642039564081 -0.123351461796938 0.241666666666666
0.270779104672259 -0.116340005452611 0.241666666666666
0.273580106989554 -0.099654326212796 0.241666666666666
0.271200445132267 -0.087180463445002 0.241666666666666
0.271848007102457 -0.0865716058014687 0.241666666666666
0.276881172458832 -0.0741986532229804 0.241666666666666
0.273839124851019 -0.0678945705544335 0.241666666666666
0.279572303864073 -0.0607076022445617 0.241666666666666
0.276950614272347 -0.0446860031256164 0.241666666666666
0.274531617888077 -0.0338362072069574 0.241666666666665
0.27570220080195 -0.0259512276227539 0.241666666666666
0.278618178919681 -0.00572009664738781 0.241666666666665
0.277279911293859 -0.00754975017621065 0.241666666666665
0.278993345348045 0.0104641272921192 0.241666666666666
0.283137506389894 0.00993138067305547 0.241666666666666
0.287195615702573 0.028083885022663 0.241666666666665
0.282069321896173 0.0371011672676265 0.241666666666666
0.28970164090399 0.0542404407831351 0.241666666666666
0.28976605163464 0.0575662561338478 0.241666666666666
0.289550273232121 0.0694952803689783 0.241666666666666
0.290779185259112 0.090830383555306 0.241666666666666
0.287991304571153 0.101552391255935 0.241666666666666
0.287996783186276 0.113849336558092 0.241666666666666
0.295903637602539 0.125027399513441 0.241666666666665
0.2978041233115 0.138227835015173 0.241666666666666
0.291392486146974 0.144102222247859 0.241666666666666
0.292180986870499 0.152738863770959 0.251595047836382
0.29810199700065 0.155458068703089 0.261452165715354
0.291456358619198 0.156402315398175 0.26487505998504
0.295198854061145 0.158878078087024 0.273849699732117
0.295142122677707 0.162364913188517 0.286489476975032
0.297681866810634 0.163730754531821 0.291440651844508
0.29071153202782 0.167167609922757 0.303899252636645
0.29933160022213 0.168295737522041 0.307988715184057
0.299352215043758 0.169805103404519 0.313460166508034
0.297804670039787 0.171936083684582 0.321184970023263
0.298584612665473 0.174931212261459 0.332042311114442
0.293369535064593 0.176508491129371 0.337759947010625
0.301418575182331 0.180137060262077 0.350913510116684
0.293954906021107 0.182905765870804 0.36095006794832
0.292206198787801 0.184559031830834 0.366943157053428
0.293053846342005 0.185556369703159 0.370558506840606
0.299091842507437 0.190625352228841 0.388933568496206
0.297134838819558 0.192046854860374 0.394086515535512
0.30099220775783 0.19386681626276 0.40068387561916
0.297731814400833 0.196475005253542 0.410138560710746
0.293738987419212 0.197515513195666 0.413910402000948
0.303858216498287 0.201184891804992 0.427211899459752
0.301239882898668 0.20254799133188 0.432153135244721
0.298174245370746 0.206104280034998 0.445044681793522
0.298916725543466 0.209310480994308 0.456667160271021
0.302665544871604 0.210034464400318 0.459291600117807
0.300850705192611 0.21302186759968 0.470120936715496
0.305081764967696 0.216106199039915 0.481301638186345
0.303629236838745 0.227428995984722 0.483333333333331
0.303950907228191 0.246808824963135 0.483333333333331
0.299303341620939 0.254145948300834 0.483333333333331
0.302098914432286 0.266283585432113 0.483333333333331
0.264662294474895 -0.250279682881701 0.241666666666666
0.263764679904044 -0.237523620016316 0.241666666666666
0.271938985942283 -0.22789396351079 0.241666666666666
0.265902487580165 -0.220334582938621 0.241666666666666
0.273087108410555 -0.214025003935526 0.241666666666666
0.270216695068439 -0.200918029956722 0.241666666666666
0.274280812075638 -0.195939344323167 0.241666666666666
0.27234288051432 -0.18288462200304 0.241666666666666
0.271116637701679 -0.177632356599182 0.241666666666666
0.27278039967282 -0.164247379365332 0.241666666666666
0.270831464766251 -0.156553238066926 0.241666666666666
0.274742957832672 -0.145343039253643 0.241666666666666
0.272751544858016 -0.133826838926998 0.241666666666665
0.273852052261827 -0.124965596028175 0.241666666666666
