ply
format ascii 1.0
element vertex 863
property float x
property float y
property float z
end_header
0.013704209101186 0.172923754708646 0.191757985314004
0.0256479330532522 0.172923754708647 0.193241917112507
0.0179635049698705 0.172923754708646 0.206814428831085
0.0189887026959674 0.172923754708647 0.218116594324068
0.0194774090523447 0.172923754708646 0.225701774939207
0.0118291465365986 0.172923754708647 0.240450363338899
0.0195679241325121 0.172923754708646 0.242911759487035
0.0161922261202892 0.172923754708646 0.252571048884794
0.0123524928219385 0.172923754708646 0.267892254965097
0.0132754445430481 0.172923754708646 0.275544477765445
0.0223978254095858 0.172923754708647 0.274068672034517
0.0149063294987568 0.172923754708646 0.300199094388501
0.0191843068945847 0.172923754708647 0.299813680204433
0.0160085319848541 0.172923754708647 0.317856618864919
0.0213001891931574 0.172923754708647 0.323873653182484
0.0201720510668839 0.172923754708646 0.336916543282115
0.0216195037483466 0.172923754708647 0.336947323261518
0.0200537271344718 0.172923754708647 0.351820706463387
0.0177630060375731 0.172923754708647 0.355652362138971
0.0118308638793631 0.172923754708646 0.377765029682153
0.0175359301014916 0.172923754708646 0.388667672618394
0.0197866976770973 0.172923754708646 0.383346493138124
0.0125641254468522 0.172923754708646 0.400327360194924
0.0154555300957259 0.172923754708647 0.404005926140012
0.0144692692535136 0.172923754708647 0.418048080854242
0.0205257172722305 0.172923754708646 0.421794886644762
0.0220242274088468 0.172923754708646 0.430350080383946
0.0120790805789408 0.172923754708647 0.445981690901579
0.0215609378408214 0.172923754708646 0.45907391319203
0.0146357571196984 0.171869247648415 0.462747537904516
0.0248117957315748 0.164697627061961 0.462747537904516
0.0375502168207647 0.149314939442718 0.462747537904516
0.0494817798941294 0.143738064990913 0.462747537904516
0.053330427053654 0.139317335012692 0.462747537904516
0.070163685065002 0.1287198634461 0.45554939649529
0.0631465531204651 0.12496968280775 0.469532400084305
0.0723719486236238 0.123181720633697 0.469847147796095
0.075394268083 0.120555540619939 0.470309452962318
0.0880666373818329 0.110445033885992 0.472089277449506
0.0975327493073894 0.102639617172494 0.472727093386597
0.101961877708694 0.0922712391184736 0.470901873974894
0.274351844019617 -0.0679419330302227 0.288170469607414
0.28684314275788 -0.0756495438420941 0.288170469607414
0.299717241428947 -0.0847013164362345 0.288170469607414
0.306752932403761 -0.094468863272505 0.288170469607414
0.324381560430964 -0.105047846384242 0.288170469607414
0.330659950100012 -0.108564660606985 0.288170469607414
0.34372631610487 -0.115329861164789 0.288170469607414
0.348447502772064 -0.119812244432958 0.288170469607414
0.3550629349663 -0.133627373325865 0.288170469607414
0.370385115363821 -0.150583600304656 0.283344367515143
0.396459095253672 -0.168491452432944 0.288256932692833
0.396459095253672 -0.16519281767892 0.310056898499203
0.396459095253671 -0.163584291448476 0.313705631770118
0.396459095253672 -0.166045895637215 0.321863175458751
0.398375578047307 -0.165360290283204 0.351387866365031
0.0307569320286233 0.172923754708646 0.0929715117466536
0.0296145973617546 0.172923754708646 0.104328292038157
0.0343220437075417 0.172923754708646 0.103415345658567
0.0369188224549884 0.172923754708646 0.119964493147602
0.0346163913444343 0.172923754708646 0.128465705254422
0.0400115944594558 0.172923754708647 0.133124312519321
0.02410142262954 0.172923754708646 0.157233005834729
0.0274395451911544 0.172923754708646 0.167199778421374
0.034310336998473 0.172923754708646 0.167208007518514
0.0307427945517162 0.172923754708646 0.184817946392625
0.0249978367607334 0.172923754708646 0.195982117994286
0.0376343667556938 0.172923754708647 0.185629588181229
0.0358166526311596 0.172923754708646 0.19994449997016
0.0393457441058685 0.172923754708647 0.211575077828156
0.0281981392009558 0.172923754708647 0.229331036961582
0.0296947894210219 0.172923754708646 0.234584377677358
0.0316783602550672 0.172923754708646 0.249088486014184
0.031504443523811 0.172923754708646 0.2495910927831
0.0311426510218183 0.172923754708646 0.271631937828496
0.026868791519461 0.172923754708647 0.272319272687315
0.0407109536462959 0.172923754708646 0.278492699781654
0.0297187797579881 0.172923754708646 0.294942623380436
0.0358373349004518 0.172923754708646 0.299466380924817
0.0372667307791129 0.172923754708647 0.315835770379063
0.0359573608653927 0.172923754708646 0.315678724439151
0.0365366942300509 0.172923754708646 0.32946080886492
0.0335767280127119 0.172923754708647 0.337535452366838
0.0316731747837364 0.172923754708646 0.354051461832302
0.0278090290025752 0.172923754708646 0.360115268199969
0.0344969190253277 0.172923754708647 0.368661965068377
0.0349516858487973 0.172923754708646 0.372280459193736
0.0289188894412436 0.172923754708646 0.389079257704267
0.0299324614155733 0.172923754708646 0.404097875527379
0.0348537653745036 0.172923754708646 0.403356422675649
0.0377099665310471 0.172923754708646 0.411847740187312
0.0297480642287147 0.172923754708646 0.430471169993193
0.0287610083225838 0.172923754708646 0.441851778614397
0.0235415405582702 0.172923754708647 0.45014026323823
0.0311439837583593 0.172923754708646 0.454806551429188
0.0337900310863334 0.163055086718885 0.462747537904516
0.0452500356229155 0.159195934534923 0.462747537904516
0.0589114407653131 0.15518901751145 0.462747537904516
0.0673026122886028 0.149149666210905 0.462747537904516
0.064478325829624 0.144074351091832 0.462747537904516
0.085127105364359 0.128680677494784 0.455697214681307
0.0831940463517966 0.127088963396194 0.461701516805147
0.0958103933254973 0.122271392798532 0.470007399286453
0.099782594651008 0.11430309340049 0.471410115763784
0.107479651830336 0.10974850983977 0.472211891536613
0.113003277749413 0.0940350492776391 0.471212370035541
0.124324578611568 0.0921882371148267 0.470887262541218
0.301040144936147 -0.0687925392503001 0.288170469607414
0.303239414392016 -0.0714652252782467 0.288170469607414
0.314093885232321 -0.0884630916062639 0.288170469607414
0.330177418521884 -0.0866835624522092 0.288170469607414
0.332136621281802 -0.100560150069692 0.288170469607414
0.336526236130341 -0.107848480494698 0.288170469607414
0.353394710114789 -0.114301986333717 0.288170469607414
0.378178932197025 -0.132960129148663 0.281753538316427
0.385508306837934 -0.148044424452844 0.279184018487264
0.388344765748864 -0.146848139425988 0.278189617494911
0.396459095253672 -0.155583645030638 0.279841762847214
0.396459095253672 -0.148392061783748 0.30152471196481
0.396459095253672 -0.163402537647337 0.30460239195215
0.396459095253672 -0.153385720000888 0.326818608113301
0.396459095253672 -0.158381347142259 0.333856357819511
0.396459095253672 -0.155787760681344 0.344294845718049
0.40011958960419 -0.151171123859045 0.356179498736835
0.402806530500843 -0.158983154557233 0.363561808177796
0.404886553457015 -0.162070704880233 0.369276624281827
0.407466536277104 -0.164156765338593 0.376365068822602
0.0544777150563827 0.172923754708647 0.0747199495109146
0.0532090361413843 0.172923754708646 0.0877102802699017
0.045604829262036 0.172923754708646 0.100500660999764
0.0526329243440517 0.172923754708646 0.104525104718104
0.0475996014393317 0.172923754708646 0.106973251683475
0.0372476467256085 0.172923754708646 0.137654886269319
0.0427309376852186 0.172923754708646 0.13973662754357
0.049135696280727 0.172923754708646 0.146507005751217
0.0510176795362222 0.172923754708646 0.157868515335782
0.0469944475817442 0.172923754708646 0.161834329734229
0.0501267413825824 0.172923754708647 0.16919401314113
0.0428063148292017 0.172923754708646 0.185329777353322
0.0507642051723262 0.172923754708647 0.193236142226007
0.049053438024562 0.172923754708646 0.203143399520436
0.0410837925401269 0.172923754708646 0.212682179492269
0.0543886289976136 0.172923754708646 0.215052410272017
0.0458947072383417 0.172923754708646 0.228071133002336
0.0495653915734923 0.172923754708647 0.241447100363679
0.0469924100216688 0.172923754708646 0.256615483204643
0.0472516643074194 0.172923754708646 0.266890524475403
0.0452108537992592 0.172923754708646 0.275378110721844
0.044105821515385 0.172923754708646 0.288826496243686
0.0415424126100015 0.172923754708646 0.298807074910569
0.0478280700724881 0.172923754708647 0.302675307469397
0.0496211318814861 0.172923754708646 0.310978589601568
0.0556452855207565 0.172923754708647 0.312199937708621
0.0458433094939052 0.172923754708647 0.338757759795146
0.0553648707257221 0.172923754708646 0.335936414325188
0.0451162567086437 0.172923754708647 0.356735133352453
0.0524906585954176 0.172923754708646 0.355652375708212
0.0494251751160303 0.172923754708646 0.367014843833063
0.054467102809873 0.172923754708646 0.377670212107134
0.0465940982461456 0.172923754708647 0.383096065898738
0.0443150027125065 0.172923754708646 0.399646766993426
0.0431510747245925 0.172923754708647 0.409240203493619
0.0413697187550169 0.172923754708646 0.421983971194788
0.0474023717055873 0.172923754708647 0.422626016157632
0.0569314773869712 0.172923754708646 0.434090986518379
0.0522625863510894 0.172923754708646 0.443280834965375
0.0480463989944834 0.172923754708647 0.452989788984505
0.0562406805756422 0.165117202872056 0.462747537904516
0.0560238379877158 0.164092699648051 0.462747537904516
0.0713822181712693 0.14901634411575 0.462747537904516
0.0779300932691345 0.139521134538762 0.462747537904516
0.0810391268576814 0.142536643247293 0.462747537904516
0.085153532325292 0.138621931853673 0.462747537904516
0.0949355102135661 0.125736510413394 0.466803272405737
0.105185414751897 0.120784813718805 0.470269092386301
0.111685670967356 0.119864746826268 0.470431058312271
0.114749867828932 0.105108619470484 0.473028684474339
0.124517159573302 0.102754325582948 0.472747286324813
0.141389131474088 0.0862474018601987 0.469841455012598
0.317108445558444 -0.0718030144320769 0.288170469607414
0.320646886036972 -0.0738063935243547 0.288170469607414
0.328049327409312 -0.0827469179314154 0.288170469607414
0.339924200145191 -0.0848827567146847 0.288170469607414
0.347325136751959 -0.0986051902201644 0.288170469607414
0.355117912882201 -0.104350342084827 0.288170469607414
0.378478247535677 -0.130575273931875 0.281648604848632
0.396459095253672 -0.139825821521224 0.275082873543428
0.396459095253672 -0.142451425487149 0.281672835940501
0.396459095253671 -0.149188728037194 0.288242993216109
0.396459095253672 -0.137784062544512 0.302791986430911
0.396459095253672 -0.14729282870195 0.311066192191786
0.396459095253672 -0.142410484629372 0.324650967931854
0.396459095253672 -0.145651563785589 0.33649591448305
0.396596423325221 -0.143627993960964 0.346499678940383
0.401473184100864 -0.140928533807719 0.359898469051545
0.404593833431595 -0.146722674474355 0.368472382621764
0.408014679496849 -0.14983358350493 0.37787107994148
0.411151980316446 -0.158294883069644 0.381707080067885
0.419122552622081 -0.165813484038581 0.386308892134139
0.424396556967536 -0.163679900531562 0.389353839962694
0.0598437985447438 0.172923754708646 0.0640529234898812
0.058393113008014 0.172923754708646 0.0741625164152479
0.062204888055981 0.172923754708646 0.085497340144641
0.063775438649751 0.172923754708646 0.097344686874081
0.064159088489336 0.172923754708647 0.107250681183663
0.0622571208253548 0.172923754708647 0.121319025205952
0.060204892821305 0.172923754708647 0.129377341161628
0.0690395311504464 0.172923754708646 0.135226845840857
0.0553988396547506 0.172923754708646 0.152984393306303
0.0627527787574579 0.172923754708647 0.147387056306119
0.0553404558908859 0.172923754708647 0.176005303028174
0.0622674872555589 0.172923754708647 0.175028273105615
0.0624065577687124 0.172923754708646 0.1869755798908
0.056667923907116 0.172923754708646 0.206893000985106
0.0621669983253993 0.172923754708646 0.201546344364848
0.063052952709924 0.172923754708646 0.211791724879282
0.0600193409471544 0.172923754708646 0.235443088548174
0.0577961104556352 0.172923754708647 0.232897172452287
0.0529546508132486 0.172923754708646 0.247156841212542
0.0557146877504066 0.172923754708646 0.260832085558954
0.0607566576177387 0.172923754708647 0.262968461605316
0.065168311553204 0.172923754708647 0.272822960020076
0.0629799158272028 0.172923754708647 0.280344428704893
0.0571652868331581 0.172923754708647 0.302749079687173
0.0628171708573841 0.172923754708646 0.303764882320272
0.0591606809207941 0.172923754708646 0.314775255191691
0.0628681455200528 0.172923754708646 0.316369417625695
0.0597374104064543 0.172923754708646 0.336982629297198
0.0686371827932826 0.172923754708647 0.339794455628636
0.0636748413922942 0.172923754708647 0.351439692507174
0.0539785982380056 0.172923754708646 0.36375253134267
0.0613738835417344 0.172923754708647 0.370741780690854
0.0629549755834772 0.172923754708647 0.38217517644412
0.0665824270514822 0.172923754708646 0.384970929919884
0.0577027831911878 0.172923754708647 0.40359414535295
0.0626645090660261 0.172923754708647 0.39962796411005
0.0566986401246218 0.172923754708647 0.420499502641835
0.0552222569128764 0.172923754708646 0.438958061215428
0.0667232418603049 0.172923754708647 0.439068244799487
0.0583967542139252 0.172923754708647 0.453755820072209
0.0646103622645623 0.172923754708647 0.458511384505162
0.0644881039510435 0.16513691718536 0.462747537904516
0.0803735559664936 0.159379823064534 0.462747537904516
0.0830241951265836 0.151399518485 0.462747537904516
0.0950222184995265 0.14104158142398 0.462747537904516
0.105897132997336 0.136267531137144 0.462747537904516
0.119429608545442 0.126310520209344 0.455582654475363
0.110220419742554 0.125075378977851 0.469297208274047
0.115459298585543 0.12513514228194 0.469071767704042
0.125331394810328 0.106137300748268 0.472847598384799
0.13614988454691 0.105660710522039 0.472931495955645
0.139202345748714 0.103506271980168 0.472879656802975
0.158078188022389 0.0874969137958632 0.470061415495158
0.328433371687345 -0.0696764833717619 0.288170469607414
0.335894553855406 -0.0758984104727373 0.288170469607414
0.34392422954938 -0.0888750686092086 0.288170469607414
0.369031917442249 -0.103606642696491 0.284960283358339
0.372369700115753 -0.106960623676529 0.283790129124834
0.396459095253672 -0.126189408478411 0.272854020353869
0.396459095253672 -0.127207119821153 0.287579081199854
0.396459095253672 -0.127704956757756 0.295869784372888
0.396459095253672 -0.136643077340948 0.298254952266702
0.396459095253672 -0.125713392847031 0.312779499440987
0.396459095253672 -0.125158929360788 0.325485070914643
0.396459095253672 -0.118672962675961 0.341837175961942
0.397972939231241 -0.12631661115446 0.350281625309691
0.398639280274512 -0.126060389723605 0.352112382279737
0.401526490208376 -0.129287314918552 0.360044926378252
0.408747044308026 -0.137708489097805 0.379883235722994
0.408794538659198 -0.132220699758164 0.38001372538039
0.416479550393538 -0.140514049687435 0.38478295408602
0.420865799178831 -0.141485004325514 0.387315356002942
0.425847994600412 -0.153806955588417 0.390191827870747
0.441504396962298 -0.158354688544353 0.398526674174068
0.0733815563536202 0.172923754708646 0.0687043930788196
0.0724955966831731 0.172923754708646 0.0650781598388011
0.0700219110292342 0.172923754708646 0.0853261940170314
0.0754252843452248 0.172923754708646 0.0937169737222355
0.073060069831661 0.172923754708646 0.100251652041915
0.0681550627264243 0.172923754708646 0.117585937616399
0.0728221055927628 0.172923754708646 0.115952691217183
0.0745461515348431 0.172923754708647 0.124913579271327
0.0656189354684943 0.172923754708647 0.145560918036278
0.0799122628112817 0.172923754708646 0.138820958565406
0.0803808553485935 0.172923754708646 0.153537797444899
0.0808160604197927 0.172923754708646 0.165828858274618
0.0749708046576032 0.172923754708647 0.175431029841908
0.0812900648090241 0.172923754708646 0.180878363539771
0.0744706596334777 0.172923754708646 0.194993018225804
0.0773954949723282 0.172923754708646 0.205269841730365
0.0739622455227877 0.172923754708646 0.221353028186773
0.0718633076967071 0.172923754708647 0.232479484868508
0.0747989151327472 0.172923754708646 0.226401025189449
0.0800081995430087 0.172923754708646 0.242288907135815
0.0769689486274656 0.172923754708646 0.259984486691821
0.0737568717221953 0.172923754708647 0.272243119945521
0.0679844464043915 0.172923754708646 0.278025915050056
0.07181099573863 0.172923754708646 0.283717100954598
0.0799697020754809 0.172923754708646 0.289225260191529
0.0723869884139454 0.172923754708647 0.303342214015261
0.0712459015366121 0.172923754708646 0.310533395177509
0.074518832746479 0.172923754708646 0.327213719980631
0.0767385140326692 0.172923754708646 0.341169142422271
0.0824358511726024 0.172923754708646 0.333728453817021
0.0765398643528378 0.172923754708646 0.350236780006163
0.0730700440682548 0.172923754708647 0.358148172773109
0.0761612903112373 0.172923754708646 0.370212180253011
0.0692004117386716 0.172923754708646 0.385505670233581
0.0752522467822977 0.172923754708646 0.396373594625149
0.0759193733790613 0.172923754708646 0.404415746915846
0.0712669895045944 0.172923754708646 0.409270017950474
0.0771114351534944 0.172923754708646 0.418658110925096
0.0723279282744657 0.172923754708646 0.429316336184917
0.0780037303292278 0.172923754708646 0.444031340486065
0.0802479726017235 0.172923754708646 0.445890362431132
0.0776414390900727 0.172923754708646 0.456485804434478
0.0758723798308576 0.170703699007962 0.462747537904516
0.0914301233880299 0.159622533407827 0.462747537904515
0.0973820533414738 0.156055531613204 0.462747537904516
0.104737792411146 0.140268087269681 0.462747537904516
0.137529326056721 0.118076224059753 0.44111191842743
0.138792462466724 0.1231783616369 0.447020967604426
0.139064666916536 0.124277866441811 0.462301785899707
0.140278496614167 0.125187035875247 0.467774030926952
0.139972181514011 0.112316102198065 0.471759899972524
0.155576222131397 0.101565412932192 0.472537993565843
0.162728480800128 0.0954044630968709 0.471453437700367
0.171580671679341 0.0926037939968709 0.47096041597793
0.338681937903345 -0.0690637856450577 0.288170469607414
0.35503183166751 -0.0792370738750842 0.288170469607414
0.377309439978353 -0.0870609679444792 0.282058363435437
0.382336688271227 -0.098860908493558 0.280295919187797
0.396459095253672 -0.109424838303256 0.278726531842481
0.396459095253672 -0.115778626011978 0.285757575237756
0.396459095253672 -0.103364770188485 0.304730207476585
0.396459095253672 -0.116702591485983 0.312280831529394
0.396459095253672 -0.113691778490554 0.32016632009591
0.396459095253672 -0.118006370399177 0.331226878660414
0.396459095253672 -0.114683957975662 0.341433322942541
0.397953177203537 -0.11535038564873 0.350227329584812
0.40464287003061 -0.111384009572153 0.368607109570284
0.406970358680609 -0.120278905590633 0.375001832080192
0.4076983088059 -0.123473255218312 0.37700185861192
0.418005948065363 -0.124328293774892 0.385664220192739
0.421356872985472 -0.13279045862392 0.387598877597398
0.431402525466533 -0.140757788263549 0.393398737761524
0.432216811659899 -0.144238611928226 0.393868866114461
0.454939252628691 -0.16573515210364 0.396157746638158
0.457327290213551 -0.167719786058732 0.395736671181002
0.468350593230623 -0.168423839297833 0.393792965442567
0.0980506268384177 0.172923754708646 0.0439043066105794
0.0947901802306831 0.172923754708646 0.0561074511459926
0.0906434821271236 0.172923754708646 0.0619923552957217
0.0914186371663453 0.172923754708646 0.0776380178710574
0.0901640594801619 0.172923754708646 0.0787710621058026
0.0904579623355683 0.172923754708647 0.0978693307297912
0.0875990724536351 0.172923754708646 0.110360937070252
0.0900623187890377 0.172923754708646 0.119354860591906
0.0921273996761 0.172923754708647 0.11506542791034
0.091133190745485 0.172923754708647 0.134468899890424
0.0964309648686924 0.172923754708646 0.142707874793582
0.0847887535036825 0.172923754708647 0.165807448587497
0.0991308917319755 0.172923754708646 0.157624533208474
0.0812803847345711 0.172923754708646 0.176749044324544
0.0887267969365413 0.172923754708646 0.189357764916185
0.0884998712409549 0.172923754708646 0.197551544325711
0.0965954303809772 0.172923754708647 0.198856294145755
0.0906960341508973 0.172923754708646 0.218560512560461
0.086362182171972 0.172923754708646 0.224830495690678
0.0890541527675938 0.172923754708647 0.240268103434131
0.0830871314504772 0.172923754708646 0.248872720050774
0.0904902965910254 0.172923754708646 0.253986727018029
0.0926812398161436 0.172923754708646 0.258309849236468
0.0976608920659766 0.172923754708646 0.268244906929652
0.0894070631327064 0.172923754708646 0.278836834714828
0.0885020326790736 0.172923754708646 0.301056115278994
0.0924828824419154 0.172923754708646 0.298046291179431
0.0923548145155606 0.172923754708647 0.309908610316632
0.0911812317202496 0.172923754708647 0.321896528316968
0.0959560607376772 0.172923754708647 0.331588674961138
0.092629900813483 0.172923754708647 0.339356949920464
0.0879506219642171 0.172923754708646 0.349914758510993
0.0900963004879728 0.172923754708646 0.36456425842438
0.0860577533425891 0.172923754708646 0.376658078334502
0.0895911142658445 0.172923754708646 0.376264824207856
0.091704013322991 0.172923754708647 0.396754523011161
0.0899943443825139 0.172923754708647 0.401840850552414
0.0874964460848653 0.172923754708647 0.408305080081791
0.0850038809144026 0.172923754708646 0.432356285607744
0.0891902601828328 0.172923754708647 0.438212439583786
0.0895323735672379 0.172923754708646 0.444226388523287
0.0930759805358757 0.172923754708647 0.446651690089927
0.0926402971674308 0.168294680444011 0.462747537904516
0.0930495066614051 0.167873498355321 0.462747537904516
0.110912749830451 0.158278227697765 0.462747537904516
0.116503433815394 0.152152989350849 0.462747537904516
0.127429261347786 0.147902174225748 0.462747537904516
0.13995379952381 0.125132919693521 0.450062981475074
0.146743153604676 0.126264478706999 0.454479943904252
0.142167149049967 0.123134935082745 0.469855383789742
0.15170241365371 0.123507527353122 0.469789793719531
0.158232548276669 0.11421346951564 0.471425892894356
0.170731009164209 0.0957820143723415 0.471519900739554
0.178169352571538 0.0932904016710228 0.471081284415457
0.182973411896565 0.0886892546497415 0.470271311745134
0.356718108455092 -0.0678807131848812 0.288170469607414
0.377533795727128 -0.0737552489376024 0.281979709174533
0.396459095253672 -0.0962151425828557 0.272854645468587
0.396459095253672 -0.087484519378478 0.297088254121913
0.396459095253672 -0.0942335696870836 0.290073953832973
0.396459095253672 -0.0944540064927471 0.308292804159771
0.396459095253672 -0.0914400138688596 0.326516195357509
0.396459095253672 -0.0879026204564581 0.342891806791467
0.397287847006144 -0.0993382230864143 0.348399349890996
0.398633298970867 -0.0936399037605608 0.352095948783033
0.401913092185929 -0.107701037492757 0.361107106581896
0.40524115646813 -0.0995478778569657 0.370250888047736
0.409832706633117 -0.100835908142977 0.38094539705168
0.413813627655217 -0.105004958794165 0.383243782875412
0.417929778081795 -0.119272965964517 0.385620243432222
0.424343947717877 -0.12649482986719 0.389323465998242
0.430332141485241 -0.121234079355719 0.392780751281789
0.441022430276836 -0.133059257862468 0.398611657904517
0.461450679796692 -0.14421760405698 0.395009606345522
0.101998643880915 0.172923754708646 0.0476951468245718
0.0960868624099828 0.172923754708646 0.0597905248625329
0.105483791154959 0.172923754708646 0.0650317126999148
0.108583749506891 0.172923754708646 0.0833122814852682
0.105598232392638 0.172923754708647 0.0802305411185008
0.102864816760432 0.172923754708646 0.10255953121983
0.110343853829949 0.172923754708646 0.0996822825796016
0.102750346190588 0.172923754708646 0.115540609172352
0.108522177439819 0.172923754708646 0.12605821751739
0.109718159092225 0.172923754708646 0.139810253030551
0.107785576227825 0.172923754708646 0.141166751193567
0.0985748704741835 0.172923754708647 0.162431964825349
0.109216607303019 0.172923754708646 0.156495284585276
0.112055145629522 0.172923754708646 0.16961384838889
0.0981520567431811 0.172923754708646 0.188876278713801
0.113364129595636 0.172923754708647 0.19229372597169
0.110690787634349 0.172923754708646 0.194466211998904
0.106743238410046 0.172923754708646 0.216568909693251
0.104646007096682 0.172923754708646 0.220889739587355
0.11391192717575 0.172923754708646 0.234032662199657
0.109399396451724 0.172923754708646 0.244283187037559
0.102503093861036 0.172923754708647 0.253838851067468
0.100396614838406 0.172923754708646 0.271294259145052
0.107181359443868 0.172923754708646 0.276340880196247
0.109312272174007 0.172923754708646 0.281213550426978
0.100591007059741 0.172923754708647 0.29907951960649
0.103653323353897 0.172923754708646 0.310199772521925
0.10917876905972 0.172923754708646 0.310990410550485
0.108151587382142 0.172923754708646 0.31875496474057
0.102379559464703 0.172923754708646 0.336060910157682
0.110257793117879 0.172923754708646 0.33318610323963
0.104589869398742 0.172923754708647 0.349224556127794
0.103747357407961 0.172923754708646 0.356974537361258
0.106808248332595 0.172923754708646 0.366924529012711
0.101365395452724 0.172923754708646 0.387322037303022
0.10741442148225 0.172923754708646 0.391737619032496
0.0981846434967561 0.172923754708646 0.410283268324015
0.1096876423178 0.172923754708646 0.403536144722993
0.10451103077729 0.172923754708647 0.415331994566265
0.113636325856785 0.172923754708647 0.430076309781703
0.103538584799259 0.172923754708646 0.449268917965263
0.110748856421069 0.172923754708647 0.448202336301833
0.107539621609013 0.172923754708647 0.452999929611678
0.110433036675114 0.17213597563258 0.462747537904516
0.117726940607263 0.156384224856803 0.462747537904516
0.128717758081918 0.153186839776988 0.462747537904516
0.144148105562516 0.143216617390969 0.462747537904515
0.156447753996473 0.127881912105631 0.454638383324897
0.154616505022959 0.127178471469467 0.46136387230295
0.159579545259001 0.118799251456696 0.470618625048504
0.166282981157271 0.121699351683043 0.470108099756945
0.176804890590735 0.111217498774207 0.471953294955282
0.179312126570276 0.101765570657456 0.472573228755344
0.194036995715564 0.0948870403394274 0.471362352088325
0.382697793128742 -0.070634160281915 0.280169323654446
0.396459095253672 -0.0781246574997592 0.2799323280153
0.396459095253672 -0.0773197154907892 0.287624918203039
0.396459095253672 -0.0767355341512841 0.305720808190846
0.396459095253672 -0.0796117855040718 0.312192868312244
0.396459095253672 -0.0831951671878339 0.311156679823819
0.396459095253671 -0.0817334455537281 0.330205430190335
0.396459095253671 -0.0775886447815345 0.345731124571034
0.396847671247073 -0.083776129774576 0.347189976932355
0.401140878252226 -0.0840184621269771 0.358985466236057
0.405300959704086 -0.091229584232765 0.370415196088137
0.409625401049217 -0.0847468113500696 0.380825709117011
0.411442108904281 -0.0933957210017851 0.381874585886171
0.415967845738903 -0.106044667659133 0.384487521265921
0.427010700709407 -0.103626617828202 0.390863116555764
0.432139564693644 -0.110656418595136 0.393824267557699
0.441722207695514 -0.116157865256807 0.398488268265114
0.455828484369561 -0.137291239205731 0.396000951090141
0.459857797965161 -0.137123168102718 0.395290474389501
0.468283214830055 -0.149789838174002 0.393804846072504
0.123736608277999 0.172923754708646 0.0479808859046146
0.123972890893449 0.172923754708647 0.0559079579337757
0.128447885756407 0.172923754708646 0.0631958735254593
0.114965442367215 0.172923754708647 0.0791430264061791
0.118293600057286 0.172923754708646 0.0964779286012211
0.126313409264772 0.172923754708646 0.094185855293726
0.11814032309737 0.172923754708646 0.103234228683297
0.1199711001388 0.172923754708647 0.116639460535311
0.123705556098385 0.172923754708646 0.129202099704912
0.118710898290565 0.172923754708646 0.140172622234652
0.117799204550731 0.172923754708646 0.14571361161359
0.117611048423875 0.172923754708646 0.157544235649762
0.122313649057251 0.172923754708646 0.163424266369935
0.123014787006519 0.172923754708646 0.171936563595007
0.118265185307112 0.172923754708646 0.185738523078016
0.122631794701649 0.172923754708646 0.187631224997219
0.126824954628544 0.172923754708647 0.203999998284108
0.114465912599975 0.172923754708646 0.220118659247934
0.116523321771928 0.172923754708646 0.223755611178123
0.119370838444981 0.172923754708646 0.233490121733323
0.126217313470683 0.172923754708646 0.237691562365327
0.118522425379394 0.172923754708646 0.261223952965452
0.116110358226413 0.172923754708646 0.268821784120043
0.11922071643196 0.172923754708646 0.275160869539369
0.123441650747123 0.172923754708647 0.276731562185312
0.121514960955438 0.172923754708646 0.289143966804297
0.124880605587077 0.172923754708647 0.299291700534132
0.124709470994048 0.172923754708647 0.308625131491945
0.114502944290847 0.172923754708647 0.334200001264651
0.118288379091703 0.172923754708647 0.335651158754406
0.11521136421115 0.172923754708647 0.339965874879971
0.120558036338215 0.172923754708646 0.354285981481093
0.119712241638964 0.172923754708647 0.364223424206832
0.124077143568708 0.172923754708646 0.363403221867564
0.116890292959678 0.172923754708646 0.382695273485125
0.114477332591693 0.172923754708646 0.403717577622498
0.110863851834141 0.172923754708646 0.404554824170193
0.12466562719138 0.172923754708647 0.412918793923998
0.119517418435921 0.172923754708646 0.42204769200297
0.118884767266064 0.172923754708647 0.436049035100266
0.114804075592286 0.172923754708647 0.4420718368011
0.117512754590529 0.172923754708646 0.453517225189361
0.122774440414717 0.171936666044597 0.462747537904516
0.131271263077246 0.16181139479189 0.462747537904516
0.140419444843539 0.155099089428393 0.462747537904516
0.145584331653596 0.15366159493574 0.462747537904516
0.155017383043764 0.14635977050594 0.462747537904516
0.163358360698704 0.139665516430142 0.462747537904516
0.164796601989301 0.126546055197335 0.46374948814268
0.180161522819217 0.125236241423956 0.468690399094149
0.191384688947456 0.118811602488269 0.470616450808476
0.19213058192584 0.109609910069078 0.472236290241078
0.202639205843673 0.102358460645002 0.472677599401228
0.20476948866239 0.0937588009842948 0.471163740081576
0.396459095253672 -0.0729986458560595 0.274466857584559
0.396459095253672 -0.0596472951382807 0.302195480543401
0.396459095253672 -0.0656195371801757 0.30104710253817
0.396459095253672 -0.063333021404582 0.316998517463936
0.396459095253672 -0.0753700080053588 0.323936548953797
0.396459095253672 -0.0720103518695303 0.327780093171874
0.396459095253672 -0.0612067054299045 0.344167034661677
0.400741166465543 -0.0640256343086031 0.357887267127855
0.402455895612017 -0.0818142045308788 0.362598446738273
0.408666454879088 -0.0751865180018 0.37966181808674
0.410584013425076 -0.0805909075750321 0.381379164230262
0.41624729009539 -0.0817335819845605 0.384648858540362
0.420518694829868 -0.0863214484968994 0.387114955213631
0.429284444692996 -0.0926419679725564 0.392175863256756
0.433734445527324 -0.104950778388485 0.394745072436351
0.446069062200819 -0.105947770007088 0.397721800534614
0.454686493056533 -0.12092048264137 0.396202314970362
0.475050235417153 -0.139774505464651 0.392611637763989
0.127340391284116 0.172923754708647 0.0549186348632695
0.142798212833786 0.172923754708646 0.0472569306035242
0.135515712746186 0.172923754708646 0.0636299278489759
0.137949674786019 0.172923754708647 0.0731810002185786
0.128819696529834 0.172923754708646 0.0862645441478043
0.137392564056995 0.172923754708646 0.0955599536365896
0.135260346028499 0.172923754708646 0.10606122435234
0.131805174780986 0.172923754708646 0.123674144128853
0.137288856648984 0.172923754708646 0.124144105044601
0.133473713567453 0.172923754708646 0.136996427485306
0.136201100009245 0.172923754708646 0.141329530132971
0.134597052929567 0.172923754708646 0.155311274640665
0.143796799506113 0.172923754708646 0.154435329872148
0.136261008405938 0.172923754708647 0.179709417298325
0.135989059834393 0.172923754708646 0.185959288057391
0.138297783199664 0.172923754708646 0.195547407750719
0.127343935287992 0.172923754708646 0.211442455328987
0.135162629226319 0.172923754708646 0.218474545726423
0.133068555872564 0.172923754708646 0.226363619328108
0.136296299882592 0.172923754708646 0.234987816194232
0.134753461214072 0.172923754708647 0.246585574800432
0.1304994337259 0.172923754708646 0.263816810361473
0.13693825397761 0.172923754708646 0.261842351188236
0.133181499171685 0.172923754708647 0.276618051979581
0.129785923167086 0.172923754708647 0.287815355040333
0.134390665839836 0.172923754708646 0.299887894102451
0.143346175537941 0.172923754708646 0.293124894559079
0.129417872431493 0.172923754708646 0.312557019987208
0.137262027710442 0.172923754708647 0.317892183340596
0.127202939953852 0.172923754708646 0.338178638703001
0.135119492150014 0.172923754708646 0.341708611201735
0.144555586751403 0.172923754708646 0.344586591314232
0.128013206444986 0.172923754708646 0.367697980910876
0.129666597888604 0.172923754708647 0.381409096138181
0.129189667981138 0.172923754708646 0.385784647395653
0.130028070571151 0.172923754708646 0.39746397820087
0.135316917150881 0.172923754708646 0.40245762842185
0.142211208055239 0.172923754708646 0.413330670468758
0.140157024740887 0.172923754708646 0.416530264738876
0.131025750221961 0.172923754708646 0.428766325801868
0.133223303516927 0.172923754708647 0.450197717112049
0.141107443184647 0.172923754708647 0.451315264011903
0.139168446181067 0.1667367178578 0.462747537904515
0.141856190987439 0.163258282986812 0.462747537904516
0.152580883612449 0.164075519739033 0.462747537904516
0.167656666345686 0.144803538779873 0.462747537904516
0.165616404972254 0.145879579287061 0.462747537904516
0.178684033646282 0.140172244630368 0.462747537904516
0.182983785261825 0.126814321941132 0.462737525893327
0.193296731506726 0.124926564132222 0.469539990571763
0.193251435904966 0.118157668516624 0.470731567461515
0.210584051581919 0.108269524889338 0.47247224778781
0.223277606692524 0.100732965636824 0.472391451941414
0.220735758457282 0.0989605452379425 0.472079440158965
0.396459095253672 -0.0576956450675405 0.296665688232489
0.396459095253671 -0.0556760334349992 0.305349760551996
0.396459095253672 -0.051943890833768 0.318745289781677
0.396459095253672 -0.0456807733260377 0.33902728824193
0.396459095253671 -0.0568017966439557 0.344882324244435
0.399847506853574 -0.047817999287548 0.355431957523291
0.39928561173041 -0.0589472185237624 0.353888163360296
0.405182012370913 -0.0684417824892136 0.370088390976137
0.408231561957461 -0.0592939008962499 0.378466959604687
0.414827398860646 -0.070930358917239 0.383829083953763
0.420261555275328 -0.0655029576122171 0.386966495622598
0.427839199028961 -0.0843062010428441 0.391341450283581
0.436613335832048 -0.0821570454104797 0.39640720052875
0.449239087488182 -0.0946811899870023 0.397162839546924
0.455227784347476 -0.105348691783209 0.396106870711346
0.472210800227503 -0.120283222939273 0.393112306797897
0.147364785424176 0.172923754708646 0.0505568276875142
0.154615589581865 0.172923754708646 0.0664291737903857
0.147253722226543 0.172923754708647 0.0738297942809234
0.143936176257016 0.172923754708646 0.0914364804839913
0.145784243230268 0.172923754708646 0.104480975150089
0.155142101073886 0.172923754708647 0.0991292684445427
0.15390367563958 0.172923754708646 0.111154752292727
0.148931581316488 0.172923754708646 0.125184192151168
0.160445006684662 0.172923754708646 0.127921852645054
0.14791060413828 0.172923754708646 0.151571632354336
0.152199410498096 0.172923754708646 0.149349983492209
0.151968400907031 0.172923754708646 0.172903143181859
0.160587051515036 0.172923754708647 0.168499035617199
0.14342441154569 0.172923754708646 0.189750194218558
0.149096403091436 0.172923754708646 0.193665323732744
0.148966757665971 0.172923754708646 0.20166083439781
0.151292912348709 0.172923754708646 0.218589195473921
0.14034435467304 0.172923754708646 0.234010983822064
0.152731183581685 0.172923754708646 0.235569538556724
0.153086213538324 0.172923754708647 0.236694249619796
0.152004066149382 0.172923754708647 0.252316816802324
0.152548189209706 0.172923754708646 0.263558450916863
0.144774021602178 0.172923754708646 0.281108259854555
0.150187149253674 0.172923754708646 0.286572665423757
0.145641755358338 0.172923754708646 0.294100935808533
0.154857294671284 0.172923754708646 0.302279783806037
0.154635579290469 0.172923754708646 0.306399415778514
0.153062460191878 0.172923754708646 0.328858756890096
0.151315361378716 0.172923754708646 0.33127643141497
0.149441626802704 0.172923754708647 0.341935653083907
0.150165942101642 0.172923754708646 0.362003228847169
0.150319952723463 0.172923754708647 0.367753133312583
0.146884995840051 0.172923754708646 0.378643017466179
0.160886720727729 0.172923754708646 0.378339238142001
0.1530385925576 0.172923754708646 0.393891886265503
0.154635504365004 0.172923754708647 0.402722819348528
0.146099655179041 0.172923754708646 0.419904085020772
0.147123264221533 0.172923754708647 0.434053859105822
0.156483367450152 0.172923754708646 0.42349566429582
0.146692964968114 0.172923754708646 0.442657192686008
0.160350014737045 0.172923754708647 0.443553344870922
0.157242254846482 0.172923754708646 0.458632485709676
0.163211620447921 0.165560999899787 0.462747537904516
0.169458317944547 0.160049809914686 0.462747537904516
0.176048205349865 0.151889348479344 0.462747537904516
0.191713880662875 0.129002898130522 0.454481726265879
0.19735496919228 0.13648854599405 0.462747537904516
0.208201934334539 0.126782048366523 0.462859269046035
0.207556159253123 0.125597203019121 0.46732877110179
0.213855277654069 0.113534109307634 0.471545485508816
0.217810296969489 0.106772869975712 0.47273571460844
0.22635885586137 0.102236257510559 0.472656087113386
0.24884275442515 0.0881630712101351 0.470178683927834
0.255671403063878 0.0863497779706396 0.469859477008236
0.396459095253672 -0.0367021575200512 0.332276738880243
0.396459095253671 -0.0413785417430739 0.342213550859997
0.398386916362883 -0.0440604394558804 0.35141901813105
0.40183634164263 -0.0426925463937083 0.360896236197248
0.406463972325528 -0.0484610718354014 0.373610547004087
0.404687864333159 -0.0506800235052082 0.368730730400541
0.412662252507794 -0.0493385303867441 0.382579036124109
0.419180170823655 -0.0637389068721484 0.386342158018328
0.424085419140173 -0.0569759652278053 0.389174204454311
0.435521947041829 -0.0708254030233068 0.395777086916927
0.444744531203101 -0.0833464616627599 0.397955351086297
0.457032992462967 -0.0911575482934751 0.395788563814791
0.466643652424531 -0.0938277606276497 0.394093945161153
0.157379253658568 0.172923754708646 0.0439320329320968
0.160486320976688 0.172923754708646 0.0557812303469132
0.158551959634496 0.172923754708646 0.0593221826227883
0.173753503080815 0.172923754708646 0.0647630679001115
0.173534413289215 0.172923754708647 0.0692886167201811
0.167005312652406 0.172923754708647 0.0851007343370872
0.164006527897515 0.172923754708646 0.10015361495568
0.162157797853289 0.172923754708646 0.11329095673554
0.16650829339025 0.172923754708646 0.108655717881058
0.155673370470497 0.172923754708646 0.12955205601482
0.16373362456198 0.172923754708646 0.136344428731463
0.162390859001539 0.172923754708646 0.144145737709771
0.165260790987989 0.172923754708646 0.151410736103403
0.161032704618236 0.172923754708646 0.168583499564162
0.160698337538472 0.172923754708646 0.180435266968205
0.165146330420002 0.172923754708647 0.182460143562677
0.158849805251662 0.172923754708646 0.198417824161076
0.161241048410979 0.172923754708646 0.210442134920805
0.169960510241432 0.172923754708646 0.208645996664717
0.169858668689219 0.172923754708646 0.216736280137235
0.170496256767013 0.172923754708646 0.229381200842607
0.160313108667749 0.172923754708647 0.25150701587061
0.164403744741712 0.172923754708646 0.257686538936928
0.163616974551749 0.172923754708647 0.265044453279364
0.174668633108311 0.172923754708646 0.271986761572099
0.162609539712145 0.172923754708646 0.292423640250244
0.159952950452392 0.172923754708646 0.296869169275664
0.166608194731244 0.172923754708647 0.302431992624764
0.165401334617602 0.172923754708646 0.317404571928386
0.162310241884528 0.172923754708647 0.32634759259136
0.172223427117992 0.172923754708646 0.327694336106225
0.164358567436997 0.172923754708647 0.351646887764072
0.172694325033119 0.172923754708646 0.34306511869124
0.173050776951416 0.172923754708646 0.357006391375203
0.16954944805523 0.172923754708646 0.368835333822382
0.163872525616418 0.172923754708646 0.387737749636987
0.159073477783697 0.172923754708646 0.403627937925376
0.17327139842311 0.172923754708646 0.402103294643831
0.163806414597417 0.172923754708647 0.422489496564939
0.164962274210046 0.172923754708646 0.433793753611773
0.16303104416594 0.172923754708646 0.441323324242703
0.167262030208579 0.172923754708646 0.44129055342409
0.169993815317909 0.172923754708646 0.450181655361245
0.171987328794703 0.168459068428082 0.462747537904516
0.172321781024196 0.163516108369427 0.462747537904516
0.183485159687277 0.153330563637184 0.462747537904516
0.191309784860936 0.145886661491312 0.462747537904516
0.199833205924024 0.142184226638236 0.462747537904516
0.225014672565292 0.128663891394727 0.455760535610808
0.216233269601848 0.126875985008534 0.46250491899056
0.228034479779208 0.12604078852639 0.465655467205219
0.233380471633704 0.111989444658097 0.471817403825086
0.242939857122467 0.112838889578352 0.471667869987726
0.252278199384276 0.0998903538088048 0.472243120981932
0.264357089402732 0.0880176953683811 0.470153092383334
0.396459095253672 -0.0270390895828313 0.334683674922871
0.39659942676551 -0.0323412947458139 0.346507930824756
0.401708283065436 -0.0248540887306469 0.360544398148041
0.403748896544529 -0.025611099707285 0.366150937603687
0.405596706091349 -0.0358425029605681 0.371227752609026
0.409078906488 -0.0381264761413193 0.380510190334981
0.414994839337331 -0.0408981808803503 0.38392575575805
0.419271572404814 -0.0456759862817649 0.386394928745814
0.430226997642657 -0.0545905114373625 0.392720046455969
0.43799042110861 -0.0559993426454809 0.39720226108387
0.445410041540558 -0.0604519780889224 0.397838003657863
0.468807449477473 -0.0821123923275724 0.393712409359942
0.17807123682938 0.172923754708646 0.058574720245021
0.178815447599528 0.172923754708646 0.0638275396956696
0.177629964946426 0.172923754708646 0.0725265893986791
0.17778734790628 0.172923754708646 0.0823644450854216
0.183293739095253 0.172923754708647 0.0898175357952088
0.18571064815913 0.172923754708646 0.0961702958844037
0.181414004416696 0.172923754708647 0.10519967328864
0.178544145776662 0.172923754708646 0.120283948949865
0.18229416210382 0.172923754708646 0.122808757877493
0.178993953230143 0.172923754708646 0.147681564220928
0.17996029012603 0.172923754708646 0.16026942523818
0.178046578770505 0.172923754708646 0.162512203470001
0.184202086856328 0.172923754708647 0.17086195011155
0.183353365336335 0.172923754708646 0.182596543034415
0.183658178468681 0.172923754708646 0.193144074543015
0.187550125179507 0.172923754708646 0.199890259525885
0.183456621012401 0.172923754708646 0.211227361242419
0.186406181861001 0.172923754708646 0.224024241974495
0.181152488606853 0.172923754708646 0.235503122254501
0.183989843908988 0.172923754708647 0.24006278632683
0.182501295587326 0.172923754708646 0.254162732922815
0.177475178734976 0.172923754708646 0.267908113030972
0.176109786345077 0.172923754708646 0.270690487424307
0.184115186067868 0.172923754708647 0.274268987798696
0.17448443219112 0.172923754708647 0.29896592529113
0.185300349442312 0.172923754708646 0.2992666025462
0.18176948712141 0.172923754708647 0.314388478223258
0.178029386260683 0.172923754708646 0.333173154175604
0.178799900003452 0.172923754708646 0.340880859300198
0.176293727730292 0.172923754708646 0.35123941910397
0.18455178672544 0.172923754708646 0.355384325580568
0.18032851839165 0.172923754708647 0.365204659143729
0.187002156411545 0.172923754708647 0.370790340364575
0.177701203702694 0.172923754708646 0.38503948298853
0.179648359786478 0.172923754708647 0.392286273073108
0.18220572002262 0.172923754708646 0.396817600857852
0.18054412280389 0.172923754708646 0.412126138318308
0.174058712592943 0.172923754708647 0.432912928870662
0.183077493120348 0.172923754708647 0.441459242476242
0.188304813452471 0.172923754708646 0.437043633080316
0.187706680590955 0.172923754708646 0.452409079861417
0.177441929590291 0.172077312063263 0.462747537904516
0.196924069891641 0.162642774503223 0.462747537904516
0.210596608646462 0.15399850371856 0.462747537904516
0.207764017078114 0.148701883630546 0.462747537904515
0.222464639670468 0.140845687247367 0.462747537904516
0.23855650152865 0.12798392386947 0.458325525428804
0.231741593935198 0.125306300269562 0.468426121435342
0.245244179798795 0.121378479854052 0.470164585109611
0.243537447558252 0.11114025640778 0.47196689247901
0.257790855059521 0.112950053585629 0.471648300996037
0.263417944265587 0.105388784936647 0.472979364952552
0.275012910616157 0.0893959181664699 0.470395710755428
0.398806136221027 -0.0144340556728044 0.352570815225086
0.403030979335273 -0.0151017962170712 0.364178476282215
0.407808074113685 -0.0176931618210053 0.377303436316498
0.407123222339441 -0.0164297723317948 0.375421821531088
0.420002599324847 -0.0275810982220751 0.386816987334879
0.422933464392659 -0.0377491959226236 0.388509123070739
0.421985359700562 -0.0364973472978273 0.387961734571538
0.436966487076956 -0.0430262519857289 0.396611092495062
0.438134743261069 -0.0470481192824203 0.397285585517443
0.46401492012768 -0.0653259165924538 0.394557461590147
0.460971768423587 -0.0655281331934645 0.395094051341968
0.200362916380629 0.172923754708646 0.0560639819185222
0.201657740185285 0.172923754708646 0.0595823414687645
0.194413332236149 0.172923754708646 0.0738125888450365
0.205765712391827 0.172923754708646 0.079933228927532
0.204032065558478 0.172923754708646 0.0891331311151806
0.20632866839753 0.172923754708646 0.0933692584112968
0.193763677214587 0.172923754708646 0.114273674140266
0.192101485719208 0.172923754708646 0.120467772088425
0.201036203256715 0.172923754708646 0.130783965517
0.194510468383829 0.172923754708646 0.137487594154768
0.196795068794152 0.172923754708646 0.147216552002162
0.197233916882892 0.172923754708646 0.16510531085675
0.197315211040527 0.172923754708646 0.173559785617227
0.203423834510497 0.172923754708646 0.175467864054568
0.201133548695675 0.172923754708646 0.188191594451952
0.196789908182234 0.172923754708646 0.212119815704672
0.191301136364536 0.172923754708646 0.217557554708605
0.192692904258117 0.172923754708646 0.230433884186041
0.201140427038225 0.172923754708646 0.232773215162155
0.197370527197427 0.172923754708646 0.251908435872537
0.196897360121943 0.172923754708646 0.253687845569543
0.196831638183475 0.172923754708646 0.257061100632438
0.197116766689023 0.172923754708646 0.27551999137788
0.201095350670564 0.172923754708646 0.283162198991942
0.194114699631305 0.172923754708646 0.297623186663609
