ply
format ascii 1.0
element vertex 878
property float x
property float y
property float z
end_header
-0.405394803220304 0.0729335996638007 0.535215174624377
-0.403331243165967 0.0772674265943037 0.534023777671517
-0.381844234639944 0.101085885453447 0.521618247514938
-0.378875959400667 0.107450495324607 0.519904513006513
-0.379162720054302 0.112465222413973 0.520070074347082
-0.376996527954225 0.111391082949034 0.54234759281488
-0.377952985972475 0.112649454283258 0.538454168123246
-0.378734216503655 0.109769139250981 0.564166239302129
-0.379306665029866 0.109864547338683 0.566169765094005
-0.384514974086157 0.110732598848064 0.574527513892557
-0.382940141306667 0.110470126718149 0.580666499396656
-0.373281985016064 0.108860434003048 0.587042408678291
-0.380575348593478 0.110075994599284 0.604397515879266
-0.373681543674162 0.108927027112732 0.608243514806569
-0.381525244219214 0.110234310536906 0.615928316122001
-0.381639022710038 0.113124818599479 0.632388292908778
-0.372936292676585 0.113458642213608 0.633647550357765
-0.37451791578227 0.115833298990362 0.639725094393083
-0.364546750042691 0.130747034806597 0.642350465494617
-0.366107873346816 0.132030591921764 0.642576419192526
-0.347455704252724 0.143718627488115 0.644262551844762
-0.342967533396824 0.152984684164658 0.642631381913665
-0.344263732711735 0.163443744638692 0.640790199029909
-0.33001266832841 0.167720470095911 0.640037336597388
-0.314797139113693 0.196662050235871 0.63035269944335
-0.307753051011815 0.197731119703952 0.63035269944335
-0.297933260456178 0.207205954563687 0.63035269944335
-0.291723120909784 0.223240342231231 0.63035269944335
-0.281028007054771 0.235012929007879 0.63035269944335
-0.415214642110665 0.0763651789749934 0.230636819664167
-0.41623556552911 0.0725871081083661 0.242696850854139
-0.417357705123098 0.0760940020226416 0.255952535128289
-0.417519154504218 0.0768678820339119 0.257859714978147
-0.418669399264519 0.0814116000323163 0.271447401806269
-0.419966969560286 0.0763389253726883 0.286775425392957
-0.420354872862596 0.0696578718727624 0.291357674991734
-0.420920878040954 0.0689518177009497 0.29804381812584
-0.422367837862706 0.0683703110777971 0.315136560113805
-0.5 -0.0306585730533183 0.452291794304681
-0.5 -0.0334835744660997 0.454567948108393
-0.5 -0.0249841557829567 0.455640026039832
-0.5 -0.0318850652380845 0.475081666598094
-0.5 -0.0249305153522311 0.480057587463158
-0.5 -0.0310144951017001 0.487952805804271
-0.5 -0.0259006196353294 0.495021206286916
-0.496354023779178 -0.0187234598221036 0.500701190214931
-0.492040935508664 -0.0233910215698481 0.505841328656492
-0.491263591194041 -0.0170660492351621 0.506767731536128
-0.486845844928685 -0.0172216647677673 0.512032596519036
-0.482367198566715 -0.00431808979865356 0.517370039410871
-0.481018414399365 -0.00179696356414822 0.518977457787945
-0.478700821966054 -0.00143252982423613 0.521739456896513
-0.473644040972676 -0.000838068774089001 0.527765893812333
-0.469500547027661 0.00622722737477275 0.532703917607197
-0.469620215239045 0.013596418473504 0.532561302586361
-0.462063713292296 0.0169263962504464 0.535510339623394
-0.460925152125052 0.0270053049445834 0.535711098676365
-0.454002049417038 0.0385039484316183 0.536931828474004
-0.445562861882801 0.0434549436454415 0.538419884931548
-0.436055569129914 0.0476780791580858 0.540096277157377
-0.436843700985368 0.0573389650490287 0.539957308246904
-0.4293068901653 0.0589427397887328 0.541286251342977
-0.421227385754198 0.0659611957885414 0.542710885961408
-0.412723899729494 0.0799660131854228 0.539446630466875
-0.405696893875854 0.0957552289007236 0.535389586745679
-0.383717615357081 0.119810678513026 0.522699844376271
-0.384313043459989 0.125191639813485 0.523043614951768
-0.393263169353269 0.11387198026179 0.543163184222248
-0.389503008901507 0.111563937983956 0.554705243444621
-0.394653298319855 0.11242231955368 0.564311556174518
-0.39410728872869 0.112331317955153 0.574345062937573
-0.393484859119486 0.112227579686952 0.581616675604491
-0.38861998536805 0.111416767395046 0.592439565607621
-0.394008498884646 0.112314852981145 0.59932860833971
-0.388555166879828 0.111405964313676 0.608876130992532
-0.390194616293635 0.111679205882644 0.615719585282572
-0.385318644343596 0.110866543890971 0.62290146464942
-0.394222265134553 0.112941821835051 0.631697988122082
-0.383341146632496 0.116168039802217 0.639784021201549
-0.380175116609874 0.129276440294351 0.642091586271993
-0.377351183051418 0.132595228211752 0.642675816138864
-0.364587715619209 0.135956122376783 0.643267458268302
-0.358355863876417 0.149957729116388 0.643164238362733
-0.357516151029519 0.159936645144802 0.641407578724367
-0.351568622732033 0.165820549440953 0.640371793157716
-0.327503080941521 0.195070436749221 0.63035269944335
-0.321045577488856 0.196475434099233 0.63035269944335
-0.318128490647827 0.203590106248279 0.63035269944335
-0.305544884336991 0.213908519580171 0.63035269944335
-0.30235329348852 0.228502036095822 0.63035269944335
-0.414782693294964 0.0896692351557121 0.225534266332825
-0.41582532844277 0.0895606991700636 0.237850775264958
-0.415908174873688 0.0868995723605189 0.238829429023694
-0.415798049010462 0.101438972974282 0.237528526995859
-0.417881441713327 0.0871364638478756 0.262139365109228
-0.418617306896835 0.0932352780469041 0.270832041664965
-0.420438155555132 0.0802127214286629 0.292341482250364
-0.421356835661438 0.0836730595141033 0.303193726929526
-0.420566528541934 0.0868984972110515 0.293857935097659
-0.422156725589945 0.0818924080651232 0.312642719196764
-0.422475604872863 0.0955893932386958 0.316409597327234
-0.5 -0.0156404003837918 0.457210279449762
-0.5 -0.0142865753608143 0.464710528476321
-0.5 -0.0143067897651488 0.474001898803727
-0.5 -0.0225990146374023 0.480028809223819
-0.5 -0.0151335092637308 0.484441994102241
-0.497479175989012 -0.0114202723921118 0.499360286026646
-0.497383635251025 -0.0128788660877134 0.499474147044382
-0.492951395590855 -3.02325284545304e-005 0.504756284582627
-0.490696307565591 -0.0051101637454182 0.507443793838353
-0.488741043328755 0.00250241598861277 0.509773987017073
-0.485729029534156 0.00680712455687055 0.51336356527773
-0.479450990060482 0.0114862955779921 0.520845441374929
-0.47734456114262 0.0148585321103244 0.523355785605335
-0.472823249428869 0.0199362872705769 0.528744075083437
-0.472501838477678 0.0193433633049855 0.529127117739217
-0.470194095600345 0.0259999932777791 0.531877378604063
-0.461475622279179 0.0331539188868633 0.535614035936117
-0.458320490874108 0.041526735163447 0.536170370730512
-0.45349222209564 0.0492503912127889 0.537021724786268
-0.442358465245166 0.0631596307876406 0.538984906515655
-0.432924363697113 0.0693264967550008 0.54064839315732
-0.428705281113122 0.0709558244275562 0.541392331250715
-0.429392690016221 0.0785712636689369 0.541271122514319
-0.421658459070217 0.092398571089454 0.542634876105131
-0.421384274232437 0.0898349587772572 0.542683222289732
-0.41442456975519 0.104327030088012 0.540428512764013
-0.396822093289043 0.118193308409686 0.530265718237879
-0.405907333560913 0.114297992093857 0.550247360263454
-0.404317648135049 0.114033044522879 0.554978682411709
-0.400477080494754 0.113392949916163 0.57549331692518
-0.403752087077984 0.113938784346702 0.575946509337791
-0.406845404315921 0.114454337219691 0.590985179627683
-0.406044460063724 0.114320846510991 0.594364716648172
-0.405082646669856 0.114160544278681 0.606248960321273
-0.396577644440877 0.112743043907184 0.61137700354392
-0.402556437480736 0.113739509413827 0.619680444269295
-0.394309834213642 0.112398983343853 0.629650279737462
-0.401815618124465 0.114644088485647 0.63811931923586
-0.392534373862838 0.128747140180137 0.641998409804271
-0.391175789294565 0.131826764736126 0.642540538041789
-0.381645659767169 0.142383812777615 0.644398970374717
-0.376753485829346 0.145745628504078 0.643905724423675
-0.366739633694191 0.152629522800023 0.642693903497431
-0.361049582712492 0.164812136925124 0.640549311192775
-0.341115280634662 0.188558973623123 0.63035269944335
-0.343109386958207 0.193631211293235 0.63035269944335
-0.330069115374778 0.211069801614728 0.63035269944335
-0.326749957548815 0.211589565670751 0.63035269944335
-0.314335738493556 0.22193588983533 0.63035269944335
-0.412365442943521 0.120085147127042 0.196979612667656
-0.414039649619988 0.111824753828932 0.216756791221752
-0.414359190245119 0.106786306169972 0.220531481698938
-0.415706928378869 0.102584943308036 0.236452131216105
-0.415774562897953 0.110818060202961 0.237251088703947
-0.418331725719401 0.0985551785919235 0.267458509581277
-0.417971654935695 0.108502922565086 0.263205041785708
-0.419160404627864 0.103679463046636 0.277247582201185
-0.419665470181959 0.113419832361787 0.283213853740577
-0.420724859970392 0.0998995356782923 0.295728282991595
-0.422471056289993 0.097413645262105 0.31635586552886
-0.422882127323748 0.0958412143118285 0.321211792426806
-0.5 0.000387526670876534 0.449639937491481
-0.5 0.00296562487809655 0.457554606172268
-0.5 -0.00290655814798713 0.47424033312049
-0.5 0.00268143465582186 0.482124923396787
-0.5 -0.00160681670842142 0.484736128543567
-0.5 0.000992878937033481 0.495755479032168
-0.5 0.0061143502405177 0.494955627248319
-0.492782111704149 0.00735392829320282 0.504958029262779
-0.490653094912391 0.0104902968738557 0.50749529267305
-0.485603915841634 0.0189493461892283 0.513512669970274
-0.485627772640996 0.0213516307584307 0.513484238543928
-0.47998495452419 0.0246968515807163 0.520209087306987
-0.474628282563011 0.0272347690831221 0.526592920361072
-0.475000737981949 0.0334748476555518 0.526149045277471
-0.466326952606662 0.0357018679635107 0.534758615507053
-0.471155976324887 0.0446914931476325 0.530731053794943
-0.458299541330905 0.0503236279938678 0.536174064700212
-0.458264889248503 0.0554652975300756 0.536180174797278
-0.451646401998401 0.0678204181456529 0.537347192670945
-0.442921790761927 0.0704840455530601 0.538885577028128
-0.436160959528359 0.0777643241321688 0.540077693986623
-0.436374731525332 0.0839376090378228 0.540040000215837
-0.428043619717521 0.0918258161076135 0.541509000006853
-0.421076662087464 0.104936296930263 0.542737462610485
-0.408461569732405 0.117286409145571 0.53698577309568
-0.410764267126706 0.120872787842683 0.538315236056143
-0.407512448716018 0.114565511286374 0.551348061064466
-0.41050066145008 0.11578732874825 0.561437088567938
-0.408210769321858 0.114681898054014 0.574284019915468
-0.40945452855079 0.114889191258836 0.585361873722166
-0.410357378444908 0.115208571300467 0.591582234381224
-0.407365161624716 0.114540963437824 0.600034437613634
-0.409724867978841 0.114934247830178 0.60587788258188
-0.411378112225099 0.119331581400509 0.612108902355279
-0.410640511782568 0.1163522207353 0.633739330403702
-0.411429900265577 0.119540766810161 0.63135378019642
-0.410551768605426 0.116662050363755 0.639870985398051
-0.397999044301804 0.134910032717367 0.643083307657396
-0.392709090666378 0.135839547742741 0.64324693680546
-0.3819649290102 0.147301092558046 0.643631905011351
-0.379170231914602 0.153372406970871 0.642563128307501
-0.362369513987679 0.184656133174363 0.625998583471631
-0.359231793643306 0.187988815765896 0.63035269944335
-0.352758743948443 0.19022286662632 0.63035269944335
-0.339542301896932 0.211320680029041 0.63035269944335
-0.340503157410409 0.216514083978924 0.63035269944335
-0.324441485229923 0.226172318923325 0.63035269944335
-0.411511840089251 0.130409367922424 0.186896116824229
-0.412190877042268 0.134252075494126 0.194917489127552
-0.41354819110516 0.127141971230982 0.21095125780924
-0.41401810978236 0.13377285428661 0.216502344013539
-0.416405714570781 0.122442900869597 0.244706798625363
-0.416612399358278 0.115067900707574 0.247148338253773
-0.417125526770188 0.122651361273092 0.25320984343649
-0.419191349246357 0.112640133110283 0.277613126822312
-0.419976861467859 0.11870352508261 0.286892277168224
-0.420100919621159 0.114621118909806 0.288357759467035
-0.421063282350624 0.123095753940364 0.299726021105198
-0.422932295928538 0.110812532330676 0.321804427415481
-0.422268764493245 0.117592049302971 0.313966219710005
-0.5 0.0113227094080319 0.457721779225642
-0.5 0.00964052536460482 0.465785329107299
-0.5 0.0158654826797993 0.462848666115079
-0.5 0.0128399678155033 0.477822019051275
-0.5 0.0158710361060526 0.486340460295269
-0.5 0.0181857709230302 0.48994701828592
-0.493968084478541 0.0178198170141394 0.503544641948178
-0.497593375275264 0.0235742966128828 0.499224188616984
-0.493306151853776 0.0231280699420695 0.504333502531797
-0.489092870845362 0.0342889157968591 0.509354695310182
-0.485883010504433 0.0386099475746474 0.51318005790321
-0.480606759979684 0.036508003236574 0.519468048421507
-0.476886728680082 0.0440210624804302 0.523901409087371
-0.473881839184651 0.0484773724557988 0.5274824969389
-0.467477200858487 0.0487272648424946 0.534555795705744
-0.467839463014632 0.0582040352954906 0.534491919113526
-0.463220256968214 0.0650437771199451 0.535306409768961
-0.458905186622177 0.0736971788390145 0.536067273094622
-0.451393156624781 0.0776237762315336 0.537391846663054
-0.440553502658722 0.0860297401710226 0.539303170118814
-0.441950719922643 0.0894746407290751 0.539056803017273
-0.431738470331958 0.106677823889517 0.54085749815384
-0.424268662135938 0.107440723177797 0.542174626879516
-0.422896440349936 0.111880364232646 0.542416586603904
-0.411119546514605 0.122370548854801 0.538520356706383
-0.412163350831257 0.134458463099108 0.539122997409583
-0.404550351300845 0.14516846138158 0.53472763008136
-0.414061973748553 0.130172398451014 0.560477622858603
-0.411890186116961 0.121399981476112 0.581765006901255
-0.412777444022993 0.124983847689719 0.58566434567391
-0.413728312298237 0.12882465278378 0.595994686879705
-0.412479273238101 0.123779458081473 0.60876705321218
-0.414995720677502 0.133944045959554 0.609038351063123
-0.412710637010631 0.124713996733409 0.627593338938597
-0.412586190296725 0.124211323981407 0.632686142465334
-0.412174365421717 0.126426935962884 0.641589967736053
-0.406969142714174 0.131382672845334 0.642462361384319
-0.401368197078337 0.142066601347834 0.644343129388187
-0.398605722137293 0.151113731751772 0.642960738988087
-0.372468168704996 0.184656133174363 0.625303745508039
-0.364912639354678 0.188145601935078 0.63035269944335
-0.367617785474014 0.194057990150982 0.63035269944335
-0.359123402990967 0.207119822175905 0.63035269944335
-0.344550808817104 0.214189951709318 0.63035269944335
-0.342193754629353 0.227422034464638 0.63035269944335
-0.336862445658324 0.232383407773848 0.63035269944335
-0.410510798721043 0.154382974755831 0.175070949622738
-0.412474060892541 0.139068944148586 0.198262701907555
-0.412788665577031 0.148082338464943 0.201979084781058
-0.413082731614008 0.146298710144234 0.205452847370668
-0.414499599370463 0.145682229194843 0.222190115833892
-0.415046854222685 0.141402857219881 0.228654763884288
-0.415475308004048 0.147090435015925 0.233716030844513
-0.418138559345576 0.129044675850607 0.265176661157484
-0.418112850585297 0.141437448258683 0.264872967026059
-0.419286566075355 0.132452340240192 0.278737910431719
-0.420046326344828 0.131590987583344 0.287712856427851
-0.420991382613999 0.13809674486449 0.298876679175547
-0.421121267001233 0.129958519242554 0.300410985993108
-0.422249037578804 0.131805452207682 0.313733188319849
-0.5 0.025227814567067 0.451739746827563
-0.5 0.0204139336735254 0.463583937517341
-0.5 0.0299950227918147 0.467351139858885
-0.5 0.0300274256837162 0.468287651096284
-0.5 0.0208548370089283 0.492704113122325
-0.49799632385716 0.025654092158903 0.498743973196879
-0.4983822609619 0.0326749193793631 0.498284031265789
-0.492012443493153 0.0294055359801764 0.505875284118339
-0.491131640523335 0.032507259249542 0.506924984221987
-0.490591702974229 0.0475290695559579 0.50756845673591
-0.485141416894599 0.0563808529580922 0.514063854751975
-0.479756206438815 0.0546713949338658 0.520481698659531
-0.480455082635726 0.0591356756429874 0.519648810441085
-0.477372964621394 0.0615986390791417 0.523321935657463
-0.468582925728126 0.0614434596117898 0.533797496087558
-0.470294993421606 0.0747445601901692 0.53175713326309
-0.464981883789859 0.0760042223264985 0.534995787430365
-0.454547481159592 0.0834476540361968 0.536835654141657
-0.456502980969516 0.0890404056597965 0.536490846764397
-0.449757923426451 0.094521798780824 0.537680182395671
-0.442146244531114 0.109302093921423 0.539022326753408
-0.431144901089334 0.114567418066316 0.540962160426233
-0.429519682381487 0.121939580818488 0.541248730333979
-0.424545084282773 0.130449022004405 0.542125886196963
-0.415663037104714 0.138782332954675 0.541143542221643
-0.415894916445331 0.137576132312157 0.554852846425555
-0.416032591638276 0.13813223834299 0.56395564982597
-0.415465899042757 0.149484279353685 0.559323621402285
-0.416022673384068 0.138092175926065 0.578346126048719
-0.41667625354449 0.14073215674663 0.588807012569891
-0.415942680879929 0.137769065327695 0.601179456045306
-0.416691667638684 0.140794418295406 0.602303994386268
-0.416280513352694 0.139133658843031 0.623870206012682
-0.415403676592226 0.135591886355769 0.634475675361453
-0.416876848365084 0.141542411572497 0.639903352343902
-0.411313934005325 0.146340564107515 0.64380099367346
-0.412449574942068 0.143120540449067 0.644367837364626
-0.401940815793658 0.161878135091674 0.641065804425611
-0.394664019525854 0.16937809394467 0.639745533269009
-0.374750506660725 0.187447094798934 0.63035269944335
-0.372915075915326 0.193122795606647 0.63035269944335
-0.369982469335645 0.205126130878017 0.63035269944335
-0.360636513815749 0.213336618224215 0.63035269944335
-0.409642326904932 0.159363471910154 0.164811808730597
-0.411582563411555 0.149821628934753 0.187731561929549
-0.411879287663169 0.159215167988715 0.191236725651554
-0.412694488453137 0.160410602891989 0.200866583068365
-0.413456371297652 0.155976094952395 0.209866602758334
-0.41442908586613 0.147167565095831 0.221357149280078
-0.415127127183979 0.157022045820942 0.229603017592086
-0.415985884474239 0.159529595110274 0.2397474020954
-0.417221938946487 0.146848016530545 0.254348747522968
-0.417969654032622 0.156644973891824 0.263181405386508
-0.418994112296861 0.148088351381387 0.275283193234971
-0.420241784009727 0.142871749189695 0.290021771565286
-0.420186742102511 0.152007424733064 0.289371568909748
-0.421400344197748 0.150796702696462 0.303707687423968
-0.422419316895152 0.149464018008962 0.315744675008338
-0.5 0.0437846360391759 0.448482591215153
-0.5 0.0389568016269582 0.460727920419566
-0.5 0.0375275480575441 0.464391904976005
-0.5 0.0407069153545204 0.469490711737677
-0.5 0.0438682043684572 0.478907437366158
-0.5 0.0441905938142287 0.494971441861422
-0.49893633219166 0.0458826352528859 0.497623714887171
-0.493722784377487 0.0554888121243287 0.503836979224872
-0.491344443084508 0.049152036554494 0.506671376005196
-0.488249770567587 0.0650316647303451 0.510359463095138
-0.481932755352888 0.0637242203990604 0.517887788671729
-0.484383051307239 0.0723167705565548 0.51496763966521
-0.476082675222261 0.0681963659827769 0.524859642684367
-0.476565850194391 0.0815310858976283 0.52428381717548
-0.471226715563839 0.0800373472079677 0.530646750052784
-0.470833991354368 0.0865636666626062 0.53111478054032
-0.467128108144195 0.0904983781792393 0.534617350170042
-0.451902512301037 0.104141554949558 0.537302033514553
-0.445826797463355 0.111149318583098 0.538373345967528
-0.443675094318812 0.115407742862883 0.538752749286386
-0.446230734157294 0.115614396343346 0.538302121029888
-0.43351072647014 0.135170526671574 0.540545001579952
-0.433160353824328 0.138712305140591 0.540606781730711
-0.425945497787187 0.143605355935556 0.541878955511987
-0.412599484820125 0.155979633889291 0.53937479948546
-0.415424697849737 0.149650701723802 0.551077977019834
-0.415279470163313 0.150237314246629 0.564163708904142
-0.415171537975756 0.150673280517218 0.573181849481913
-0.412512333211388 0.161414502483558 0.577149311744576
-0.411971128219655 0.163600570673337 0.582010440961647
-0.413859970163724 0.155971045165396 0.59557031613572
-0.41078134517741 0.16840641485645 0.596764679764265
-0.411369166927795 0.166032049413767 0.60774234946912
-0.412765851097722 0.160390477584824 0.619434565250943
-0.413785386931122 0.156272306304473 0.63506675763448
-0.409591609231738 0.158958497165527 0.641579769077573
-0.404468054763481 0.168929856317694 0.639824439729938
-0.387431024683893 0.184656133174363 0.628437739184244
-0.390374594626064 0.191599082805411 0.63035269944335
-0.37741959795477 0.208580094422409 0.63035269944335
-0.364156062029481 0.222368262489504 0.63035269944335
-0.369075889503329 0.227799225886318 0.63035269944335
-0.362494946125966 0.226621940995787 0.63035269944335
-0.409022804925667 0.173879828525354 0.157493478816898
-0.409464296384962 0.181653808714641 0.162708758115036
-0.410660014872386 0.174180864957296 0.176833619972666
-0.411729586144473 0.170533385287523 0.1894683217223
-0.411594890182183 0.185736114741266 0.187877176414986
-0.413727528487016 0.166880969147783 0.213069746208693
-0.413325664147111 0.179902765372832 0.208322576748356
-0.414819427427015 0.17494391184098 0.225968201699835
-0.415521542392773 0.170283715647603 0.23426219146734
-0.416769551752275 0.167335337074716 0.249004758372007
-0.418182469343182 0.162532917521074 0.265695364060285
-0.418775158136573 0.165925006760246 0.272696717154055
-0.419635607407066 0.160491732114877 0.282861088792565
-0.420056405512722 0.172361232260735 0.287831920284149
-0.421073125243763 0.165362856292612 0.299842293879535
-0.422800012676149 0.159158527402378 0.320241783126106
-0.42267987336042 0.160663689312961 0.318822593529071
-0.5 0.053261510248772 0.465304217615186
-0.5 0.0548444782015712 0.471312232918642
-0.5 0.0620621357027445 0.468345097351344
-0.5 0.0633893142073827 0.484110551126726
-0.5 0.0608727698898106 0.49627441816962
-0.495597896002737 0.0616295611897112 0.501602308208966
-0.495824985256041 0.0665632555214751 0.5013316737755
-0.492238173504577 0.0660745188758879 0.505606269566268
-0.488596142650198 0.0813016956420613 0.509946672921312
-0.484221477918236 0.0805254787004334 0.515160195332024
-0.478405487290576 0.0809631099713298 0.522091423057031
-0.478178438812763 0.0888681443798994 0.522362008896158
-0.473822554407392 0.095897764811908 0.527553149785184
-0.470068044507856 0.0964307787686199 0.532027600446388
-0.469824660949143 0.100119327306697 0.532317653676861
-0.459309466460837 0.105603587696931 0.53599598765131
-0.460192401780151 0.115906939157213 0.535840302332295
-0.452764167438547 0.126943465636577 0.537150100465745
-0.447416261901936 0.128476577011239 0.538093080502129
-0.444718669444832 0.138031388401071 0.538568738835273
-0.437653643086115 0.143397980022996 0.53981449360173
-0.427193014663254 0.151588036659307 0.541658984627847
-0.426006913156425 0.154721888623959 0.54186812632536
-0.419771470422267 0.163351039745685 0.542967603116055
-0.40559396287769 0.184656133174363 0.543819350460004
-0.41200059453168 0.184656133174363 0.548060360808383
-0.407432649862598 0.184656133174363 0.55088087279861
-0.407113774506589 0.184656133174363 0.563166140980692
-0.404751897928773 0.184656133174363 0.569488990169799
-0.409606359681413 0.184656133174363 0.587516332431267
-0.404621742692291 0.184656133174363 0.595034810324634
-0.405707583784728 0.184656133174363 0.604399482343678
-0.401051921167899 0.184656133174363 0.611007957430754
-0.406679360409869 0.184656133174363 0.617692775955332
-0.407253514526549 0.185914158144194 0.63035269944335
-0.396819102807003 0.195767275488847 0.63035269944335
-0.391843163528877 0.208075209545073 0.63035269944335
-0.385651894612584 0.210846574608088 0.63035269944335
-0.374926880096252 0.224627595496554 0.63035269944335
-0.375157211872351 0.228359252752581 0.63035269944335
-0.407477981173612 0.196479256249101 0.139244683367422
-0.408397820350673 0.200706161370319 0.150110619993701
-0.40951350270305 0.198692582008785 0.163290025740169
-0.410094032363481 0.199483950650423 0.170147744629761
-0.41187881221479 0.188463293359098 0.191231109243733
-0.412424500211882 0.189612419896876 0.197677248244976
-0.413139749625674 0.184213642292075 0.206126393482608
-0.414785880855715 0.18193719702166 0.225571920559761
-0.415367654662551 0.183630006482332 0.232444336383701
-0.414941700697663 0.196530526012786 0.227412599419665
-0.416645292558509 0.191756289814227 0.247536901209182
-0.417223228885796 0.185075235830022 0.254363985402742
-0.418397096188324 0.180201906175812 0.268230722148701
-0.419402285129631 0.189382733254681 0.280104884074034
-0.421300985037371 0.175645868259677 0.302533971010462
-0.422050087287617 0.17452294948133 0.311383015257286
-0.421752028507906 0.182814841248068 0.307862086934142
-0.5 0.0691697085427726 0.44835000127128
-0.5 0.0760055897554529 0.453540750866111
-0.5 0.0810806951371126 0.462205717612386
-0.5 0.0700288947714888 0.476122888891761
-0.5 0.0684097196981358 0.482669715346752
-0.5 0.0772071820214471 0.491583209933624
-0.499550631328708 0.0701383488882339 0.496891621683665
-0.496437912950121 0.0843328380561877 0.500601214994081
-0.494831493474709 0.0889771755995015 0.502515671175116
-0.490236696387397 0.0934602166326338 0.507991537111162
-0.488900870937843 0.0930514615829206 0.509583511889747
-0.483924763681477 0.100212410464636 0.515513805589655
-0.477844017800961 0.108851955900098 0.522760556338413
-0.474052381921962 0.106058822149835 0.527279252019019
-0.470379011265539 0.11131835082669 0.531657004695741
-0.467954596411524 0.111918092215351 0.534471617989274
-0.463530978778458 0.126063958896716 0.53525162113032
-0.45716908064629 0.12825976864187 0.53637339541954
-0.453036775606177 0.143240688979264 0.53710203229063
-0.441475273700156 0.14519227847525 0.539140637014174
-0.443389134899415 0.154980706864709 0.538803171647413
-0.435291541721169 0.159537478875124 0.540230995803539
-0.428030169420989 0.16145284695143 0.54151137165703
-0.424070189237853 0.176650650036318 0.542209623006387
-0.41716442178281 0.184656133174363 0.546219520131403
-0.411020079438069 0.184656133174363 0.548455368208498
-0.419044442788755 0.187276154545085 0.560997586763595
-0.41304296027566 0.184656133174363 0.5699519900687
-0.413470122928529 0.184656133174363 0.582387947793988
-0.419044442788755 0.185294716762563 0.591624445211562
-0.418703023720145 0.184656133174363 0.598753282277453
-0.412277637626396 0.184656133174363 0.611051930431851
-0.415143908898723 0.184656133174363 0.616050065952392
-0.414218598581508 0.184656133174363 0.630051231758699
-0.418449080922006 0.192720561100925 0.63035269944335
-0.404477205199698 0.198761420292999 0.63035269944335
-0.39199172028808 0.208578848922511 0.63035269944335
-0.398852377758838 0.217476937982254 0.63035269944335
-0.389871571954364 0.230380402150989 0.63035269944335
-0.406179914764708 0.219126358546672 0.123910799262891
-0.407922587603889 0.206967373444557 0.144496759399294
-0.408568254194248 0.208231403289928 0.152123932091557
-0.408506646947132 0.219694886184 0.151396173957769
-0.409769335722146 0.214657643902339 0.166312146825828
-0.411586528056923 0.208343605051641 0.187778395752671
-0.412352634776127 0.203498829717237 0.19682831150689
-0.413083479489291 0.205038373712582 0.205461681920912
-0.414699536177205 0.196985588623776 0.224551942472175
-0.41522475722467 0.200560300104298 0.230756308147032
-0.415440622716666 0.200628817593677 0.233306298204341
-0.415675467841912 0.204605525777366 0.236080492119486
-0.418600796506873 0.188497111922455 0.270637006646381
-0.41882572336245 0.196938405203907 0.273294037374348
-0.419910430777895 0.198927139410022 0.286107540352057
-0.421182122531653 0.186113849868779 0.301129864198557
-0.420720810969534 0.201431559594477 0.295680452688408
-0.42194825246789 0.193907617422525 0.31018005421247
-0.422368820722962 0.197442710099234 0.315148170509966
-0.5 0.0897620078091201 0.458317658325698
-0.5 0.0826956944877768 0.465969049907335
-0.5 0.0835485686261178 0.47918795197111
-0.5 0.0854748338962743 0.483647281225371
-0.5 0.0857941211024904 0.49012355046753
-0.496056258200036 0.0880027557426057 0.501056053413626
-0.498743434144425 0.098181883841778 0.497853601827968
-0.491331070530271 0.0898571554610327 0.506687312794749
-0.491235193785697 0.098622204668793 0.506801574249542
-0.487962706871783 0.107101129634668 0.510701572285917
-0.483921142030247 0.111214721597721 0.515518121705519
-0.481336851559195 0.116565826300351 0.518597959158702
-0.475801639260532 0.12004075330108 0.525194568301406
-0.470808640693012 0.129319295522454 0.531144992282065
-0.465431091458433 0.136331602690102 0.534916579998454
-0.460157127091722 0.136159196948863 0.5358465222116
-0.454980091198471 0.141839944137727 0.536759373319677
-0.44928383864513 0.151374341574589 0.53776377633376
-0.444313852666995 0.160713190895544 0.538640118955449
-0.441939893404708 0.167243060806901 0.539058712024492
-0.435983559102453 0.176891283890378 0.540108974468099
-0.427277127713062 0.183427513453935 0.541644153227736
-0.426070021846002 0.18970406460878 0.541856998560671
-0.423291382312618 0.201065625299381 0.542346947680069
-0.419044442788755 0.203240641153354 0.548726789026
-0.419044442788755 0.197452622917994 0.566338132057035
-0.419044442788755 0.205084741749437 0.569860146297844
-0.419044442788755 0.19803560069954 0.588434674606093
-0.419044442788755 0.191330842258696 0.601335759047353
-0.419044442788755 0.204764631505574 0.595372971472186
-0.419044442788755 0.19879663821957 0.618683954447487
-0.419044442788755 0.196494527900076 0.628924946790238
-0.417663344651908 0.191926400832424 0.63035269944335
-0.410155696354195 0.199625787280702 0.63035269944335
-0.406512192730509 0.217648086555031 0.63035269944335
-0.400126094826665 0.222915265823421 0.63035269944335
-0.398083672872847 0.235020217890342 0.63035269944335
-0.405599184517925 0.232309733531884 0.117050710873671
-0.405603033785527 0.233996186543329 0.117096181754733
-0.406775521525036 0.231785837917122 0.130946621908093
-0.40865197467788 0.22424799605797 0.153112910917588
-0.408625947862348 0.223771984623326 0.152805459642184
-0.40937673302374 0.23145121096577 0.161674383892285
-0.410779097820309 0.229114156910742 0.178240330838729
-0.410935773019264 0.228066860204343 0.180091113916042
-0.412488225830119 0.224853982285839 0.198430030412235
-0.41386415662867 0.219069716564315 0.214683716091255
-0.414452009815453 0.22234637627092 0.221627946813791
-0.415936520768455 0.210895467347061 0.239164275270562
-0.417030443069949 0.216162437975475 0.252086632459223
-0.416761722178863 0.222497793750558 0.248912268673121
-0.418587068892656 0.208799250284405 0.270474844183814
-0.41953231955089 0.213056836925978 0.281640963223373
-0.420220693162769 0.204813569528101 0.289772628223536
-0.421811165269046 0.19871596896101 0.308560661548986
-0.422259905488286 0.211880203127973 0.313861569474557
-0.5 0.0982087690279693 0.449089123563794
-0.5 0.100814406748093 0.462962675055292
-0.5 0.0973584530560662 0.464387689338432
-0.5 0.0972046208805965 0.473836985556448
-0.5 0.0975411335790101 0.486821511294456
-0.5 0.105197554192653 0.486067664939351
-0.498127126910553 0.104171150721951 0.498588088188076
-0.499034388987198 0.104591672763743 0.49750685534881
-0.492137208853937 0.109003783079215 0.505726594551393
-0.492028241142369 0.122205103297032 0.505856457213131
-0.488101763511749 0.118724266858658 0.510535851035662
-0.483733637122844 0.12096961051552 0.515741581352545
-0.480931667028004 0.13098796255546 0.519080839279413
-0.475163851514754 0.133455067550245 0.52595465413875
-0.471943263354285 0.140015952018046 0.529792801649256
-0.467729885680899 0.146229402455266 0.534511240553937
-0.46688382721 0.149143166081503 0.534660423489613
-0.459132505476292 0.160561825498722 0.536027190647418
-0.456115037620544 0.171114343003487 0.536559251643807
-0.446647358403923 0.175955287047629 0.53822865893439
-0.441049962759857 0.18007855856958 0.539215630808139
-0.438213201671194 0.185765236975932 0.539715828325895
-0.42555236783597 0.199788496877713 0.54194827492931
-0.423331654690054 0.203917225205282 0.54233984657335
-0.420864093256161 0.215211534446294 0.542774944230701
-0.419044442788755 0.210043501694274 0.559797684411594
-0.419044442788755 0.214387581465643 0.555419259946961
-0.419044442788755 0.208452136586686 0.573572249108298
-0.419044442788755 0.212958768806708 0.583068393001827
-0.419044442788755 0.21599654944888 0.591608863046722
-0.419044442788755 0.215487994886339 0.603150101389274
-0.419044442788755 0.2172351237734 0.605795795451685
-0.419044442788755 0.214422025909195 0.61610578719096
-0.414969263421991 0.210529512437513 0.63035269944335
-0.416922896490429 0.220743465620294 0.63035269944335
-0.41045189139948 0.233338655038837 0.174375085346794
-0.41668740324521 0.22421883934222 0.248034349093981
-0.41818323455459 0.224440413881421 0.265704403399848
-0.418407743864249 0.230505700655839 0.268356501713987
-0.419778177620088 0.223978381042287 0.284545251565938
-0.420450875394354 0.222168148945122 0.29249174000229
-0.421633676464794 0.226165766015144 0.306464010148434
-0.421287220981427 0.233951859912224 0.302371378066679
-0.422555163235686 0.222940418868598 0.317349409579296
-0.5 0.121806028932737 0.451924552297547
-0.5 0.110151035478772 0.465015971158162
-0.5 0.122807635978749 0.465074291095545
-0.5 0.119399054583682 0.478271744039187
-0.5 0.112264708797715 0.495209387902453
-0.497920371942145 0.11102291470305 0.498834489164464
-0.49760577538342 0.125249832816015 0.499209410743541
-0.493981468296713 0.126992122171376 0.503528691734789
-0.49062691011049 0.135368838068093 0.507526498504786
-0.487407241896099 0.138865556887903 0.511363549666248
-0.479162654643581 0.144162446617605 0.521189066143893
-0.477600199231953 0.143862946154951 0.523051127993967
-0.475154356266728 0.146560709226338 0.525965970134698
-0.47368803789449 0.15722600452664 0.527713460322699
-0.467764471932491 0.155382799516512 0.53450514206462
-0.467638137226379 0.171659619405388 0.534527418281907
-0.454072869485702 0.17430727967739 0.536919340985123
-0.449147703527833 0.183489351976724 0.537787780627962
-0.44839791364084 0.195593812642895 0.537919988814901
-0.438820174759975 0.199591268696457 0.539608802593778
-0.431421287230358 0.210830886767135 0.540913426092477
-0.429290669428746 0.214038201654084 0.541289111496479
-0.428894862484628 0.217050667253652 0.541358902939879
-0.419044442788755 0.230084145775247 0.54893898533588
-0.419044442788755 0.228375989382299 0.560385129219619
-0.419044442788755 0.224958007430136 0.568724422710057
-0.419044442788755 0.232718747557938 0.577529983930361
-0.419044442788755 0.225433027218642 0.589746287833174
-0.419044442788755 0.2276838433384 0.602192169667257
-0.419044442788755 0.232986467495962 0.611849156287467
-0.419044442788755 0.225418365413304 0.622762693456019
-0.414954173970805 0.233160707878475 0.63035269944335
-0.419261703063707 0.234094483792118 0.278444207015248
-0.422831055551425 0.233013824425659 0.320608488441403
-0.5 0.137090857061276 0.451531019068206
-0.5 0.136994558969185 0.456522765563614
-0.5 0.138821218646812 0.467793095146382
-0.5 0.127804384637298 0.484550170360406
-0.5 0.131731527374095 0.489156285304052
-0.5 0.135925154349296 0.487134324809547
-0.493306288528485 0.139574178670799 0.504333339649222
-0.493127913026512 0.150160736601725 0.504545919294527
-0.491849547731847 0.14640110327393 0.506069415727093
-0.486265196962266 0.154146188936114 0.512724585819047
-0.483299309335532 0.157424294799712 0.516259193053439
-0.47636293186425 0.156251783278384 0.524525645824428
-0.473193667382104 0.16843126419502 0.528302628156908
-0.47112296660256 0.16468576504859 0.530770393250116
-0.468674425410061 0.175877168732434 0.533688451012892
-0.465031659891768 0.188025203389945 0.534987010560604
-0.459055245686982 0.191283231992799 0.536040813632797
-0.458938309774865 0.199796051045955 0.536061432589117
-0.448777042756517 0.201881342648619 0.537853138122635
-0.443022853046821 0.215443082303358 0.538867757020569
-0.434936731812414 0.219038358151362 0.540293558363475
-0.432871461579291 0.226368153620354 0.540657721228029
-0.42144861625032 0.235186076463273 0.542671877055986
-0.5 0.146064815704133 0.452173921474722
-0.5 0.155845517211406 0.452542721608529
-0.5 0.153881831926981 0.46487847629836
-0.5 0.143504837368818 0.485427097373494
-0.5 0.148087193214437 0.486712151964844
-0.497520956128633 0.15094717545662 0.499310494395154
-0.498589824444606 0.153336382397255 0.498036666739584
-0.4931331211256 0.152404520417878 0.504539712523731
-0.489198284128753 0.161160820836418 0.509229068650994
-0.488811802733918 0.169173992518221 0.509689659241759
-0.481692873849985 0.16703198638626 0.51817366831461
-0.481674790156175 0.179337875566431 0.518195219621676
-0.47598505810345 0.186750060088761 0.524975978236409
-0.472977008233086 0.183791017546026 0.528560832476117
-0.469245173307923 0.182429543700375 0.53300826015515
-0.465190333995276 0.196638911015785 0.534959032035016
-0.460431407832582 0.207440342587765 0.535798159116698
-0.452920665468378 0.212415378668236 0.537122505640658
-0.445793844355503 0.224331658550501 0.53837915648954
-0.43665340436609 0.233696283460227 0.539990862675221
-0.5 0.165940339596575 0.447469069933202
-0.5 0.158855927874452 0.459097612466746
-0.5 0.161971733587784 0.461768078658376
-0.5 0.161531351223455 0.478660757589337
-0.5 0.164752302708068 0.493464427795125
-0.496982125760577 0.163903955752722 0.499952647422084
-0.494617389425291 0.166581960858777 0.502770830445199
-0.493113186004904 0.17386955231679 0.504563470275438
-0.491920484302822 0.177541163520183 0.505984876813787
-0.485619539604438 0.182092346798527 0.513494050294824
-0.484859510568511 0.185622367944671 0.514399817628866
-0.478890249628031 0.187651330492273 0.521513705799815
-0.477236626202867 0.195726069848903 0.523484417457552
-0.471612157084477 0.203788968091433 0.530187398735828
-0.469942773946794 0.207083805320344 0.532176892087579
-0.46166072407501 0.215998045746654 0.535581397495335
-0.456650144456244 0.21836895302474 0.536464897871111
-0.450649061080995 0.23403741957488 0.537523050783649
-0.447127713633182 0.2352689455044 0.538143959347147
-0.5 0.187826538963028 0.45257831433689
-0.5 0.178568871594011 0.471267400458582
-0.5 0.188477167748949 0.467851353674344
-0.5 0.183175130455589 0.481795522644151
-0.5 0.182241177657771 0.483879448613516
-0.495405155246061 0.178830629797108 0.501832007698173
-0.49160371159655 0.192163039908762 0.506362391824523
-0.488886475997261 0.192495542465851 0.5096006671119
-0.484232396225995 0.197723029519399 0.515147183399527
-0.486702192233777 0.19893414994343 0.512203795134278
-0.479808808508544 0.210649397983962 0.520419009953955
-0.480109297844199 0.210116493877434 0.520060900708651
-0.474433761410497 0.216528413969979 0.526824741643416
-0.472796982156822 0.218497181386336 0.528775379199266
-0.46604704294548 0.225840630252277 0.53480797113248
-0.5 0.193123114977934 0.453816695781243
-0.5 0.195503274444884 0.464731834962376
-0.5 0.189280724078726 0.463353294542165
-0.5 0.203238601704974 0.471359808906177
-0.5 0.193967186105729 0.49530850176835
-0.5 0.199364626641893 0.493577415153157
-0.494992629476492 0.202155289201603 0.502323636766095
-0.492981227285853 0.205325492039607 0.504720732552941
-0.491738127175253 0.208602792783235 0.506202201575703
-0.486453591450094 0.214168562647751 0.512500066011354
-0.48635656661083 0.219257800825728 0.512615695712118
-0.481901954230992 0.223765955011708 0.517924496019404
-0.473995304413949 0.233424923504062 0.527347274344249
-0.472953359637234 0.233865901353374 0.528589015775185
-0.5 0.216233076634607 0.456368290885643
-0.5 0.209612679738346 0.464529854232221
-0.5 0.217612158338314 0.469423690264483
-0.5 0.215336181490621 0.476329988982347
-0.5 0.216898892686518 0.489948743944705
-0.497312498766575 0.216837871855874 0.49955892420529
-0.49591697837335 0.218382830768163 0.501222040647453
-0.489946414021495 0.222229709486664 0.508337482163593
-0.487586278947641 0.234691708051027 0.511150181616865
-0.5 0.225395485566096 0.452471824941645
-0.500010055165922 0.235555992522571 0.455713887663785
-0.5 0.221353245250677 0.480112411030155
-0.5 0.232904959849105 0.480247400085724
-0.5 0.232409484145212 0.485224665605847
-0.5 0.229476881744237 0.495692725256504
-0.491598250296373 0.234726283705604 0.50636890034863
-0.499676044840274 -0.229814150089622 0.448416786526411
-0.497609204968404 -0.224736507392395 0.499205323523315
-0.485580285593965 -0.229814150089622 0.442980289836724
-0.48887397250759 -0.229814150089622 0.450960191068298
-0.489190837360568 -0.229814150089622 0.463327271863194
-0.491264576730372 -0.229814150089622 0.470185151169137
-0.491632845169085 -0.229814150089622 0.476337014930948
-0.494637892269398 -0.229814150089622 0.488715246363963
-0.492210150170511 -0.229814150089622 0.503129275282054
-0.491363109416402 -0.229814150089622 0.501236494670796
-0.493406996785575 -0.216582147116258 0.50421332022203
-0.492603268842608 -0.201351807544987 0.50517116588553
-0.479939258923739 -0.229814150089622 0.423842369071282
-0.484879390488699 -0.229814150089622 0.430085960587556
-0.477822985609739 -0.229814150089622 0.441049659386641
-0.483677342872957 -0.229814150089622 0.451149901708897
-0.477051361421128 -0.229814150089622 0.464210592692214
-0.477641982487594 -0.229814150089622 0.471165039514171
-0.479937122582735 -0.229814150089622 0.479065341764274
-0.484178138430232 -0.229814150089622 0.483964475733048
-0.481752579553099 -0.229814150089622 0.497691989864869
-0.477441271466843 -0.229814150089622 0.501554009293658
-0.482518525740724 -0.229814150089622 0.513966054160829
-0.480637204943664 -0.227747737947089 0.519431765526308
-0.484445082158282 -0.203968524081071 0.51489371417563
-0.491464757503755 -0.193382953522359 0.506527990863817
-0.490055914137632 -0.17751152379237 0.508206985006796
-0.491659407636312 -0.170847696278041 0.506296015869043
-0.489337934041466 -0.158815852901847 0.509062640365814
-0.489973259900531 -0.144831724249264 0.508305488490805
-0.497689031227121 -0.129448462320937 0.499110190292706
-0.466943789627135 -0.229814150089622 0.41133298708529
-0.468767562946384 -0.229814150089622 0.424529374642699
-0.470788749696036 -0.229814150089622 0.434696672690151
-0.469172768045837 -0.229814150089622 0.439167241716677
-0.47018362319824 -0.229814150089622 0.448770933028587
-0.47129725416431 -0.229814150089622 0.458479192189613
-0.472369059739081 -0.229814150089622 0.470880266928292
-0.472375403689784 -0.229814150089622 0.476068318762052
-0.473034215436851 -0.229814150089622 0.488612618674209
-0.471674049976997 -0.229814150089622 0.494073041457981
-0.468095604871361 -0.229814150089622 0.501845615976418
-0.469921180990833 -0.229814150089622 0.512984059814112
-0.468789117300157 -0.229814150089622 0.528246298941626
-0.468584764925676 -0.22874633140718 0.533795304217271
-0.477695685408901 -0.211006473198185 0.522937331999549
-0.479368412735885 -0.198855942149412 0.520943853198185
-0.473955077014438 -0.192170897325094 0.527395215492137
-0.486273127514084 -0.159696916209635 0.512715134555427
-0.486245092019904 -0.159544720804023 0.512748545956337
-0.485982123163813 -0.136826494815947 0.513061940035324
-0.483259204765192 -0.141764090823212 0.516306987819221
-0.496884324432864 -0.104854298780231 0.500069202505747
-0.496203599396219 -0.0932841689189255 0.500880459013738
-0.495335976174065 -0.0812455231268192 0.501914452105757
-0.492356554640615 -0.0834876349248719 0.5054651884221
-0.499717192216947 -0.0360195120235247 0.496693122146722
-0.466472247811094 -0.229814150089622 0.408391924730859
-0.458323233193439 -0.229814150089622 0.427157630469705
-0.458212961869081 -0.229814150089622 0.435788512457626
-0.457756726842263 -0.229814150089622 0.443947930504323
-0.465274031054576 -0.229814150089622 0.452339859672675
-0.465609062413316 -0.229814150089622 0.458310680721138
-0.463101209162518 -0.229814150089622 0.463147361794429
-0.464391807996203 -0.229814150089622 0.481135405731592
-0.464267353796945 -0.229814150089622 0.493335147647997
-0.465808975153167 -0.229814150089622 0.493740818934733
-0.457982449509412 -0.229814150089622 0.512720827943717
-0.462496445989413 -0.229814150089622 0.518744220049532
-0.4603549428165 -0.229814150089622 0.523360105840935
-0.458310914131714 -0.229814150089622 0.534216816657907
-0.462672700389786 -0.223545202541823 0.535402958767202
-0.461711133574917 -0.210473660067516 0.535572508940418
-0.468341331646375 -0.201709156796733 0.534085416702435
-0.466997094273548 -0.189161817309347 0.534640451450284
-0.466409242925593 -0.171861803399422 0.534744105503575
-0.468727673954566 -0.170008423649499 0.533624991868678
-0.47058844561711 -0.153236721474222 0.531407410554843
-0.474853709761526 -0.133348278992846 0.526324266687373
-0.48179741116717 -0.112441173074336 0.518049085591295
-0.488379551155946 -0.100168368722872 0.510204796612712
-0.479318657782469 -0.0938958508826862 0.521003148842667
-0.491802285221601 -0.0583804078719463 0.506125740993475
-0.496964356280892 -0.0490725916163726 0.499973824263337
-0.494212114087846 -0.0445218839782131 0.503253818784589
-0.49873951816846 -0.0228453819645309 0.497858268706392
-0.494638367026963 -0.0102561121538155 0.502745830313043
-0.49628075050584 0.000931542050201421 0.500788513901673
-0.498542173674548 0.0122149249465534 0.49809345471599
-0.448072421435334 -0.229814150089622 0.40744028063466
-0.454311382429102 -0.229814150089622 0.413906329079672
-0.448258706284852 -0.229814150089622 0.420050574273651
-0.452594086313645 -0.229814150089622 0.438390219433117
-0.453057690446682 -0.229814150089622 0.446220976950031
-0.44927419220507 -0.229814150089622 0.458303867504028
-0.448926558966593 -0.229814150089622 0.460958679912581
-0.45686880950809 -0.229814150089622 0.471283143169991
-0.45030517769747 -0.229814150089622 0.474952550014907
-0.453771884182443 -0.229814150089622 0.488621935475861
-0.453781802779553 -0.229814150089622 0.497843460736347
-0.447503517334479 -0.229814150089622 0.506796483250566
-0.450324790902085 -0.229814150089622 0.512281180244688
-0.454738238773567 -0.229814150089622 0.531022648494661
-0.450955010441237 -0.229814150089622 0.534315059964311
-0.455345808822568 -0.219798124172696 0.536694887435228
-0.457844114676336 -0.213256390125921 0.536254368707147
-0.457439603911158 -0.200974019064631 0.536325694869035
-0.461518651267069 -0.186158957300317 0.5356064487646
-0.461356248524845 -0.181618428420225 0.535635084749795
-0.462189698051325 -0.171828305741809 0.535488125111218
-0.465649363202215 -0.158910041124619 0.534878092800899
-0.469057027528061 -0.146222951474182 0.533232483564231
-0.466166807408596 -0.125691965891537 0.534786853426303
-0.465749305581523 -0.130712470795017 0.534860470262911
-0.4681798423793 -0.10183101936446 0.534277872116637
-0.477160909707242 -0.0852447275724291 0.523574652863232
-0.471592933879307 -0.0825262357545253 0.530210308059651
-0.479497274697113 -0.0576701886648506 0.520790281492942
-0.483710708269377 -0.0388800289203129 0.515768906896039
-0.484169951166213 -0.0322142256412513 0.515221602523861
-0.48851638608552 -0.0188772755812023 0.510041723093801
-0.4952589867849 0.00703071449504303 0.502006204486887
