ply
format ascii 1.0
element vertex 867
property float x
property float y
property float z
end_header
0.211704268979264 0.232142857142858 0.254707521935565
0.216331868041936 0.229602589278505 0.26905413160495
0.210266702541625 0.22803125776382 0.271149240291198
0.210610662379715 0.225484226830286 0.272607358899193
0.214819249620399 0.202498483324329 0.273809523809524
0.210239494396778 0.193911399497077 0.273809523809525
0.22020156632661 0.180250412772715 0.273809523809525
0.218438683103412 0.177644826748753 0.273809523809524
0.215900836256948 0.171586135658198 0.273809523809525
0.216693865956921 0.165621328151251 0.273809523809525
0.222550835070152 0.148018997427034 0.273809523809525
0.216869844933176 0.143466673723512 0.273809523809524
0.215128010011192 0.140319630901338 0.283561459469646
0.214915269033299 0.141543582918126 0.291458132930749
0.215563343983523 0.142882763230868 0.300098233294568
0.219457776376212 0.146533176273173 0.323649902277784
0.221075142627902 0.147764136835291 0.33159179102954
0.220308956557601 0.146906167807738 0.336223629733488
0.223299675208307 0.138719437393607 0.338351986994412
0.218397000805242 0.129491490492322 0.33920321422513
0.22131233175595 0.122825005415791 0.339747957282932
0.226244813300948 0.116042316816917 0.340278459842172
0.222994001136392 0.104930698934434 0.34109581257595
0.218622180678729 0.0898670276062448 0.341505722576219
0.241055661751098 -0.0743882686803036 0.199404761904761
0.238594212483052 -0.0917290848630316 0.199404761904761
0.238950466069179 -0.102778752509561 0.199404761904761
0.235516422160415 -0.115246500505615 0.199404761904761
0.238504726973253 -0.132212230745097 0.199404761904761
0.240411042338301 -0.135696631554239 0.199404761904761
0.237943594723282 -0.15036996607643 0.199404761904761
0.243945413814485 -0.164326912679138 0.199404761904761
0.243205645421322 -0.165916751211971 0.199404761904761
0.245874114097123 -0.187599524271914 0.198274469583868
0.249443799881944 -0.191937456288483 0.197631569738744
0.218730032852765 0.232142857142857 0.224359386798608
0.224703875208881 0.232142857142857 0.226891276390472
0.218223232937558 0.232142857142857 0.240015444412676
0.221696499385289 0.232142857142857 0.258012381400154
0.219381839976077 0.231201978860022 0.266469926686831
0.220746625762472 0.228990465600906 0.269870296508416
0.225442548385699 0.228516537565814 0.270502200555205
0.224812550214202 0.219238688944463 0.273809523809525
0.227379239060341 0.207532913450995 0.273809523809524
0.220969105174123 0.20545597601157 0.273809523809524
0.223968168513184 0.191863744015555 0.273809523809524
0.224678205763388 0.177498239339438 0.273809523809525
0.224843996626988 0.174550079336445 0.273809523809524
0.229095743021251 0.160480582268471 0.273809523809524
0.226466567634552 0.155744393579539 0.273809523809524
0.224249996069454 0.143614913299104 0.273809523809524
0.224279386317019 0.141222112098945 0.289384060968844
0.228434234230609 0.141479241645426 0.291042999805984
0.231624403917105 0.143582322160749 0.304611615515555
0.230216879135391 0.145760202231895 0.318662827592067
0.224928316834529 0.146947933782352 0.326325820901847
0.228178672047612 0.146171939171241 0.336582011595029
0.225096813416076 0.135821311402427 0.338656680798279
0.226320462817854 0.127764742775822 0.339345424094603
0.233677662046581 0.119709208698923 0.339997371574671
0.229150382662577 0.107719161567693 0.340895491044862
0.234878449779081 0.0980011830968539 0.341584532648708
0.249811640848026 -0.0688120207559767 0.199404761904761
0.247165685923512 -0.0817997054060711 0.199404761904761
0.247118456707277 -0.0952024408410014 0.199404761904761
0.243379777042921 -0.105559080788497 0.199404761904761
0.251872372272343 -0.106067133261697 0.199404761904761
0.25417639077886 -0.119080987325804 0.199404761904761
0.252382174784652 -0.138631647134571 0.199404761904761
0.247855278709109 -0.146518991692281 0.199404761904761
0.25167251423677 -0.158041525952426 0.199404761904761
0.252427394746732 -0.166300609721396 0.199404761904761
0.251350967012085 -0.19022437867382 0.19788545507603
0.257159578396037 -0.212068946996123 0.191386913684737
0.232953447521471 0.232142857142857 0.22377363764252
0.233253449336606 0.232142857142857 0.227079918707832
0.231665141103673 0.232142857142858 0.242956094366939
0.226223583957747 0.232142857142857 0.249575945251365
0.229236036829057 0.231647960921281 0.264306010655776
0.233427621730613 0.231253705021283 0.266218950068485
0.235249054786638 0.227299045731944 0.271646227534682
0.236019581605344 0.217754465087012 0.273809523809525
0.231600512726055 0.208978805613708 0.273809523809524
0.237289022807823 0.205867242736998 0.273809523809524
0.236245270878028 0.188659016395888 0.273809523809524
0.23390840768947 0.186868034728617 0.273809523809524
0.233931199762609 0.166422384807936 0.273809523809524
0.235761408915544 0.153459315357592 0.273809523809524
0.241767916338225 0.158600286239363 0.273809523809524
0.235845728554083 0.139007685975309 0.271770844499936
0.237389086079991 0.13991720110108 0.280965041319709
0.242911698239351 0.141631179842086 0.292023253733586
0.234462119742461 0.142919466659571 0.300335011852653
0.235170390625488 0.145110684531219 0.31447227383972
0.237501781147353 0.146744615223204 0.325014037641528
0.240144064205494 0.148282109404891 0.334933613580999
0.23813755973323 0.138362510091847 0.338402010251674
0.243409305141739 0.132004758814201 0.338986212011629
0.240568199326067 0.118172148311109 0.340115196058009
0.239093291221421 0.117747679665861 0.340147734011115
0.244781172698643 0.1057269686652 0.341038609022377
0.258125090360256 -0.0707056672057116 0.199404761904761
0.259403231027178 -0.078903225153838 0.199404761904761
0.261399651844765 -0.0857490030792075 0.199404761904761
0.259400049103139 -0.0987568040483678 0.199404761904761
0.263956154570522 -0.113634628093352 0.199404761904761
0.264169039983158 -0.123942893949054 0.199404761904761
0.262483888528788 -0.133088793476935 0.199404761904761
0.259993463161309 -0.154235119307936 0.199404761904761
0.259952860290283 -0.148240612979372 0.199404761904761
0.268246617860504 -0.174906820218252 0.199376638433763
0.267039205990577 -0.186813873129514 0.19839090640119
0.271447322691791 -0.189726342919394 0.197959266078176
0.242929365632368 0.232142857142858 0.228418917172965
0.235459446617637 0.232142857142858 0.230453049988683
0.241159926085272 0.232142857142858 0.243543257924046
0.240330379216315 0.232142857142857 0.256960469209449
0.241973423957646 0.232142857142858 0.253651837547195
0.237689750795709 0.231130135240938 0.266818513709873
0.244140663612651 0.227413301549942 0.271585717447337
0.238118512201845 0.213457068569644 0.273809523809524
0.243137517360154 0.215343862080558 0.273809523809524
0.241528891528596 0.198582588844937 0.273809523809524
0.246135658158834 0.192744402448282 0.273809523809524
0.241478748328921 0.178714071549201 0.273809523809525
0.241101845903339 0.17192438609013 0.273809523809525
0.248678575700758 0.153418160443251 0.273809523809524
0.245721539075701 0.146397523968753 0.273809523809524
0.242911682888071 0.138988051369952 0.274970361578096
0.243996401521103 0.141043097375318 0.28822907171309
0.248983081761438 0.142563365579196 0.298037506397974
0.244360247556379 0.142718536380326 0.299038640655707
0.245328554916976 0.146341007098252 0.322410035534513
0.246332152986889 0.147692052145405 0.331126684142063
0.248746276917838 0.14725794076762 0.33603274243437
0.246874049617091 0.137547256305555 0.338507658164643
0.247339910649186 0.12943509406574 0.339208083641298
0.252771778929946 0.117600305877994 0.340159031056143
0.247382685852822 0.106151653839243 0.341008099886885
0.247449098588366 0.0993402105094782 0.341512838381249
0.256382441560398 0.0943013831343047 0.341701765192164
0.270752587379989 -0.0768879522975255 0.199404761904761
0.263341186970153 -0.0915656768210394 0.199404761904761
0.263419149474593 -0.0933989633026247 0.199404761904761
0.267889871815212 -0.108070902603161 0.199404761904761
0.275229021588884 -0.120026203643596 0.199404761904761
0.271157846853166 -0.12957827988874 0.199404761904761
0.276147514962784 -0.142628640708417 0.199404761904761
0.272821934042202 -0.15326233772163 0.199404761904761
0.279569815034496 -0.163185525526332 0.199404761904761
0.279096008918535 -0.193988846802087 0.197160480635737
0.281661351537599 -0.190983461793367 0.197772955751898
0.277779342564307 -0.205183269136135 0.194020629054289
0.251744525073802 0.232142857142857 0.220362398950072
0.250484936032377 0.232142857142858 0.227858978953041
0.252147867361928 0.232142857142858 0.241430688400332
0.245044541800761 0.232142857142858 0.245973033317615
0.245657757505662 0.232142857142858 0.259451094060879
0.24666372215635 0.229221184581567 0.269562671200868
0.245676860839243 0.224627529214666 0.27306106750203
0.248754214455683 0.214187246168378 0.273809523809524
0.246638852062146 0.207907059676896 0.273809523809524
0.24948503070184 0.199336324892846 0.273809523809524
0.252619509849836 0.190976061154573 0.273809523809524
0.251862599422715 0.180822265518755 0.273809523809524
0.250999289734829 0.169726473582414 0.273809523809524
0.250640667878848 0.163047885340958 0.273809523809525
0.260903679470712 0.152704484387886 0.273809523809524
0.25943812844865 0.138601250661836 0.272474786229688
0.257307496945043 0.138926079783797 0.2745705160434
0.261946928601209 0.141381640921572 0.290413258507787
0.258230639289387 0.143835986571993 0.306248169526944
0.255562326358027 0.145362679289061 0.316098063504309
0.254333973834517 0.147491838707317 0.32983494025815
0.254644255715899 0.145782474049084 0.336725934202656
0.255467158792223 0.138905688164928 0.338325884003122
0.255197309138717 0.130734665790778 0.339095875192053
0.258308193358443 0.117501681256924 0.340166591198292
0.262704003506119 0.112226144301027 0.340570991325371
0.263056644360023 0.104872919721336 0.341099963400958
0.266556993742993 0.0841811557782218 0.338079458726694
0.280842479238909 -0.08337674742487 0.199404761904761
0.276163196555323 -0.0943712756056676 0.199404761904761
0.278787640361588 -0.107503007334804 0.199404761904761
0.276547227681094 -0.114023535127479 0.199404761904761
0.281053411942291 -0.113951218237191 0.199404761904761
0.280162718856238 -0.135537778525694 0.199404761904761
0.283271378783816 -0.140122426568101 0.199404761904761
0.287490454101559 -0.157006352631102 0.199404761904761
0.286415247381725 -0.175520938583406 0.199342237768406
0.289586552958317 -0.183528966687526 0.198877743408949
0.291217649591665 -0.201279072379426 0.195355662789078
0.289366316517421 -0.216101053239135 0.189583096217841
0.256925813917699 0.232142857142857 0.216000175932072
0.256940448097553 0.232142857142858 0.231545499068364
0.255439178177201 0.232142857142857 0.239890757240116
0.261720683522945 0.232142857142857 0.252961298741324
0.261952183370546 0.232136058321406 0.2619377499552
0.259112968270781 0.230583644013006 0.267746058625615
0.259259013931797 0.223611504676712 0.273599155930383
0.258659194303289 0.209234855302033 0.273809523809524
0.263586986531012 0.215520515940838 0.273809523809524
0.265017787934956 0.199358138827461 0.273809523809524
0.265652138650674 0.188669390662065 0.273809523809524
0.267768669174901 0.184643961641946 0.273809523809524
0.260643960358652 0.172742977688183 0.273809523809524
0.269001918380525 0.154150154627019 0.273809523809524
0.264270859776948 0.151066297777689 0.273809523809525
0.264754581595846 0.139283695393357 0.271917019585695
0.261887015449308 0.140713794888062 0.286104460693078
0.267959199872291 0.142623801433787 0.298427401326983
0.266964665042219 0.14433660754547 0.30947805647048
0.266123638377652 0.144672505735628 0.311645199875192
0.264154795545263 0.146535275001053 0.323663386028555
0.266098505028658 0.146821583289914 0.336269528969631
0.271429683331853 0.140112522254907 0.338156746557323
0.263893306307957 0.130906728291239 0.339081018862095
0.26680766187036 0.11947014836164 0.340015696918912
0.272149235281638 0.107736755574379 0.340894227101671
0.272287793051671 0.104806214259611 0.341104755482467
0.267081667609644 0.0903384223933022 0.341566001457724
0.283506679941096 -0.0772099101026818 0.199404761904761
0.289185722211598 -0.0826341265063714 0.199404761904761
0.293606792941157 -0.10401591315134 0.199404761904761
0.287907769430336 -0.115839716726484 0.199404761904761
0.287750830921292 -0.125507468212216 0.199404761904761
0.295642951630584 -0.139324496404052 0.199404761904761
0.297837532943242 -0.141634353409557 0.199404761904761
0.295110815667262 -0.151624387739934 0.199404761904761
0.292450080206713 -0.171216072233707 0.199404761904761
0.297777769363722 -0.185087052682277 0.198646828484304
0.302603456294797 -0.208381352509689 0.192927049643102
0.267891310780517 0.232142857142858 0.219048726284422
0.272369682059007 0.232142857142858 0.227201475786345
0.269952696335645 0.232142857142858 0.235959986771093
0.2681593463464 0.232142857142858 0.250082900079727
0.269559656984254 0.232142857142858 0.257370675325763
0.267157139047084 0.231408126128634 0.265469695022695
0.271321121432294 0.225244381275715 0.272734381537608
0.272716271441562 0.210926917995449 0.273809523809525
0.26977679369746 0.207168146994123 0.273809523809524
0.273678715884394 0.199198423655716 0.273809523809524
0.275891697924895 0.188377958612036 0.273809523809524
0.277169025321123 0.184147982383881 0.273809523809524
0.277913982333768 0.167977245834772 0.273809523809524
0.272013145499857 0.16073347762534 0.273809523809524
0.273996412460801 0.145031101153395 0.273809523809524
0.27633675406903 0.139278699588709 0.276845518438232
0.279510998475403 0.139134534464191 0.275915392261556
0.274408825875277 0.142392230937935 0.296933350473256
0.277981520235367 0.142592708685056 0.298226784916569
0.271500866540775 0.146565219219208 0.323856570302348
0.279199989592883 0.147155947035203 0.327667808383134
0.27711106522275 0.144920145004631 0.337044598539073
0.279995678563529 0.142431136931579 0.337711959688986
0.273419309205169 0.127643292313689 0.339355320945019
0.274834551479596 0.116347965324086 0.340255030133276
0.274251014652522 0.116439725233898 0.340247996210569
0.276534847195287 0.103761479494793 0.341179808619336
0.29380324827521 -0.069970839804026 0.199404761904761
0.302349580491821 -0.0731281702857105 0.199404761904761
0.29956105538855 -0.0868980697479032 0.199404761904761
0.298396524889399 -0.102730645723138 0.199404761904761
0.299702654585032 -0.103328289647705 0.199404761904761
0.306305037374481 -0.129961613599103 0.199404761904761
0.300689503457685 -0.135696208236733 0.199404761904761
0.304285667263083 -0.150626938663966 0.199404761904761
0.309809864821809 -0.162547027920803 0.199404761904761
0.310855390269282 -0.180501641015414 0.199063237029583
0.306164782461138 -0.184029706009588 0.198803531726661
0.311791079858878 -0.191759491642807 0.197657944850825
0.27321934558303 0.232142857142857 0.218151389841524
0.278571884052473 0.232142857142857 0.224164794893638
0.273409621627532 0.232142857142857 0.242162746948426
0.276915202160212 0.232142857142858 0.249973027448819
0.275660382735704 0.232142857142858 0.255779561979187
0.275949574283601 0.227765610632538 0.271399133921578
0.279382104143764 0.223285313710901 0.273771907254371
0.279210324209702 0.21921430228466 0.273809523809524
0.281648754513869 0.205466581281827 0.273809523809525
0.281975616154484 0.203634037856997 0.273809523809524
0.283826028742426 0.196130901500827 0.273809523809525
0.284037390325385 0.186157763637013 0.273809523809525
0.282529460363003 0.170730308789869 0.273809523809524
0.287120614456422 0.163257190750062 0.273809523809524
0.287856471459911 0.145004620864994 0.273809523809524
0.290091033360452 0.139032326276386 0.275255953739873
0.286711874200749 0.139902443321086 0.280869764657405
0.288717566174055 0.14327548713552 0.302631909885893
0.289912724994074 0.14406840132902 0.307747618925197
0.289477898744521 0.146416067364734 0.32289425201792
0.284714501539848 0.147316854227742 0.328705939715898
0.286295620885009 0.148318811960673 0.335169023002797
0.289923534753271 0.134967798706773 0.338730375334829
0.291491697055082 0.128583169894113 0.339278731464342
0.287915087673758 0.116193550903715 0.340266866883117
0.291390387410691 0.112008750253865 0.340587329492651
0.291686797463481 0.100111382818395 0.341468518462977
0.30376106766186 -0.070486264166493 0.199404761904761
0.306697860547179 -0.0779623136740578 0.199404761904761
0.307265445619404 -0.0900928390056912 0.199404761904761
0.313805608633403 -0.0976755900611085 0.199404761904761
0.309623660894053 -0.105529363329704 0.199404761904761
0.310787632492234 -0.125812314676632 0.199404761904761
0.309811009797498 -0.125780239903024 0.199404761904761
0.316584740513813 -0.151475942138718 0.199404761904761
0.31684669750628 -0.155255175339159 0.199404761904761
0.321188383674591 -0.173817913598079 0.199404761904761
0.323080864020309 -0.191203013141805 0.197740417314835
0.320721020613113 -0.209473266394731 0.192548126640221
0.323105575550254 -0.215754184096212 0.189738272837955
0.283856213378628 0.232142857142857 0.221083211710121
0.287791793231075 0.232142857142858 0.234629557008323
0.288141401950737 0.232142857142858 0.239210791528983
0.289649197866364 0.232142857142858 0.253237400633404
0.285560267015778 0.232142857142858 0.258457517444793
0.289504625253587 0.230388880751392 0.268005742974435
0.285828027654665 0.225816490625485 0.272431391393804
0.291305072805881 0.21727653013957 0.273809523809524
0.288830664015286 0.20484830073244 0.273809523809524
0.287835821955233 0.201589635669948 0.273809523809524
0.292861931188989 0.185159682711042 0.273809523809525
0.291771658354408 0.180902904760721 0.273809523809524
0.290874143504972 0.165492557039946 0.273809523809525
0.296713439503523 0.164930237131763 0.273809523809525
0.298245741840254 0.15038737574076 0.273809523809524
0.294090959021047 0.138511253446785 0.271894099674147
0.297825347646848 0.140635906095642 0.285601893423337
0.297827645408934 0.141817748916247 0.293226887202222
0.291815709622191 0.143599315978829 0.304721179475436
0.294258161082804 0.145539362464467 0.317237935903736
0.296906291347608 0.145901195538631 0.319572401127249
0.295736920207998 0.146362149676478 0.336511721367858
0.2929931948051 0.136862860654743 0.338566750689641
0.297860303730857 0.120469023705508 0.339939127402033
0.299580407020901 0.122445832779761 0.339778855599782
0.302041526347717 0.101808268490234 0.341341115716856
0.29627913711919 0.0986436483688457 0.341552870390681
0.300326103861496 0.0914454804207244 0.341628067416281
0.320527484827266 -0.0812049185539426 0.199404761904761
0.319574281166221 -0.091492527330082 0.199404761904761
0.32068178908941 -0.109325155961595 0.199404761904761
0.324889562169704 -0.116420721590482 0.199404761904761
0.3209846389576 -0.121075709561202 0.199404761904761
0.322273875576003 -0.137452930300473 0.199404761904761
0.320510936673034 -0.140836334743995 0.199404761904761
0.329621306379747 -0.156064865964283 0.199281808343599
0.329200380157985 -0.180390502038281 0.199069462628714
0.325845091933669 -0.185469669958453 0.198590122988079
0.328772172289886 -0.203481628370803 0.194602502348023
0.292964515687334 0.232142857142858 0.223261404626853
0.299211993370609 0.232142857142858 0.230038017047571
0.29231719461399 0.232142857142858 0.235658796539728
0.293087440594638 0.232142857142857 0.248120267459917
0.296078893159241 0.232142857142858 0.261347133500584
0.292470788766205 0.23138234764329 0.26559477287344
0.291670509932385 0.225650218418238 0.27251944945474
0.293178701542005 0.213104881997976 0.273809523809525
0.296690866105731 0.207758870586111 0.273809523809524
0.29834964864579 0.200697358958032 0.273809523809524
0.298071180251541 0.197005767350117 0.273809523809524
0.304518216110826 0.18429861308768 0.273809523809525
0.303086039915333 0.17698942734659 0.273809523809524
0.3019353662475 0.16217246279079 0.273809523809524
0.306966902622355 0.154489778884297 0.273809523809524
0.305361759106226 0.139135649271725 0.275922551915283
0.306375381164254 0.141376693266059 0.290381280861018
0.303500207994416 0.142661300521194 0.298669292158965
0.300395474347932 0.143327695213723 0.302968730256787
0.307707728983849 0.144861147042295 0.312862219876801
0.300485116073623 0.147131481311366 0.327509933792129
0.307709293231505 0.143590306491902 0.337419264791388
0.308331436859354 0.140055724156661 0.338164706794231
0.306923448670186 0.125060911577874 0.33956575600974
0.310222973544273 0.122059571522476 0.339810331559755
0.305314772675398 0.109549350630375 0.340764011328819
0.306227188462696 0.104622139485256 0.341117979307019
0.310582708342582 0.0907556170821664 0.341590692202766
0.327261939155688 -0.0707850859195294 0.199372331032032
0.33132007482845 -0.092995338903063 0.199216631085292
0.327995626621021 -0.0961667732861503 0.199344181381925
0.328949538985341 -0.112030689962259 0.199307582284138
0.338520080821087 -0.120985959719524 0.19894038587321
0.336436876276558 -0.13932434636612 0.199020312929077
0.334064550239884 -0.149666089417907 0.199111332812921
0.338602526771842 -0.165039303644519 0.19893722263985
0.337248608913356 -0.168755389925714 0.198989168891887
0.336911041346639 -0.17891635953514 0.199002120467781
0.337927714120642 -0.187261469145629 0.198324570781283
0.341951636853844 -0.218744877283688 0.188269897203576
0.299950486372143 0.232142857142858 0.221710479467029
0.306550681927484 0.232142857142857 0.232984149711927
0.305517484189484 0.232142857142858 0.241619194414428
0.303692450817724 0.232142857142857 0.252488407189721
0.305631408718402 0.231875402379591 0.263202459054686
0.309146571169711 0.228274097448965 0.270825454044336
0.304794469412028 0.225747921836677 0.272467705548065
0.308021412625604 0.225181603108657 0.272767628968144
0.311227977249373 0.20598451649365 0.273809523809525
0.305989038017458 0.200953701610621 0.273809523809524
0.307036767215352 0.197036896800392 0.273809523809524
0.310525887503181 0.172899973685866 0.273809523809525
0.312848065404123 0.168188722978774 0.273809523809525
0.314046401452441 0.165573305130462 0.273809523809524
0.316783768706518 0.153763925732712 0.273809523809524
0.317627579281203 0.143159008143611 0.273809523809525
0.31681985244384 0.141550261037549 0.291501089242292
0.312930706109433 0.142726008846151 0.299086764268486
0.317756593235399 0.143301741037079 0.302801257476183
0.318631982702437 0.144913710288087 0.313201332669512
0.315045097271311 0.147410508013687 0.329310135114263
0.309184428597475 0.147931358871099 0.332670559427566
0.316383754141196 0.135656373028504 0.338670922012366
0.311581578980321 0.12558585787348 0.339522978774703
0.319483690613655 0.121883881451508 0.339824648329913
0.313265725888303 0.107212334097975 0.340931901235022
0.316323787363092 0.0977578869733551 0.341596299254628
0.322385829380571 0.0979857197681013 0.341585280506475
0.339345313113474 -0.075991951873598 0.198908723889892
0.338982963042071 -0.0910171236349616 0.198922626305033
0.33809374549237 -0.096250570961731 0.198956743233665
0.343452350658019 -0.110204042917574 0.198500701205556
0.344802952461335 -0.123271536494169 0.198363601965001
0.349358708196424 -0.133941519961662 0.197901148375864
0.352059071741951 -0.15525938814709 0.197627035169139
0.34841429829963 -0.158003166911245 0.197997015180799
0.347213150165739 -0.166064603923218 0.198118943417935
0.348242800830343 -0.188204037666325 0.198014423844655
0.353211471886754 -0.198754580081121 0.196002766126696
0.318373065166417 0.232142857142858 0.223598337087933
0.310425191543018 0.232142857142858 0.230268829579699
0.310080867091739 0.232142857142857 0.248160407485564
0.314712461678823 0.232142857142858 0.244207800628145
0.315157739400295 0.23165348578933 0.26427920385887
0.311100637879968 0.227018658900179 0.271794720906643
0.313032610192916 0.227825470174179 0.27136743220033
0.313478999029297 0.222978565538206 0.273809523809524
0.311636800447348 0.212086626501548 0.273809523809524
0.314013576837008 0.199084016849889 0.273809523809524
0.319661344438486 0.184906447159915 0.273809523809525
0.320341570292764 0.178021758409692 0.273809523809524
0.3177152500108 0.174410819878883 0.273809523809524
0.325353804227108 0.164104433004548 0.273809523809524
0.322566377611387 0.146603198982184 0.273809523809524
0.327979362525334 0.139494639910788 0.278238652992619
0.323744500426376 0.139622948934239 0.279066480388606
0.329141933397606 0.141470430780878 0.290986026069915
0.318698878237852 0.1443795439501 0.309755007121794
0.327660180974119 0.14637555093794 0.322632800301982
0.320995339317024 0.14785603585391 0.332184576637072
0.320548541563915 0.147909906006787 0.332532135757819
0.323869277964019 0.136055169261284 0.338636488894145
0.325393160029092 0.125193595299393 0.339554943774682
0.327301758429642 0.12322358208572 0.339715477754964
0.327982053018999 0.113286529270807 0.340489706743324
0.324751147301489 0.105512430354562 0.341054021329629
0.327355002403011 0.0947741000838398 0.341701015253674
0.352120133551382 -0.0743238474860487 0.197620836800619
0.348814782475337 -0.0888451160851578 0.197956362135461
0.353768767657927 -0.0966294545494969 0.197366910583986
0.353051475244699 -0.109717736707919 0.197486258578289
0.350054852858145 -0.129387948778634 0.197830482910881
0.351334189505991 -0.136331131669788 0.197700617777868
0.352857013526264 -0.142056376075872 0.197518614442697
0.353682105344457 -0.15192642372184 0.197381330049609
0.364850243172811 -0.170464392153543 0.195523099256526
0.356343160302133 -0.188655099013702 0.196938565612025
0.36556279526662 -0.203038215043302 0.194754126814605
0.361756506857244 -0.218737394236637 0.188274100954195
0.32096936439445 0.232142857142857 0.220724760321254
0.321853306861755 0.232142857142858 0.235323655712935
0.321856474066438 0.232142857142857 0.242557845803762
0.322889973913374 0.232142857142858 0.248192302682575
0.324369646739981 0.232142857142858 0.26014726916816
0.320677649505088 0.229875129486682 0.268690744660714
0.322119300288583 0.226466558258785 0.272087114402393
0.327327006914475 0.219868759529297 0.273809523809524
0.321885787157123 0.21127367718132 0.273809523809524
0.328095563359076 0.204369053719486 0.273809523809524
0.328809653909315 0.190177744530995 0.273809523809524
0.325601671855511 0.183561117235679 0.273809523809524
0.330177198860764 0.166318540257761 0.273809523809524
0.335808632608644 0.156485582856109 0.273809523809524
0.337404986780153 0.146440650796658 0.273809523809524
0.331189113606076 0.140548541535473 0.272586884384522
0.335522021047726 0.141092057335009 0.288544834482156
0.331380734282847 0.141720555123667 0.292599771285107
0.334339312938219 0.144134823401556 0.308176103300869
0.328855699947687 0.146005996989664 0.320248516788469
0.3289947713482 0.146959394773923 0.326399632521463
0.337398864683188 0.147343442873416 0.328877416961717
0.330596144924811 0.133346874057349 0.338870330242858
0.336868420728164 0.126452239281415 0.339452378407715
0.340101649802237 0.114186754204058 0.340420699345508
0.336407228232081 0.112034845507044 0.340585454824865
0.334321663253592 0.0915194385735697 0.341632074299383
0.341064574989013 0.0886975738943504 0.341356180486107
0.3547780011707 -0.079298685068019 0.197198987442306
0.359658871301591 -0.0969972324645535 0.196386875045982
0.365413175523741 -0.10206125929918 0.195411869835502
0.367994431883919 -0.119709822988442 0.19480731064605
0.363097338892396 -0.136546600738017 0.195814759402672
0.360721094907234 -0.132129757615534 0.196210135051949
0.372644523644489 -0.146806287438029 0.19371820700295
0.366920876157642 -0.168631595766538 0.195058749437533
0.371119365705481 -0.172752145040817 0.194075416097566
0.372947131282972 -0.187125091039288 0.193647332900143
0.373885968776857 -0.194223098355387 0.19342744662961
0.328697200612555 0.232142857142858 0.22793101270204
0.334956515146353 0.232142857142857 0.23735413292005
0.331650292052471 0.232142857142858 0.245839133891008
0.331505791086605 0.232142857142858 0.247423705725069
0.334608296156567 0.232108325098187 0.262072312242629
0.331448478720383 0.228168260723145 0.270966569678763
0.333365612021833 0.223568998388953 0.273621667337068
0.330960587928167 0.214941252215458 0.273809523809525
0.333601988853023 0.213023938199286 0.273809523809524
0.337357245525553 0.197494894255735 0.273809523809524
0.340983928665157 0.185789185007533 0.273809523809524
0.33594665806978 0.172454915915597 0.273809523809524
0.341383115340911 0.162669680966588 0.273809523809524
0.343281553320692 0.160746770303802 0.273809523809524
0.341144243344335 0.149554987022472 0.273809523809524
0.342677239829818 0.139177653967877 0.276193509704123
0.346487388324454 0.141312785412219 0.289968910274852
0.345386582328148 0.14305511832471 0.301210066073934
0.346830456188967 0.143643010955383 0.305003020100567
0.345673997237939 0.144634236091923 0.311398191359512
0.337815865406464 0.147508030133403 0.329939297768504
0.344649630404114 0.142318068190347 0.337734186147419
0.344311446928395 0.136803611584142 0.338571866410615
0.348190719048971 0.132435848665048 0.338948990577277
0.344828541766816 0.120637853646839 0.339926185619935
0.346370536487148 0.11586834745123 0.340291795590585
0.343681199245242 0.101423379667161 0.341373535496029
0.344738732740826 0.0873819266414387 0.34067242346685
0.368766645871003 -0.0861613007255337 0.194626449469564
0.369575671115483 -0.0973931668020139 0.194436966683742
0.375094821205763 -0.11533378258145 0.193144319832961
0.371908734004437 -0.120615401701545 0.193890537188847
0.372587970172311 -0.127200273972852 0.193731452460406
0.376269502546341 -0.141668909398441 0.192869196288442
0.384111982440413 -0.162415110655377 0.190557879870182
0.378245890802949 -0.162760830039923 0.192355329000956
0.381922346718764 -0.178886372202241 0.191228813614117
0.385486121501667 -0.191585156216831 0.19013682523724
0.390333033688363 -0.213166698993865 0.18857219721533
0.342369197432507 0.232142857142858 0.218601717099324
0.343787181436043 0.232142857142858 0.223553628100014
0.345664892280171 0.232142857142858 0.240878962056079
0.337386643829647 0.232142857142857 0.244667767382914
0.343356533578985 0.232142857142857 0.259293846732132
0.345109080447901 0.231342773141687 0.265786789337501
0.345172393619254 0.223493046768393 0.273661891452344
0.345189455472478 0.218335246003754 0.273809523809524
0.347004109165941 0.208436772391516 0.273809523809524
0.345413988032601 0.201465926165344 0.273809523809525
0.345634686202938 0.190291197331145 0.273809523809524
0.344827431309789 0.179902942655081 0.273809523809524
0.350928738294513 0.164685902631608 0.273809523809524
0.349555705926918 0.163495383738258 0.273809523809524
0.3529011541394 0.155003506680093 0.273809523809524
0.35520387993367 0.138864764710211 0.274174800099624
0.353877337144694 0.13944406023441 0.277912290977981
0.354072934721277 0.140893309870084 0.287262535336998
0.348045617683482 0.144381236006781 0.309765886620351
0.355936001696175 0.143869113202207 0.306461771233942
0.349421801802159 0.147080231613719 0.3271792196752
0.349525167191832 0.145414703853304 0.336861839685773
0.347936058880791 0.137781926087327 0.338483378930609
0.351505676087523 0.133878846253882 0.338824398360789
0.358574071940698 0.115780496869299 0.340298529840917
0.358309372919415 0.113133457442892 0.340501440575762
0.358295659187617 0.0956543235465898 0.341698034545414
0.358737302960212 0.0918939585214856 0.341652364931218
0.386060435915575 -0.0957268511509561 0.189960847600362
0.381424972054183 -0.0981472544290247 0.191381215880186
0.378718002566032 -0.0992191934251057 0.192210667626633
0.390808083581918 -0.122505375458558 0.18840270250918
0.387930435947286 -0.1346638661117 0.189387854517527
0.386150097053864 -0.153035850115341 0.189933374225406
0.383980981974251 -0.15725522973115 0.190598020169479
0.395601774896821 -0.167019597596596 0.186558215175368
0.389921150589146 -0.183723615760218 0.188743971181616
0.397412833503972 -0.199633791880137 0.185861367080187
0.392222188630351 -0.205050711766829 0.187858591785486
0.353654510014851 0.232142857142858 0.221232446902627
0.351933689474856 0.232142857142858 0.23372297552173
0.34806846296601 0.232142857142858 0.243279404188757
0.347172969679488 0.232142857142857 0.248027973416044
0.348157276535224 0.232142857142857 0.260950031506301
0.349727942135375 0.229328014311214 0.269420231561339
0.353618989791664 0.226728748868031 0.271948257782708
0.35379010910116 0.212895304367472 0.273809523809524
0.357652692716393 0.209753709229443 0.273809523809524
0.353903376421457 0.197692804762394 0.273809523809524
0.35684139488578 0.186644616209443 0.273809523809524
0.356101551936101 0.173401045421491 0.273809523809524
0.354688199317522 0.16595956038462 0.273809523809525
0.355582924783398 0.164007702914804 0.273809523809524
0.364929386189434 0.15422722998964 0.273809523809524
0.357541854977224 0.138999995886523 0.275047279375218
0.360421734558582 0.1403901266164 0.284016097954343
0.357179187113181 0.14197200847691 0.294222061055667
0.358447141716471 0.143900057203596 0.306661412035209
0.362840268487207 0.146772888477441 0.325196291311043
0.359869758807579 0.147624594834564 0.330691319942609
0.365680247400848 0.146770359844716 0.336297325037608
0.359879930391381 0.133615922345899 0.338847099904241
0.363220313952906 0.127425482141858 0.339373070030957
0.361171408454078 0.116308771315814 0.340258034578522
0.367339391755 0.103701912551951 0.341184087873808
0.371094009021166 0.097397288257669 0.341613739002216
0.369912252438969 0.0946692532819327 0.341701181587148
0.391150027378413 -0.0951890245010024 0.188271131458797
0.397849131716921 -0.105902989052407 0.185693490912389
0.393125762825741 -0.121827424695161 0.18751092001251
0.398946501542346 -0.133312315306751 0.18527125163778
0.391528384176667 -0.129345365500185 0.188125549635481
0.395085454356462 -0.14939639433109 0.186756881846691
0.401785714285714 -0.163963694462956 0.185174927833334
0.401785714285714 -0.16528114570744 0.194521151038476
0.401785714285714 -0.176505031148741 0.192888707184035
0.401785714285714 -0.16432417758267 0.212023630655783
0.401785714285714 -0.132827168278939 0.254445645881338
0.401785714285714 -0.200781019096703 0.200091020542006
0.402216907488369 -0.144102502147622 0.263996922026786
0.401785714285714 -0.199025381809063 0.226903468892865
0.401785714285714 -0.197990472036293 0.2443357309035
0.401785714285714 -0.173044607338957 0.261757901070071
0.402605527202779 -0.193562430089057 0.265882514527121
0.402662060719972 -0.210441436733133 0.266156816555774
0.404296189165297 -0.208763749579648 0.269014407625258
0.36068644894378 0.232142857142858 0.224435668494742
0.355668084082188 0.232142857142858 0.22682226717556
0.357761557842273 0.232142857142857 0.243779767496693
0.363846385121921 0.232142857142858 0.250800539437231
0.359042351075622 0.232142857142858 0.261226115835006
0.358255345191881 0.23065616866017 0.267649359096064
0.361641013698966 0.228067708701551 0.271100639040888
0.364626136283818 0.218049734303515 0.273809523809525
0.36225779320516 0.215203102862821 0.273809523809524
0.363188148036409 0.198220971622 0.273809523809524
0.364916005178323 0.183497882745699 0.273809523809524
0.368325777819839 0.181855499594343 0.273809523809524
0.365321912060996 0.174989255662261 0.273809523809525
0.367016959977819 0.161523520924327 0.273809523809524
0.372998371467768 0.149688194975436 0.273809523809524
0.366885153605198 0.140048517007494 0.281812098570351
0.371154806336722 0.139771282233032 0.280023434455758
0.373465683239345 0.142359723605695 0.296723494359851
0.369541687214501 0.142990852947728 0.300795409098881
0.372454168841903 0.14605183990457 0.320544229950577
0.374800619816217 0.147353808829519 0.328944248346032
0.374737903820066 0.144732464468896 0.337110563134729
0.370586939775115 0.137014101953094 0.338553692117172
0.368402201429416 0.132441952747459 0.338948463534708
0.369900429756658 0.122851795668191 0.339745774177853
0.38000033265817 0.113790384207566 0.340404842836028
0.375318793778265 0.100562493402117 0.341438411582236
0.373140646807464 0.0950337656115171 0.341700603309119
0.401785714285714 -0.0687809753876239 0.211675977865434
0.401785714285714 -0.0911585343933873 0.194778988994354
0.399814979951309 -0.117657219231211 0.184937083807649
0.401785714285714 -0.0835629715522856 0.221442158707733
0.401785714285714 -0.0886069932758156 0.229414194184952
0.401785714285714 -0.0820715524030769 0.24727250886532
0.403499350907977 -0.068342869297198 0.267951956615498
0.40224384386505 -0.0837856622425986 0.264127617995037
0.401785714285714 -0.09462468380334 0.260468485383835
0.406833070726938 -0.106187262470297 0.27175402534996
0.402295520278982 -0.124277508697168 0.264378353238108
0.405283720099553 -0.129546297476718 0.2703311155376
0.406082881735264 -0.144796818159376 0.271356723906521
0.411094444764122 -0.154211909385528 0.273809523809524
0.411634057106972 -0.15814880023529 0.273809523809524
0.408180698685685 -0.179699811129668 0.272467731548225
0.413105559143789 -0.182567590965505 0.273809523809524
0.419892760543749 -0.199986995627286 0.273809523809524
0.41755312333671 -0.203354590217214 0.273809523809524
0.416378039999637 -0.21888471079774 0.273809523809524
0.366415647867785 0.232142857142858 0.230931013604423
0.366420471306959 0.232142857142857 0.233211133517003
0.373405096987613 0.232142857142857 0.241543164598686
0.37221465694297 0.232142857142857 0.242743899641487
0.368225881577471 0.232142857142857 0.259769046563342
0.366605168100864 0.231472659419523 0.265156577893509
0.365320465477127 0.223572984614139 0.273619556225018
0.373430636129401 0.214861097832191 0.273809523809524
0.37245213345372 0.211568209476466 0.273809523809524
0.376241331214351 0.198296025317729 0.273809523809524
0.372947405428892 0.190512909402273 0.273809523809524
0.377614967399449 0.179835456040459 0.273809523809524
0.373870433236419 0.172448084193393 0.273809523809525
0.37540916358786 0.151995711805753 0.273809523809524
0.380110346396594 0.143090857400326 0.273809523809525
0.385621382770736 0.141669324318797 0.273180452968622
0.378758364999338 0.139807008907631 0.280320874477962
0.386648212952908 0.140079525662474 0.284802267214753
0.384451033189933 0.144421872520228 0.310876724124388
0.379344942607571 0.145442920708933 0.316760177282472
0.37609754725389 0.146644415249862 0.324367393042793
0.385018020743061 0.142187345577064 0.337394828691601
0.38409207981196 0.140649636850272 0.337760128732248
0.380801632957645 0.129342538073835 0.339121559783924
0.384779504475341 0.118929396089011 0.339750071109625
0.384349266336421 0.112441324759539 0.340271686551888
0.382344380068535 0.0962578160588033 0.341480361382064
0.404049421530811 0.00255125930631943 0.268685384112611
0.401785714285714 -0.0208001586122316 0.255177682751899
0.402409541502142 -0.0164499792157531 0.264931587043023
0.401785714285714 -0.0291308050996844 0.259168336283932
0.405470022740603 -0.025132363019782 0.270579519059
0.406571460698075 -0.0457728318410686 0.271615476206692
0.40391121955064 -0.062390045114175 0.268501114805715
0.409511967251144 -0.065241394930435 0.27317277378229
0.413768712693224 -0.0697432331065927 0.273809523809524
0.408239699116538 -0.0890680793106052 0.27249897828285
0.412457698188211 -0.0984310182220976 0.273809523809524
0.417302620734689 -0.107547846003593 0.273809523809524
0.412512912728171 -0.131543800763677 0.273809523809524
0.419266690997495 -0.130328838197694 0.273809523809524
0.414680403267529 -0.145692214267645 0.273809523809524
0.42535466047274 -0.157301357409972 0.273809523809524
0.423427528008114 -0.16966863806195 0.273809523809524
0.425350181570045 -0.182544249497997 0.273809523809524
0.427768216980317 -0.192644056758033 0.273809523809524
0.428170880252553 -0.201415147883114 0.273809523809524
0.381332732811566 0.232142857142858 0.216541547834432
0.375528610727107 0.232142857142857 0.23080853820538
0.37354036633424 0.232142857142858 0.246514697363557
0.376656983928234 0.232142857142858 0.250740782987522
0.378338351359316 0.232142857142858 0.256017321459698
0.373474831414422 0.230559189098671 0.267778665178064
0.38069102347228 0.224932124147943 0.272899753475834
0.384733300568056 0.218138918353387 0.273809523809525
0.377112392656223 0.210912824325185 0.273809523809524
0.386017811530141 0.204952108216757 0.273809523809525
0.380470201427578 0.194958031207974 0.273809523809524
0.388654778245208 0.181034569091481 0.273809523809524
0.388216221523346 0.170847513097875 0.273809523809525
0.388833110501906 0.16412912063763 0.273809523809525
0.386686501194968 0.15330743445434 0.273809523809524
0.395030727377817 0.134034708286475 0.267515745745366
0.386704707243961 0.139824211182108 0.283234494144587
0.393264725497493 0.139929726142192 0.29897780006699
0.386988268084885 0.143624036995027 0.308489956309026
0.387025931310223 0.144747146638355 0.315875776873027
0.393293571967087 0.143918557518685 0.325166954456069
0.393777944670808 0.143163292532832 0.33571607926093
0.393575477804801 0.141149298192254 0.336470687384463
0.388802588124413 0.125266475774931 0.338928387601549
0.398156365528094 0.109536463215793 0.338663106289673
0.394948992429011 0.103939272831605 0.339777158308841
0.396457137340606 0.0998643466539045 0.339703696012853
0.410036640006019 0.00870310240771306 0.273450641419857
0.405144839759805 -0.00352579850748057 0.270145941751269
0.406531995301989 -0.00471051633733188 0.271594575261724
0.415383783406951 -0.0219972882486364 0.273809523809524
0.414907998047948 -0.0239245894413207 0.273809523809524
0.417823199188316 -0.0383974673885112 0.273809523809524
0.420392532184566 -0.0533960583528814 0.273809523809524
0.417559084957786 -0.0639776610119376 0.273809523809524
0.425143784799779 -0.0778911609031755 0.273809523809524
0.419969233022089 -0.0896829164638644 0.273809523809524
0.424057241548446 -0.0948136690997177 0.273809523809524
0.426104203516838 -0.117142113035474 0.273809523809524
0.427775361729735 -0.123238891593459 0.273809523809524
0.425569633113386 -0.126598853184974 0.273809523809524
0.429135122545036 -0.152230250881019 0.273809523809524
0.430314726685103 -0.149385869874953 0.273809523809524
0.435089714429607 -0.162884404243647 0.273809523809524
0.433977258803498 -0.183518001526635 0.273809523809524
0.439341213348803 -0.190858535599186 0.273809523809524
0.43572195698672 -0.205122266171166 0.273809523809524
0.438135559895714 -0.220640409688673 0.273809523809524
0.388148419219047 0.232142857142857 0.223242131413978
0.391722133812415 0.232142857142858 0.231738908608475
0.391171484856446 0.232142857142857 0.235435087855525
0.391206847552272 0.232142857142857 0.243183157585798
0.387321764092102 0.232142857142857 0.253598329825052
0.389647701167428 0.231276139761976 0.266110096149787
0.385112648435918 0.22553728607915 0.272579258625268
0.384898568578108 0.214706570393679 0.273809523809524
0.38630309771498 0.208330280827008 0.273809523809524
0.390820132028544 0.199630534193312 0.273809523809525
0.391623298685092 0.189603300338938 0.273809523809524
0.397273339651487 0.178770100703254 0.273809523809524
0.39251312592461 0.162649831885862 0.273809523809524
0.396221036767485 0.164400225512887 0.273809523809524
0.401173338972793 0.146677106352186 0.273809523809525
0.405548584696606 0.132543225772241 0.270684268333669
0.402265303211903 0.120885009335283 0.264231739278616
0.404648933135836 0.121597491886986 0.269484732919309
0.399250749547337 0.133773345622241 0.291821234293846
0.407722262598423 0.0977246593161552 0.272224942969327
0.396345739842417 0.142887019876406 0.33135557083889
0.398393849867548 0.141227184759594 0.332614329113149
0.399833156585368 0.131126084977639 0.336252918220604
0.416669741140067 0.0573238643862984 0.273809523809524
0.414831214085111 0.046204784689415 0.273809523809525
0.40131325065026 0.106753064936912 0.337686107331817
0.401799969316498 0.10141719008826 0.337771014119903
0.417009584017017 0.0156454920189101 0.273809523809524
0.424802760084744 -0.00340799961072147 0.273809523809524
0.417150053230983 -0.0113976454319306 0.273809523809524
0.423768268086171 -0.0234829188679607 0.273809523809524
0.423910132176727 -0.0335099733034032 0.273809523809524
0.427871529047134 -0.0377031662631618 0.273809523809524
0.423005274175657 -0.058550485667561 0.273809523809525
0.432282486586322 -0.0602538946918686 0.273809523809524
0.427882353920445 -0.0766118378339778 0.273809523809524
0.428665778821552 -0.0826906570851102 0.273809523809524
0.432614551403908 -0.0901600889809361 0.273809523809524
0.434631555225719 -0.10910802096301 0.273809523809524
0.437796679083199 -0.118704474913546 0.273809523809524
0.434474164480774 -0.12578844123076 0.273809523809524
0.443185563251973 -0.149664976977804 0.273809523809524
0.443834212921136 -0.159942066532923 0.273809523809524
0.443487136885599 -0.177628234204008 0.273809523809524
0.444728372000857 -0.17988475783863 0.273809523809524
0.452148227410782 -0.190663520871955 0.273809523809524
0.451357345312174 -0.198245021000487 0.273809523809524
0.454605008426094 -0.219834154752993 0.273809523809524
0.395420828033058 0.232142857142857 0.223004063502505
0.396748640693624 0.232142857142857 0.239838202654304
0.393939727708777 0.232142857142857 0.237058788084269
0.399934790672824 0.232142857142858 0.251463476536078
0.391713084754247 0.231808979549927 0.26352474427291
0.392870422114468 0.229057519432499 0.269780891399624
0.401923574808989 0.226925653534789 0.271843976715949
0.394550154354047 0.220130315868844 0.273809523809525
0.397016506287156 0.217205724525689 0.273809523809524
0.399141248326292 0.202559935758976 0.273809523809525
0.407499781715844 0.190951063451691 0.273809523809524
0.405989650525444 0.179596088051164 0.273809523809524
0.408627092450714 0.166839469563934 0.273809523809524
0.409463295040633 0.163536069409425 0.273809523809524
0.408545245735202 0.152185022651383 0.273809523809524
0.405240834029215 0.143719068974792 0.273809523809524
0.414478695546064 0.129774055539507 0.273809523809524
0.417227263139978 0.117752785311247 0.273809523809524
0.411832028971384 0.107340592475893 0.273809523809524
0.420058373938233 0.0935992540917218 0.273809523809524
0.417095750525321 0.0918217135796521 0.273809523809524
0.422318000899364 0.0743412646976217 0.273809523809524
0.425592588872264 0.0674607402246082 0.273809523809524
0.417592475260666 0.0637093956295342 0.273809523809524
0.425142884644952 0.0534189661139953 0.273809523809525
0.421929225254212 0.0368666733775948 0.273809523809524
0.430234334562957 0.0249447556558138 0.273809523809525
0.429598853559767 0.018444489694642 0.273809523809524
0.427862448985404 0.00669436670958426 0.273809523809524
0.434223103659893 -0.00998583873136379 0.273809523809525
0.432116956114751 -0.0177353391113617 0.273809523809524
0.431700906215737 -0.0236996184673135 0.273809523809524
0.432641604564104 -0.0484733137364976 0.273809523809524
0.432949814611184 -0.0461581688090478 0.273809523809524
0.441411834874143 -0.0659766560980404 0.273809523809524
0.439939283024602 -0.0773263078871251 0.273809523809524
0.445240926669555 -0.0872128493513188 0.273809523809524
0.438373508716155 -0.0933793512857011 0.273809523809524
0.44141673276978 -0.109077732520353 0.273809523809524
0.447247885771679 -0.124746623825862 0.273809523809524
0.452322206543141 -0.135433368427147 0.273809523809524
0.452605341813093 -0.142057031711646 0.273809523809524
0.457730074108547 -0.164533021571833 0.273809523809524
