ply
format ascii 1.0
element vertex 854
property float x
property float y
property float z
end_header
0.0437795288705123 0.00730093845152398 0.151041666666664
0.0576948424964795 0.00855586388475245 0.151041666666664
0.0629379379087095 0.00563835217541848 0.151041666666664
0.0796742708682924 0.0110221246542256 0.151041666666664
0.0781256338752463 0.0125407306893129 0.151041666666664
0.0985751505051961 0.0112369384948069 0.151041666666664
0.0997409312551409 0.0153214030546491 0.151041666666664
0.120275412634386 0.0116605402988126 0.151041666666664
0.129003843562999 0.00863699089731379 0.151041666666664
0.143258272108647 0.00861918349395019 0.151041666666664
0.152888044165801 0.00967956358341125 0.151041666666664
0.162554968316447 0.0155943727078721 0.151041666666664
0.177001788746773 0.0114266231606241 0.151041666666665
0.196562869064616 0.0122378414239744 0.151041666666664
0.208275515707722 0.00782181092397041 0.151041666666664
0.20950425989835 0.00830648939137879 0.151041666666664
0.223612356314967 0.00761535418841772 0.151041666666664
0.236367145953447 0.01559906294196 0.151041666666664
0.246622215582543 0.0085532125587729 0.151041666666664
0.267318759411976 0.00556520361674926 0.151041666666664
0.282444409022644 0.0156625538343347 0.151041666666664
0.288429723796888 0.00558480922583616 0.151041666666664
0.300622806060252 0.0152288621492669 0.151041666666664
0.317375630243236 0.0109788991462269 0.151041666666665
0.32978321199827 0.0164849405242892 0.151041666666664
0.337816693864113 0.0067568830956964 0.151041666666665
0.352154685276116 0.00969214177232543 0.151041666666665
0.369815916574933 0.00756667894390286 0.151041666666664
0.381503722748809 0.0145504641750549 0.151041666666665
0.38605966098703 0.0105512528606689 0.151041666666664
0.415780075545364 0.00961038178389054 0.151041666666664
0.408012601004136 0.0117857764171658 0.151041666666664
0.438390406170369 0.0130113428530697 0.151041666666664
0.4499707499321 0.00768782125563367 0.151041666666664
0.450993946301405 0.0126917166624885 0.151041666666664
0.458333333333327 0.0109570215411841 0.161880716265466
0.458333333333327 0.0141116302624816 0.173650313228208
0.458333333333327 0.0106171220246369 0.18573099416374
0.458333333333328 0.0124894717777265 0.197699776762409
0.458333333333328 0.0140795471874659 0.206565486551373
0.458333333333327 0.0154921288999565 0.2160879114869
0.478416854596272 0.00746044281062145 0.218749999999997
0.484575371337119 0.0160006303564761 0.218749999999997
-0.156728189004804 0.0213339247796574 0.151041666666665
-0.144573829890215 0.0175455187724529 0.151041666666664
-0.141531486462828 0.0226254752166405 0.151041666666664
-0.123990604456594 0.0233717493846509 0.151041666666664
-0.130432891598206 0.021955288804516 0.151041666666664
-0.11629058421587 0.0174385224796875 0.151041666666664
-0.110888154835658 0.0221515524911879 0.151041666666664
-0.0962825825410672 0.0211974080709703 0.151041666666664
-0.084778283397198 0.0157047268846411 0.151041666666664
-0.072623239069055 0.0202947272953016 0.151041666666664
-0.066143114414021 0.0157952939545698 0.151041666666664
-0.0484503555918539 0.020694864448852 0.151041666666664
-0.0412966974762771 0.0155763840761824 0.151041666666664
-0.0240456021092237 0.015588886785401 0.151041666666664
-0.0248562828940699 0.0225409338186806 0.151041666666664
-0.0160483344013479 0.0179449831985782 0.151041666666664
-0.00473327576860368 0.0243871731914876 0.151041666666664
0.00213362621806137 0.0178834383231957 0.151041666666664
0.0228576676206436 0.0194707659443155 0.151041666666664
0.030523408621467 0.0172696020084184 0.151041666666665
0.0349136297801827 0.0171623407743801 0.151041666666664
0.0507606227708802 0.0251836061531529 0.151041666666664
0.0646302159606576 0.0217033641369146 0.151041666666664
0.0762596394728265 0.0210458189868086 0.151041666666664
0.0815980062504177 0.0185484758341947 0.151041666666664
0.0984289987139323 0.0243517499789187 0.151041666666664
0.103330477260381 0.0173982881207508 0.151041666666664
0.121963744557695 0.0159996448672168 0.151041666666664
0.134424458273098 0.0248411202136964 0.151041666666664
0.144570077231198 0.0254888284079776 0.151041666666664
0.155946839472551 0.0254157538179549 0.151041666666665
0.162759855253101 0.0263106995207194 0.151041666666664
0.186171591226439 0.0206318282988584 0.151041666666664
0.194940409499155 0.0203656906489781 0.151041666666665
0.196401477911816 0.0234260002760547 0.151041666666664
0.211351860849009 0.0264952427810169 0.151041666666664
0.226115569495149 0.0177429112126007 0.151041666666664
0.242660994303676 0.0258476877899598 0.151041666666664
0.24902451986379 0.0251788182305372 0.151041666666664
0.255708659078495 0.0216460737649412 0.151041666666664
0.276220330152542 0.0206777962176656 0.151041666666664
0.284495226337866 0.0200284529889452 0.151041666666664
0.302638868533985 0.0234410216209157 0.151041666666664
0.313990442484897 0.0208525154420906 0.151041666666664
0.316441505329169 0.0208436341191645 0.151041666666664
0.340785665597696 0.0264642426678898 0.151041666666664
0.355650130490111 0.0227589708100566 0.151041666666664
0.364856637672844 0.0275234952471996 0.151041666666664
0.375333924419383 0.0215752402088866 0.151041666666664
0.389974028355842 0.0190736186572798 0.151041666666664
0.398187094995323 0.0250233303076632 0.151041666666665
0.407858456155903 0.019016788316911 0.151041666666664
0.431664263836917 0.0209778098770972 0.151041666666664
0.440606615020849 0.0265237524508237 0.151041666666664
0.447701175713167 0.0183485560490313 0.151041666666664
0.458333333333328 0.0221038743596139 0.160084714554784
0.458333333333328 0.0249745202863224 0.180509601857013
0.458333333333328 0.0216918162961795 0.192170413282444
0.458333333333328 0.0179639227122457 0.192013886248568
0.458333333333328 0.0223486963492218 0.206075484320192
0.470657667792101 0.0234049077246926 0.218749999999997
0.475364969562774 0.0205968640199564 0.218749999999997
0.484380476942169 0.0248363240475151 0.218749999999997
-0.164162849734333 0.0266232864325091 0.151041666666664
-0.154474607164267 0.0275152150264549 0.151041666666664
-0.139323593727386 0.0329060859696688 0.151041666666664
-0.126235309419298 0.0279376530781633 0.151041666666664
-0.119942945525138 0.0296976299272704 0.151041666666664
-0.112718024325687 0.0284453221201223 0.151041666666664
-0.0996285010554111 0.0307788207057744 0.151041666666664
-0.0896966205087738 0.0328389778721368 0.151041666666664
-0.0782214982243042 0.0283120694676057 0.151041666666665
-0.0700867914265663 0.0319087002226178 0.151041666666664
-0.0564283890608093 0.029905213949525 0.151041666666664
-0.0522218396108076 0.0321376951907938 0.151041666666665
-0.042937017011332 0.0257833959744102 0.151041666666664
-0.0273268919957366 0.0285987781651767 0.151041666666664
-0.0231774607492731 0.032185627570091 0.151041666666664
-0.0135481061604256 0.0254216759238492 0.151041666666664
-0.00245378959864461 0.0304969094589328 0.151041666666664
0.0033307302353182 0.0338264261943725 0.151041666666664
0.0272621563811423 0.0345825107128973 0.151041666666664
0.0378717586997506 0.0256518306890903 0.151041666666664
0.0453042675981102 0.0293881853124769 0.151041666666664
0.0522221288213051 0.0285775028934004 0.151041666666664
0.0641601459006995 0.0270124292763235 0.151041666666664
0.0722667301587376 0.0330413726027987 0.151041666666664
0.0772193349890451 0.0297774396991673 0.151041666666664
0.100186149104666 0.0339515861123175 0.151041666666665
0.107702326878512 0.0263126813705152 0.151041666666664
0.125469200038289 0.0320671832332646 0.151041666666664
0.129385506374554 0.030099033952369 0.151041666666664
0.146184990356787 0.034192379767608 0.151041666666664
0.153483420133493 0.0352556994197019 0.151041666666664
0.166474442921432 0.0357921019663814 0.151041666666664
0.174455739022206 0.0277745438433594 0.151041666666664
0.189170389928349 0.0285398938283839 0.151041666666664
0.203604091683259 0.0310115990869317 0.151041666666664
0.208966945748444 0.0273850945506302 0.151041666666665
0.226090409315668 0.0299504765487825 0.151041666666664
0.245820630270693 0.035090579438659 0.151041666666664
0.240995290445863 0.0274761163718733 0.151041666666664
0.266660819229585 0.0353275360497534 0.151041666666664
0.269731127993077 0.0342025322681758 0.151041666666664
0.287728980871789 0.0341282881923286 0.151041666666664
0.293179170137989 0.0280216352158248 0.151041666666664
0.307237680019169 0.0307357668534292 0.151041666666664
0.315221414309797 0.0286157563809345 0.151041666666664
0.34211902320829 0.0369812433095485 0.151041666666664
0.353336939663104 0.0297763757574297 0.151041666666664
0.372642524065764 0.0282427081399865 0.151041666666664
0.37869132176059 0.0347319587949837 0.151041666666664
0.390975119795109 0.0379920372726326 0.151041666666664
0.406362933825563 0.0317473483274202 0.151041666666664
0.410835841031334 0.0309516939688244 0.151041666666664
0.44293446516846 0.028998551428067 0.151041666666664
0.447558488344383 0.0288457827418404 0.151041666666664
0.453684098736509 0.0299109642266726 0.151041666666664
0.458333333333328 0.038257972539407 0.170858949245969
0.458333333333328 0.0375956362407606 0.179451485151605
0.458333333333329 0.034811670196164 0.185309016581696
0.458333333333329 0.0401783185467557 0.197303028329023
0.458333333333328 0.0290837141144737 0.202217113131476
0.462695679139379 0.0311345244054592 0.218749999999997
0.474197940372809 0.038912368511384 0.218749999999997
0.489868491180087 0.0371091642975909 0.218749999999997
-0.164819306793504 0.0391704160782976 0.151041666666664
-0.149035521766605 0.0410333660497795 0.151041666666665
-0.144580247587987 0.0378389874765838 0.151041666666664
-0.13427620197529 0.0390851018786174 0.151041666666664
-0.120252465715788 0.0351928262228988 0.151041666666665
-0.111722901010432 0.0433155529870225 0.151041666666664
-0.105395676371403 0.0429589560094139 0.151041666666664
-0.0947668170389143 0.0353193181915906 0.151041666666664
-0.0848552343290173 0.0413849491196201 0.151041666666664
-0.072682223957703 0.0436767699125326 0.151041666666664
-0.0593820062968181 0.0356891935115493 0.151041666666664
-0.045889918451634 0.0419509467232101 0.151041666666664
-0.0486876054951155 0.042250273061823 0.151041666666664
-0.0254541374558544 0.039728232175794 0.151041666666664
-0.0181935394110765 0.0402340314672242 0.151041666666664
-0.0186825263189909 0.0356093472968902 0.151041666666664
0.00441096275686849 0.0432363563247662 0.151041666666665
0.0154465233411631 0.0357391740923666 0.151041666666664
0.0175962577551831 0.0357419352731811 0.151041666666664
0.0267745007791419 0.0444550577498408 0.151041666666665
0.0445910432138352 0.0446784684402654 0.151041666666664
0.0500594698465649 0.0444552742203053 0.151041666666664
0.0596080121512424 0.0400510986070061 0.151041666666665
0.0724157916153888 0.0404692222156152 0.151041666666664
0.0810514973579339 0.0403912456186779 0.151041666666665
0.0999899206949835 0.0440829924017929 0.151041666666664
0.106458528175952 0.0404887547949368 0.151041666666664
0.121844991831535 0.0430335072296427 0.151041666666664
0.131876364396 0.0395305213387656 0.151041666666664
0.134771151829536 0.0365608244249956 0.151041666666664
0.150522927310881 0.0381070894493884 0.151041666666665
0.168423451688816 0.0440674819369424 0.151041666666664
0.178013979818561 0.0402172421818276 0.151041666666664
0.184159626198262 0.0392684038638024 0.151041666666664
0.200640435125191 0.0441319945637087 0.151041666666665
0.218388373816005 0.041368330454858 0.151041666666664
0.217916114522667 0.0470387016023803 0.151041666666664
0.231972950607522 0.0483485197668274 0.151041666666664
0.256117556616426 0.0484617609019877 0.151041666666664
0.255820574667228 0.0480461111924703 0.151041666666664
0.269738505979885 0.0413570846370711 0.151041666666664
0.289664532257247 0.043508513088466 0.151041666666664
0.295606029230529 0.0390360318030106 0.151041666666664
0.30591763139445 0.0468525762132759 0.151041666666664
0.323748646567628 0.0437889793112087 0.151041666666664
0.33333881882784 0.0478714921253751 0.151041666666664
0.353563412953214 0.0421295138517954 0.151041666666664
0.355992464288979 0.0394283100554103 0.151041666666664
0.37867358415448 0.0466282538144988 0.151041666666664
0.393468588942958 0.0506950277480289 0.151041666666664
0.404141232691393 0.0459979521017786 0.151041666666664
0.418857472204165 0.0398180795894737 0.151041666666664
0.429532195377942 0.0454086470303441 0.151041666666664
0.456115994392945 0.0490469065252807 0.151041666666664
0.458333333333329 0.0467215805710911 0.157629988946814
0.458333333333329 0.045042875802486 0.171858667368855
0.458333333333329 0.046844759568028 0.174407483493325
0.458333333333329 0.0515844133846217 0.19307581866351
0.458333333333329 0.0450468831199673 0.19473685021246
0.458333333333329 0.0425899151743199 0.214611801237187
0.459663635610943 0.0435901751445468 0.218749999999997
0.475854142622856 0.0502757871143666 0.218749999999997
0.489561364172309 0.0433495419491958 0.218749999999997
-0.164988773946484 0.04916640411963 0.151041666666664
-0.152134570513292 0.0433611031612283 0.151041666666664
-0.134906381088913 0.0498704903153326 0.151041666666664
-0.136189846059383 0.043995336653215 0.151041666666665
-0.124346796727505 0.0498904956440959 0.151041666666664
-0.11127664994573 0.0515056691740568 0.151041666666664
-0.0939997528873878 0.046008250734593 0.151041666666664
-0.0949453898937473 0.0468242663513534 0.151041666666664
-0.0772617275355315 0.0466683813321155 0.151041666666664
-0.0687113563841654 0.0485446860977748 0.151041666666664
-0.0618747907415668 0.0511361700700157 0.151041666666664
-0.0585971794720386 0.0484959949608403 0.151041666666664
-0.0458486148818498 0.0533739854340788 0.151041666666664
-0.0247657216953358 0.0519009620569503 0.151041666666664
-0.0218655664349198 0.0521142463986468 0.151041666666665
-0.0168473737756274 0.0508218831946479 0.151041666666664
-0.00756907053576476 0.0482531598704884 0.151041666666664
0.0041608253644158 0.05159245040828 0.151041666666664
0.0113362150071154 0.0514340150844922 0.151041666666664
0.0281799151615737 0.0511075350325921 0.151041666666665
0.0520564596343345 0.0477209425287047 0.151041666666664
0.0522635285602957 0.0516108474478961 0.151041666666664
0.0723085219050166 0.0514296478319646 0.151041666666664
0.0745692449371569 0.0547105871858098 0.151041666666664
0.0813700824266848 0.0498986668981218 0.151041666666665
0.098243259217469 0.051806648969232 0.151041666666664
0.110357005167145 0.0546959946088012 0.151041666666664
0.119245345064798 0.0470568304425615 0.151041666666664
0.134938367485465 0.0501019966816641 0.151041666666665
0.135014419672563 0.0478169170729897 0.151041666666664
0.145391854886887 0.0527728152093584 0.151041666666664
0.162212125649899 0.0508042979292944 0.151041666666665
0.174789029879762 0.0552022829629436 0.151041666666664
0.188768065485401 0.0494788230518847 0.151041666666664
0.19744110928704 0.0495395457623794 0.151041666666664
0.206364015592849 0.057830104861115 0.151041666666664
0.221116265338709 0.0492354855214272 0.151041666666664
0.237695041966723 0.0511145186556931 0.151041666666665
0.243833707880682 0.0566441206112388 0.151041666666664
0.267768017689695 0.0500809458877744 0.151041666666664
0.280317163646108 0.0560703527486936 0.151041666666664
0.287635902595022 0.0543521497914087 0.151041666666664
0.298148324281202 0.0595509466060898 0.151041666666664
0.318504555533437 0.0574376760140141 0.151041666666665
0.320793932780667 0.0517113865521383 0.151041666666664
0.332185176577674 0.0576619767754309 0.151041666666664
0.355677836784135 0.0517426395539082 0.151041666666664
0.369411128938861 0.0594836509606136 0.151041666666664
0.380062552603166 0.0554340940437159 0.151041666666664
0.393715707863152 0.0596738284161229 0.151041666666664
0.406497729887099 0.0510171068381065 0.151041666666664
0.42055761458483 0.0571831056425864 0.151041666666664
0.430117029593544 0.0555512997537366 0.151041666666664
0.440650595963415 0.0576157767697149 0.151041666666664
0.455835057131877 0.0588850325336195 0.151041666666664
0.458333333333329 0.0577607033558896 0.158324030308215
0.458333333333329 0.0610440098415249 0.172487292912768
0.458333333333329 0.0592241518136899 0.182962066479598
0.458333333333329 0.0629396281598078 0.197330359698594
0.458333333333329 0.0570604047538112 0.216288044806287
0.472055419174078 0.0594321730190553 0.218749999999997
0.480425655748321 0.0537728136334544 0.218749999999996
0.49401396881189 0.0568478810319919 0.218749999999997
-0.164705808872952 0.0615711213356581 0.151041666666664
-0.148309580083092 0.0573188461121553 0.151041666666665
-0.139254460406622 0.0593289404642948 0.151041666666664
-0.135307232073566 0.0550942816692142 0.151041666666664
-0.11920590177533 0.0579944392216657 0.151041666666664
-0.111291466910084 0.062135092990333 0.151041666666664
-0.107583896330049 0.0556919710556099 0.151041666666664
-0.0962629851464577 0.0601632862225615 0.151041666666664
-0.0768656390317866 0.0571583335291433 0.151041666666664
-0.0763784163017001 0.0592246838265901 0.151041666666664
-0.0654218857694977 0.0601957271369411 0.151041666666664
-0.0464669597348241 0.0629769498211531 0.151041666666664
-0.0474283896394161 0.0552937057346053 0.151041666666664
-0.0380081624836049 0.0634986469731822 0.151041666666664
-0.0215706280466454 0.0631253368354445 0.151041666666664
-0.00661355660527608 0.0604850684717671 0.151041666666664
0.00128202018074546 0.0647622041164695 0.151041666666664
0.00453192102736161 0.063912181177807 0.151041666666665
0.0221689931439241 0.0586471527551536 0.151041666666664
0.0285936989108643 0.058091409708144 0.151041666666664
0.0434088430690524 0.0635132955740113 0.151041666666664
0.0534733142866731 0.0568546729271494 0.151041666666664
0.0665621970798004 0.0654931193949678 0.151041666666664
0.0731728879057581 0.0626282374387871 0.151041666666665
0.0838444994169364 0.0581708575138278 0.151041666666664
0.101960431598283 0.0644379656895938 0.151041666666664
0.1140765912251 0.0667340319534819 0.151041666666664
0.110392710693957 0.057119856794701 0.151041666666664
0.125970576586047 0.0601387611142661 0.151041666666664
0.149340271607691 0.0606072708895229 0.151041666666664
0.153631378219602 0.0612885777676657 0.151041666666664
0.16485595310233 0.0595136261389055 0.151041666666664
0.175812050042967 0.0680404654939839 0.151041666666664
0.194023393741114 0.0600906343491051 0.151041666666664
0.205858270450959 0.0691214666204588 0.151041666666664
0.20897720843221 0.0641894189421686 0.151041666666664
0.215584548577781 0.0619702648969276 0.151041666666664
0.230803580770889 0.0686077477376828 0.151041666666664
0.258308872798138 0.0643866892997291 0.151041666666664
0.259516378885058 0.0623842299875171 0.151041666666664
0.276715701577721 0.0628714880269946 0.151041666666664
0.282917310695199 0.0677015591091928 0.151041666666664
0.29557272195907 0.0619793106164978 0.151041666666664
0.316611839976245 0.0699957718795155 0.151041666666664
0.317564963524811 0.0611847991001334 0.151041666666664
0.337560314262833 0.0661341228074972 0.151041666666664
0.355357005097439 0.0698369000087811 0.151041666666664
0.361930560513544 0.0728300032882941 0.151041666666664
0.377750640559781 0.0713372984790181 0.151041666666665
0.396827488661399 0.0699099345939093 0.151041666666664
0.417616620699248 0.0700846923836191 0.151041666666664
0.422548601967259 0.0656666818078303 0.151041666666664
0.439621564811317 0.0734530123127741 0.151041666666664
0.44757550808692 0.0668863671675358 0.151041666666664
0.458333333333329 0.0644574083311038 0.154502065244648
0.458333333333329 0.0706219182423539 0.167203698166254
0.45833333333333 0.0722615200237063 0.182937375894702
0.458333333333329 0.0731023567199113 0.185109062037254
0.45833333333333 0.0652953286720191 0.196562064244414
0.45833333333333 0.0706336974905087 0.205860814790245
0.466204818658736 0.0725185057163019 0.218749999999997
0.472289412984381 0.0745650517224486 0.218749999999997
0.481380652215914 0.0653069342000338 0.218749999999997
-0.152975285539429 0.0677291049957928 0.151041666666664
-0.149970770989057 0.0709216690220745 0.151041666666664
-0.146403969582578 0.069078195641385 0.151041666666664
-0.127514131671331 0.0693435423094204 0.151041666666664
-0.119418187176666 0.0687867872631081 0.151041666666665
-0.110909881661409 0.068216888429257 0.151041666666665
-0.102381366624183 0.063963480030673 0.151041666666664
-0.0977271608683827 0.0668300801137896 0.151041666666665
-0.0821200380349899 0.0712060953656413 0.151041666666665
-0.0710530851017581 0.0725303425533938 0.151041666666664
-0.0555710681214964 0.0705286843578745 0.151041666666665
-0.0528040632368347 0.0647909584528296 0.151041666666664
-0.0380301402475361 0.0682974126489087 0.151041666666664
-0.0365871133553232 0.0714273432118143 0.151041666666664
-0.0156523981443185 0.0734798280220175 0.151041666666664
-0.0111867966294159 0.0667200347881373 0.151041666666664
0.00179668921608937 0.070440932068349 0.151041666666664
0.0180458930494372 0.0701016019277926 0.151041666666664
0.0283722375161088 0.0660063311249506 0.151041666666664
0.0365896793298705 0.0689497544250546 0.151041666666664
0.0491786453198772 0.0758270997982123 0.151041666666664
0.0510839573525944 0.0722948640264295 0.151041666666664
0.0611328212210703 0.0756085256531957 0.151041666666665
0.0665507454842689 0.0754475660938732 0.151041666666665
0.0788656181197893 0.0732922319923143 0.151041666666665
0.0978033194241454 0.0774350402459178 0.151041666666664
0.113764058456426 0.0746059405875591 0.151041666666664
0.119489436723306 0.0776124302608629 0.151041666666664
0.13047622344431 0.0743926599172652 0.151041666666665
0.145954447237828 0.0749590940719172 0.151041666666664
0.157291358465926 0.0768788645601017 0.151041666666664
0.163840520605358 0.0769508946487978 0.151041666666665
0.184635775531191 0.070214155592096 0.151041666666664
0.187079106725697 0.0769447017320857 0.151041666666664
0.203619660104953 0.0763062563531986 0.151041666666664
0.219397885753202 0.0790031767673832 0.151041666666664
0.217744121349507 0.0699014304995186 0.151041666666664
0.23923442730604 0.0794723003115516 0.151041666666664
0.247691852586649 0.0712688220547791 0.151041666666664
0.25894707359922 0.0776157268786882 0.151041666666664
0.279302712009497 0.0726078659145502 0.151041666666664
0.278927572117156 0.0819564165111169 0.151041666666664
0.307010100222011 0.0791622174644688 0.151041666666664
0.31357783705615 0.0778200307197457 0.151041666666664
0.330184194880425 0.0740690880554237 0.151041666666664
0.339900601772605 0.0743607430504405 0.151041666666664
0.349641127953689 0.0826272874100439 0.151041666666664
0.370661857078908 0.0750778432210237 0.151041666666664
0.378697255139502 0.0750827653270917 0.151041666666664
0.391899008103447 0.0810472173298033 0.151041666666664
0.405117819698936 0.0814910094037998 0.151041666666664
0.417201783127624 0.0803720197756777 0.151041666666664
0.430774791514318 0.0798431945015389 0.151041666666664
0.449258153001014 0.0764141143242677 0.151041666666664
0.45505482537862 0.0801883883464791 0.151041666666664
0.45833333333333 0.0788615693929893 0.170875610367162
0.45833333333333 0.0855458732440498 0.176570206168746
0.45833333333333 0.0854286062912269 0.185891029141444
0.45833333333333 0.0761035665045253 0.197342911511106
0.45833333333333 0.078635247380165 0.202845219314951
0.460112932444856 0.076243304305751 0.218749999999997
0.477647181827574 0.079624236134594 0.218749999999997
0.485864907205154 0.0867129497186358 0.218749999999996
-0.154626146882837 0.0801453747112674 0.151041666666664
-0.147836278547798 0.077168977714806 0.151041666666664
-0.144380134398147 0.0746679397005311 0.151041666666664
-0.132496051663912 0.0772682027964237 0.151041666666664
-0.118721174573891 0.079861133977944 0.151041666666664
-0.110592044204313 0.0774919379525816 0.151041666666664
-0.0978439904317525 0.0812477779229038 0.151041666666664
-0.0934944566172639 0.0818815892218128 0.151041666666664
-0.0866294006868331 0.0728700150626312 0.151041666666665
-0.0716433107031655 0.0807264129684918 0.151041666666664
-0.060940863340437 0.0785900520196579 0.151041666666664
-0.0461533455346862 0.0738182806907418 0.151041666666664
-0.0437483728443054 0.0742455411352713 0.151041666666664
-0.0337711880506119 0.0752374393598653 0.151041666666664
-0.0192476898114017 0.0807316892001417 0.151041666666664
-0.00989937298448909 0.0767668779770229 0.151041666666664
-0.00281924270134314 0.0805980674830315 0.151041666666664
0.00937754261337793 0.0812154119935564 0.151041666666665
0.0245878638991785 0.0787453006244878 0.151041666666664
0.0367404242694272 0.0768096778739455 0.151041666666664
0.0413393965235788 0.085244146210276 0.151041666666664
0.0533082901807539 0.0853578723806178 0.151041666666664
0.0682968183739599 0.0858590255731298 0.151041666666664
0.0754470066765634 0.0821903892313644 0.151041666666664
0.0869676351767725 0.0784913969507779 0.151041666666665
0.0966451279109045 0.0834425473731461 0.151041666666664
0.111757512594406 0.0805432582002053 0.151041666666664
0.118430677155597 0.0822380200594048 0.151041666666664
0.130655836692891 0.0849187052578792 0.151041666666664
0.146503252476815 0.0877989987542161 0.151041666666664
0.146736980218541 0.08583414967643 0.151041666666664
0.166648711622364 0.0844103426929318 0.151041666666664
0.179787763350756 0.0850303617536809 0.151041666666664
0.180889149451572 0.0852494734628823 0.151041666666664
0.196993265459362 0.0906273188256314 0.151041666666664
0.220280699732887 0.0816438849033908 0.151041666666664
0.231864521857848 0.0869730109070603 0.151041666666664
0.240207057776337 0.0847944550184958 0.151041666666664
0.254625190985769 0.0909723212245324 0.151041666666664
0.260169540239695 0.0867187753693121 0.151041666666664
0.272527675832822 0.0874372763689426 0.151041666666664
0.283910712921044 0.0917490869723541 0.151041666666664
0.295782568249415 0.0841044593203265 0.151041666666664
0.319313814380413 0.0855455326947248 0.151041666666664
0.324739120891062 0.0838010687895823 0.151041666666664
0.335345578949717 0.0901307930088833 0.151041666666664
0.359214600835624 0.0933720693065732 0.151041666666664
0.375602621635561 0.0900880254111338 0.151041666666665
0.383179584035808 0.0886492932446651 0.151041666666664
0.39314559361112 0.0856729749094382 0.151041666666664
0.400599741937014 0.0884717469716974 0.151041666666664
0.416131136821224 0.0957335392271974 0.158231996365329
0.434758119205715 0.087167325092277 0.151041666666664
0.435434075074854 0.0912757948503434 0.151041666666664
0.458333333333329 0.0868374708916495 0.156510435827429
0.45833333333333 0.0866046977201553 0.164540907595905
0.458333333333331 0.0903534818782914 0.176640491707607
0.458333333333331 0.0890692739172376 0.193949615052437
0.458333333333331 0.0888070881367893 0.195576125821447
0.458333333333331 0.093898660602135 0.207543646708662
0.466883598208195 0.0876033469927871 0.218749999999997
0.480944954717792 0.0932491648518383 0.218749999999997
0.490770397157551 0.0921213448737301 0.218749999999997
-0.166495720392947 0.0878082129894342 0.151041666666664
-0.151874296647422 0.0840363946103644 0.151041666666664
-0.141421267815922 0.0833937533043078 0.151041666666664
-0.13464861808773 0.0839995312415678 0.151041666666664
-0.118585277368931 0.0843236690281654 0.151041666666664
-0.114952894923162 0.0849093139872853 0.151041666666664
-0.0980358077777183 0.08715274214361 0.151041666666664
-0.0969634016970664 0.0840335882367755 0.151041666666664
-0.0783806135939167 0.0904649611697503 0.151041666666664
-0.0755849448562877 0.0916083788739347 0.151041666666664
-0.0656775733280051 0.0869969685928603 0.151041666666664
-0.0535519352505289 0.090331281141664 0.151041666666664
-0.0439037665282907 0.0934216820522754 0.151041666666664
-0.0356457020599074 0.0929482522550807 0.151041666666664
-0.0216488030694014 0.0881703969291252 0.151041666666664
-0.00416198701657217 0.0891511050004153 0.151041666666664
-0.00288203916781133 0.0899620848783079 0.151041666666664
0.0185442721775477 0.0874929260607969 0.151041666666664
0.0240066475548747 0.0898410184393317 0.151041666666664
0.0296704535544335 0.0906098975669195 0.151041666666664
0.0413024684611448 0.0956294451759449 0.157854655429479
0.050754707819498 0.0894881157472626 0.151041666666664
0.058821944025768 0.0957566728162599 0.158315855625624
0.0805906002137594 0.0905428658321005 0.151041666666664
0.0825698299896848 0.0945144121400671 0.153812660674429
0.0973937267489312 0.087609529085822 0.151041666666664
0.108165015766336 0.0905696237328781 0.151041666666664
0.120068464833097 0.0930025678650493 0.151041666666664
0.121671534505645 0.0944943623011327 0.153739980008299
0.139388154012853 0.0931995658385766 0.151041666666664
0.145401797238175 0.0972957945449066 0.163895171891982
0.166299734779214 0.0912433692934969 0.151041666666664
0.172459448681975 0.0951110233203611 0.155975376203009
0.181418756870307 0.0947751306673808 0.154757765335957
0.202122516656515 0.092218341316364 0.151041666666664
0.211364288885763 0.093567446249104 0.151041666666665
0.189529762239925 0.100932065380841 0.177076653672252
0.211574475080714 0.100925961115498 0.177054525710387
0.23836915067815 0.0966265217282113 0.161469057931477
0.261849422969317 0.0927005079268494 0.151041666666664
0.257892780157539 0.0982445087742269 0.167334260973286
0.245631302498532 0.102860878454483 0.184068601064212
0.303332633724459 0.0943317880426434 0.153150648321303
0.289914343995138 0.100557282731897 0.175718066569847
0.280253311798768 0.103185542663998 0.185245508823712
0.326353696184382 0.096041710488965 0.159349117189222
0.311801232901276 0.102548555201631 0.182936429272636
0.33978030395682 0.101017963030837 0.177388032653512
0.358768605591507 0.0991287836746146 0.170539757487208
0.363001511518837 0.099358573292377 0.171372744851597
0.358320560102109 0.105274840219265 0.192819212461564
0.380002554777002 0.102154084176962 0.18150647180822
0.407958955523283 0.0991561427369238 0.170638934088086
0.40724983358758 0.102403689452214 0.182411290931012
0.400313897887276 0.107521057685224 0.200961750775673
0.407481889830505 0.107411475355393 0.200564514830038
0.428173751928469 0.107025606676405 0.199165740868709
0.457852700304338 0.102973293929288 0.184476107160413
0.458333333333331 0.100791030454712 0.194565363805276
0.458333333333332 0.108315194385929 0.207267172943091
0.465334726647129 0.105178714799672 0.218749999999997
0.476178490788302 0.110116028088107 0.218749999999997
0.497698027332276 0.106670306078501 0.218749999999997
-0.153160491703213 0.0926229717657009 0.151041666666664
-0.152709408864074 0.0902316903823448 0.151041666666664
-0.141500541422346 0.090431475167377 0.151041666666664
-0.132999802652635 0.0951755959056869 0.156209451824766
-0.115063119681363 0.0915013547322654 0.151041666666664
-0.117997009642403 0.0936377432310836 0.151041666666664
-0.127969471532596 0.0982203304360468 0.167246614497321
-0.101292273196071 0.0945949420538476 0.154104581611853
-0.0987887380972252 0.0974126070748947 0.16431861731315
-0.0681552489081897 0.0933263445920806 0.151041666666664
-0.0887271379221917 0.101322978830272 0.178493714926395
-0.0578981903146314 0.0936389193313867 0.151041666666664
-0.03978695488993 0.0939212577843072 0.151662476134779
-0.0594453428058125 0.101374897745183 0.178681920992953
-0.0596506477672778 0.102520881920786 0.182836113629512
-0.0409394500828039 0.102896259089284 0.18419685586532
-0.0148358632769051 0.0978541553877715 0.165919229947341
-0.0295466924114763 0.103574588464675 0.186655799851116
-0.00619840125931877 0.102201707138998 0.18167910504554
0.00266518611881748 0.103113065234437 0.184982778141507
0.0161541188248471 0.101781878773245 0.180157227219687
0.0136701798422509 0.103488989363186 0.186345503108224
0.0222001041037553 0.104621477062172 0.190450771017051
0.0639446237995118 0.0972948578332263 0.163891776312128
0.0437470919820309 0.105467036252612 0.1935159230824
0.0541323891148476 0.10441469775102 0.189701196014127
0.0696260157663617 0.101804202230644 0.18023814975277
0.0904094387232135 0.0993939908357396 0.171501133446243
0.090956442576968 0.105413139011779 0.193320545584386
0.0860497890086859 0.106830843800747 0.198459725444393
0.103412442351978 0.107303117837633 0.200171718828108
0.121280713612389 0.104878247175242 0.191381562676946
0.113380933454719 0.108942428603257 0.206114220353498
0.153431155508293 0.103379060493162 0.185947010954411
0.149631991785758 0.106498034662922 0.197253292319789
0.173692056256299 0.104716308166261 0.190794533769397
0.158996521020857 0.110157007266724 0.210517068008572
0.178571247973795 0.106711381898817 0.198026676049914
0.191543543034443 0.109010186582686 0.206359843028942
0.22279965761476 0.104421132670639 0.189724522597776
0.210047249356621 0.107405753661192 0.200543773688526
0.239510111494757 0.104416486446427 0.189707680035007
0.260955684218842 0.103543595758601 0.186543451291642
0.255936681605581 0.105879809897075 0.195012227543612
0.255635598057971 0.110751467487395 0.21267198630852
0.278580464499702 0.106244005360368 0.196332436098052
0.278184323402566 0.109802802116324 0.209233074338391
0.292467466746563 0.111481243457215 0.215317424199124
0.299855907401283 0.112422857154792 0.218730773852841
0.322351658279464 0.111207369041179 0.214324629440999
0.353918864494701 0.10731397257959 0.200211067267745
0.321095389302171 0.11584881785721 0.231149881399111
0.344404842589298 0.111614346547663 0.215799922902007
0.339537579569689 0.116746858067524 0.2344052771615
0.379618893765039 0.113237846037746 0.221685108553562
0.405732278552226 0.110939816275862 0.213354750666735
0.385436100308022 0.117982703450225 0.238885216673799
0.418487554351052 0.114630147059741 0.226732199758302
0.421756558773257 0.117084953136523 0.235630871786635
0.436264597362945 0.11543330840622 0.229643659639289
0.436470947781993 0.116178904664567 0.232346446075797
0.484133382088665 0.117265503892094 0.218749999999996
0.497704299104458 0.116011292303022 0.218749999999997
-0.207713421943314 0.106796883743389 0.198336620236425
-0.17759628880138 0.101569479602039 0.179387280224034
-0.193574522938195 0.106785763219181 0.198296308336173
-0.166599988009274 0.102745686174391 0.183651029048814
-0.167936197027838 0.108254061679543 0.203618890254987
-0.139947459562206 0.102117574732884 0.181374125073354
-0.135087954181604 0.102171118266708 0.181568220383467
-0.139616645001653 0.107655519658144 0.20144917542742
-0.109476181204181 0.101547345906935 0.179307045579294
-0.112117148826126 0.102896065687078 0.184196154782313
-0.112837406777009 0.108660843027683 0.205093472642005
-0.0972246837810336 0.107882398048971 0.202271609594177
-0.103379857173441 0.108838750504233 0.205738387244501
-0.0769199064193627 0.107411612830302 0.200565013176506
-0.0645675098943698 0.105611583977795 0.194039908586169
-0.0524830419765375 0.105443588676385 0.19343092561856
-0.0709405069919287 0.109970482901751 0.209840917185509
-0.0521307669104917 0.109736439286563 0.208992509080454
-0.023951479239758 0.104678264881461 0.190656626861966
-0.0382261739826875 0.111570842511314 0.215642220770181
-0.00282079405197673 0.105003172940134 0.191834418574658
-0.00155612754057211 0.105568803453734 0.193884829186456
0.0151702514768208 0.107124758116948 0.19952516484061
0.0214324904103991 0.109597280635444 0.208488058970161
0.016061106498392 0.111671178811587 0.216005939858678
0.0167991011112269 0.114488217310444 0.226217704417034
0.0415217184589378 0.112306677003285 0.218309620803587
0.0330789740711388 0.114554952884361 0.226459620872487
0.0457320082995432 0.113853761086336 0.223917800604648
0.0738308524851482 0.111213352869109 0.214346320817205
0.0742291724316702 0.11424148516413 0.225323300386657
0.0902942483589968 0.111032483788673 0.213690670400626
0.0777315162047445 0.116569246783765 0.233761436257835
0.0959398951177101 0.117258879305081 0.236261354147608
0.103564469831388 0.117165373182037 0.235922394451572
0.114951427887691 0.118416576004189 0.240458004681876
0.125038815318252 0.118448967402967 0.240575423502448
0.162373949768988 0.112191954056843 0.217893750122757
0.148716020120229 0.118072907482575 0.239212206291033
0.148554060338232 0.120439641178093 0.247791615937284
0.192542108419432 0.113062506928192 0.221049504281399
0.19520948677026 0.118171322751583 0.239568961641192
0.182585123255071 0.12083581934796 0.249227761803058
0.204411106066142 0.119302843152424 0.243670723094243
0.236906309699985 0.114835686756299 0.227477281158296
0.22357492282767 0.121172096584158 0.250446766784281
0.272279510308554 0.11474727388331 0.227156784493716
0.238634234104765 0.122174359953875 0.254079971499508
0.25595225087867 0.123887961106746 0.26029177567867
0.286338883621394 0.117388712037355 0.236731997802131
0.288406097140219 0.121462566548532 0.251499720405148
0.28436679951402 0.125457812306211 0.265982486276734
0.325807296521747 0.118479689872548 0.24068679245471
0.315879870729088 0.12249406146763 0.255238889486885
0.331504331091535 0.121206438357681 0.250571255713321
0.332087297566673 0.12501924189388 0.26439266853204
0.367532616903057 0.118676713897433 0.241401004544925
0.379626729646901 0.119614642585062 0.244800996037584
0.39798893864294 0.122103231950223 0.253822132486293
0.41344398622704 0.119912975206033 0.245882451788607
0.409430662208165 0.122896640680174 0.256698239132369
0.416557161869626 0.125785534504867 0.267170479246884
0.434682563352816 0.123533263479556 0.259005996780132
0.458333333333332 0.121834943584584 0.252937710518397
0.442260325518137 0.126906378465106 0.271233538602752
0.455723824495668 0.128194534567126 0.275903104472576
-0.207779787640455 0.107876065833895 0.20224865531451
-0.222034743540511 0.114029702770425 0.224555589209428
-0.198392505338516 0.110186986184997 0.210625741587254
-0.196009051552166 0.112134538199839 0.217685617641057
-0.190103576282757 0.110550071964397 0.211941927537582
-0.194352186642048 0.115355335041456 0.22936100619192
-0.168653032828645 0.112177666256816 0.217841956847605
-0.159248989274666 0.114232411992945 0.225290410141073
-0.162326577471281 0.117184441338625 0.235991516519161
-0.157054792036114 0.116587634385986 0.233828091315847
-0.12281973774149 0.111485386840862 0.215332443964776
-0.140029393221008 0.117811801687416 0.238265697783532
-0.110718288033559 0.111282942206071 0.214598582163661
-0.104719743236149 0.112477829999597 0.218930050415196
-0.094138706461311 0.111588682697966 0.215706891446784
-0.104324294982311 0.119912535651925 0.245880858404882
-0.0836137752165624 0.113931655359718 0.224200167345638
-0.0904827661275353 0.120919808422284 0.249532222197436
-0.0783664643070355 0.119242691239412 0.24345267240953
-0.0667089076701738 0.119356871815157 0.243866576996607
-0.0392723893761823 0.114566782584781 0.226502503536496
-0.0430798628105586 0.118100238432568 0.239311280984726
-0.0410243166565707 0.121181832496343 0.250482059465908
-0.0329527724904239 0.121581704911776 0.251931596971857
-0.00494559853421012 0.116809915818013 0.23463386150697
-0.0174250982338026 0.122496405807837 0.255247387720078
0.0156782706796973 0.115720912820295 0.230686225640246
0.00168108858986635 0.124526649366772 0.26260702062122
0.0423296655453974 0.116611925820961 0.233916147767662
0.0207107506022825 0.124782896611253 0.26353591688247
0.0460213847747509 0.120309905839227 0.247321325333878
0.0534532276751482 0.120678382094018 0.248657051757495
0.0667338809349156 0.120447084388694 0.247818597575699
0.0785406156221672 0.120495992469857 0.247995889369918
0.0622820555727205 0.126686871370881 0.270437825386125
0.104813321073133 0.12164586046247 0.252164160843144
0.0996216796153625 0.124946794722886 0.264130047537151
0.113085655690928 0.124297192058038 0.26177523787708
0.119909287829274 0.123005932430465 0.257094421727129
0.118212758359269 0.128779623041251 0.278024050191226
0.15555368128554 0.123592734349992 0.259221578685418
0.158970944670283 0.125478314015298 0.266056804972156
0.145108131765693 0.130525715884211 0.284353636746962
0.196518040671155 0.12315976212548 0.257652054371571
0.172856763528021 0.13090630640157 0.285733277372393
0.183119125301089 0.12888538941089 0.278407453281181
0.220961137796664 0.123613309266673 0.259296162758398
0.221916768207627 0.127590132394864 0.273712146598091
0.248895704308112 0.125030101946886 0.264432036224177
0.236242265694172 0.130408676295611 0.283929368238301
0.252404503807477 0.126819938950579 0.270920195362564
0.256613157301811 0.13348014142969 0.295063429349342
0.244140560593831 0.134854529164685 0.300045584888695
0.285428793597556 0.130364450224338 0.283769048729943
0.307790228952198 0.127528020888904 0.273486992388999
0.284199474404641 0.13637257023202 0.302083333333329
0.314928118321991 0.134293237582503 0.298010902903298
0.328423149851994 0.132329069910475 0.290890795092197
0.32031073834863 0.136679045750989 0.302083333333329
0.362852177483881 0.130815419253973 0.285403811462383
0.359228742317696 0.139757895367814 0.302083333333329
0.389552519077348 0.132043798468694 0.289856686115752
0.394386719321131 0.14056247229535 0.302083333333329
0.40250809099813 0.141533492358073 0.302083333333329
0.41282884584363 0.140389680754622 0.302083333333329
0.424207611541371 0.136965752662895 0.302083333333329
0.438370025903632 0.142088865795616 0.302083333333329
-0.245148202565715 0.117670414303754 0.237753168517741
-0.232356749731577 0.117150729157453 0.235869309862404
-0.242240838790784 0.123723372432605 0.259695141734825
-0.245661431513678 0.123493955260897 0.258863504487386
-0.213306411238212 0.119557461727362 0.244593715428328
-0.201687073466351 0.118103621531781 0.239323544719346
-0.223357218833847 0.124580537717966 0.262802365894264
-0.194037487758762 0.11967744715235 0.24502866259391
-0.177707266660973 0.11972473177245 0.245200069341774
-0.171489555893087 0.121321758897088 0.25098929266859
-0.170869044872756 0.121311358687985 0.250951591910592
-0.149745305987976 0.121080602180208 0.250115099569904
-0.165197945668969 0.126134386522696 0.26843506781142
-0.132510854808841 0.120996730538637 0.249811064869212
-0.130641587294459 0.121759786354547 0.252577142201886
-0.138791262431386 0.128478195934239 0.276931376928266
-0.114847178480554 0.123864335645207 0.260206133380528
-0.105818014980491 0.123183099931938 0.257736653919929
-0.0865165916225837 0.12200695340624 0.253473122764279
-0.112426808040869 0.129475867190069 0.280547935230656
-0.0959423610283472 0.128691855203845 0.277705891780594
-0.0548180219434416 0.1231759813161 0.257710848937528
-0.0808689173498667 0.130684052442616 0.284927606771143
-0.0719191310627036 0.131672384687965 0.288510311160535
-0.0581495748012516 0.131744126598212 0.288770375585183
-0.0442932409503033 0.128177124700987 0.275839993707744
-0.0267108195524123 0.126764118506806 0.27071784625384
-0.0406688295594795 0.131938083107609 0.289473467931748
-0.017549560965582 0.12995173638103 0.282272961047903
0.000248930468882153 0.130993059065791 0.286047755780166
-0.00448519583823595 0.132974588877939 0.293230801349201
0.018902454400261 0.129196336196131 0.279534635377651
0.0274173521299574 0.12968385394723 0.281301887225385
0.0245250892435587 0.132334235007831 0.290909518570065
0.0385417592913864 0.13208372682547 0.290001426409007
0.0596781634671074 0.130451760805919 0.28408554958814
0.0720407322326968 0.131086143248392 0.286385185942105
0.0920080734547086 0.12935397016437 0.280106058512531
0.0727608945664538 0.137798933453898 0.302083333333329
0.101600584155216 0.132304087038006 0.290800232179462
0.106225717803495 0.138562368257472 0.302083333333329
0.113910499368638 0.135921409724754 0.302083333333329
0.123147115667355 0.1380839979819 0.302083333333329
0.140398550394078 0.138856434748908 0.302083333333329
0.149082702913622 0.138118939098522 0.302083333333329
0.160100269053851 0.137845982940045 0.302083333333329
0.181702531854242 0.138784465679699 0.302083333333329
0.191035845344401 0.139880811316334 0.302083333333329
0.200617947500196 0.136380215628662 0.302083333333329
0.214191548467449 0.135262739886387 0.30152534875486
0.225498036419942 0.142808802942514 0.302083333333329
0.232633952881523 0.144046035472454 0.302083333333329
0.247074120178025 0.136885377100124 0.302083333333329
0.26414315126719 0.137648545994731 0.302083333333329
0.269319949895954 0.137006877712737 0.302083333333329
0.28824043988295 0.146282660215339 0.302083333333329
0.307700787065741 0.144249904281132 0.302083333333329
0.306873780644561 0.14715548587736 0.302083333333329
0.33766232741808 0.141480187389395 0.302083333333329
0.345223114878592 0.149472021770042 0.302083333333329
0.361052277855725 0.144368010852351 0.302083333333329
0.379758176201341 0.143001757592501 0.302083333333329
0.384678528088727 0.147297258362212 0.302083333333329
0.405481025589172 0.144273029883327 0.302083333333329
0.409793784464733 0.14422349935176 0.302083333333329
0.431602316172058 0.149631897523024 0.302083333333329
0.445206816760239 0.146118107621597 0.302083333333329
-0.278914531788671 0.12849973721928 0.277009464086518
-0.291920275315827 0.130739236839414 0.285127650209503
-0.247163500890843 0.123786408717863 0.259923648268887
-0.253814918545605 0.127607937881891 0.273776691488488
-0.243001826778378 0.126623086241636 0.270206604292565
-0.240563607456666 0.130903517879505 0.285723168979839
-0.221305000617032 0.127165479642632 0.272172780371178
-0.226814655199433 0.129736938020407 0.281494316990611
-0.214802334713464 0.130752613683554 0.285176141269521
-0.202378952361286 0.129666407882318 0.281238645240044
-0.201790719840551 0.132648416364755 0.292048425988878
-0.205920743978297 0.134843988567451 0.300007375223649
-0.19413109474179 0.135156852977323 0.301141508709436
-0.186478113283962 0.1346237330765 0.299208949068957
-0.175075348686087 0.133749666352502 0.296040457194463
-0.169584125704469 0.134958569683675 0.300422731769968
-0.138411521617024 0.130871931564298 0.285608668587229
-0.130043672495966 0.131723311776823 0.288694921857636
-0.130704244813222 0.134110434138131 0.297348240417377
-0.115782492135989 0.133140082941786 0.293830717330629
-0.111673151131476 0.13416817323483 0.297557544642913
-0.0993610854227673 0.130865736311975 0.285586210797567
-0.100896244913122 0.135770985429166 0.302083333333329
-0.0881030416090356 0.138883438034275 0.302083333333329
-0.0752491804616666 0.140951240818051 0.302083333333329
-0.0720591897428998 0.136828646997047 0.302083333333329
-0.050871117524075 0.141086600643862 0.302083333333329
-0.0448382379282912 0.140804018308307 0.302083333333329
-0.0312286710240225 0.139824902751352 0.302083333333329
-0.023285350372427 0.1376199056584 0.302083333333329
-0.0152809536303458 0.138117418279154 0.302083333333329
-0.00388146185821163 0.142185418534206 0.302083333333329
0.00950375591731888 0.138318582417528 0.302083333333329
0.0176406486101609 0.14166324492443 0.302083333333329
0.0297119568122203 0.137950334480576 0.302083333333329
0.0354151977065401 0.137936491849307 0.302083333333329
0.057792081139279 0.143179442416032 0.302083333333329
0.0598943047682304 0.138526309480325 0.302083333333329
0.0779190171179519 0.140069250472298 0.302083333333329
0.0818762677874179 0.143792507047193 0.302083333333329
0.101344894895566 0.146030832837173 0.302083333333329
0.114176788331795 0.141116364726487 0.302083333333329
0.125568353629557 0.149492344050953 0.302083333333329
0.139743319449509 0.147168433910565 0.302083333333329
