ply
format ascii 1.0
element vertex 837
property float x
property float y
property float z
end_header
-0.0857379092567194 -0.163283257506718 0.392544570284397
-0.0899722377127552 -0.160955998259388 0.392544570284397
-0.0975216800976098 -0.156545231020638 0.392544570284397
-0.100017733766227 -0.144424007012309 0.392544570284398
-0.116996678053388 -0.143931428047648 0.392544570284397
-0.125007134571149 -0.122389668808048 0.392544570284398
-0.128242735766961 -0.126087940376841 0.392544570284397
-0.137587772443083 -0.121094799816831 0.392544570284397
-0.149871009708614 -0.105100231536321 0.392544570284397
-0.165686917794879 -0.0989423476918973 0.392544570284397
-0.173498744353894 -0.0926657086237837 0.392544570284397
-0.178358253362905 -0.088828751126098 0.392544570284397
-0.19539643933252 -0.0666876679359881 0.392544570284397
-0.196266499365072 -0.0669372557645775 0.392544570284397
-0.209497226029496 -0.0533865593579783 0.392544570284397
-0.218723281119687 -0.0422261169342455 0.392544570284397
-0.219514170237389 -0.0400617441825249 0.392544570284397
-0.231122109736876 -0.0386244263851572 0.392544570284397
-0.238499002813576 -0.0262944859159902 0.392544570284397
-0.253313399376574 -0.0161660430157644 0.392544570284397
-0.26668694280655 -0.00829946455279066 0.392544570284397
-0.265683618202478 -0.0018176325270794 0.392544570284397
-0.283305044150402 0.00876741606569934 0.392544570284397
-0.286265396309627 0.0183860607940318 0.392544570284398
-0.305047640425641 0.0356233830483387 0.392544570284397
-0.317126020447918 0.0355179523124223 0.389702872115182
-0.326041293156795 0.0442380445989303 0.386731114545556
-0.340873818689195 0.0610044460793889 0.381786939368089
-0.358957026318913 0.0710906128500164 0.375212440402744
-0.358957026318913 0.0751673280391561 0.391627879755754
-0.358957026318913 0.0719188189069457 0.400104763679153
-0.358957026318913 0.0719314188661368 0.404989264627332
-0.358957026318913 0.076964746754756 0.414589124277115
-0.358957026318913 0.0775122773850527 0.433566618492833
-0.358957026318912 0.0833487061866027 0.436933558878422
-0.358957026318913 0.0775684792479042 0.454500902544101
-0.358957026318913 0.0825553795123599 0.45982650340576
-0.358957026318913 0.083496289595734 0.464276896411304
-0.363059148825742 0.0755740126626752 0.482756892215275
-0.363540848713307 0.084909122438447 0.484080351779313
-0.367460294110047 0.0892791730849724 0.494848939503643
-0.37182528994398 0.086235858198577 0.506841666993385
-0.373180529575446 0.0943823921621745 0.51056515727879
-0.376669739944387 0.0922275717632232 0.518630751609539
-0.381485960176601 0.101391138207666 0.521411397657084
-0.395533005413124 0.103281575503839 0.529521463005709
-0.401241219327686 0.10963459403908 0.532817101845873
-0.413397026586044 0.11909675924469 0.539835260438704
-0.396346749938868 0.112704561490183 0.549660919381557
-0.400935207264518 0.113469304377791 0.566553802247305
-0.397411431789089 0.112882008465219 0.584967990462879
-0.391964429673413 0.111974174779274 0.594205297989717
-0.391680531617352 0.111926858436596 0.607378036646735
-0.40243767897089 0.113719716328853 0.607050383147769
-0.397574049920387 0.112909111487103 0.624923290416991
-0.403206975981595 0.113847932497304 0.630201525135118
-0.410419884160566 0.118706990580787 0.64023097078443
-0.409080876483012 0.129681170073292 0.642162833736656
-0.027249851738555 -0.229814150089622 0.142528136364567
-0.028689238018022 -0.229814150089622 0.133601516077093
-0.0240600640081391 -0.229814150089622 0.151159262035056
-0.0287776542940209 -0.229814150089622 0.15740893457459
-0.0322323649132909 -0.229814150089622 0.170759450881453
-0.0267612728003897 -0.229814150089622 0.187031809413509
-0.0253193743503119 -0.229814150089622 0.190125035165778
-0.0273855563265794 -0.229814150089622 0.203921553113437
-0.0290709936661334 -0.229814150089622 0.202951326329322
-0.0280892328822713 -0.229814150089622 0.220713567790709
-0.0219069026249664 -0.229814150089622 0.225790868134513
-0.0284985680892996 -0.229814150089622 0.235009190091774
-0.0230930076034444 -0.229814150089622 0.247734423639154
-0.0275642049807553 -0.229814150089622 0.260076428430186
-0.028526651152715 -0.228007617714693 0.26954922682722
-0.0375707363942368 -0.225047033351055 0.261770705219359
-0.0315708301990631 -0.229014829848731 0.276743599213174
-0.0286730900819958 -0.23243718435281 0.301188988527916
-0.0176602418913764 -0.233944459605721 0.311955240334367
-0.0194454450325972 -0.235541516234862 0.323569591795477
-0.0255942767610295 -0.234677727833166 0.329739508950419
-0.0185459576222833 -0.232944880545827 0.342116989574215
-0.020645005344171 -0.231273718236664 0.354053863211034
-0.0232420172419982 -0.231103090678274 0.355272631485249
-0.0177156830081298 -0.228830315193566 0.371506742090236
-0.0316145349649009 -0.229168668520573 0.369089932611623
-0.0253161893975116 -0.226563834521436 0.379147353968989
-0.0412384347525723 -0.219464492239072 0.381513801396444
-0.0448343899042029 -0.218839635785352 0.381722086881017
-0.0487413276764172 -0.214139324860272 0.383288857189377
-0.051905346690593 -0.203514241412702 0.3868305516719
-0.0641400177377732 -0.195255813734849 0.389583360897852
-0.0701631309232008 -0.196717682144284 0.38909607142804
-0.0772829673525332 -0.18752358797139 0.392160769485671
-0.0857166041948701 -0.181925047509868 0.392544570284397
-0.0917243070625414 -0.17133617959194 0.392544570284397
-0.0948678493670976 -0.170157846489747 0.392544570284397
-0.107793852850457 -0.157988528241648 0.392544570284397
-0.112815830372536 -0.149242512420689 0.392544570284397
-0.124566149852279 -0.13911263076143 0.392544570284398
-0.127072721189497 -0.137226573344773 0.392544570284397
-0.143032815973739 -0.125927859174143 0.392544570284397
-0.142631794400395 -0.121138587722731 0.392544570284397
-0.159637401407282 -0.114088114993145 0.392544570284397
-0.163358965326789 -0.106619838253192 0.392544570284397
-0.179192512424177 -0.0942590455256701 0.392544570284398
-0.184859772008009 -0.0956527987702766 0.392544570284397
-0.199939862217524 -0.0830510636258645 0.392544570284397
-0.202007309064806 -0.0717333134514023 0.392544570284397
-0.208746113190214 -0.0732302514300907 0.392544570284397
-0.222871339293017 -0.0564096067152403 0.392544570284397
-0.232733623638036 -0.0516770025567969 0.392544570284397
-0.233194751893379 -0.0474494103067433 0.392544570284397
-0.243930049462955 -0.03736808912449 0.392544570284397
-0.257019112502487 -0.0197905352900665 0.392544570284398
-0.267800431074502 -0.0150978624829829 0.392544570284397
-0.281924477355442 -0.000266437977683148 0.392544570284398
-0.290235696814938 -0.000435087294124854 0.392544570284397
-0.297155845649573 0.00731869832115754 0.392544570284397
-0.303622618509532 0.0215291281357051 0.392544570284397
-0.313958711830429 0.0254000028524664 0.390758641654344
-0.347442117813861 0.0505888615787615 0.379597506326534
-0.358957026318913 0.0604798644836883 0.375682421114484
-0.358957026318913 0.0678525260801313 0.384293606200925
-0.358957026318913 0.0622061324075389 0.392440590205402
-0.358957026318913 0.0616835825464583 0.404466942181536
-0.358957026318913 0.0611691354258308 0.417736067092204
-0.358957026318912 0.061475052065462 0.429511228601749
-0.358957026318913 0.0600426028759791 0.432323335463022
-0.358957026318913 0.054665633906352 0.450401788186326
-0.358957026318913 0.0668744558659813 0.458148044110051
-0.358957026318912 0.0601738945519829 0.466487673327994
-0.362232275138034 0.0671876688919067 0.480485075429555
-0.364351202779799 0.0725142871373938 0.486306781278762
-0.367550069403649 0.066323996442695 0.49509559509564
-0.370273836737372 0.0725701346691426 0.502579084340891
-0.374571244384606 0.0776105374945401 0.51438611481386
-0.379743469137397 0.0794218464434558 0.520405369986539
-0.38462879083721 0.0903249062809874 0.523225911785003
-0.394833710052039 0.0955266760287982 0.529117724640743
-0.397883291087907 0.105265515072514 0.530878401072718
-0.40835943296811 0.102815445567335 0.536926804407321
-0.414251416362892 0.114351822164104 0.54032854260636
-0.433236622413261 0.124382185931178 0.540593333520702
-0.438110532903133 0.137163956646758 0.539733931599779
-0.445297092439453 0.139407944710146 0.538466747255059
-0.467428260114419 0.15681432964342 0.534564425279379
-0.0405503226771528 -0.229814150089622 0.116420224555175
-0.0340151629688448 -0.229814150089622 0.140444139811918
-0.0375929534369214 -0.229814150089622 0.151028097117046
-0.0432621591180089 -0.229814150089622 0.154318269316108
-0.037079423811934 -0.229814150089622 0.163213240821485
-0.0440999701078031 -0.229814150089622 0.163422258110387
-0.042006006027142 -0.229814150089622 0.174569257391979
-0.0432965355281734 -0.229814150089622 0.189741628735309
-0.0426410503734463 -0.229814150089622 0.200278839662617
-0.0401192030616432 -0.229814150089622 0.209701913803802
-0.0419499135704365 -0.229814150089622 0.220174288091777
-0.0424117895287245 -0.229814150089622 0.229086995067597
-0.0414428490024071 -0.229814150089622 0.248453080580914
-0.0398402221960893 -0.229814150089622 0.257196016693681
-0.0392263915958641 -0.229814150089622 0.261350958698144
-0.0469003654856561 -0.223939350944503 0.261770705219359
-0.0384331055289207 -0.229628693490808 0.281128339513701
-0.0412814777271013 -0.230423521401154 0.286805681730437
-0.0343614060592573 -0.231647466780153 0.295548148723246
-0.0397046880348857 -0.232513396214128 0.301733358965898
-0.0327773771984074 -0.234947009401946 0.327816069173424
-0.036675990544287 -0.233924169430526 0.335122068969246
-0.0372273254330688 -0.232900322567386 0.342435260848788
-0.0386736867659137 -0.232324682079048 0.346546978622609
-0.0392257481829744 -0.230896217502515 0.356750297026373
-0.0410060691635004 -0.229746440944532 0.364962986726217
-0.0355157099475103 -0.22797042257669 0.377648832210748
-0.0427924946644653 -0.227056419283312 0.378983159048363
-0.0478688311756632 -0.223511133581043 0.38016492094912
-0.0530845704034874 -0.219137204466213 0.38162289732073
-0.0589229317364399 -0.214857233299034 0.383049554376457
-0.0663391992714819 -0.205049957984938 0.386318646147822
-0.0763557547712503 -0.203210794425637 0.386931700667589
-0.0807735031287644 -0.191872929840265 0.390710988862713
-0.087284909043762 -0.190615106758452 0.391130263223317
-0.103072032092318 -0.174905142488437 0.392544570284397
-0.102267200812287 -0.174319335723667 0.392544570284397
-0.119129284472783 -0.163702472695557 0.392544570284397
-0.122449393343064 -0.155935332090666 0.392544570284397
-0.133351814383383 -0.147487187296119 0.392544570284397
-0.138844853558398 -0.140066304928532 0.392544570284398
-0.149902330554338 -0.131854933654831 0.392544570284397
-0.159381204976935 -0.127363281737463 0.392544570284397
-0.165423263679964 -0.11236204360961 0.392544570284397
-0.179691696639518 -0.115623799301969 0.392544570284397
-0.176248671265209 -0.108197255269413 0.392544570284397
-0.187607955024545 -0.0976237647792113 0.392544570284397
-0.19815336252679 -0.0974481714298821 0.392544570284397
-0.204420902108467 -0.0819168889975718 0.392544570284397
-0.221186344872174 -0.0736302419800376 0.392544570284397
-0.23536508988622 -0.0624117589197653 0.392544570284398
-0.242372162898531 -0.0532283644543341 0.392544570284398
-0.246768622637591 -0.0489030459919384 0.392544570284397
-0.258779403401357 -0.0428546350740475 0.392544570284397
-0.264637778247135 -0.038798563008594 0.392544570284397
-0.284049001672148 -0.0199952824292728 0.392544570284397
-0.28405408789841 -0.0175249424109471 0.392544570284397
-0.29580995528042 -0.00396175707980372 0.392544570284397
-0.307303508818406 -0.00065173473788691 0.392544570284397
-0.328787829077145 0.0150272654246197 0.385815602572106
-0.342362652901059 0.0375733948236209 0.381290661297468
-0.358957026318913 0.0459406863515159 0.375933055079133
-0.358957026318913 0.0474558812259003 0.379599501053689
-0.358957026318913 0.0548770939788463 0.385618115383144
-0.358957026318912 0.0521756701658562 0.407705089176279
-0.358957026318913 0.0530807749369954 0.410891400486374
-0.358957026318913 0.0533610291670691 0.421290786305892
-0.358957026318913 0.0444099980613873 0.43862675263504
-0.358957026318913 0.0528142660309611 0.446611445955909
-0.358957026318913 0.0527585276987479 0.45646186135899
-0.358957026318913 0.0427117427484516 0.463607800765346
-0.359056196698289 0.0459632760539938 0.471758871633939
-0.364220415758292 0.0562789459885823 0.485947446890414
-0.36486001296808 0.0523426798115911 0.487704725781852
-0.371242104621216 0.0544164503064818 0.505239378487737
-0.37418264295277 0.0549785522072902 0.513318441154721
-0.375623709876211 0.0619867431196677 0.517277739986798
-0.380960202264968 0.0718146114103321 0.521107851185273
-0.392352081922719 0.0713128584586438 0.527684955972252
-0.401468352912219 0.0839096283031532 0.532948237482045
-0.396202378676124 0.0900435699894516 0.52990792583929
-0.412133817915893 0.098633478286669 0.53910594657295
-0.418030163004767 0.106854483539192 0.542510202997245
-0.427201994181395 0.112054927305547 0.541657401296525
-0.438992384266894 0.122630786912198 0.539578437411374
-0.453298443327858 0.136945325321176 0.537055893211317
-0.0648571648331989 -0.229814150089622 0.102741258840518
-0.0554322096415614 -0.229814150089622 0.121353635587273
-0.059622496687563 -0.229814150089622 0.127564302428712
-0.057810266429679 -0.229814150089622 0.134957633905222
-0.0575588032876451 -0.229814150089622 0.154686558607781
-0.0623431891314452 -0.229814150089622 0.161422615573493
-0.0536522026185994 -0.229814150089622 0.175581032579954
-0.0579111029029297 -0.229814150089622 0.182315254723005
-0.0498293623796537 -0.229814150089622 0.191738348738098
-0.0607642214681001 -0.229814150089622 0.19497669265586
-0.0561280607802196 -0.229814150089622 0.218039972999468
-0.0512087448211899 -0.229814150089622 0.226460343965814
-0.0516546478566539 -0.229814150089622 0.235701588029743
-0.054471995798886 -0.229814150089622 0.234546117135339
-0.0636115007897141 -0.229814150089622 0.246149089407761
-0.05620470547132 -0.229814150089622 0.259157502466313
-0.0598379588835888 -0.229207445320307 0.261770705219359
-0.0565273553942039 -0.228815239867121 0.275317956487391
-0.0577111120802095 -0.229984598766139 0.283670520051771
-0.0549654087640473 -0.232593383742096 0.302304698451379
-0.0528554507369661 -0.232689839411464 0.302993667518289
-0.0506112607664041 -0.235136279010062 0.326464143401177
-0.0489960206729448 -0.233765986875447 0.336251944362667
-0.0543629695704234 -0.233630120537641 0.337222418204134
-0.0579151761815043 -0.232798219216682 0.343164570496672
-0.0450079042390938 -0.230351254742522 0.360642888169166
-0.0517848952128186 -0.230786409577394 0.357534639348666
-0.0574898383973409 -0.229069851073232 0.369795771521197
-0.0602888234228629 -0.227715271129554 0.378763541766283
-0.0699001383799256 -0.219690780428571 0.381438371999944
-0.0718266906039601 -0.211468156625656 0.384179246600915
-0.0794109186567946 -0.205614605149639 0.386130430426254
-0.0849462381618493 -0.203549453698796 0.386818814243202
-0.0936346788691658 -0.20339371027285 0.386870728718518
-0.0959226414280606 -0.190757474972377 0.391082807152009
-0.107057236292727 -0.184602134719839 0.392544570284397
-0.116189306181584 -0.174033232332171 0.392544570284397
-0.117760267434999 -0.177521394463228 0.392544570284397
-0.136553485183832 -0.166539271848477 0.392544570284397
-0.139486641511075 -0.161171662741378 0.392544570284397
-0.143225015623541 -0.146991530557173 0.392544570284397
-0.153888346200931 -0.138294964906076 0.392544570284397
-0.171173285962105 -0.134671321798052 0.392544570284397
-0.177669989611528 -0.121807340114439 0.392544570284397
-0.184266526371558 -0.115200309583878 0.392544570284397
-0.193085347546711 -0.107230378542417 0.392544570284398
-0.199292548534484 -0.104519434481 0.392544570284397
-0.207425479624176 -0.0925183724530198 0.392544570284397
-0.218631196408475 -0.0860313042417027 0.392544570284397
-0.230327937297634 -0.085741932445789 0.392544570284397
-0.244217000802389 -0.0705428087974466 0.392544570284397
-0.250839731310242 -0.0656167490814608 0.392544570284397
-0.25457068022492 -0.0505062031543905 0.392544570284397
-0.263082217865638 -0.0488841509456737 0.392544570284397
-0.284225049661542 -0.0319193474464335 0.392544570284397
-0.287435890868429 -0.0280664030853519 0.392544570284397
-0.303261423301223 -0.0169138800703527 0.392544570284397
-0.297521177532648 -0.0111493196322429 0.392544570284397
-0.326497803061243 0.000444394074815481 0.386578944577406
-0.335659446800746 0.011668592407933 0.383525063330905
-0.340379827694059 0.0204891268605675 0.381951603033135
-0.358957026318913 0.0367032604240857 0.37017758983148
-0.358957026318913 0.0292742591697156 0.394048514541666
-0.358957026318912 0.0329409235645254 0.394872674531291
-0.358957026318913 0.0322578545303449 0.411923596309014
-0.358957026318912 0.034064088167561 0.41298043235078
-0.358957026318913 0.0302014367553541 0.438409681964371
-0.358957026318913 0.0281845360916682 0.443981425854159
-0.358957026318913 0.031436814132136 0.454886329219147
-0.358957026318913 0.0407874326076939 0.464431022824737
-0.360210282339594 0.0318721537073492 0.474929695873542
-0.361517231919848 0.0361198029353607 0.478520510333655
-0.363617451182486 0.0458178368444623 0.484290815333659
-0.368660339379189 0.0427217054007118 0.498146036782933
-0.371814149506703 0.0454491110146554 0.506811058893523
-0.374039977667124 0.0424850661783519 0.512926471503869
-0.386455743057389 0.052341728963098 0.52428070314112
-0.383830742766901 0.0595419075036521 0.522765158516784
-0.393531042293094 0.055819485416889 0.528365629059452
-0.401105163931664 0.0690826231959059 0.532738550226355
-0.408614104276195 0.076367053920328 0.537073838955599
-0.414160298348728 0.082057788864872 0.540275935596353
-0.426174319558683 0.0920822617342772 0.541838608059899
-0.438221160737539 0.108936776086321 0.539714424927756
-0.446903813177547 0.109947471683834 0.538183439038469
-0.46147521141226 0.130101862794145 0.535614108383041
-0.066400122055261 -0.229814150089622 0.104672516798729
-0.0631158034799625 -0.229814150089622 0.113582301765617
-0.0694789304672993 -0.229814150089622 0.119498946805003
-0.0673591333377169 -0.229814150089622 0.131761576956629
-0.0683913584348196 -0.229814150089622 0.141031007813402
-0.0702662251038509 -0.229814150089622 0.156924293641657
-0.0662361764120093 -0.229814150089622 0.160998823742583
-0.067732453249756 -0.229814150089622 0.176916188333349
-0.0682057621991909 -0.229814150089622 0.18682510641478
-0.0685974212415319 -0.229814150089622 0.196449225762535
-0.0749455205865797 -0.229814150089622 0.200498375213826
-0.071097567688061 -0.229814150089622 0.205328174404851
-0.0683378806235973 -0.229814150089622 0.214217356164499
-0.0678038347928571 -0.229814150089622 0.223236952928885
-0.0674007714180868 -0.229814150089622 0.243309175920665
-0.0701776839611648 -0.229814150089622 0.253016860803871
-0.0750323041501064 -0.229814150089622 0.258913606593222
-0.0762333315323925 -0.224979702953816 0.261770705219359
-0.067864381201439 -0.229046259161413 0.276968094303759
-0.072821482417991 -0.229994243376546 0.283739410126102
-0.0669357614943671 -0.233294415830763 0.307312070513264
-0.0667969156081259 -0.234455439615013 0.315605097543581
-0.0707263434409838 -0.235211667544328 0.321006725610092
-0.0710913718472861 -0.235220474430595 0.325862747540226
-0.0729817097020762 -0.23332263638476 0.339418733581847
-0.0633306080960276 -0.231750186837258 0.350650516063953
-0.0693809465686941 -0.231548528627323 0.352090931849192
-0.0683962897209338 -0.230529811160467 0.359367485183849
-0.0752478316994825 -0.228337989735616 0.375023352504144
-0.0774523175975138 -0.224519546766395 0.37982878322067
-0.0744475702008817 -0.223553848364839 0.380150682687855
-0.0877851951509958 -0.217651355704194 0.382118180241403
-0.0987165285746405 -0.210012099741731 0.384664598895557
-0.103107544264308 -0.205012797785841 0.386331032880854
-0.107375019146784 -0.196261629775345 0.389248088884353
-0.113659609389683 -0.192943792165764 0.390354034754213
-0.120805276105573 -0.184579776621173 0.392544570284397
-0.123399083806555 -0.185276361678431 0.392544570284397
-0.12820559047838 -0.170380646149492 0.392544570284397
-0.147458333441166 -0.16752311142632 0.392544570284397
-0.156366148145583 -0.158538069509454 0.392544570284397
-0.155512627024602 -0.14857561057279 0.392544570284397
-0.172109809504254 -0.144870805046402 0.392544570284397
-0.183654551786024 -0.128321566973615 0.392544570284397
-0.180400509139003 -0.124862091347512 0.392544570284397
-0.194206598187027 -0.117451928349222 0.392544570284397
-0.209227166494007 -0.110073693035764 0.392544570284397
-0.217779897081123 -0.106859612642964 0.392544570284397
-0.228130267732896 -0.097564263938397 0.392544570284398
-0.237181985978884 -0.0850252026170996 0.392544570284397
-0.245365983744807 -0.0803036832972334 0.392544570284397
-0.258688492054391 -0.0721215177787561 0.392544570284397
-0.257081738120064 -0.0639291083450608 0.392544570284397
-0.270488927773238 -0.0524391407830157 0.392544570284397
-0.276719559846961 -0.0447104949291615 0.392544570284397
-0.288989389006752 -0.0390300408538665 0.392544570284397
-0.298583883702833 -0.0285796107768199 0.392544570284397
-0.316461082780005 -0.0118468782815683 0.389924518004486
-0.339941761592032 0.00181769714166539 0.382097625067143
-0.346029690570835 0.00792843952169247 0.380068315407542
-0.358957026318913 0.0224360324708478 0.376471664552266
-0.358957026318913 0.0212943758467919 0.385533807152348
-0.358957026318913 0.0151842246512578 0.39313818940826
-0.358957026318913 0.0114580453189022 0.410779460447301
-0.358957026318913 0.0245836192682681 0.419628477237997
-0.358957026318913 0.0208953914624409 0.431978984663724
-0.358957026318913 0.0227482520871239 0.437007705741592
-0.358957026318913 0.0157974849600068 0.450617753198689
-0.358957026318913 0.0187951440315092 0.458673761510286
-0.361690547359451 0.0139095409534933 0.478996690590407
-0.360985729789228 0.0266982792544581 0.477060220231387
-0.363932568321982 0.0182379493165408 0.485156592558906
-0.36728313473989 0.0255002154163646 0.49436219813449
-0.370457521278166 0.024047390513311 0.503083753469024
-0.372215455412095 0.029243749916084 0.507913637806882
-0.37790292936199 0.0340061404985008 0.519342733851754
-0.387887478390656 0.040350343403569 0.52510731592119
-0.389503223912076 0.0491981326755598 0.526040167032924
-0.402743410709908 0.0574821853191011 0.533684392444774
-0.406183416264426 0.0616025613608155 0.535670480577687
-0.408541410920005 0.0653852761588504 0.537031869426834
-0.415848112885347 0.0663026772527887 0.541250395773413
-0.42706910213279 0.0792507499781285 0.541680833750215
-0.44924270194055 0.095108713910528 0.537771029844675
-0.467343036629123 0.112341412388756 0.534579452479226
-0.0847742575527535 -0.229814150089622 0.087672719493727
-0.0911919241610655 -0.229814150089622 0.0935468864338198
-0.0771209896441269 -0.229814150089622 0.117128866253421
-0.0898288921986479 -0.229814150089622 0.118526208716754
-0.0871104662770618 -0.229814150089622 0.124581690584182
-0.0895454094928156 -0.229814150089622 0.139242878563276
-0.092080588163824 -0.229814150089622 0.144618271295535
-0.0779490703082905 -0.229814150089622 0.164762269715059
-0.0825822558944617 -0.229814150089622 0.174429522591025
-0.0855284777945849 -0.229814150089622 0.174304072062113
-0.089064401784401 -0.229814150089622 0.187848516116128
-0.0844871877575664 -0.229814150089622 0.201597129755446
-0.08925061325958 -0.229814150089622 0.206825553320988
-0.07978063642311 -0.229814150089622 0.229942947573945
-0.0831333982550336 -0.229814150089622 0.229200903015929
-0.0780408749671638 -0.229814150089622 0.245159757815592
-0.0803302412418537 -0.229814150089622 0.257761939372858
-0.0797764451769315 -0.2294970086694 0.261770705219359
-0.0862943311802132 -0.229814150089622 0.259836570928514
-0.084199682354747 -0.229174832778452 0.277886477282601
-0.0737041906058942 -0.231361810771105 0.293507748658627
-0.0841243988535189 -0.232399249784954 0.300918027328941
-0.0840914595910348 -0.23329974594368 0.307350142748385
-0.0706190855694672 -0.235431931770892 0.324352337966686
-0.0782012904142583 -0.234315428754436 0.332327359512761
-0.0801535808628037 -0.232292499148767 0.346776856696048
-0.0767382457668551 -0.23250509574468 0.345258309582389
-0.0866897235852687 -0.231353575732636 0.353483452525527
-0.0918259452498932 -0.230790617417522 0.357504583347745
-0.0830460887498187 -0.226894530549692 0.379037121959571
-0.0906502176627953 -0.22816401905523 0.376266000221182
-0.0968403301171894 -0.222906020178584 0.380366625416606
-0.100866198776726 -0.218048085623138 0.381985936935088
-0.10653285087975 -0.20956123808341 0.384814886114998
-0.11870410674273 -0.204591002988478 0.386471631146642
-0.12376073689604 -0.196841587018984 0.389054769803139
-0.128001835560709 -0.194988676764863 0.389672406554514
-0.127008936436515 -0.188934804404872 0.391690364007844
-0.139764501888878 -0.183668952471201 0.392544570284398
-0.148588270947667 -0.17211824291472 0.392544570284397
-0.158363138659019 -0.15906613617922 0.392544570284397
-0.167379951410051 -0.163106386024486 0.392544570284397
-0.180741586405572 -0.148932320437302 0.392544570284397
-0.187352692071274 -0.137707067229645 0.392544570284397
-0.190741139887661 -0.14167278588607 0.392544570284397
-0.203441023260352 -0.122151268117245 0.392544570284397
-0.221860064297173 -0.11523083605161 0.392544570284397
-0.218263301391099 -0.117429035071124 0.392544570284398
-0.23552906080612 -0.0946253195297629 0.392544570284397
-0.24226234734204 -0.0908747715298037 0.392544570284397
-0.246348142636411 -0.0934931649218039 0.392544570284397
-0.261887714521431 -0.0787995244902846 0.392544570284397
-0.266745155600259 -0.0729342601710791 0.392544570284397
-0.27704233074954 -0.062653478347574 0.392544570284397
-0.287561748115156 -0.0517280064747255 0.392544570284397
-0.298214499370763 -0.0428505485189629 0.392544570284397
-0.316164916501295 -0.0316021405175858 0.390023240097389
-0.323574958068787 -0.0240921893131559 0.387553226241559
-0.339936561342726 -0.0129895221993729 0.382099358483579
-0.358957026318913 0.00957288696770858 0.371599968268075
-0.358957026318913 0.00788886316461285 0.39189954844037
-0.358957026318913 -0.000785213149817372 0.403571921537841
-0.358957026318913 0.0146308117579023 0.401158847547668
-0.358957026318912 0.00682913368833219 0.425255000541
-0.358957026318913 0.00434073441512546 0.431963699470737
-0.358957026318912 0.00788126547635417 0.440468434732981
-0.358957026318913 0.0110411608618844 0.44345903076323
-0.358957026318913 0.0115054559438571 0.456235234904739
-0.359061234313243 0.000636212423931099 0.471772712367274
-0.363469891204313 0.00143419547673846 0.483885397625612
-0.365971850593848 0.0142712506815373 0.490759474552752
-0.367156681695886 0.00625387552250847 0.49401477125147
-0.369062597110281 0.010931815616808 0.499251230815908
-0.371281245748952 0.0253541526233502 0.50534691785236
-0.375301278492012 0.0215179589041396 0.516391867039388
-0.382237645988943 0.0251234001080581 0.521845383663185
-0.386411264519734 0.0319498591681396 0.524255023445432
-0.397867917436625 0.0404547648558454 0.530869525091011
-0.400997454529145 0.046665793928889 0.532676364173817
-0.408326287352946 0.0539097503866383 0.536907667777484
-0.420560741214745 0.0587033250097617 0.542828433380255
-0.432819232214156 0.0699737003518762 0.540666930674287
-0.444094153621581 0.0800538065789188 0.538678857824791
-0.095289734542581 -0.229814150089622 0.0882189385369379
-0.101131738744094 -0.229814150089622 0.0957929017972986
-0.0968473515989225 -0.229814150089622 0.109241722294408
-0.101278312886235 -0.229814150089622 0.110223502652094
-0.100105012010855 -0.229814150089622 0.118640104241054
-0.104578766560502 -0.229814150089622 0.129596920288884
-0.102689404003519 -0.229814150089622 0.144430712938366
-0.100523715903194 -0.229814150089622 0.15683912233525
-0.0996090862499453 -0.229814150089622 0.156803442546646
-0.0965038813664554 -0.229814150089622 0.174127341666839
-0.102876469781903 -0.229814150089622 0.184482350063011
-0.100055114633283 -0.229814150089622 0.19375313475481
-0.0987999301493796 -0.229814150089622 0.198929391536914
-0.101748195026022 -0.229814150089622 0.211851908932275
-0.0962455477314036 -0.229814150089622 0.221974599543449
-0.0940079176306274 -0.229814150089622 0.229999926601558
-0.108042179265378 -0.229814150089622 0.231760343712276
-0.0958430910505033 -0.229814150089622 0.252598974456022
-0.100066663892703 -0.22826797727756 0.261770705219359
-0.104694587521324 -0.225863386788076 0.261770705219359
-0.0948117911416396 -0.229848296361345 0.282696931446101
-0.0927269482547205 -0.230149855043712 0.284850922034427
-0.0966519501492906 -0.232254627610992 0.299885011800645
-0.0956057662747627 -0.232740091303968 0.303352609607602
-0.086744915895247 -0.235377009802795 0.324744637738809
-0.0975705480526881 -0.234671614332212 0.329783176814374
-0.0947754283559583 -0.233020728138924 0.341575221052098
-0.0967148551749558 -0.231622048610344 0.351565789113338
-0.095717775698636 -0.231071145029249 0.355500814692566
-0.10557975036042 -0.229873827437885 0.364053083202272
-0.0976022066098288 -0.228840840318954 0.371431562623172
-0.107275493431507 -0.226989342758168 0.379005517890078
-0.115010082227621 -0.221668956850677 0.380778979859242
-0.119348442788714 -0.218792323953541 0.381737857491621
-0.123824382380105 -0.21241754708506 0.383862783114448
-0.127424648117885 -0.201792190400604 0.387404568675932
-0.136455873116825 -0.202298434693918 0.387235820578162
-0.144222973410523 -0.197439599478076 0.388855432316776
-0.153560943788505 -0.188047887236234 0.391986003064057
-0.15947631093882 -0.180053940126451 0.392544570284397
-0.16020340203509 -0.179167233163906 0.392544570284397
-0.174255780059006 -0.160462219604732 0.392544570284397
-0.184212987772966 -0.156803097238388 0.392544570284397
-0.193275641040942 -0.152883315308807 0.392544570284397
-0.198753119751804 -0.141427664211052 0.392544570284397
-0.211183982446823 -0.13301758371838 0.392544570284397
-0.223445888193906 -0.126937602803342 0.392544570284397
-0.230626154596401 -0.116925520741274 0.392544570284397
-0.236938647707043 -0.109273581084591 0.392544570284397
-0.249919870826966 -0.103265959055302 0.392544570284397
-0.250444550057205 -0.101500469198069 0.392544570284397
-0.270090451591005 -0.0845383187203549 0.392544570284398
-0.275185686850966 -0.0798772458477968 0.392544570284397
-0.282272447420462 -0.0755023795980163 0.392544570284397
-0.288428204152173 -0.0597776769684974 0.392544570284398
-0.302275251778962 -0.0508611063186831 0.392544570284397
-0.3175692623778 -0.0403938128318305 0.389555124805221
-0.335735253584441 -0.0302485375173947 0.383499794403007
-0.343342931769294 -0.0196228683213561 0.380963901674723
-0.358957026318913 -0.0102081765702183 0.386546186626705
-0.358957026318913 -0.00304089653128785 0.386041402029622
-0.358957026318913 -0.0149498192566263 0.4034799684415
-0.358957026318913 -0.00186925268174382 0.412819797040849
-0.358957026318913 -0.011885341368488 0.429109800226594
-0.358957026318913 -0.00736279194938954 0.438367581087254
-0.358957026318913 -0.0120222381062661 0.440933506333137
-0.358957026318913 -0.0078364791777379 0.453149362044892
-0.358957026318913 -0.00829407878144802 0.459368312627877
-0.360745014830285 -0.0143002468677972 0.476398861317163
-0.3626672157498 -0.0030140389293171 0.481680064939186
-0.36556906557642 0.004400407779322 0.489652831812472
-0.368068219483102 0.00865945410876854 0.496519200738823
-0.370729827714902 0.00461358334003762 0.503831909255128
-0.378072881000021 0.00929009147491391 0.519440855475719
-0.381581850373728 0.0134223654028469 0.521466759888207
-0.384360276168294 0.0188348676016983 0.523070884768624
-0.396648653752167 0.0201101664115427 0.530165582874577
-0.401200485451362 0.0264532382349234 0.532793584131413
-0.406382963320356 0.0329948995166333 0.535785689124145
-0.411407280454649 0.0384111833572421 0.538686479974124
-0.427375924279438 0.0531077706836344 0.541626732727483
-0.442630256949421 0.0691141778300061 0.538936982305062
-0.44533663497943 0.0712886259723963 0.538459774838375
-0.459634271351737 0.087469704944754 0.535938715785578
-0.120471503514859 -0.229814150089622 0.0658543109215998
-0.115694604510054 -0.229814150089622 0.0859240682038833
-0.115984608650845 -0.229814150089622 0.0894623231098625
-0.120120547853154 -0.229814150089622 0.0989182715712715
-0.120188238980965 -0.229814150089622 0.101328753027909
-0.114262221287884 -0.229814150089622 0.11547870378255
-0.11422022400806 -0.229814150089622 0.128555839245251
-0.115609977977742 -0.229814150089622 0.138923233910324
-0.113549115761673 -0.229814150089622 0.151181001153957
-0.119532072575545 -0.229814150089622 0.154957937621912
-0.113930789188526 -0.229814150089622 0.168803093105214
-0.113104886897807 -0.229814150089622 0.187587455491992
-0.114500923753972 -0.229814150089622 0.184072976570283
-0.114289876116815 -0.229814150089622 0.196131479806645
-0.114395530833487 -0.229814150089622 0.213570539966165
-0.11578441819472 -0.229814150089622 0.221763071369682
-0.112412932942085 -0.229814150089622 0.236414152565305
-0.112499437633901 -0.229814150089622 0.235160052990759
-0.108537932141026 -0.229814150089622 0.246802295108631
-0.108324284782216 -0.229814150089622 0.260984397870101
-0.11565674370924 -0.225048732832048 0.261770705219359
-0.120795311701812 -0.228104891185834 0.270244037335363
-0.118324431495516 -0.230955101221007 0.290602680443655
-0.104625441909836 -0.233840471199587 0.311212466004844
-0.110655565547333 -0.233923200133767 0.31180338696327
-0.111730134580926 -0.235404373586231 0.324549182142836
-0.112184508361319 -0.234056743933972 0.334175108230354
-0.116391660645175 -0.233813558298606 0.335912148482963
-0.113698338199507 -0.2318422117153 0.349993195506516
-0.110097131746916 -0.231493597065318 0.352483300149225
-0.117022567538988 -0.230313112655365 0.360915331648859
-0.116527215375852 -0.229267945992589 0.368380807811509
-0.116069166286566 -0.226294432134328 0.379237154764692
-0.123425282760459 -0.221835962829125 0.38072331119976
-0.135699230168674 -0.215370894973521 0.382878333818295
-0.145241470127735 -0.20835976903816 0.385215375796748
-0.14814450917327 -0.205921427041002 0.386028156462467
-0.15482383564899 -0.197913491715582 0.388697468237606
-0.153582069010522 -0.192463714854463 0.390514060524646
-0.166587482763608 -0.189814162301078 0.391397244709108
-0.180626467608762 -0.179083184811169 0.392544570284397
-0.182541847326331 -0.177961682749557 0.392544570284397
-0.198728510890466 -0.165956326100648 0.392544570284397
-0.208076784947294 -0.151298068225248 0.392544570284397
-0.212862257179416 -0.142806772451871 0.392544570284397
-0.217920964952411 -0.14121497689745 0.392544570284397
-0.228773394618701 -0.13515842850138 0.392544570284397
-0.236159315824173 -0.119933451991413 0.392544570284397
-0.246732510409974 -0.110846540364272 0.392544570284397
-0.264923879755998 -0.105427839429422 0.392544570284397
-0.258121738932476 -0.099022260320644 0.392544570284397
-0.278715577139864 -0.0953983598493573 0.392544570284397
-0.288987227445039 -0.0850548893617354 0.392544570284397
-0.300644467734846 -0.071943467536877 0.392544570284397
-0.315288978772684 -0.0646405195367689 0.390315219340259
-0.30549322544499 -0.0628051581356997 0.392544570284397
-0.333158703860425 -0.0476071009227328 0.384358644311012
-0.345573980474899 -0.0360544390738133 0.380220218772854
-0.358957026318913 -0.0195132624457822 0.375391944180354
-0.358957026318913 -0.0216242994485881 0.387813699132723
-0.358957026318913 -0.0167385832444625 0.388308531415762
-0.358957026318913 -0.0277653255147048 0.412361965438986
-0.358957026318913 -0.0214980630225217 0.424315066445542
-0.358957026318913 -0.0256519973685151 0.432931607042593
-0.358957026318913 -0.0235074514893375 0.451526096866319
-0.358957026318913 -0.019184748081635 0.443112828626802
-0.358957026318913 -0.0266049011078206 0.461574710518083
-0.358957026318913 -0.0176616572365105 0.469464945380182
-0.363788817636151 -0.0179263086074613 0.484761640795551
-0.364369132097779 -0.0142826960874725 0.48635604167506
-0.37005859246136 -0.012289331763967 0.501987705552879
-0.370520928450053 -0.0109979861797127 0.503257963242016
-0.374471228466747 -0.00973697092681132 0.514111323337954
-0.379259007982047 -0.00352401455024554 0.520125666208085
-0.382981557328462 -0.0075837447282588 0.52227488107531
-0.392879173520901 0.00698105019280483 0.52798927244835
-0.400172462798314 0.00897424281745303 0.532200054975942
-0.406093052144775 0.0121502806206859 0.535618308828883
-0.412924023120191 0.0269606595281466 0.539562171760366
-0.421758086922041 0.024399717250646 0.542617309026823
-0.445294592715527 0.04756535527432 0.538467188023831
-0.447656460013426 0.0552735956669397 0.538050727094358
-0.452915145775545 0.0654227558963937 0.537123478911429
-0.129969304905532 -0.229814150089622 0.069339175688872
-0.134903986721339 -0.229814150089622 0.0689524977018989
-0.124066089334594 -0.229814150089622 0.0851917711054623
-0.120500137919302 -0.229814150089622 0.0967717845340431
-0.128374344884425 -0.229814150089622 0.104832901293299
-0.128139753521204 -0.229814150089622 0.113813377787826
-0.128062966584732 -0.229814150089622 0.128355154730413
-0.121286137153951 -0.229814150089622 0.136427156985278
-0.125881630855443 -0.229814150089622 0.14243133615872
-0.131148040195411 -0.229814150089622 0.147702141481932
-0.130392387482048 -0.229814150089622 0.150719491784386
-0.133393316677193 -0.229814150089622 0.168663899645926
-0.124205124300352 -0.229814150089622 0.18248830136135
-0.131103651729979 -0.229814150089622 0.183058295087984
-0.131714572423383 -0.229814150089622 0.195346860583508
-0.132694689908896 -0.229814150089622 0.212112595067761
-0.129213705200527 -0.229814150089622 0.213744865440558
-0.13350244731696 -0.229814150089622 0.22654018785874
-0.131927944884295 -0.229814150089622 0.238972840072267
-0.127647817874936 -0.229814150089622 0.251395513294375
-0.126775471039516 -0.229814150089622 0.254485007038172
-0.131338193873925 -0.227993813155151 0.269450622830492
-0.127662313906494 -0.229151212446906 0.277717760628703
-0.125217710905963 -0.230692765789045 0.288728855929648
-0.121553315652923 -0.232834840884972 0.304029392329062
-0.113671223248466 -0.235447336573209 0.324242303664422
-0.128621330725379 -0.234858095354471 0.318481209968272
-0.126886596893546 -0.234634863418085 0.330045683343854
-0.125426930746844 -0.234598195534551 0.330307596797663
-0.127443248819313 -0.232513535064881 0.345198028723815
-0.132355733538599 -0.231041173705631 0.355714895575554
-0.130952060869316 -0.230662919151428 0.358416713819848
-0.130216279890165 -0.228037307793214 0.377171080664144
-0.131267652199957 -0.222004068363368 0.380667276021678
-0.136948030388589 -0.220987445367164 0.381006150353746
-0.14030685061766 -0.218677501999732 0.381776131476224
-0.158181455195581 -0.210600216602709 0.384468559941897
-0.15846452846329 -0.204747176181917 0.386419573415495
-0.163323869487117 -0.200647094508748 0.387786267306552
-0.174487610063576 -0.18863361273074 0.391790761232555
-0.182444360130359 -0.190831866808903 0.391058009873167
-0.187280628259381 -0.175362686508351 0.392544570284397
-0.192326357984347 -0.1711785749125 0.392544570284397
-0.214182230771274 -0.16040283438132 0.392544570284397
-0.21794176303606 -0.155549635018871 0.392544570284397
-0.224166984725424 -0.148402830791684 0.392544570284397
-0.234655162310956 -0.13579817669872 0.392544570284398
-0.245920986849847 -0.128073307124436 0.392544570284397
-0.251514279867081 -0.122707572761336 0.392544570284397
-0.27267191137788 -0.109809951105896 0.392544570284397
-0.277656659037709 -0.111921880349158 0.392544570284397
-0.277810649244634 -0.103974339623589 0.392544570284397
-0.298036966089462 -0.0919143308662447 0.392544570284397
-0.307221776738113 -0.0850130664194287 0.392544570284397
-0.317700562587847 -0.0748716630672648 0.389511358068538
-0.320338742532203 -0.0676830705369775 0.388631964753753
-0.333382479124479 -0.0596035899830436 0.384284052556327
-0.358957026318913 -0.0362074408771436 0.369909495022901
-0.358957026318913 -0.0324482977955814 0.37736727597351
-0.358957026318913 -0.0423721422050076 0.396508836671447
-0.358957026318912 -0.0313412608681009 0.404071884844528
-0.358957026318913 -0.0314328117319045 0.414320520901791
-0.358957026318913 -0.0390881065978542 0.427211663468442
-0.358957026318913 -0.0387854353389586 0.435115672218501
-0.358957026318913 -0.0374760358917542 0.442689727544717
-0.358957026318913 -0.0390627300540833 0.459588758865945
-0.359073836264052 -0.0400696063576411 0.471807335942563
-0.362704351783373 -0.0372928217986023 0.481782095352876
-0.364660777044499 -0.036509302149317 0.487157329580671
-0.368512247391641 -0.034046164096463 0.497739157391141
-0.371524222285707 -0.0254810756975398 0.506014490400554
-0.372154377494339 -0.0221665230991017 0.507745827607021
-0.381308891968013 -0.0213225149219824 0.52130916727919
-0.38937745539519 -0.0137998502279869 0.525967554545845
-0.388235204244368 -0.0154596068114074 0.525308075536435
-0.39506119572054 -0.00158229979204527 0.52924906355269
-0.406067407429973 -0.00109871999953443 0.535603502845889
-0.411877970882183 0.00570895417039466 0.538958233219165
-0.415776790278612 0.0152776432934045 0.541209217647215
-0.423154367932811 0.0210517534803426 0.542371107011974
-0.448055077701597 0.0306664683631735 0.537980440040946
-0.142384604047335 -0.229814150089622 0.0610023765522123
-0.141586211680668 -0.229814150089622 0.0721893218422797
-0.140587902307917 -0.229814150089622 0.0810028505527132
-0.147614328133301 -0.229814150089622 0.0884148544607215
-0.150887432816163 -0.229814150089622 0.0979101278638913
-0.14332238874167 -0.229814150089622 0.107870242461162
-0.146509801183263 -0.229814150089622 0.1214109139461
-0.151875850413614 -0.229814150089622 0.119228564413193
-0.146350936608264 -0.229814150089622 0.128821406799982
-0.143542224685171 -0.229814150089622 0.14496142979913
-0.15120636683454 -0.229814150089622 0.157700306096585
-0.143831520641995 -0.229814150089622 0.169093543225096
-0.152858180389201 -0.229814150089622 0.167086104677503
-0.139769443016096 -0.229814150089622 0.190757876611787
-0.142546842610193 -0.229814150089622 0.193568745195727
-0.139326101592057 -0.229814150089622 0.213982862173261
-0.138229088947794 -0.229814150089622 0.22631750682697
-0.14721288024402 -0.229814150089622 0.222555432175001
-0.14493683269407 -0.229814150089622 0.232045169726148
-0.145233101366696 -0.229814150089622 0.245206445109998
-0.146330904966661 -0.229814150089622 0.253243014219944
-0.143607934862308 -0.22538489177462 0.261770705219359
-0.147712280052417 -0.229580991800406 0.280787613153686
-0.145802296041276 -0.230351357905365 0.286290228189085
-0.14382799248691 -0.230862580553433 0.289941818532411
-0.130322375649022 -0.23533972086738 0.321921392203323
-0.135048202447597 -0.235022386824105 0.327277659015148
-0.138035524573685 -0.233207278422731 0.34024271902491
-0.140787824594277 -0.233222379142889 0.340134856738061
-0.147586256706675 -0.231912807272581 0.349488941525937
-0.137137830523145 -0.230142810842955 0.362131773166063
-0.150442633741993 -0.230068437358923 0.362663012337717
-0.150565736997447 -0.228909691900316 0.370939765613451
-0.149898680375629 -0.224849493820733 0.379718800869223
-0.151328301516332 -0.219472680105942 0.381511072107488
-0.157879256316126 -0.213474061867914 0.383510611520163
-0.169601026754131 -0.209727293552176 0.384759534292076
-0.175538843679383 -0.1992791043245 0.388242264034635
-0.18605735916879 -0.199247323423918 0.388252857668162
-0.192186074422185 -0.190524792420177 0.391160368002742
-0.198259094605806 -0.179111463835248 0.392544570284397
-0.213122564056841 -0.175490341448586 0.392544570284398
-0.217224284425099 -0.170273758686774 0.392544570284397
-0.221957367830666 -0.166312937961598 0.392544570284397
-0.240423803431596 -0.151578524964644 0.392544570284397
-0.244443284125087 -0.152019985786143 0.392544570284397
-0.25336559533331 -0.136500468188194 0.392544570284397
-0.2648190958912 -0.123379341932624 0.392544570284397
-0.278839844877312 -0.121352956716196 0.392544570284397
-0.281104475320613 -0.117513255207673 0.392544570284397
-0.291270179119452 -0.100850480894154 0.392544570284397
-0.301528948423879 -0.0966817696375667 0.392544570284397
-0.321868383278382 -0.0888024507698106 0.388122084505026
-0.336617673157367 -0.0773326878875669 0.383205654545365
-0.342340289454724 -0.0686872569931948 0.381298115779579
-0.349001244331164 -0.0553419341578392 0.379077797487433
-0.358957026318913 -0.0512288059549087 0.384433612865639
-0.358957026318913 -0.0470296515012305 0.394290826060788
-0.358957026318913 -0.0587201114877323 0.405528694381087
-0.358957026318912 -0.0514864858318754 0.41878727627346
-0.358957026318913 -0.0541887433564282 0.423274349006817
-0.358957026318913 -0.0505423875680762 0.437879165950652
-0.358957026318913 -0.0574844188908492 0.453758259109413
-0.358957026318913 -0.0463987218912591 0.451015106670821
-0.359776668781245 -0.0505471158425315 0.47373835241321
-0.359133174058561 -0.0510514450438085 0.471970365193098
-0.36385543204836 -0.0420468058099416 0.484944662388909
-0.368586594761322 -0.0447591109333271 0.497943425110537
-0.371418307550731 -0.0406700539665531 0.505723492057822
-0.372622517582248 -0.0373055489642265 0.509032031927691
-0.375648975688628 -0.0440732207233501 0.517347157235897
-0.380886716497482 -0.0360410671474314 0.521065424157634
-0.393053601326862 -0.0302488852520604 0.528089978389075
-0.400370525751085 -0.0172212431347198 0.532314406675041
-0.401665344963342 -0.0124535765963877 0.53306197089579
-0.41302620693879 -0.013167195708338 0.539621167615541
-0.413349103799633 -0.00471151423536556 0.539807592205068
-0.429699243820204 0.0118140655068085 0.541217068807638
-0.432265579789825 0.0169990084085728 0.540764554534631
-0.451855388950881 0.0231803521473263 0.537310342632608
-0.46439485697111 0.0392160493614699 0.53509929609691
-0.163557346294233 -0.229814150089622 0.0597542737903234
-0.158180284897236 -0.229814150089622 0.0721095383585395
-0.159237031781382 -0.229814150089622 0.0832787467997814
-0.156276187863155 -0.229814150089622 0.0949005273328823
-0.15539125131817 -0.229814150089622 0.102831728026443
-0.167431346237332 -0.229814150089622 0.101116741014746
-0.157288797568933 -0.229814150089622 0.116966158648088
-0.166841394134713 -0.229814150089622 0.121675622824582
-0.15620266937639 -0.229814150089622 0.136227622095513
-0.152154169395795 -0.229814150089622 0.149140351150546
-0.155753504352749 -0.229814150089622 0.159358910517868
-0.161610530350198 -0.229814150089622 0.159969997235556
-0.162847595952076 -0.229814150089622 0.170835058631493
-0.161633830199833 -0.229814150089622 0.188127383123208
-0.160862332931319 -0.229814150089622 0.198197541557081
-0.157103508960431 -0.229814150089622 0.217709926599953
-0.153633472543243 -0.229814150089622 0.220107177667926
-0.152106276991199 -0.229814150089622 0.226702398718294
-0.156820477492264 -0.229814150089622 0.234763426155668
-0.161718988208643 -0.229814150089622 0.248168669949338
-0.159966991127065 -0.229814150089622 0.250829001400901
-0.160779932733367 -0.229814150089622 0.26013846522165
-0.166830520348066 -0.226322516402387 0.261770705219359
