ply
format ascii 1.0
element vertex 840
property float x
property float y
property float z
end_header
-0.101293618523164 0.0193439182282171 0.286289468863637
-0.100834122861303 0.0240103871889198 0.286450558079623
-0.0967841775012743 0.0320320148809606 0.287870381109481
-0.0833951419839609 0.0380418654622786 0.288170469607414
-0.0820110670677802 0.0517734874249306 0.288170469607414
-0.069873049954292 0.0553889993326783 0.288170469607414
-0.0631156730848754 0.0678163499191192 0.288170469607414
-0.0517049234447848 0.0757293499125797 0.288170469607414
-0.0474078273397036 0.0771221974709431 0.288170469607414
-0.0524963689504755 0.0807242516774983 0.305024265503872
-0.0536117298419913 0.07937520293119 0.318276250327765
-0.0450013127316464 0.07937520293119 0.321606339845602
-0.049108232917705 0.07937520293119 0.329760399148144
-0.0534774086735686 0.07937520293119 0.343688680262558
-0.050566686529863 0.07937520293119 0.34389933791215
-0.0491136469776063 0.0793752029311903 0.356380275241953
-0.0435700117194068 0.0793752029311897 0.371042210773837
-0.0490853604950262 0.0793752029311903 0.375050670472061
-0.0447144008482892 0.07937520293119 0.386669833597322
-0.0434089546574534 0.0793752029311904 0.393536527081422
-0.04596475750972 0.07937520293119 0.40854292705115
-0.0540473878819805 0.0793752029311898 0.425668490308786
-0.0515206253219424 0.0793752029311901 0.434057834271579
-0.0504202949987707 0.0793752029311901 0.438122184470826
-0.0502985371989258 0.0803833362433823 0.454197954452538
-0.0472087830425639 0.0823787527659703 0.461725112549041
-0.046324113275883 0.0829492541615625 0.463877171605529
-0.0332228259497846 0.0953938656242462 0.471451572151807
-0.0372239610234298 0.0919597459749645 0.470847039619011
-0.0186665124818987 0.104138300603376 0.472990917301561
-0.0153300919281474 0.114803467753697 0.471322031303723
0.00357672899125955 0.137057585417714 0.462747537904516
0.00764771850355746 0.140075328075408 0.462747537904516
0.0210573430563972 0.150889039281029 0.462747537904516
0.0271412299514963 0.157807518665239 0.462747537904516
0.0344156645310633 0.168828799230799 0.462747537904516
-0.268087969569697 -0.140353438422029 0.286930840454628
-0.266709294674875 -0.138004147471191 0.287754450923243
-0.256755231414811 -0.130965060255108 0.288170469607414
-0.254145219203262 -0.131708444032483 0.288170469607414
-0.251111286840005 -0.116549684590755 0.288170469607414
-0.240916421105302 -0.107893038207559 0.288170469607414
-0.232345963541563 -0.104560711421765 0.288170469607414
-0.227138616768853 -0.103694247183365 0.288170469607414
-0.222036076475825 -0.0896621964230207 0.288170469607414
-0.216167883425429 -0.0835986874122423 0.288170469607414
-0.206091658671793 -0.0730691945894452 0.288170469607414
-0.207500002949927 -0.0698341258421574 0.288170469607414
-0.198937645858467 -0.0708145226978817 0.288170469607414
-0.186729084977278 -0.0553854767365863 0.288170469607414
-0.182161739911362 -0.0529835364323297 0.288170469607414
-0.176910660758788 -0.0482408752596734 0.288170469607414
-0.171047764367791 -0.0332430292654189 0.288170469607414
-0.162694182437161 -0.0296709739844569 0.285870480800697
-0.156576045382084 -0.0203348731120954 0.283725594606339
-0.142733460278773 -0.00907140351878533 0.27887268441243
-0.127256913254407 0.00149672568779437 0.269839027760856
-0.127172199323995 0.0150102477306247 0.270558796607941
-0.120694833040797 0.0219722649931369 0.279487823722636
-0.116881441578284 0.0215542911027492 0.280824716085131
-0.112831111020656 0.0288280904891109 0.282244674156915
-0.0981674887328822 0.0392970743305309 0.287385422185472
-0.100185985447746 0.0462430122720511 0.286677781003508
-0.0872904398486898 0.0483238287823303 0.288170469607414
-0.0855817469397238 0.057101221658313 0.288170469607414
-0.072709832671413 0.0677433834997277 0.288170469607414
-0.065489137485424 0.0689612486653992 0.288170469607414
-0.0631100047204759 0.0818196575544128 0.288170469607414
-0.0507352859598709 0.0833720126506426 0.288170469607414
-0.0513271013914488 0.0825894455260956 0.29798833650354
-0.0610045423780097 0.07937520293119 0.320318269348636
-0.0643234128830948 0.07937520293119 0.33520259816704
-0.0611643462366806 0.07937520293119 0.344098116851268
-0.071689529762782 0.07937520293119 0.352747484567556
-0.0636301841881774 0.07937520293119 0.355349369677435
-0.0608556626975007 0.07937520293119 0.362170593273915
-0.0665731447679208 0.0793752029311897 0.387763547729516
-0.0684355409959419 0.07937520293119 0.392570929451183
-0.0605264887349076 0.07937520293119 0.397259117841513
-0.062666065099649 0.0793752029311901 0.416036867555766
-0.0630698229295703 0.0793752029311901 0.425614845004407
-0.0612443266531326 0.0793752029311901 0.427123463771128
-0.0638920500861085 0.0793752029311898 0.440768625731946
-0.06618655158969 0.081263522218106 0.457518213110854
-0.0617671283500776 0.0815282732354718 0.458516913252587
-0.053086595193556 0.0835977986216128 0.466323626582797
-0.0581693296757342 0.0842331927316021 0.468720475493957
-0.0509797353288905 0.0888785695932209 0.470304638202556
-0.037976934373163 0.101613843863299 0.472546519207473
-0.0320678963179083 0.108691196889246 0.472398017863363
-0.00726924924750385 0.135557714055739 0.45805678979746
-0.00392137342534961 0.13555771405574 0.458606734446383
-0.00102111463204822 0.145662801077933 0.462747537904516
0.00984937616844368 0.155685264741343 0.462747537904516
0.0222883103630083 0.172923754708646 0.462763904153851
-0.27932556120016 -0.140931799670157 0.286728079541413
-0.276767193498642 -0.132667209607844 0.288170469607414
-0.263811032874386 -0.126241707542682 0.288170469607414
-0.255032843975651 -0.11750896302657 0.288170469607414
-0.25381918608815 -0.115855619053978 0.288170469607414
-0.25020505240161 -0.110145997025316 0.288170469607414
-0.243206813847024 -0.104788802240598 0.288170469607414
-0.232109500311633 -0.0926660132731827 0.288170469607414
-0.229709063412533 -0.0892603710365576 0.288170469607414
-0.219484780538633 -0.0754851293100702 0.288170469607414
-0.21873829415057 -0.073289190605703 0.288170469607414
-0.210310544699808 -0.068853419769931 0.288170469607414
-0.204562164847853 -0.0516426437459129 0.288170469607414
-0.202656576273554 -0.0519371575518765 0.288170469607414
-0.188743929796613 -0.0387478873067697 0.288170469607414
-0.180912677867026 -0.0404430007343336 0.288170469607414
-0.169815801906574 -0.0269900851817214 0.288170469607414
-0.168855792251922 -0.0223015215831802 0.288030607601997
-0.169527496868347 -0.0169248634682366 0.288170469607414
-0.153357390059118 -0.00131919481883913 0.282597203838941
-0.127929632442994 0.0188778793120382 0.264123293495819
-0.127637260854689 0.029655281129758 0.266607418125755
-0.126869884579708 0.0319372945907925 0.273127402903208
-0.120502170633251 0.029192152471927 0.279555366985299
-0.109378447440579 0.0371620227489965 0.283455103145348
-0.111491716784503 0.0412919236811769 0.282714236734554
-0.100856576795536 0.0526001726086416 0.28644268621714
-0.0978024666654978 0.0540362894098738 0.287513391007667
-0.0955459427361317 0.0568011942233593 0.288170469607414
-0.0781728499582975 0.0778652701730167 0.288170469607414
-0.0769475924417697 0.0788970014128428 0.288170469607414
-0.0721739058275747 0.082369630536772 0.298817527881828
-0.0677405613365826 0.0820538351647379 0.300008778763304
-0.0697794326380089 0.07937520293119 0.319988297839697
-0.0779931037197966 0.07937520293119 0.332789897132228
-0.0718327625013484 0.07937520293119 0.337089314613962
-0.0737051062812559 0.07937520293119 0.349745756051756
-0.0781699423194701 0.07937520293119 0.354407178108102
-0.0735475808720504 0.07937520293119 0.372609452479866
-0.0797283406667789 0.07937520293119 0.382266869554144
-0.0743563224671033 0.0793752029311897 0.384275017233954
-0.0713406300254109 0.07937520293119 0.394615411735807
-0.08139830126295 0.07937520293119 0.411327286053462
-0.0793246747941177 0.0793752029311901 0.422918470955383
-0.0788155890219597 0.0793752029311901 0.424777148420685
-0.0751382129305319 0.0793752029311901 0.446884245639839
-0.0799635753091297 0.0793752029311901 0.447676366777327
-0.074095563967092 0.0826672371493488 0.462813340263649
-0.069247782680774 0.0837705548342321 0.46697530171419
-0.0728998708109423 0.0869270605249399 0.469961100166522
-0.06282732519023 0.0946972612741123 0.471328943928229
-0.053213340610394 0.100082916482212 0.472277019160377
-0.0448089162667986 0.113950557929763 0.471472175092749
-0.039112163686445 0.11709067527786 0.470919397878327
-0.0212107143256066 0.137987678257661 0.462747537904516
-0.0163828223128174 0.141408502567613 0.462747537904515
-0.00987492223567979 0.149961406024611 0.462747537904516
-0.0004132923670488 0.16213477366104 0.462747537904516
-0.287348986031219 -0.139126143739905 0.287361103359234
-0.277144595053967 -0.127240711892789 0.288170469607414
-0.27577698467796 -0.11514336716658 0.288170469607414
-0.266168890412882 -0.111237994892843 0.288170469607414
-0.260187914887719 -0.102839411236842 0.288170469607414
-0.256445574801534 -0.106823023950075 0.288170469607414
-0.24559781761944 -0.0914717905968637 0.288170469607414
-0.237089620872815 -0.0838918989865687 0.288170469607414
-0.236332177177941 -0.0762113162050171 0.288170469607414
-0.222248492645409 -0.0667719406188327 0.288170469607414
-0.219798416928668 -0.0633422469833792 0.288170469607414
-0.212000233807601 -0.0577719520193461 0.288170469607414
-0.216137136475866 -0.0532725460344745 0.288170469607414
-0.210327459580173 -0.0502274089787412 0.288170469607414
-0.197670227197316 -0.0435738597938958 0.288170469607414
-0.192310695928354 -0.0366943076303014 0.288170469607414
-0.191513355853949 -0.0228815298853858 0.288170469607414
-0.175782391977919 -0.015505340943926 0.288170469607414
-0.171356406479486 -0.00183862911470523 0.288170469607414
-0.16104567316882 -0.00237849654366632 0.285292549195192
-0.158180601730569 0.0133435081626944 0.284288117271156
-0.144943057014434 0.0198957636701985 0.279647321118139
-0.126688754046193 0.0379185835722521 0.274666371932811
-0.126682671164496 0.0343139991652897 0.274718054917237
-0.126521146049064 0.0475585966368578 0.276090447220889
-0.113383759749453 0.054418755854737 0.282050927495464
-0.111656580915641 0.0614875683391595 0.282656438944861
-0.107215513326151 0.0628024252185027 0.284213380947819
-0.0981124109741921 0.07011502650942 0.28740473125344
-0.0886834748863305 0.0776686309027336 0.288170469607414
-0.0843775937832959 0.0836841152757635 0.288170469607414
-0.0891225540911163 0.0802497016784505 0.306814374399479
-0.0970919126719351 0.0799801362202445 0.321383223650987
-0.0957715136848372 0.0797600697223949 0.330570901812755
-0.0961074382914181 0.079816057156825 0.345343873065337
-0.0920414111371484 0.07937520293119 0.351783092014717
-0.0873669161208691 0.07937520293119 0.351136700158711
-0.0887489677173615 0.0793752029311903 0.368994583672356
-0.0928439169689248 0.0793752029311897 0.376402331807556
-0.0913117803727803 0.07937520293119 0.388872372127084
-0.0937711436927743 0.0794266747237179 0.401773485257547
-0.0953437560039081 0.0796887767755732 0.40940188365241
-0.0924302613752188 0.07937520293119 0.411559575756375
-0.0899102332256476 0.0793752029311901 0.43016279922353
-0.095573261891849 0.0797270277568968 0.438979723556337
-0.0929333938204597 0.0793752029311901 0.444977970477294
-0.0890458908552203 0.080945409423011 0.45631822039049
-0.0868680901333699 0.0819707475387579 0.460186025438825
-0.0863630377900124 0.0846496152699201 0.46956018526287
-0.0737799213451057 0.0959223166470093 0.471544599147915
-0.0709825054222404 0.102992142062038 0.472789150852881
-0.0649520700993021 0.110683188075018 0.472047353471953
-0.0416062703424298 0.135557714055739 0.458921687336193
-0.0359148378090401 0.13555771405574 0.462225921295364
-0.0274287713081678 0.145228440059938 0.462747537904516
-0.0193834678850314 0.15361974670298 0.462747537904516
-0.013821801915412 0.16712983368103 0.462747537904516
0.000691399980851298 0.17021701397507 0.462747537904516
-0.291125317501776 -0.120057309758775 0.288170469607414
-0.284770953634121 -0.116061689435078 0.288170469607414
-0.279787185265948 -0.115655148526597 0.288170469607414
-0.272696774074164 -0.109221154177412 0.288170469607414
-0.267713645363271 -0.0997644113858467 0.288170469607414
-0.262330504977997 -0.0877217431365657 0.288170469607414
-0.254964282780479 -0.0881229239947958 0.288170469607414
-0.247397269713647 -0.0821084673916671 0.288170469607414
-0.240318419753531 -0.0764431021823444 0.288170469607414
-0.23755148840638 -0.0680899741633747 0.288170469607414
-0.232853595800817 -0.0619954481066269 0.288170469607414
-0.222223638280315 -0.0478687661705708 0.288170469607414
-0.218058464274044 -0.0447700123411953 0.288170469607414
-0.212520921216595 -0.0409577100051439 0.288170469607414
-0.204156085242604 -0.025492307448291 0.288170469607414
-0.192760555516641 -0.0189945132887306 0.288170469607414
-0.19499604006987 -0.0201354711323664 0.288170469607414
-0.18232470413363 -0.0125079028298464 0.288170469607414
-0.177808469003523 0.00658950931005353 0.288170469607414
-0.165770091380081 0.00628895191202746 0.286948827782365
-0.161054447500599 0.0225921862553512 0.285295625285664
-0.151367024845106 0.0342598326835196 0.281899424951212
-0.140877976134352 0.0359836078351748 0.278222191903127
-0.126883209823514 0.0450400165940738 0.273014185450962
-0.127305448626611 0.0580286536851224 0.269426648725622
-0.119803260901063 0.0591525583204507 0.27980038958322
-0.113412281060398 0.0619882407417801 0.282040928542262
-0.108495794724953 0.0775550325464461 0.283764542049236
-0.103638323225219 0.0735094710144228 0.285467466234405
-0.102248480736442 0.0823728282266759 0.285954714875563
-0.0990382082961569 0.0824921260997903 0.298355447179115
-0.102088955751186 0.0808129767334529 0.322276710325417
-0.10723768967755 0.0816710990545132 0.322388954262638
-0.101768031755676 0.0807594894008682 0.323574093674667
-0.106538295418797 0.0815545333447214 0.346869728267433
-0.0983428669691047 0.0801886286031063 0.356624546715483
-0.104789262345882 0.0812630278325684 0.357918831570008
-0.104567083151122 0.0812259979667756 0.378361010589278
-0.0967441608495947 0.0799221775831879 0.378114207852046
-0.0948534272038632 0.0796070553088991 0.388304235615558
-0.100288408323374 0.0805128854954844 0.405214604767005
-0.10022839771365 0.080502883727197 0.40897910819823
-0.104292967504042 0.0811803120255954 0.421902674041182
-0.0965313014135794 0.0798867010105185 0.427796251778831
-0.101776224173054 0.0807608548037642 0.444844914468945
-0.104739420296306 0.0812547208243063 0.452870396883133
-0.097488606484676 0.0826948632392868 0.462917552063138
-0.096444374728925 0.0888807586011138 0.470305023549202
-0.0910977009101778 0.0874769323307282 0.470057898015582
-0.0829546426829724 0.102125565024947 0.472636601127013
-0.0739481523844609 0.112343203953787 0.4717551290575
-0.0516841776386759 0.135557714055739 0.459596271708063
-0.0628052419863234 0.124633462930856 0.469591587263121
-0.0476239352791029 0.145051583050936 0.462747537904516
-0.0378755354289365 0.149079811682232 0.462747537904516
-0.0277414530377722 0.15453370839662 0.462747537904516
-0.0198456840562177 0.167910402433875 0.462747537904516
-0.297400405676228 -0.127116838422125 0.288170469607414
-0.289411630510316 -0.112842352344114 0.288170469607414
-0.280462449168152 -0.10129127955157 0.288170469607414
-0.285390208495879 -0.10336841151036 0.288170469607414
-0.278175313160153 -0.0950658057268892 0.288170469607414
-0.267626912154585 -0.0811221706694557 0.288170469607414
-0.260614856893839 -0.0826593981378496 0.288170469607414
-0.256983123584996 -0.0767296043638637 0.288170469607414
-0.250925000358701 -0.0631694547500726 0.288170469607414
-0.247291296720679 -0.0565242974603412 0.288170469607414
-0.235216523030447 -0.0478098238925482 0.288170469607414
-0.227067141779224 -0.0464185835794429 0.288170469607414
-0.223702176304397 -0.0418273188544318 0.288170469607414
-0.216995130275455 -0.031078036972538 0.288170469607414
-0.214525315096626 -0.0208787608164852 0.288170469607414
-0.204571112954654 -0.0215248393352399 0.288170469607414
-0.195394895689765 -0.0077860575409098 0.288170469607414
-0.186814932597661 -3.04371689202063e-005 0.288170469607414
-0.185573588078043 0.00807254234843888 0.288170469607414
-0.173316824418889 0.0205185738415772 0.288170469607414
-0.173866738219277 0.0157081426791588 0.288170469607414
-0.157850898634564 0.029635747175755 0.284172530514519
-0.153177413226955 0.0413109655488735 0.282534107863951
-0.139412730674689 0.0490013879436886 0.277708508615308
-0.128045400356424 0.0723679027631827 0.263139675604717
-0.127507763433953 0.0779716656977473 0.267707688279322
-0.119995741474926 0.0742988217834396 0.279732910067504
-0.111602700776598 0.0836403883314408 0.282675328153347
-0.113963401031202 0.0896282786564649 0.281847717830216
-0.113990700762424 0.0832117433883204 0.295640889572508
-0.113139914320341 0.0826548031616455 0.312133604907574
-0.114152679724897 0.0828235973957379 0.322621593348472
-0.119345780009479 0.0836891141098349 0.336499764991378
-0.118209864592511 0.0834997948736735 0.342463054314545
-0.115168184014174 0.0829928481106178 0.345239507114467
-0.113650380508196 0.0827398808596214 0.352993940875809
-0.113249960480585 0.0826731441883524 0.366358987625556
-0.113898608103719 0.0827812521255414 0.380825059950606
-0.117394121495203 0.0833638376907894 0.396324950094379
-0.116121370050732 0.0831517124500443 0.399999309703208
-0.112092667863937 0.0824802620855785 0.409520419963598
-0.116125701302097 0.0831524343252717 0.427854006426078
-0.11480111860941 0.082931670543157 0.423678141694597
-0.115931725791037 0.0831201050734278 0.439490392780824
-0.117527571300405 0.0833860793249895 0.457601393930169
-0.115009662387343 0.0829664278394793 0.460365678101495
-0.112856113995711 0.0851389390869437 0.469646324418366
-0.108878463411964 0.0894986918037094 0.470413802730539
-0.103984602812485 0.0940534209806904 0.471215604137236
-0.0948796135331312 0.100684501546369 0.472382920462506
-0.0850290933006504 0.118398110609566 0.470689240727947
-0.077963042550815 0.122368870514852 0.469990239590009
-0.0682260369886754 0.136512842406697 0.462747537904516
-0.045254994457795 0.156818729799964 0.462747537904516
-0.0454441547122949 0.156889472421716 0.462747537904516
-0.0282591654480342 0.170227958534126 0.462747537904516
-0.307143980363955 -0.117744398002618 0.288170469607414
-0.30452688692766 -0.109785547450579 0.288170469607414
-0.292486004602111 -0.102717785459451 0.288170469607414
-0.285906419263369 -0.0917214806521213 0.288170469607414
-0.284390337242909 -0.0892015156415775 0.288170469607414
-0.271561562357656 -0.0801850628048103 0.288170469607414
-0.267516212951129 -0.076915685170202 0.288170469607414
-0.264606171887674 -0.0666280002831482 0.288170469607414
-0.261108116991552 -0.0585749777225804 0.288170469607414
-0.252450492887986 -0.0551106359238845 0.288170469607414
-0.24834727194843 -0.0464440475635509 0.288170469607414
-0.234009628544704 -0.0373703175706864 0.288170469607414
-0.228053428695754 -0.0343365345530948 0.288170469607414
-0.222888600169252 -0.0260993455656055 0.288170469607414
-0.21537734280028 -0.0165718897454714 0.288170469607414
-0.213147490444499 -0.00850005313745096 0.288170469607414
-0.208683287610328 -0.00796844420562025 0.288170469607414
-0.196162786988361 0.00386204923426788 0.288170469607414
-0.18842369547042 0.00889295229041218 0.288170469607414
-0.180190606330594 0.0201186873713787 0.288170469607414
-0.178377768014411 0.0315368699618769 0.288170469607414
-0.168225685380399 0.0306859263429993 0.2878097057952
-0.158509940752641 0.0434151479323518 0.284403576391366
-0.153501276266214 0.0595798520359633 0.282647647223321
-0.127820808969848 0.0809990676582076 0.265047908201112
-0.126777585762083 0.0832076044184102 0.273911616470279
-0.125268197231859 0.0873170137203017 0.277884501399701
-0.118427686172919 0.0968934098338536 0.280282636256863
-0.120980452394381 0.0942889939576961 0.279387691770241
-0.125401171363174 0.0905545811431071 0.302177389916295
-0.122514802519829 0.084217284528227 0.319527461433253
-0.124024648458054 0.0849944459238245 0.322963608980392
-0.124132584160325 0.0854304263912668 0.326986448370092
-0.124246915062079 0.0858922387382547 0.337282902618498
-0.118594495276129 0.0835638999876103 0.349442662608542
-0.125750101727352 0.091964001937873 0.359949838614531
-0.124967056360227 0.0888010773633103 0.368090456826552
-0.123736538198544 0.084420907141346 0.385132499550529
-0.120738968933456 0.0839213122638312 0.39323645301499
-0.125580906401656 0.0912805778656382 0.396069374017105
-0.121429811660903 0.0840364527184059 0.41492523696194
-0.11938211944042 0.0836951706816589 0.424199514531965
-0.124623976874274 0.0874152897924933 0.434903399549861
-0.120123215235898 0.0838186866475713 0.446304108156057
-0.12333735765546 0.0843543770508321 0.456483833245754
-0.123811762112492 0.0844334444603375 0.465910696083797
-0.124543773351295 0.0870913268339628 0.469105276287365
-0.117318977722656 0.0936419333864754 0.471143167046234
-0.109905199028912 0.101801928558849 0.472579629095594
-0.103640416008907 0.112257050995423 0.47177029517617
-0.0869438060401302 0.13555771405574 0.457844004265408
-0.0741996527834709 0.136576175918686 0.462747537904516
-0.0637940315921719 0.150611782968909 0.462747537904516
-0.0555495260350894 0.166059026658441 0.462747537904516
-0.0542990392759311 0.160531795118697 0.462747537904516
-0.310447642804415 -0.1046172813292 0.288170469607414
-0.306090753654406 -0.104972235482178 0.288170469607414
-0.298813450252638 -0.0921443542756475 0.288170469607414
-0.29323613529896 -0.0867699881019006 0.288170469607414
-0.288851737799869 -0.0813863924597334 0.288170469607414
-0.287530428386467 -0.0789968227210992 0.288170469607414
-0.271520359803541 -0.0710208714545572 0.288170469607414
-0.272897177325336 -0.0583627582648023 0.288170469607414
-0.264530750779027 -0.0490796920626166 0.288170469607414
-0.255559908641728 -0.0412681815865865 0.288170469607414
-0.25312722461071 -0.0443204771496582 0.288170469607414
-0.245820703226011 -0.032273887097483 0.288170469607414
-0.238308148782103 -0.031072345585042 0.288170469607414
-0.223908243825147 -0.0123596650157266 0.288170469607414
-0.217808398885916 -0.01149646008531 0.288170469607414
-0.22044137609167 -0.0035813639743214 0.288170469607414
-0.211278262639584 0.00716593660639781 0.288170469607414
-0.209611791771514 0.0113786589949416 0.288170469607414
-0.191859572294986 0.0186078846836577 0.288170469607414
-0.18613346449847 0.0309633629238131 0.288170469607414
-0.184406732103074 0.0423554663268936 0.288170469607414
-0.17940168798386 0.0404763810336232 0.288170469607414
-0.162712385071739 0.0586459470473601 0.2858768622497
-0.1636914621697 0.0646223778662857 0.286220105451302
-0.147315176188476 0.0752044617493661 0.280478934666834
-0.127907405139386 0.100110718549093 0.264312146977345
-0.126946199849549 0.0968524448170109 0.272478992972024
-0.126585894960564 0.0976464526214313 0.275540310435194
-0.127424198692524 0.0987261164380527 0.289134838338523
-0.143687823977671 0.0838926255882946 0.311821841242284
-0.127021011040585 0.0970975362995123 0.314410230719606
-0.14696557060643 0.0833463344835016 0.33795774166277
-0.125721990421627 0.0918504530383645 0.330269217115163
-0.14041741334302 0.0844376940274033 0.356981628099144
-0.140967155576049 0.0843460703218984 0.367756163776942
-0.126130373151162 0.0935000174509774 0.360346322749226
-0.12541563600408 0.0906130076022966 0.375195660149242
-0.12727976078102 0.0981426940222217 0.371822014678572
-0.142895725387116 0.0840246420200541 0.405408942891762
-0.127289367559956 0.098181498309245 0.39357907332885
-0.1485357940104 0.08308463058284 0.42659326044287
-0.142959975840041 0.0840139336112333 0.440040781046522
-0.126335947858108 0.0943303873373295 0.434081749117271
-0.126785382637682 0.096145771692642 0.446899012707114
-0.141538120186183 0.084250909553543 0.468251475220891
-0.144252962270782 0.0858462344015604 0.469770834648542
-0.128516216296432 0.103137060503702 0.466188387537492
-0.118826879269329 0.106718239938127 0.472745331522922
-0.122874473054514 0.107887900436654 0.472539427857383
-0.104906645896917 0.124621103030494 0.469593763064384
-0.0955473770776345 0.13555771405574 0.461540294817803
-0.0791991589670997 0.150493482432415 0.462747537904516
-0.0771863943784651 0.152941849291416 0.462747537904516
-0.071198488929014 0.164469337095591 0.462747537904515
-0.0590936457237224 0.172901766325461 0.462747537904516
-0.318981099727702 -0.101165431807905 0.288170469607414
-0.312860862965922 -0.0975512392380383 0.288170469607414
-0.306242049565878 -0.0924400090165866 0.288170469607414
-0.300651090670593 -0.076326094772218 0.288170469607414
-0.294129581896084 -0.0711928441113497 0.288170469607414
-0.28531276735974 -0.0731353851702325 0.288170469607414
-0.2772915133571 -0.0564004444411968 0.288170469607414
-0.280059479124838 -0.0552900632923437 0.288170469607414
-0.268749470444008 -0.0538541082995908 0.288170469607414
-0.264428502212429 -0.0459084738467125 0.288170469607414
-0.257063720250239 -0.03336530658966 0.288170469607414
-0.249339428568469 -0.026250111909168 0.288170469607414
-0.242703323797266 -0.0194989750668963 0.288170469607414
-0.237970764454828 -0.0142754154258901 0.288170469607414
-0.232614288213896 -0.00468516664131395 0.288170469607414
-0.228889352899057 0.00670945814474465 0.288170469607414
-0.219136841642497 0.00855521234760466 0.288170469607414
-0.208087899578646 0.0187237645207849 0.288170469607414
-0.204131954782592 0.0187649968200616 0.288170469607414
-0.20173242490502 0.0353224955645751 0.288170469607414
-0.188428757012147 0.0475668657648078 0.288170469607414
-0.177632831733803 0.0517617321050533 0.288170469607414
-0.18029070514081 0.0590120124293612 0.288170469607414
-0.174477741748798 0.0582449476070071 0.288170469607414
-0.166747664917505 0.072107717246184 0.287291543868244
-0.157165288049104 0.082906474916833 0.28393217030908
-0.127933705631902 0.105530926044502 0.264088685793518
-0.149817151181911 0.0828710710542545 0.301350914596265
-0.154510607583178 0.08208882832071 0.316517324444494
-0.155029359802199 0.0820023696175399 0.316079199222411
-0.147400130163461 0.083273907890663 0.335901190528254
-0.145806877279076 0.0835394500380603 0.335522889879341
-0.150623100113828 0.0827367462322688 0.348648645966636
-0.156346471550425 0.0817828509928359 0.368522025597935
-0.148293616085752 0.0831249935702812 0.365922813637342
-0.160586830745509 0.0810761244603216 0.395264685004413
-0.159277076753006 0.0812944167924058 0.395586073914212
-0.152342700137239 0.0824501462283665 0.40975498300484
-0.156320971681037 0.0817871009710673 0.420389731599622
-0.15288579730076 0.0823596300344466 0.418044351878866
-0.149732506589734 0.0828851784862842 0.427239259827837
-0.159221876893289 0.0813036167690254 0.44618488110706
-0.155425642753262 0.0819363224590295 0.457869651875288
-0.147488561383398 0.0832591693540067 0.464331483587551
-0.154541006600571 0.0851707524673856 0.469651924754238
-0.15162631406588 0.0952801526769174 0.471431554452052
-0.144149232910789 0.0975689985887311 0.471834476294492
-0.125305466778723 0.10460191187895 0.473072530095313
-0.119363933915177 0.116746550097616 0.470979976683977
-0.104860386923327 0.141526393498252 0.462747537904516
-0.106411405189157 0.140810357561774 0.462747537904516
-0.0959679561631795 0.149782921256484 0.462747537904516
-0.0859668045274756 0.165321875971064 0.462747537904516
-0.31962171607825 -0.0921926710123877 0.288170469607414
-0.317848597018632 -0.0882684456486502 0.288170469607414
-0.317359166480865 -0.0873360980557953 0.288170469607414
-0.303166653537717 -0.0802927203722399 0.288170469607414
-0.302652453369914 -0.0703330771129037 0.288170469607414
-0.288975932804908 -0.0619868053384853 0.288170469607414
-0.285875168720484 -0.0602758236435416 0.288170469607414
-0.281378985816772 -0.0489889329016891 0.288170469607414
-0.271257697016612 -0.0433024411350762 0.288170469607414
-0.265573696516241 -0.0319861336567422 0.288170469607414
-0.259584178806416 -0.0273209860827869 0.288170469607414
-0.253585269225766 -0.0220295036848591 0.288170469607414
-0.246159928798646 -0.00927173509433527 0.288170469607414
-0.245643686037208 -0.00851222285099001 0.288170469607414
-0.237257126270167 0.00804611274526255 0.288170469607414
-0.229774912535513 0.0144652537641786 0.288170469607414
-0.224979939290865 0.0201253315669281 0.288170469607414
-0.219649828974481 0.0198417665099358 0.288170469607414
-0.214469489335361 0.02648768508481 0.288170469607414
-0.196395755847829 0.0447354612603798 0.288170469607414
-0.199600002916591 0.0480993001602798 0.288170469607414
-0.187338655551665 0.0638848477736092 0.288170469607414
-0.185060436250878 0.056613814661935 0.288170469607414
-0.17294039796544 0.0737470986342402 0.288170469607414
-0.174716086123742 0.0748490783124934 0.288170469607414
-0.162180542589876 0.0842076659457314 0.291884046599302
-0.165220048686743 0.0817053234478777 0.301323443025925
-0.165259817150305 0.0802972933928556 0.318292314315218
-0.16731595904676 0.0799546030767796 0.32513176716197
-0.1663614330723 0.0801136907391901 0.334947741518664
-0.165592089207074 0.0802419147167276 0.345798185259622
-0.165451568002166 0.0802653349175458 0.356600587125501
-0.172581809167184 0.0793752029311901 0.366795525004073
-0.168827569460166 0.079702668007879 0.378540919560847
-0.173600374243593 0.0793752029311905 0.393889612071392
-0.168432261539532 0.079768552661318 0.395454854035843
-0.174583149710481 0.0793752029311905 0.406490157640429
-0.172665212810488 0.0793752029311901 0.417479801196286
-0.16752060984631 0.0799204946101881 0.420223545680574
-0.173053363992325 0.0793752029311901 0.431996716347864
-0.169781747174682 0.0795436383887927 0.437445622894361
-0.167654248222201 0.0798982215475398 0.451476014473393
-0.166579035843992 0.0826446947629722 0.46272830533274
-0.169699199315426 0.0856841125385777 0.469742295182693
-0.155653898859689 0.086530616733733 0.469891311343276
-0.152786835377459 0.0972338503818702 0.471775477769384
-0.142869960493241 0.104849838109118 0.473074239599904
-0.116856524511569 0.13555771405574 0.452052604477999
-0.124571347764548 0.139146500262275 0.462747537904516
-0.105334096904491 0.147024206090281 0.462747537904515
-0.106119750491075 0.154788755261338 0.462747537904516
-0.100636282292817 0.16067138009275 0.462747537904516
-0.0890531873562711 0.167064103865499 0.462747537904516
-0.33090141951184 -0.0935483473843375 0.288170469607414
-0.32154675901629 -0.0796049763032488 0.288170469607414
-0.316792825195205 -0.0783358007956301 0.288170469607414
-0.311472745926416 -0.0640093958733247 0.288170469607414
-0.30915822187114 -0.0679662094133195 0.288170469607414
-0.304642272371218 -0.0568171835965418 0.288170469607414
-0.300171318364767 -0.0541791052555132 0.288170469607414
-0.289167753264259 -0.0390804993064213 0.288170469607414
-0.28048120294259 -0.0394514566493895 0.288170469607414
-0.280609994326044 -0.0321797619351034 0.288170469607414
-0.269171118395728 -0.02205228755563 0.288170469607414
-0.264457549353339 -0.0129865070717978 0.288170469607414
-0.257730163735 -0.00423142654024607 0.288170469607414
-0.249410171151943 0.00583159935136098 0.288170469607414
-0.248704213952196 0.00818727083153161 0.288170469607414
-0.232056601418618 0.0191591901317355 0.288170469607414
-0.231481518118321 0.0218372281345795 0.288170469607414
-0.218392722256575 0.0383928642461253 0.288170469607414
-0.21258332806595 0.0416877811682131 0.288170469607414
-0.206866354275227 0.0473479192914956 0.288170469607414
-0.197568281810867 0.0548947623897684 0.288170469607414
-0.194156258557904 0.0611142600490281 0.288170469607414
-0.18555295519092 0.0750803489416526 0.288170469607414
-0.180709558121411 0.0715790972590105 0.288170469607414
-0.182768519096642 0.0832782555305788 0.29538999087319
-0.180588829047379 0.0796337077334204 0.309138041542779
-0.189827001651076 0.0793752029311905 0.318386446905676
-0.182953834736824 0.0793752029311901 0.32335824941597
-0.186864298722222 0.0793752029311905 0.346050371778088
-0.183783616640193 0.0793752029311905 0.342759102951473
-0.177376953845947 0.0793752029311901 0.354113193127636
-0.182680458653435 0.0793752029311901 0.367242290233939
-0.189725114233897 0.0793752029311905 0.383809357457932
-0.186816406049619 0.0793752029311905 0.384341406749862
-0.184299594970392 0.0793752029311901 0.391591541368317
-0.188392773842852 0.0793752029311905 0.405430383118022
-0.181918167837324 0.0793752029311901 0.41687201571347
-0.178753609897902 0.0793752029311901 0.423897247793741
-0.181997729740122 0.0793752029311901 0.434921168908592
-0.18887480385768 0.0793752029311901 0.448704859837787
-0.187656818042769 0.0809186246505081 0.456217182228819
-0.186334775741739 0.0820699288014044 0.460560159378132
-0.179092561278671 0.0822449732318735 0.461220466179814
-0.17692698039517 0.0919778285185605 0.470850222817908
-0.170390567925105 0.0946499257439982 0.471320611117835
-0.159601318814855 0.105614705812451 0.472939594492228
-0.152453397672282 0.11376244268461 0.471505290358734
-0.133127212001182 0.135557714055739 0.460758114989338
-0.130200406829807 0.136829138225106 0.462747537904516
-0.118972437581287 0.153664830052495 0.462747537904516
-0.108169461949623 0.160758900409591 0.462747537904516
-0.10438552550071 0.166131318480359 0.462747537904516
-0.338547135175931 -0.0829108391221003 0.288170469607414
-0.329970099359151 -0.0703810747534189 0.288170469607414
-0.325580939464469 -0.0646161362158914 0.288170469607414
-0.322375182646459 -0.0585984879981562 0.288170469607414
-0.317415403371695 -0.0563619289342728 0.288170469607414
-0.302663810651987 -0.0467680571515165 0.288170469607414
-0.302688034834325 -0.0438889731637137 0.288170469607414
-0.295891079639231 -0.0384631376979599 0.288170469607414
-0.284591616661782 -0.0253154903928338 0.288170469607414
-0.279159772416812 -0.0222065699288595 0.288170469607414
-0.277397207966978 -0.0184582355199065 0.288170469607414
-0.273705868047069 -0.00759573249039431 0.288170469607414
-0.264419733016356 -0.00311883307526931 0.288170469607414
-0.26179998164691 0.00597862249299926 0.288170469607414
-0.247141763927239 0.0175124820375426 0.288170469607414
-0.241335556792741 0.0240531920200562 0.288170469607414
-0.235756590086219 0.0348530695228125 0.288170469607414
-0.232074901077273 0.037513801588146 0.288170469607414
-0.22507822699082 0.0496648402987837 0.288170469607414
-0.22493259200387 0.0469767376884177 0.288170469607414
-0.21430057491016 0.0618716268264263 0.288170469607414
-0.205514030613921 0.0681984712938885 0.288170469607414
-0.191985898741681 0.0855118859811772 0.288170469607414
-0.19710812704721 0.0843412365921612 0.291380188201144
-0.191876466394734 0.0827400901969934 0.29742007106051
-0.199204712203425 0.0793752029311901 0.314290878986281
-0.194442639295531 0.0793752029311901 0.324101944549295
-0.195278814742958 0.0793752029311905 0.341173649565151
-0.199906067699835 0.0793752029311905 0.349296440294132
-0.188522339286719 0.0793752029311905 0.354948866368673
-0.1967578884487 0.0793752029311905 0.366507541498437
-0.192640290461698 0.0793752029311905 0.367466868315709
-0.200222364901849 0.0793752029311901 0.386306142233718
-0.1913143584994 0.0793752029311901 0.387403329169299
-0.199706578654606 0.0793752029311905 0.40170142107868
-0.199513873492441 0.0793752029311901 0.41897278999453
-0.193096682349348 0.0793752029311905 0.418255313370437
-0.197000580136703 0.0793752029311901 0.431847171091434
-0.189547007181132 0.0793752029311905 0.436740343939334
-0.190956576669104 0.0793752029311901 0.444741135904404
-0.195365426951615 0.0824111998402895 0.461847510181519
-0.19357388160967 0.0832273976001957 0.464926390960185
-0.184554869211479 0.0882892278349384 0.470200892176733
-0.186657063304384 0.0897264377507896 0.470453894471155
-0.178383955619801 0.0992387919246051 0.472128421904335
-0.171571102912795 0.104952890086392 0.473056098626614
-0.160530472475675 0.117059641186527 0.470924861030388
-0.143437046613915 0.137573854085147 0.462747537904516
-0.135491680433331 0.146630806645956 0.462747537904516
-0.123095664247963 0.155776151626929 0.462747537904516
-0.118604717218337 0.163965053989424 0.462747537904516
-0.116302045469586 0.171701662688861 0.462747537904516
-0.344265265862049 -0.0770024739098032 0.288170469607414
-0.335169826704684 -0.0723346426042256 0.288170469607414
-0.332410073092912 -0.065300053325749 0.288170469607414
-0.32669028214908 -0.0561078814156525 0.288170469607414
-0.3179843858201 -0.0465562723159906 0.288170469607414
-0.31775868431513 -0.0462446395063909 0.288170469607414
-0.307874741327857 -0.0356240094601234 0.288170469607414
-0.305172404074879 -0.0272806967414833 0.288170469607414
-0.293637097570277 -0.0169152365521221 0.288170469607414
-0.293103863257407 -0.0147577855014169 0.288170469607414
-0.281218794703947 -0.00548813410879851 0.288170469607414
-0.274330649386453 -0.00118902824695352 0.288170469607414
-0.270125001772975 0.0123262158161037 0.288170469607414
-0.260832543542814 0.0185450554191173 0.288170469607414
-0.258544254205283 0.0218309062634337 0.288170469607414
-0.245591093645606 0.0351052177160085 0.288170469607414
-0.246821506258687 0.0426511786988955 0.288170469607414
-0.238704981673543 0.0436693927617077 0.288170469607414
-0.23384461333007 0.0497035799117657 0.288170469607414
-0.221482425515316 0.0578333081243691 0.288170469607414
-0.209502523537345 0.0686196538240514 0.288170469607414
-0.208994441443441 0.0801520331081693 0.288170469607414
-0.206018239583153 0.0842544108435522 0.291707714373864
-0.205740682217247 0.0816184161370365 0.301651276869657
-0.215147738906766 0.0793752029311905 0.32247452417345
-0.205882036751011 0.0793752029311901 0.326969555468809
-0.211414702268274 0.0793752029311901 0.335030123196086
-0.199927237225394 0.0793752029311901 0.336240578569685
-0.201378961986802 0.0793752029311901 0.345381950587539
-0.214690630582505 0.0793752029311905 0.363362365728445
-0.206939458448011 0.0793752029311901 0.371832580412184
-0.208128566078576 0.0793752029311901 0.382847267092547
-0.212038236173257 0.0793752029311901 0.394423420464822
-0.215135565783997 0.0793752029311901 0.40935134254753
-0.205975914870546 0.0793752029311901 0.412103604544366
-0.21108917798144 0.0793752029311901 0.421556574029693
-0.207370999120926 0.0793752029311905 0.428378087041044
-0.209848034446504 0.0793752029311905 0.435856773374598
-0.204966745897386 0.0793752029311905 0.443812650229859
-0.205882113522679 0.0812644157612156 0.457521583755618
-0.199700539353244 0.0833155889958526 0.465259068659473
-0.206637635335962 0.087198726373292 0.470008923440068
-0.188292964474233 0.0983246135835339 0.471967492582006
-0.189350138610303 0.103710777325942 0.472915657335069
-0.179774010717232 0.11334795668663 0.471578255280098
-0.15850727189929 0.13555771405574 0.45999783679067
-0.16110152149905 0.13555771405574 0.458701643469809
-0.154425415615715 0.145740473824288 0.462747537904516
-0.135356336429815 0.155810674551037 0.462747537904516
-0.137531384624857 0.164746558802115 0.462747537904516
-0.344406828473171 -0.0630152432893994 0.288170469607414
-0.345664304149963 -0.0619628898327658 0.288170469607414
-0.341414570068421 -0.0603988973102817 0.288170469607414
-0.332126903164792 -0.0435444349110627 0.288170469607414
-0.32804113820191 -0.0486408049032715 0.288170469607414
-0.317994085768929 -0.0337177300110619 0.288170469607414
-0.319689746820959 -0.0281445682010285 0.288170469607414
-0.312997072657276 -0.0252392929493489 0.288170469607414
-0.301560403194206 -0.0185260257999144 0.288170469607414
-0.293485433360536 -0.0059234291737048 0.288170469607414
-0.284889955453706 -0.0025644956631496 0.288170469607414
-0.278167702551548 0.0119214004235686 0.288170469607414
-0.27977368752211 0.0159802883077991 0.288170469607414
-0.273262608435303 0.0259946998147672 0.288170469607414
-0.258095451072442 0.0342863674537692 0.288170469607414
-0.256759966935397 0.0413580004342125 0.288170469607414
-0.25129345456315 0.0463749141204814 0.288170469607414
-0.244004770578645 0.053463888318949 0.288170469607414
-0.243593925902989 0.0581070696290837 0.288170469607414
-0.227500996928906 0.0706892098196939 0.288170469607414
-0.222399832667551 0.0819652216580303 0.288170469607414
-0.225681358486102 0.082338128865338 0.298936359242853
-0.215601641816639 0.0814440359746602 0.302309077903295
-0.222655088283177 0.0797954045632179 0.308528084880693
-0.223589317625375 0.0793752029311905 0.322331611073132
-0.222731889815884 0.0793752029311901 0.334144650548813
-0.225823579589462 0.0793752029311901 0.342828047664309
-0.21713236429329 0.0793752029311905 0.345574533590762
-0.223841070459381 0.0793752029311905 0.363679777379518
-0.223429065530031 0.0793752029311905 0.377923033053243
-0.229750827987679 0.0793752029311901 0.386532390274491
-0.214744043682651 0.0793752029311905 0.382204574839757
-0.226896022480855 0.0793752029311901 0.407173557234665
-0.218867353180398 0.0793752029311901 0.407681990198064
-0.218492166764885 0.0793752029311901 0.423834731850155
-0.222600969291595 0.0793752029311901 0.430483325422524
-0.216881056913057 0.0793752029311905 0.440552294980923
-0.228393697451591 0.0796018336629758 0.451249951662667
-0.219781453432101 0.08167157023738 0.459057461642313
-0.211323926709659 0.0827178823550725 0.463004385324162
-0.213213499852442 0.0864274575320423 0.46987315149451
-0.212659617128454 0.0976486017020807 0.471848489397309
-0.198920340718144 0.101171225502879 0.472468601946046
-0.201118340741127 0.1063315359073 0.472813405786801
-0.18886593890479 0.120522178946241 0.470315325855275
-0.175047258541011 0.135557714055739 0.460272610691419
-0.166884408691141 0.140156915951435 0.462747537904515
-0.156848328068157 0.157347385864737 0.462747537904516
-0.142890392328794 0.163861186861335 0.462747537904516
-0.143524035362202 0.17077460320952 0.462747537904516
-0.4193893670345 -0.14234418487368 0.386462937506972
-0.411517879889438 -0.127211909727474 0.381918332284848
-0.338709198816575 -0.0465334544115688 0.288170469607414
-0.343088930847979 -0.0469526498335406 0.288170469607414
-0.330812648166224 -0.0312373585420046 0.288170469607414
-0.321966158213218 -0.0236095714411861 0.288170469607414
-0.322638702491192 -0.019875642867103 0.288170469607414
-0.315471496980343 -0.0215604183344535 0.288170469607414
-0.303886677429548 -0.00332195055405134 0.288170469607414
-0.307269671260984 -0.00364729763505381 0.288170469607414
-0.296450673426012 0.000930519778799102 0.288170469607414
-0.287571502734242 0.0198522379094797 0.288170469607414
-0.286437453624133 0.0250728320742244 0.288170469607414
-0.278173112541366 0.0289451354493027 0.288170469607414
-0.274201089390203 0.0321327284299584 0.288170469607414
-0.26021205747217 0.0399069779978703 0.288170469607414
-0.257069489932497 0.0564690311952293 0.288170469607414
-0.253919634851905 0.0621497156907132 0.288170469607414
-0.244959009953839 0.0712651463432269 0.288170469607414
-0.238742746655399 0.0830007787294795 0.288170469607414
-0.230202945378678 0.0838286701255939 0.288170469607414
-0.23113802930594 0.0834663013709201 0.294680639841155
-0.23657077332653 0.0793752029311898 0.310834102689985
-0.228805775320483 0.0793752029311898 0.313833927629764
-0.24027542389609 0.0793752029311905 0.340396611226173
-0.22990958020317 0.0793752029311905 0.331767335314399
-0.231577524319435 0.0793752029311901 0.355929429892726
-0.234215623206106 0.0793752029311901 0.360044655984321
-0.232235796193241 0.0793752029311905 0.374598466472256
-0.229148750171337 0.0793752029311901 0.37728037467688
-0.235519716276145 0.0793752029311905 0.38761222568122
-0.238873743256044 0.0793752029311905 0.403550389814167
-0.238368808496412 0.0793752029311905 0.408388074953423
-0.231296076446008 0.0793752029311905 0.420428667343822
-0.226889697142593 0.0793752029311901 0.421867714243359
-0.229276273408129 0.0793752029311905 0.435470166980054
-0.23815802508025 0.0793752029311905 0.442486943807637
-0.233281273341494 0.0793752029311905 0.449694400621521
-0.229745216415823 0.0822211191576507 0.461130483268532
-0.223138486302986 0.0839210457576866 0.467542987187426
-0.225463540943257 0.0887005371915619 0.470273297891302
-0.215085739435442 0.0953819108611708 0.471449467669745
-0.204955494825221 0.110649339099107 0.472053312148188
-0.209034195351995 0.112764092447287 0.471681037059264
-0.195072790768426 0.124034991155454 0.469696940510864
-0.183142231048784 0.135557714055739 0.462454553975089
-0.171097035612945 0.146553912242886 0.462747537904516
-0.166572762648685 0.151512506197926 0.462747537904516
-0.161512873412665 0.165823833318933 0.462747537904516
-0.435229979698964 -0.139675197717824 0.395608519492929
-0.412967275989076 -0.116729308273978 0.382755141513137
-0.414099559546522 -0.120376876709937 0.383408865729827
-0.343755112413373 -0.0319769428788855 0.288170469607414
-0.342202959158688 -0.0346358682517086 0.288170469607414
-0.329264218813603 -0.0196400132162271 0.288170469607414
-0.327598690886842 -0.0177050192587874 0.288170469607414
-0.317989866496967 -0.00140626641474574 0.288170469607414
-0.319728617251404 -0.00446082093217393 0.288170469607414
-0.312624021833137 0.00831341062210571 0.288170469607414
-0.303943427868039 0.012688503322836 0.288170469607414
-0.29813463415906 0.0214085535354215 0.288170469607414
-0.293706218530021 0.0248051350725996 0.288170469607414
-0.285204412419365 0.0431975944471315 0.288170469607414
-0.279547678329338 0.0438345636457675 0.288170469607414
-0.265957137612702 0.0552991781937432 0.288170469607414
-0.269825091276197 0.0603350753515919 0.288170469607414
-0.25884702971165 0.0654244938978135 0.288170469607414
-0.250324832154896 0.072010829769 0.288170469607414
-0.247260459800322 0.0787393826778388 0.288170469607414
-0.240617720542936 0.0823569523400477 0.298865352879788
-0.246505741551948 0.0793752029311898 0.311400932095324
-0.242161968938902 0.0793752029311898 0.312060755468522
-0.247817011140107 0.0793752029311901 0.330790776007694
-0.247405463025349 0.0793752029311901 0.339222275096867
-0.243982731253062 0.0793752029311901 0.340224064983857
-0.246268195673631 0.0793752029311901 0.358011236686026
-0.242578135821137 0.0793752029311901 0.368075138819951
-0.251008360325474 0.0793752029311901 0.383632451684032
-0.246973110439964 0.0793752029311901 0.385515610538111
-0.249094620455607 0.0793752029311901 0.401434680676303
-0.253215203391891 0.0793752029311905 0.410347076039424
-0.241319179588059 0.0793752029311905 0.412761372725574
-0.243088705814525 0.0793752029311901 0.422842050028911
-0.252998099238465 0.0793752029311905 0.43615938460024
-0.246789078446852 0.0793752029311905 0.445843753021014
-0.245912411505514 0.0812622633541899 0.457513464394179
-0.245494593775119 0.0834968903503661 0.465942977980202
-0.241776714167498 0.0831625944784595 0.464681939069095
-0.235655572767835 0.0952373131712837 0.471424013108858
-0.231728834720032 0.0980969352048706 0.471927412735941
-0.224295944321953 0.101777523887082 0.472575332967462
-0.210010783645474 0.118674001319747 0.470640673721892
-0.207524238003437 0.115611404392383 0.471179804464707
-0.192220278725661 0.137352503009121 0.462747537904516
-0.187061633839505 0.150125170681832 0.462747537904516
-0.180609811048738 0.162977135443295 0.462747537904516
