ply
format ascii 1.0
element vertex 865
property float x
property float y
property float z
end_header
0.0861645428813726 0.283333333333333 0.460793014347288
0.0933222613128831 0.283333333333333 0.465858447446581
0.0933522960106124 0.28279108838152 0.483333333333331
0.0891617864565825 0.28102515219206 0.483333333333331
0.0934517937228827 0.259178886716613 0.483333333333331
0.0955547954023629 0.251073872357828 0.483333333333331
0.0915025659215292 0.242794264701451 0.483333333333331
0.0965003831399053 0.240336808632611 0.483333333333331
0.0893649590849414 0.219793927505655 0.483333333333331
0.100278871186634 -0.0552562059223948 0.241666666666666
0.103466444237934 -0.0657275903032955 0.241666666666666
0.103369505440177 -0.0717779583880622 0.241666666666666
0.104490034698207 -0.0889381401882646 0.241666666666666
0.100437888534477 -0.0968916288517236 0.241666666666665
0.10408322273678 -0.108118114677324 0.241666666666666
0.108553051252395 -0.121384683858622 0.241666666666666
0.105329473775235 -0.132443572494663 0.241666666666666
0.107233849965426 -0.143563554585972 0.241666666666666
0.104918281123262 -0.158339487586791 0.241666666666666
0.104455566150477 -0.17034802328937 0.241666666666666
0.103198556860042 -0.186209168377758 0.241666666666665
0.102545228307639 -0.191596194620082 0.241666666666666
0.103921584273256 -0.210542322968844 0.241666666666666
0.103233041945149 -0.223916972663391 0.241666666666666
0.102335286059707 -0.231720437683839 0.241666666666666
0.105683867276268 -0.238379789611599 0.241666666666666
0.110690789077639 -0.257799862626312 0.241666666666666
0.111456897127112 -0.277247266800362 0.241666666666666
0.111034824816277 -0.282824578477494 0.241666666666666
0.0984800195701659 0.283333333333334 0.279630499363415
0.10325259302967 0.283333333333333 0.285579059235924
0.100483351027935 0.283333333333334 0.293046975470936
0.103512229064385 0.283333333333333 0.302016605506688
0.0956984532511389 0.283333333333333 0.311414226768565
0.0992840259750537 0.283333333333333 0.31718165931035
0.0962266204996249 0.283333333333333 0.329190122155662
0.0975103067999738 0.283333333333333 0.33864720670823
0.0955728523287281 0.283333333333333 0.347692200189848
0.103116506654946 0.283333333333333 0.357322186951876
0.0998627323976245 0.283333333333333 0.364207432317362
0.0949988901118294 0.283333333333333 0.378585378362884
0.0973031813991137 0.283333333333333 0.377747499226196
0.103827076985181 0.283333333333333 0.38503147526938
0.0957422598594266 0.283333333333333 0.40237990276655
0.103144556173498 0.283333333333333 0.417471359582052
0.100561705595287 0.283333333333333 0.418626326717475
0.0994113133398915 0.283333333333333 0.427827040068194
0.100698287180802 0.283333333333333 0.440197301558363
0.10034567845099 0.283333333333333 0.446244478903032
0.102554825130741 0.283333333333333 0.458739348685583
0.0995939329250089 0.283333333333333 0.46666026778532
0.0962618262275162 0.283333333333333 0.473296889068693
0.0980849711725143 0.277351369068637 0.483333333333331
0.0980490481601809 0.272399770433051 0.483333333333331
0.0993465350446782 0.263905006972473 0.483333333333331
0.100346032979916 0.254664779913572 0.483333333333331
0.10269946585154 0.248598072975984 0.483333333333331
0.103101759223411 0.241001964459566 0.483333333333331
0.0982871422474281 0.23012164859308 0.483333333333331
0.113878880909175 -0.0549563947832674 0.241666666666666
0.107237133320531 -0.0674916380299756 0.241666666666666
0.112263825624162 -0.0776804932425705 0.241666666666666
0.116125358875966 -0.084444004760401 0.241666666666666
0.117661745545387 -0.0995353843288445 0.241666666666666
0.113710256475157 -0.107131180435318 0.241666666666666
0.116615544934635 -0.115675527503137 0.241666666666666
0.115401107653221 -0.136453557645796 0.241666666666666
0.118506742020892 -0.140587139758342 0.241666666666665
0.111306863818346 -0.159169470787209 0.241666666666666
0.119319018441114 -0.166679476115289 0.241666666666666
0.111153866556464 -0.180899338234835 0.241666666666666
0.114364036336851 -0.193436836953072 0.241666666666666
0.112471221370169 -0.214265745612082 0.241666666666666
0.122531869537743 -0.222682412474043 0.241666666666666
0.118866308551741 -0.2368560958677 0.241666666666666
0.123290327738786 -0.254448496166691 0.241666666666666
0.117267572320813 -0.250490116249778 0.241666666666666
0.122541233367408 -0.269024594202385 0.241666666666666
0.113014530955514 0.283333333333333 0.279554862287213
0.111230481811699 0.283333333333333 0.282632631100436
0.109901334950537 0.283333333333333 0.293033593657832
0.110282116282852 0.283333333333333 0.302369185559736
0.111969805431778 0.283333333333333 0.306198826976106
0.104380070301095 0.283333333333333 0.31948582192111
0.107221419453592 0.283333333333333 0.328655425998576
0.104545596425261 0.283333333333333 0.330407981830441
0.112385305106592 0.283333333333333 0.34618135949266
0.112939257234294 0.283333333333333 0.358089373826637
0.108176561222015 0.283333333333333 0.36587135770324
0.110956398864398 0.283333333333333 0.377973070031894
0.10528192916117 0.283333333333333 0.381619529255399
0.106859914262906 0.283333333333333 0.388562391989111
0.108952190773786 0.283333333333333 0.401285218650352
0.11273635499943 0.283333333333333 0.406370890583923
0.106581199860287 0.283333333333333 0.415783860940949
0.108604148907979 0.283333333333333 0.430169497878215
0.111991195392635 0.283333333333333 0.434473904419044
0.111727295449094 0.283333333333333 0.454846192838464
0.112071677744938 0.283333333333333 0.458207738075399
0.10786837028843 0.283333333333333 0.469974712014835
0.112480142588124 0.283333333333333 0.469075481299064
0.108710831994108 0.283333333333333 0.481282987573371
0.10711805844994 0.266835424684957 0.483333333333331
0.111421160334863 0.259232500670256 0.483333333333331
0.107870712429742 0.249171788050017 0.483333333333331
0.10746339486562 0.248337953585424 0.483333333333331
0.107916055466035 0.234894180903122 0.483333333333331
0.108204041211887 0.226699216317193 0.483333333333331
0.124148665484654 -0.0580075725970923 0.241666666666665
0.125606899273654 -0.0625035400977384 0.241666666666666
0.123258245091764 -0.0794100443043246 0.241666666666666
0.124738350200949 -0.0857473744369223 0.241666666666666
0.120620273969197 -0.099237930223089 0.241666666666666
0.121182294798357 -0.111946116286301 0.241666666666666
0.128634509402769 -0.124961925986715 0.241666666666666
0.124988441727384 -0.135601927670021 0.241666666666666
0.122687500070546 -0.145086806410645 0.241666666666666
0.127813600950495 -0.15976153376519 0.241666666666666
0.123488143778515 -0.167965431883716 0.241666666666666
0.131986290598609 -0.189218692385086 0.241666666666666
0.124669401241005 -0.194357890578863 0.241666666666666
0.124635622974909 -0.215025103930635 0.241666666666666
0.128734263858145 -0.224104615856572 0.241666666666665
0.125604423357416 -0.23311436688085 0.241666666666666
0.13425204943716 -0.246190993596885 0.241666666666666
0.127902485607968 -0.24846578111271 0.241666666666666
0.128209935876888 -0.267873695975918 0.241666666666666
0.131320972295039 -0.279722191984493 0.241666666666665
0.118058781372766 0.283333333333333 0.279653046766801
0.120602667986916 0.283333333333334 0.281563717100852
0.114279488432843 0.283333333333333 0.288513453904117
0.113668079127566 0.283333333333334 0.299464670183706
0.117227758775955 0.283333333333333 0.317211957734767
0.114495231461876 0.283333333333333 0.31720716395953
0.117020282837087 0.283333333333333 0.324206203523571
0.118084995334522 0.283333333333334 0.340480030077604
0.115324984067148 0.283333333333334 0.352868263152362
0.114512378772426 0.283333333333333 0.353519838215784
0.116968629510045 0.283333333333334 0.36645096224262
0.115155572606149 0.283333333333333 0.372293613244551
0.11883888554479 0.283333333333334 0.38341908859737
0.121611963268119 0.283333333333334 0.387606364357258
0.12186826320445 0.283333333333334 0.406354238868454
0.120275001468228 0.283333333333334 0.40798793095735
0.117898999376452 0.283333333333333 0.420042281516687
0.113747652099527 0.283333333333333 0.423217257980269
0.117735229330089 0.283333333333334 0.440079854198568
0.120189895357761 0.283333333333334 0.446764917902181
0.121200249226814 0.283333333333334 0.449276886259227
0.116531374805597 0.283333333333333 0.462536345121941
0.116095409827419 0.283333333333333 0.472897023315617
0.115727603717965 0.283333333333334 0.480738838098353
0.121291582916514 0.27377963632925 0.483333333333331
0.121052323316406 0.263545782430312 0.483333333333331
0.120730297663214 0.25693619981202 0.483333333333331
0.120695591185718 0.247464035691194 0.483333333333331
0.122766724160794 0.229884903740561 0.483333333333331
0.117629056978568 0.222961178331425 0.483333333333331
0.130120521993991 -0.0509862106467643 0.241666666666665
0.133701331660378 -0.0619841695191005 0.241666666666666
0.137357009977908 -0.0778781108560479 0.241666666666666
0.132278091107209 -0.0918452469934371 0.241666666666666
0.129035504484776 -0.094228832473523 0.241666666666665
0.136802175002932 -0.111161512794077 0.241666666666666
0.137728893693401 -0.126034703146872 0.241666666666666
0.135090926759615 -0.135951508728418 0.241666666666665
0.133894054959007 -0.148952583638268 0.241666666666666
0.132090125232434 -0.15454650322817 0.241666666666666
0.13295624226911 -0.172578318191313 0.241666666666666
0.143018587345591 -0.173402738837413 0.241666666666665
0.14231791385752 -0.189109938835237 0.241666666666666
0.139074301658447 -0.205593371144228 0.241666666666665
0.13843394697025 -0.222683818234215 0.241666666666666
0.1415415408027 -0.230529800204163 0.241666666666666
0.139815358326062 -0.246675518720404 0.241666666666666
0.137059237988683 -0.254718235450066 0.241666666666665
0.146391604765935 -0.267616614082999 0.241666666666666
0.125017684023522 0.283333333333334 0.274489639948811
0.129723538468236 0.283333333333334 0.283134629439789
0.125756649695153 0.283333333333334 0.295145956764992
0.129379100534758 0.283333333333334 0.304255857329253
0.124337887503605 0.283333333333334 0.311192138015541
0.130198525741033 0.283333333333334 0.313300406162792
0.128150354092752 0.283333333333334 0.324905702199531
0.127798049733413 0.283333333333334 0.332242152325071
0.130041213064348 0.283333333333334 0.342937677855783
0.125769608008184 0.283333333333334 0.362306215218443
0.124679119038089 0.283333333333334 0.360267699051591
0.128457012536102 0.283333333333334 0.372047629967747
0.122712409007224 0.283333333333334 0.383724817633854
0.123591409454779 0.283333333333334 0.398920267015077
0.130735110311454 0.283333333333333 0.397412372729396
0.122792863195065 0.283333333333334 0.406077428772106
0.130146596357183 0.283333333333334 0.420479587143932
0.123006382578553 0.283333333333334 0.43146890834378
0.122798203347282 0.283333333333334 0.435520961532115
0.127176352126602 0.283333333333333 0.450745005815248
0.131451752117571 0.283333333333333 0.455020740316028
0.131175855675336 0.283333333333333 0.45825168839629
0.126895925061402 0.283333333333334 0.467605626862921
0.126189335288292 0.283333333333334 0.482622128277225
0.12274510125563 0.282087953340636 0.483333333333331
0.127652775424114 0.260061422853428 0.483333333333331
0.126467232217445 0.248613464109611 0.483333333333331
0.125105987563543 0.242269592050716 0.483333333333331
0.131146708038779 0.228128489541708 0.483333333333331
0.129261276175875 0.225040247311745 0.483333333333331
0.147181410479942 -0.0590476594281504 0.241666666666665
0.143694162645273 -0.0554274402958661 0.241666666666665
0.139390389496383 -0.0753416834432761 0.241666666666666
0.146243616143807 -0.0797457649471763 0.241666666666666
0.144083750225166 -0.0936666676235086 0.241666666666666
0.142951226125463 -0.106262160872359 0.241666666666666
0.144748176809729 -0.121317293906905 0.241666666666666
0.141356626094207 -0.136139007471355 0.241666666666666
0.145616379175158 -0.149976765737514 0.241666666666666
0.145081978488911 -0.154418107429462 0.241666666666666
0.151462399358542 -0.173435645467563 0.241666666666666
0.146292106932521 -0.17850508955058 0.241666666666666
0.148082366365794 -0.194001915263109 0.241666666666666
0.151475767146684 -0.203920021157243 0.241666666666666
0.153167615122841 -0.219908964796238 0.241666666666666
0.148478467653486 -0.221142186784204 0.241666666666666
0.147861954316627 -0.24209486231241 0.241666666666666
0.151461175466603 -0.250995784297197 0.241666666666666
0.155459032305105 -0.274863184054128 0.241666666666666
0.132327285569473 0.283333333333334 0.280797001916825
0.139443521710044 0.283333333333334 0.284615861573839
0.136559018508838 0.283333333333334 0.28756885550816
0.131954601740654 0.283333333333334 0.303631063722276
0.134079525906928 0.283333333333334 0.311619134732097
0.13238027050845 0.283333333333334 0.316211339643398
0.131436298451672 0.283333333333334 0.3304081841416
0.138027092933496 0.283333333333333 0.335162686150835
0.137460989707816 0.283333333333334 0.344934241925205
0.139028260267064 0.283333333333334 0.360822950658824
0.136375878432105 0.283333333333333 0.35920459146178
0.131818746301134 0.283333333333334 0.369208181333019
0.135179665747738 0.283333333333334 0.388141421949914
0.134355354368566 0.283333333333333 0.399754315028159
0.135132522132167 0.283333333333334 0.402677661713082
0.13917281833586 0.283333333333334 0.411547278198681
0.136817736726768 0.283333333333334 0.421701716689548
0.136734299866236 0.283333333333334 0.427263888712496
0.132949125922215 0.283333333333334 0.44057467580572
0.135409389781295 0.283333333333333 0.440270139255465
0.138419067230748 0.283333333333334 0.456331062438039
0.134811202496581 0.283333333333334 0.470336185861949
0.139848595808374 0.283333333333334 0.471069130436705
0.136024818958878 0.28037233988653 0.483333333333331
0.136952372443568 0.278503740612581 0.483333333333331
0.132697055288661 0.264193001392751 0.483333333333331
0.135558394481976 0.245753337916253 0.483333333333331
0.134846734531682 0.247736376310523 0.483333333333331
0.135380330689888 0.232352321704577 0.483333333333331
0.134994095400762 0.222521610742646 0.483333333333331
0.151142441215923 -0.0517288810468592 0.241666666666666
0.153197200783464 -0.0586207375591844 0.241666666666666
0.152865411149594 -0.073755823183718 0.241666666666666
0.151586132369422 -0.0803128729589509 0.241666666666666
0.155427123304494 -0.0987495446577899 0.241666666666666
0.155439352404305 -0.112735158088115 0.241666666666666
0.154072600598525 -0.115542387077762 0.241666666666666
0.15466759694445 -0.130413089783732 0.241666666666666
0.161092101942428 -0.142710502335595 0.241666666666666
0.154961644144051 -0.167408990953344 0.241666666666666
0.155809607913258 -0.171957876872449 0.241666666666666
0.157684165929498 -0.181594885584831 0.241666666666666
0.155701137294936 -0.198111146779425 0.241666666666665
0.163994582799946 -0.203695084319622 0.241666666666666
0.166443784596193 -0.223555646003096 0.241666666666666
0.158402645081723 -0.228822335982176 0.241666666666665
0.160531811983259 -0.247958835694726 0.241666666666666
0.162461066050098 -0.254055749732981 0.241666666666666
0.167485327996283 -0.273210631183358 0.241666666666666
0.143656578107202 0.283333333333334 0.271352907942965
0.147762746805666 0.283333333333334 0.27989014219609
0.146330857064032 0.283333333333334 0.287681065865238
0.143653606846288 0.283333333333334 0.304888632834208
0.140832393613783 0.283333333333334 0.308141456314709
0.143434986752136 0.283333333333334 0.313752664320979
0.140582709055467 0.283333333333333 0.327020271833976
0.140536806931382 0.283333333333334 0.335889396512595
0.147602428816003 0.283333333333334 0.347456687854403
0.144799262794192 0.283333333333334 0.351881776285029
0.140345240032217 0.283333333333334 0.368982774593661
0.145523287164919 0.283333333333334 0.376876057603743
0.143680666287248 0.283333333333334 0.37781408363754
0.142334185972839 0.283333333333333 0.385205974168504
0.145714528812056 0.283333333333333 0.406802470559247
0.145524637471448 0.283333333333334 0.409337769371624
0.148047346217143 0.283333333333334 0.423408218012077
0.141708744923915 0.283333333333334 0.432688723993785
0.14625542327336 0.283333333333334 0.44083241785653
0.144281314322969 0.283333333333334 0.44587503117439
0.144848557795642 0.283333333333333 0.45054478737131
0.14851659017154 0.283333333333334 0.464571947294527
0.142602110349169 0.283333333333333 0.470965728037209
0.144920936587154 0.280415685360709 0.483333333333331
0.141634141877323 0.278221254183487 0.483333333333331
0.146867893690782 0.270441522012828 0.483333333333331
0.149978321042709 0.251926976441896 0.483333333333331
0.147089467367141 0.250319214436285 0.483333333333331
0.148044144782548 0.230955759428795 0.483333333333331
0.146791133689739 0.225322388904749 0.483333333333331
0.159990940016912 -0.0510160349890565 0.241666666666666
0.161120804809127 -0.0560840339072462 0.241666666666665
0.166024761034583 -0.0722297043166959 0.241666666666666
0.15963305273346 -0.0850699691650246 0.241666666666666
0.167670851660441 -0.0992635855077464 0.241666666666666
0.161685537973316 -0.10856238136757 0.241666666666666
0.167566968360391 -0.120661197482583 0.241666666666666
0.170913475915123 -0.141567171749238 0.241666666666666
0.171868308268827 -0.145236535142876 0.241666666666666
0.165612081256013 -0.160738007690155 0.241666666666665
0.165344347268346 -0.165656768178671 0.241666666666666
0.169731489671742 -0.181359644512371 0.241666666666666
0.170169145271243 -0.1882793735419 0.241666666666666
0.168260888925788 -0.214686942100783 0.241666666666666
0.173484277079231 -0.21652823678221 0.241666666666666
0.173912700207701 -0.232299038820823 0.241666666666666
0.168024031331806 -0.238997966561403 0.241666666666666
0.175549343533494 -0.257215507200447 0.241666666666666
0.174890173180639 -0.277195028897069 0.241666666666666
0.173116219966622 -0.28188319843269 0.241666666666666
0.151527689171535 0.283333333333334 0.270895245106852
0.15004033821565 0.283333333333334 0.28988833079277
0.153842681762749 0.283333333333333 0.297707601967295
0.158402776106187 0.283333333333334 0.305686834792193
0.154237072592862 0.283333333333334 0.312069473003702
0.155143601996552 0.283333333333334 0.313978983379048
0.155523652622186 0.283333333333334 0.331341216389908
0.157367184393552 0.283333333333334 0.34057447202683
0.153679295771756 0.283333333333334 0.339654359827799
0.150805130456271 0.283333333333334 0.361859963227707
0.153153481143886 0.283333333333333 0.364287785507233
0.152948519376204 0.283333333333334 0.36820791543031
0.154633564303291 0.283333333333334 0.389103931951119
0.152662710136158 0.283333333333334 0.390694494461304
0.152513433930994 0.283333333333334 0.404535428937863
0.155259135873266 0.283333333333334 0.414247009946351
0.152904608924687 0.283333333333334 0.417917515697545
0.155603655693932 0.283333333333334 0.429771596247684
0.154282576451029 0.283333333333334 0.442519145735154
0.152104917385308 0.283333333333333 0.448971244453826
0.150003938802117 0.283333333333334 0.462928970929114
0.153547717247701 0.283333333333334 0.467064279771245
0.153169849275435 0.283333333333334 0.475889590324912
0.152836260932794 0.283127329037579 0.483333333333331
0.158468330432957 0.276096213584993 0.483333333333331
0.154807966135103 0.263578484826527 0.483333333333331
0.151632400587338 0.256199901493813 0.483333333333331
0.157917385893659 0.244596459672112 0.483333333333331
0.152942527399117 0.232112533826381 0.483333333333331
0.16000784902644 0.228804906470904 0.483333333333331
0.169752542826307 -0.0552173448058641 0.241666666666665
0.174917267275467 -0.0584530658635843 0.241666666666666
0.175676398380393 -0.0720723440559186 0.241666666666666
0.175778205400611 -0.0935176021724147 0.241666666666666
0.174023872457122 -0.101888811405616 0.241666666666666
0.175385190986996 -0.103297451469523 0.241666666666665
0.178890439050162 -0.120989118250729 0.241666666666666
0.173463365999257 -0.131640333244264 0.241666666666666
0.174926004182049 -0.137741647528776 0.241666666666666
0.180226488288957 -0.15974086885507 0.241666666666666
0.177053758199276 -0.165699061825285 0.241666666666666
0.183524165120288 -0.176015688532039 0.241666666666666
0.182487999298074 -0.199928329375285 0.241666666666666
0.176714085323595 -0.208590457016991 0.241666666666666
0.183034194246926 -0.223574474343128 0.241666666666665
0.185196663906708 -0.223552785962342 0.241666666666665
0.179661957472837 -0.243642049993524 0.241666666666666
0.189977976372326 -0.264087955027436 0.241666666666666
0.187501129524843 -0.26209969782746 0.241666666666666
0.188872672381517 -0.279527566844008 0.241666666666666
0.164377098241011 0.283333333333334 0.27990008467899
0.160538430484942 0.283333333333334 0.276835243970214
0.162785349941673 0.283333333333334 0.297351586352249
0.166748156123126 0.283333333333335 0.30009825867096
0.16022982773386 0.283333333333334 0.31430704339382
0.164268687027823 0.283333333333334 0.317527773521899
0.162741915946472 0.283333333333334 0.33010484277068
0.162837618216081 0.283333333333334 0.3328218810857
0.158612449248934 0.283333333333333 0.354993439163082
0.166261170118542 0.283333333333334 0.352428798255881
0.160888006746104 0.283333333333334 0.362710971101273
0.160831385027307 0.283333333333334 0.376923445274235
0.166136632678489 0.283333333333334 0.377757071198015
0.165781699046002 0.283333333333334 0.392742920980206
0.163675244501995 0.283333333333334 0.400927749315891
0.162610727016528 0.283333333333335 0.413664203714683
0.165249808058388 0.283333333333334 0.420986419872026
0.165788585960322 0.283333333333334 0.429572657238072
0.164715319484074 0.283333333333334 0.432200894612755
0.162149808879854 0.283333333333334 0.445554933348348
0.163161934663051 0.283333333333334 0.455112918325467
0.161563089306738 0.283333333333334 0.467904839089825
0.161882291312799 0.283333333333334 0.477952715211991
0.158560951140134 0.281740071904379 0.483333333333331
0.161880951271186 0.276258189148777 0.483333333333331
0.164817622535634 0.267402086806384 0.483333333333331
0.166619635944321 0.254742901055098 0.483333333333331
0.161298559683733 0.244760044004746 0.483333333333331
0.167817558288133 0.239962613114144 0.483333333333331
0.163635910153935 0.225150298783403 0.483333333333331
0.183182646334061 -0.0563307997098951 0.241666666666666
0.182881640645247 -0.0559693748669246 0.241666666666666
0.184265611044685 -0.0730951607785402 0.241666666666666
0.189302375103727 -0.0920160251797943 0.241666666666666
0.184891498628502 -0.0960228452865583 0.241666666666666
0.187903504532577 -0.111769275733871 0.241666666666666
0.188799067021096 -0.119598764035104 0.241666666666665
0.185203537037266 -0.135977044335837 0.241666666666666
0.188618047962384 -0.153486838158019 0.241666666666665
0.186917180307876 -0.167336243176814 0.241666666666666
0.190414591822648 -0.164809273792797 0.241666666666666
0.189393246604883 -0.182334829645399 0.241666666666666
0.189212755819044 -0.20515373803107 0.241666666666666
0.195450180466472 -0.210217216363928 0.241666666666665
0.189426072740459 -0.216353083032024 0.241666666666666
0.192312753268959 -0.235447453516396 0.241666666666666
0.195867134672832 -0.244788628588328 0.241666666666666
0.196995083895442 -0.25656856110214 0.241666666666666
0.201244441481423 -0.273116109536817 0.241666666666666
0.192415840094668 -0.280137908689008 0.241666666666666
0.17389004282683 0.283333333333334 0.273342555595746
0.171640059228798 0.283333333333334 0.284192491899694
0.168522582790035 0.283333333333334 0.287866886609878
0.171971546594977 0.283333333333335 0.309205887412341
0.168131199004185 0.283333333333334 0.303665004836622
0.171176993528779 0.283333333333335 0.317349505657364
0.172666349118625 0.283333333333335 0.32982447567425
0.176117922783443 0.283333333333334 0.340517743870656
0.167991569988577 0.283333333333334 0.353113130720828
0.173025156768085 0.283333333333335 0.363499159193661
0.174760382276881 0.283333333333334 0.360806482217516
0.170285503461189 0.283333333333334 0.372268016297478
0.175521350562257 0.283333333333334 0.384755297771374
0.171942366434741 0.283333333333334 0.393702831396783
0.168334492336686 0.283333333333334 0.405409721075003
0.176758526172984 0.283333333333334 0.408248308931673
0.16995398536368 0.283333333333334 0.415689342069089
0.172055500441028 0.283333333333334 0.431860846643822
0.172021536363082 0.283333333333334 0.440656003773606
0.168004612072829 0.283333333333335 0.444167139698752
0.172672106019174 0.283333333333334 0.457439398697893
0.16775658414696 0.283333333333334 0.462000600255059
0.175616266810606 0.283333333333334 0.478442235503701
0.169055676536157 0.283333333333335 0.477770318215705
0.17409731493579 0.278536560280764 0.483333333333331
0.177022470545393 0.259468728652338 0.483333333333331
0.178167355898446 0.253041513513794 0.483333333333331
0.170227094919872 0.252974600470657 0.483333333333331
0.173339854535675 0.237010786791871 0.483333333333331
0.174144996921403 0.223124749914815 0.483333333333331
0.194424312156524 -0.05668589671444 0.241666666666666
0.188797752355726 -0.0630458436853021 0.241666666666666
0.197565101485256 -0.0771073169460367 0.241666666666666
0.193167280519151 -0.0808873194483008 0.241666666666666
0.193288739785512 -0.104042486911722 0.241666666666666
0.201792097285887 -0.107589294037686 0.241666666666666
0.195497176608296 -0.118695117468652 0.241666666666666
0.201955151002483 -0.136512129964846 0.241666666666665
0.193940654589513 -0.147486927966257 0.241666666666665
0.195220306575519 -0.161730340235182 0.241666666666666
0.201349232032533 -0.162187371631373 0.241666666666665
0.2063234925246 -0.187208946713093 0.241666666666666
0.203278216038709 -0.192247505196169 0.241666666666666
0.203049035564727 -0.201488603478273 0.241666666666666
0.199477128574689 -0.225799718900293 0.241666666666666
0.203068868639994 -0.229529634592864 0.241666666666666
0.209301890089389 -0.252603963412169 0.241666666666666
0.205333109909529 -0.259318329125633 0.241666666666666
0.205792522428451 -0.275117148296654 0.241666666666666
0.185494254437637 0.283333333333335 0.273082247436634
0.183859119166167 0.283333333333334 0.281444622645391
0.182876725636843 0.283333333333335 0.297709828797834
0.182816018414476 0.283333333333335 0.30522328400723
0.182222073060565 0.283333333333334 0.317089975006811
0.185104788450301 0.283333333333334 0.326022242199379
0.184888513556553 0.283333333333334 0.327958919784078
0.184137407997489 0.283333333333334 0.344731142277751
0.185403236423793 0.283333333333334 0.35138187699316
0.180420994611023 0.283333333333334 0.360131905778976
0.182827539800281 0.283333333333334 0.35918702177552
0.181078777648034 0.283333333333334 0.379822263076569
0.182069130355739 0.283333333333334 0.38329997766748
0.181174899023019 0.283333333333334 0.393691545021614
0.184956097428366 0.283333333333334 0.397346349941738
0.184172948146797 0.283333333333334 0.415721392497071
0.179486382750558 0.283333333333334 0.416102312773088
0.177011372299616 0.283333333333334 0.424348341771216
0.179165690317085 0.283333333333334 0.440162616788369
0.177658662718795 0.283333333333334 0.444397836763179
0.176848661378381 0.283333333333334 0.454656129468636
0.178635805247752 0.283333333333334 0.459477565983597
0.176839225404263 0.283333333333335 0.473561815574563
0.177553951373708 0.283333333333334 0.477089145777391
0.179962639908065 0.274816428688626 0.483333333333331
0.181997669685767 0.263407817465904 0.483333333333331
0.183118829924175 0.255732523558051 0.483333333333331
0.180052109396812 0.242352847004569 0.483333333333331
0.182172892123215 0.236808222727288 0.483333333333331
0.185963922770751 0.221441546505381 0.483333333333331
0.206381199524719 -0.0543606380951714 0.241666666666666
0.199612504314243 -0.0722442299253989 0.241666666666666
0.204749761627456 -0.0753351339453305 0.241666666666666
0.207036360969076 -0.0883769111299444 0.241666666666665
0.203279871595967 -0.0976669312369123 0.241666666666666
0.209199727334769 -0.109748123527731 0.241666666666666
0.213280346130582 -0.129478592794236 0.241666666666666
0.213794416082963 -0.141125538805645 0.241666666666666
0.21074263470931 -0.150586053284375 0.241666666666666
0.206290292877861 -0.155850299775318 0.241666666666666
0.207415876074636 -0.169620993770636 0.241666666666666
0.206644744860238 -0.182773552376062 0.241666666666665
0.217497415363511 -0.191797323138293 0.241666666666666
0.216523717911147 -0.201247369380823 0.241666666666666
0.215993709188989 -0.217437711105723 0.241666666666666
0.215550995651285 -0.234492796727961 0.241666666666666
0.216185881379736 -0.246641341617538 0.241666666666666
0.216447142039865 -0.253423479759808 0.241666666666666
0.22029402396833 -0.275182675072088 0.241666666666666
0.186372491197901 0.283333333333334 0.273985227923122
0.189221497943629 0.283333333333335 0.279118137902103
0.194194704602473 0.283333333333334 0.297104158287249
0.186577896735382 0.283333333333334 0.300701261922107
0.190897859815986 0.283333333333334 0.309944293943395
0.189401420331198 0.283333333333334 0.319111418925568
0.186463140206235 0.283333333333335 0.320203737285971
0.188875154335515 0.283333333333335 0.341323048693183
0.194729035540217 0.283333333333334 0.340967603336129
0.186690603677726 0.283333333333334 0.351055158970747
0.189842138332442 0.283333333333334 0.361171235839034
0.192408490959789 0.283333333333335 0.369487430156349
0.187231205567487 0.283333333333334 0.387019403537934
0.193641338161761 0.283333333333334 0.393174424008506
0.189762317355313 0.283333333333334 0.402955678514052
0.186125451102653 0.283333333333334 0.406575684595454
0.194941578237823 0.283333333333335 0.417118749194615
0.19059497616023 0.283333333333334 0.426494566771146
0.189643454589628 0.283333333333334 0.430405218754611
0.193891950289011 0.283333333333334 0.448874246142002
0.190216226347115 0.283333333333334 0.45585423497933
0.193990018855063 0.283333333333334 0.467350968579777
0.19115037130599 0.283333333333334 0.471433264864477
0.189440470068245 0.283333333333335 0.480164932897906
0.191985277380361 0.269319958384048 0.483333333333331
0.193013144326063 0.262255265688776 0.483333333333331
0.193498940335505 0.247208456506715 0.483333333333331
0.194151674469276 0.245942372761406 0.483333333333331
0.196513070436916 0.230269706122097 0.483333333333331
0.210310969290138 -0.0511975052307292 0.241666666666666
0.215540248266212 -0.0617950568688012 0.241666666666666
0.20973711915756 -0.0627719658971936 0.241666666666666
0.211293673873688 -0.0750051005098605 0.241666666666666
0.214745817642813 -0.0848513165883429 0.241666666666666
0.211840755288367 -0.101833050888097 0.241666666666666
0.218455846824797 -0.120036071357293 0.241666666666666
0.22306187746069 -0.119734434652213 0.241666666666666
0.217730642463353 -0.134920205860649 0.241666666666666
0.218829474243788 -0.147266887951553 0.241666666666665
0.223453049639301 -0.168524658514148 0.241666666666666
0.223205977823065 -0.16733891739282 0.241666666666666
0.223141193315424 -0.180632638218641 0.241666666666666
0.225664722558952 -0.197027968395706 0.241666666666666
0.228489719715189 -0.208741244924323 0.241666666666666
0.228118422019565 -0.21854939641129 0.241666666666666
0.220598163307289 -0.221310116178705 0.241666666666666
0.231982014850265 -0.242301975530729 0.241666666666666
0.228915142533443 -0.256846547170947 0.241666666666666
0.227666613889424 -0.275043410473041 0.241666666666666
0.230326188014833 -0.274709601314922 0.241666666666665
0.203012327788938 0.283333333333334 0.275868822812046
0.197176517420808 0.283333333333334 0.276353060963102
0.201318909651485 0.283333333333334 0.296692587812998
0.201923352622555 0.283333333333334 0.302304780802898
0.196646162376497 0.283333333333334 0.310352598236337
0.200092812259228 0.283333333333335 0.321666187549582
0.198670335184396 0.283333333333334 0.325494251167668
0.197208556241198 0.283333333333334 0.334984799400853
0.201407328623223 0.283333333333334 0.352493115979898
0.198791027212382 0.283333333333334 0.353833365035342
0.19850381157514 0.283333333333334 0.367197783415632
0.203686265689995 0.283333333333335 0.368600515147358
0.201175990563988 0.283333333333334 0.378555068980923
0.196903480939424 0.283333333333334 0.391550096529754
0.203098813275979 0.283333333333334 0.396645614602314
0.200016063817857 0.283333333333334 0.410772984719028
0.201946448392933 0.283333333333334 0.423027243251881
0.197441695946181 0.283333333333334 0.432068732958355
0.196978067355297 0.283333333333335 0.43588557110275
0.202514208247964 0.283333333333334 0.444229399321824
0.199240695056208 0.283333333333334 0.45484675390719
0.198297033882213 0.283333333333334 0.464623630463435
0.200609881838786 0.283333333333335 0.474752645013129
0.199603197924991 0.283333333333334 0.478653248924938
0.204712960042075 0.272285860572178 0.483333333333331
0.201266259028225 0.256006249945251 0.483333333333331
0.204136576704099 0.255193301997322 0.483333333333331
0.199781670401154 0.24413999247465 0.483333333333331
0.201169546921997 0.236721323102624 0.483333333333331
0.199802890998761 0.225519128784792 0.483333333333331
0.206560698573713 0.218462505706353 0.483333333333331
0.225739862028438 -0.0668687947183085 0.241666666666666
0.229371747430282 -0.0836595518757857 0.241666666666666
0.229173153264641 -0.0880377044310644 0.241666666666666
0.231128258600782 -0.0982482917385441 0.241666666666666
0.227115704872542 -0.112486258048542 0.241666666666666
0.230299207392187 -0.127849724287612 0.241666666666666
0.227111961423289 -0.130720013536081 0.241666666666665
0.233787490174629 -0.139534165450976 0.241666666666666
0.226855368482218 -0.16420093665377 0.241666666666665
0.237151919817781 -0.162140131190194 0.241666666666666
0.228160960787125 -0.180478098436652 0.241666666666666
0.234500383853023 -0.200062540662357 0.241666666666666
0.240840680901021 -0.217922074923315 0.241666666666666
0.230879340605066 -0.219126089084424 0.241666666666666
0.238962683739218 -0.227878055342829 0.241666666666666
0.234182877099483 -0.251596280265602 0.241666666666666
0.242365558350571 -0.257130255170847 0.241666666666666
0.242353416932504 -0.269799157446167 0.241666666666666
0.237033770876908 -0.27450998063077 0.241666666666666
0.21092047715396 0.283333333333334 0.27681286839746
0.204164425424454 0.283333333333334 0.286251913973159
0.204872112638949 0.283333333333334 0.29144355270507
0.209613627568002 0.283333333333334 0.297563246754504
0.209521375119694 0.283333333333335 0.307669702717225
0.204519965044723 0.283333333333335 0.319447325248168
0.210050004842058 0.283333333333334 0.329230646956415
0.212068290471165 0.283333333333335 0.333461131151261
0.20875699234099 0.283333333333334 0.341572068635729
0.212669027919903 0.283333333333335 0.351803961498214
0.209775106754653 0.283333333333335 0.372112827821951
0.208827451832131 0.283333333333334 0.373774299337573
0.205044188047176 0.283333333333334 0.388741097023419
0.208476196777784 0.283333333333335 0.389219125791079
0.206832950659201 0.283333333333334 0.407224275656835
0.212684692654493 0.283333333333335 0.406571204815055
0.210432363357725 0.283333333333335 0.421792219751442
0.212513018067501 0.283333333333335 0.428769899850596
0.21200333804091 0.283333333333335 0.435689176095365
0.205451904460687 0.283333333333335 0.448069455893219
0.207826345617411 0.283333333333335 0.454162769701901
0.211208552996694 0.283333333333335 0.467165444592751
0.212101254154865 0.283333333333335 0.477229606460227
0.212586511692617 0.283333333333334 0.479291985751806
0.213182551277258 0.27340308513847 0.483333333333331
0.210048502843056 0.267851684832368 0.483333333333331
0.208035477954241 0.255099201650471 0.483333333333331
0.21090000074396 0.242343601770314 0.483333333333331
0.214217041148844 0.230182726745362 0.483333333333331
0.215206131019514 0.225320025479647 0.483333333333331
0.232289099194828 -0.0557111228259456 0.241666666666666
0.238001175442192 -0.0560712818565531 0.241666666666666
0.24057103130884 -0.0835630959020792 0.241666666666666
0.234207611409211 -0.0837192834026494 0.241666666666666
0.239333736706066 -0.0960744226684102 0.241666666666666
0.242046708409969 -0.112448621515798 0.241666666666666
0.241620252840085 -0.125678008237634 0.241666666666666
0.239786344360988 -0.136750530094859 0.241666666666666
0.242455471074604 -0.146183558398299 0.241666666666666
0.241267544386587 -0.152736688509865 0.241666666666665
0.244500027099371 -0.165739434729627 0.241666666666665
0.243926616181424 -0.172435836637605 0.241666666666666
0.241141794439122 -0.202533494544022 0.241666666666666
0.249410183759481 -0.208464906318594 0.241666666666666
0.250487362691186 -0.22243989391327 0.241666666666666
0.252135356560024 -0.230453792462611 0.241666666666666
0.243260460393256 -0.24217436106245 0.241666666666666
0.248315200742327 -0.2525734826886 0.241666666666666
0.252876740395518 -0.269297182025243 0.241666666666666
0.250482281919392 -0.280092952319181 0.241666666666666
0.21883717068706 0.283333333333335 0.269533518451956
0.214332569515277 0.283333333333335 0.288723470408548
0.214340265868094 0.283333333333335 0.291509220569941
0.221047106370048 0.283333333333335 0.306612226276088
0.219409636867465 0.283333333333335 0.313824927716554
0.219300214899046 0.283333333333335 0.325439139959535
0.213421811784796 0.283333333333335 0.329489205090636
0.213647533620768 0.283333333333335 0.341116995755697
0.21781003924493 0.283333333333335 0.340915325475875
0.220626179007891 0.283333333333335 0.356344611693542
0.219264329656669 0.283333333333335 0.364697636831696
0.221185309981062 0.283333333333335 0.370174475826248
0.214351640296502 0.283333333333335 0.379898911400289
0.220607015949389 0.283333333333335 0.396041309061286
0.219742083412995 0.283333333333335 0.396388020812727
0.216439724973384 0.283333333333335 0.407018044374338
0.221847438208498 0.283333333333335 0.414465426058004
0.215019006663465 0.283333333333335 0.430003928403833
0.215372545732857 0.283333333333335 0.444195669620383
0.214582694224652 0.283333333333335 0.450942002409033
0.21800920465256 0.283333333333335 0.456329869979173
0.218360243198728 0.283333333333335 0.466843127267164
0.221159754192712 0.283333333333335 0.474658899393705
0.216032443252679 0.283333333333335 0.48270851711387
0.220663124828931 0.273413810837019 0.483333333333331
0.217559233162027 0.267493270949449 0.483333333333331
0.219681851984739 0.249874289135165 0.483333333333331
0.218683347743002 0.237032886061156 0.483333333333331
0.22532159603858 0.237338301712969 0.483333333333331
0.223579467405801 0.221574843913858 0.483333333333331
0.247488743425719 -0.0541699133840144 0.241666666666666
0.247459261131508 -0.0682867640046009 0.241666666666666
0.247585933766843 -0.0773814963418579 0.241666666666665
0.242230733898812 -0.0838278419307347 0.241666666666665
0.248152194619096 -0.10061079057691 0.241666666666666
0.249348546939584 -0.111331251162174 0.241666666666666
0.252435477006735 -0.1244821809357 0.241666666666666
0.251842279992048 -0.140136163297427 0.241666666666666
0.253661299239228 -0.138653426044798 0.241666666666666
0.251452224479503 -0.161737427652103 0.241666666666666
0.249521874895177 -0.17089739200171 0.241666666666665
0.25695989376152 -0.184049907042441 0.241666666666666
0.251247139325377 -0.190802864934281 0.241666666666665
0.258944654544575 -0.214110203456377 0.241666666666666
0.260101458696635 -0.212417817647768 0.241666666666666
0.253582907358709 -0.224901614742221 0.241666666666665
0.259017056887626 -0.24096640989991 0.241666666666666
0.264719138075197 -0.263941932698978 0.241666666666666
0.259323240792654 -0.270989235939477 0.241666666666666
0.263823025277863 -0.273808443876157 0.241666666666666
0.230286653388509 0.283333333333335 0.278952550410918
0.224559923556314 0.283333333333335 0.279116539362432
0.228575185048863 0.283333333333335 0.28874201801765
0.222104868994848 0.283333333333335 0.303276498042825
0.223174511027201 0.283333333333335 0.314798497066045
0.224386431331702 0.283333333333335 0.314043642348423
0.223931854266372 0.283333333333335 0.325162240367946
0.22965329944373 0.283333333333335 0.334293393356233
0.221609417522054 0.283333333333335 0.347667306324589
0.22291742851737 0.283333333333335 0.352189833350826
0.225285661985231 0.283333333333335 0.362526024902159
0.230633425832111 0.283333333333335 0.375988837056437
0.230597390753483 0.283333333333335 0.386650825491479
0.228942289322696 0.283333333333335 0.39601702738864
0.223166575959133 0.283333333333335 0.398289235599782
0.22284764678203 0.283333333333335 0.406668683509526
0.221958595340743 0.283333333333335 0.418797545722444
0.223076222534775 0.283333333333335 0.432110306873165
0.227085062632824 0.283333333333335 0.437954565336083
0.230949645011938 0.283333333333335 0.439099463789138
0.222374378952151 0.283333333333335 0.454947992572811
0.226503452587575 0.283333333333335 0.468815692821411
0.231296872783131 0.283333333333335 0.469217154429811
0.228365130374518 0.283333333333335 0.4809361077651
0.228013695626062 0.266408014250989 0.483333333333331
0.22967989459946 0.264345155204533 0.483333333333331
0.232623500427681 0.253326980040816 0.483333333333331
0.226090710278389 0.240749737124152 0.483333333333331
0.23288129679454 0.233759877424929 0.483333333333331
0.235364639696078 0.224153931440801 0.483333333333331
0.251874038883653 -0.0578531490988857 0.241666666666666
0.259508250527056 -0.0681331663400936 0.241666666666666
0.258953988199818 -0.0760922509539504 0.241666666666666
0.257416230870451 -0.0852443725331877 0.241666666666666
0.253686691541584 -0.0969067351547673 0.241666666666666
0.263639545213106 -0.112771399847179 0.241666666666666
0.259707675743651 -0.12124336275005 0.241666666666665
0.262149194540958 -0.13700208158235 0.241666666666666
0.261771496763692 -0.148724785791987 0.241666666666666
0.263690226822582 -0.15732200633191 0.241666666666666
0.264938101376264 -0.163435600237132 0.241666666666666
0.266852790561554 -0.181271972917299 0.241666666666666
0.26254724892814 -0.190581614209207 0.241666666666666
0.264435155125226 -0.213010817650603 0.241666666666666
0.270876065909833 -0.228154959817959 0.241666666666666
0.26964381497668 -0.230962183298895 0.241666666666666
0.269768018526332 -0.240243415716296 0.241666666666666
0.268517699944992 -0.258988349887684 0.241666666666666
0.269423853302907 -0.271360147625625 0.241666666666666
0.274265384035251 -0.281671409460728 0.241666666666666
0.237771190448553 0.283333333333335 0.273203202601107
0.238912103183577 0.283333333333335 0.281293880865388
0.23961440101016 0.283333333333335 0.29220369606619
0.236186075764042 0.283333333333335 0.305367920873844
0.23976304410749 0.283333333333335 0.305141657009277
0.238770532210337 0.283333333333335 0.319840775135748
0.236418643437873 0.283333333333335 0.328983939831452
0.232656001926288 0.283333333333335 0.344971198006791
0.237608035402801 0.283333333333335 0.339190407131757
0.231627400994537 0.283333333333335 0.36008807346281
0.23672548394529 0.283333333333335 0.363951055972463
0.238855278346573 0.283333333333335 0.375346963198758
0.238056625843775 0.283333333333335 0.380284355763764
0.239917844399904 0.283333333333335 0.390839805689316
0.235776857559339 0.283333333333335 0.400936881293766
0.232249991224346 0.283333333333335 0.404662059628786
0.235919540350041 0.283333333333335 0.418728586646696
0.23924974448746 0.283333333333335 0.430678588405365
0.234317957440779 0.283333333333335 0.439367367705933
0.233247060811473 0.283333333333335 0.44626562683484
0.233941079025644 0.283333333333335 0.455027480294233
0.234740145072122 0.283333333333335 0.466171412241838
0.236720495267961 0.283333333333335 0.467268764575255
0.23377691838424 0.282672332939706 0.483333333333331
0.240583053382583 0.274474206772129 0.483333333333331
0.233555678450348 0.263687160100052 0.483333333333331
0.239420136016182 0.260691099216798 0.483333333333331
0.240646044617017 0.242904874824718 0.483333333333331
0.237403883892733 0.235883821700056 0.483333333333331
0.242824856658633 0.220675609229098 0.483333333333331
0.26161390047193 -0.0582242079478053 0.241666666666665
0.268674526705305 -0.0667707786775602 0.241666666666666
0.268527277202847 -0.0751653479609006 0.241666666666665
0.262758708427485 -0.0933130440145543 0.241666666666666
0.26601615803691 -0.0955240388764358 0.241666666666666
0.274331394583992 -0.114128001526811 0.241666666666666
0.273524919581112 -0.117749975638881 0.241666666666665
0.269979354698704 -0.130455543715424 0.241666666666666
0.268467569396823 -0.144820217004551 0.241666666666666
0.27930897835422 -0.163410571839899 0.241666666666665
0.273737879315077 -0.162442477445733 0.241666666666666
0.27539313667293 -0.178726836111871 0.241666666666666
0.277011868819181 -0.198956194924173 0.241666666666666
0.276487665169223 -0.208074573619588 0.241666666666666
0.279744421986041 -0.223399161959237 0.241666666666666
0.275019218783036 -0.231132921982409 0.241666666666666
0.282549119108157 -0.250192788477561 0.241666666666666
0.283772472449429 -0.260040845389797 0.241666666666666
0.284403251435026 -0.266176704266406 0.241666666666665
0.284080610147016 -0.280109811735581 0.241666666666666
0.24892390563884 0.283333333333335 0.272088427209341
0.240550204709491 0.283333333333335 0.282763435758488
0.246843696463791 0.283333333333335 0.292175398763136
0.248673729155582 0.283333333333335 0.29972672511086
0.247058673954774 0.283333333333335 0.309755493837908
0.248278923160174 0.283333333333335 0.317815078355415
0.247589704452094 0.283333333333335 0.332150445175621
0.243871148382397 0.283333333333335 0.338298083374423
0.243078482279038 0.283333333333335 0.3425485603282
0.241051858655631 0.283333333333335 0.356415707262234
0.244735037657218 0.283333333333335 0.361730162460131
0.247060295452405 0.283333333333335 0.375723899107343
0.242415405883445 0.283333333333335 0.380084479824959
0.248849629949876 0.283333333333335 0.390753505794327
0.248029413985933 0.283333333333335 0.400638713434952
0.245199334230905 0.283333333333335 0.407225148450323
0.24332110022943 0.283333333333335 0.415266819974416
0.242307360377994 0.283333333333335 0.43061232698988
0.24188746455694 0.283333333333335 0.429629599406392
0.249007110532761 0.283333333333335 0.45042849475108
0.249028581868216 0.283333333333335 0.458497899442397
0.247593676766485 0.283333333333335 0.468716479058647
0.248894140091186 0.283333333333335 0.467922628451146
0.24000870406375 0.283051305973462 0.483333333333331
0.247589988975779 0.265968569713733 0.483333333333331
0.245876003138077 0.265062574584059 0.483333333333331
0.244175286861555 0.256455249660223 0.483333333333331
0.246254035580287 0.250278688239876 0.483333333333331
0.249713374443261 0.234948948185428 0.483333333333331
0.250264464165408 0.221360053693653 0.483333333333331
0.271448509653286 -0.0531290781990722 0.241666666666665
0.280178747709073 -0.0704946874274343 0.241666666666666
0.280509059402939 -0.0768579241230049 0.241666666666666
0.277606080251817 -0.0888683873819497 0.241666666666666
0.27625195716656 -0.100423553577021 0.241666666666665
0.279191750204277 -0.11963308462417 0.241666666666666
0.276957246950239 -0.125980589562998 0.241666666666666
0.287533860270201 -0.142693305348696 0.241666666666666
0.283863786327401 -0.148661308008681 0.241666666666666
0.28633190420397 -0.149821331166108 0.241666666666666
0.289323745680486 -0.166823286383439 0.241666666666666
0.286322454492915 -0.183025217135578 0.241666666666666
