ply
format ascii 1.0
element vertex 859
property float x
property float y
property float z
end_header
0.00528720843478911 0.470690885293338 0.345962409786961
-0.00641265626391585 0.467410598742002 0.34362858029514
-0.00801291791490609 0.460318234578071 0.34342530356664
-0.0802230517732104 0.403636971726422 0.269633632147446
-0.0826817232213905 0.396656964368232 0.269545464529021
-0.0929305302957704 0.392001783122504 0.269177943723379
-0.0956098650459532 0.392081773887073 0.269081863149433
-0.108614869060525 0.383630138917305 0.26861550550233
-0.108821047873644 0.37338260653221 0.268608111958579
-0.124015433431883 0.365516731157687 0.267700617626907
-0.127934655953418 0.359688254595893 0.267466204712897
-0.135822113469999 0.362901356784217 0.266994447396125
-0.152978913106504 0.350895148478027 0.265695370304981
-0.158300993404921 0.34268895002245 0.265249223197905
-0.174095909313153 0.336038404991031 0.263925143957488
-0.177391986490196 0.325177912704481 0.263574338224287
-0.174185169435492 0.324658342830969 0.263917661329808
-0.198189395411977 0.316004443311238 0.261329418074432
-0.202715453222183 0.314213161513209 0.260840864985162
-0.207024975419871 0.303199776551609 0.260373027100481
-0.213088927902908 0.301871910368875 0.259571510120349
-0.23675588377785 0.279004801194767 0.256443275350229
-0.230818176639889 0.287073684247173 0.257228105559146
0.0325322997279097 0.475796449307933 0.353400591647795
0.0310822673073187 0.47624734083861 0.352960264340023
0.0121101749943802 0.458723613739818 0.347420840766094
0.00838472870751001 0.458376531958903 0.346624514677081
-0.0609487111425205 0.410756186253261 0.269962584715148
-0.0731086300904719 0.392642904442064 0.269817287918574
-0.074568116365939 0.397131313407083 0.269799848766111
-0.0835723687993387 0.386297922853792 0.269513526101654
-0.0946751014553809 0.381788552912034 0.269115383642638
-0.0969629379483607 0.373246006767576 0.269033342142102
-0.108992737688902 0.369721338842926 0.268599141215716
-0.120136179936898 0.361498399378918 0.267932639950453
-0.129703646272617 0.358469312971031 0.267360399499414
-0.129447154095203 0.351447438416005 0.267375740572394
-0.142209019273637 0.343628100994256 0.266598204668167
-0.149631761766778 0.335817285303837 0.265975960187777
-0.159017906181127 0.330875197077676 0.265189124788411
-0.172971695210885 0.318583744422962 0.264019386216405
-0.178700979210137 0.310455377373477 0.263433042539615
-0.18032332955041 0.310189504095421 0.26325792231273
-0.194994257855624 0.303326963405597 0.261674308570589
-0.201801944933769 0.287877269960188 0.260939471170742
-0.220624675202855 0.289738661420316 0.258575455247593
-0.226577745202957 0.280748504627783 0.257788594416751
-0.227702700205786 0.276843490426169 0.257639900880781
-0.236692910919457 0.267703203188851 0.256451598933804
0.0496014245775706 0.483304887827854 0.360133464443823
0.0348979939054643 0.473120627977584 0.354276892680588
0.0222110271470701 0.46435280997713 0.350266359541143
-0.0415743922727791 0.403707419751469 0.270152814661941
-0.0553344012476611 0.402381702927712 0.270029669146071
-0.065758063896139 0.397842787770369 0.269905118579749
-0.0707585216861574 0.390205040074868 0.269845368962881
-0.0762624746153627 0.384503101662757 0.269775657897106
-0.0870687384662058 0.373850214622067 0.269388146768482
-0.0940152216396443 0.363716133644831 0.269139046841656
-0.0993075901098238 0.36538110183075 0.268949263239545
-0.11212741637441 0.354328632295788 0.268411652712291
-0.121397161239709 0.345784149603942 0.267857219302588
-0.134495183842183 0.336748425268471 0.267073812484235
-0.131455826140608 0.34099151396362 0.267255599737097
-0.143436987327047 0.33325403004115 0.266495264771756
-0.152256369436982 0.324755655849976 0.265755940749209
-0.157566857087278 0.311810387454117 0.265310765447543
-0.169254678061434 0.309648752260624 0.264330981749579
-0.181471898784145 0.303042534606692 0.263133943108108
-0.190584594631467 0.29331112419608 0.262150297760551
-0.192792606895922 0.287848744602246 0.261911959838638
-0.204677250097984 0.284486793944439 0.260629104118558
-0.217546857073612 0.277987331064584 0.258982272995464
-0.225855189278459 0.263503123367322 0.257884099921485
-0.230787397534651 0.255008428000201 0.25723217385875
0.0562549678650321 0.475675173332427 0.363281264935691
0.0431138802412587 0.467717876837119 0.357549389351412
-0.0423748324912016 0.40499088296818 0.270162378985525
-0.0432097360389017 0.402960949355102 0.270172355105551
-0.04830191062035 0.38796316287479 0.270113699176572
-0.0534901478907913 0.385595491242453 0.270051705814734
-0.0662969477084216 0.375509566579143 0.26989867954903
-0.0702275483098455 0.37804952616296 0.269851713473151
-0.0743906131413245 0.367080323837943 0.269801969721854
-0.0917798890166845 0.364258300322371 0.269219205560667
-0.095394266908572 0.355563001295824 0.26908959446885
-0.0994894223297996 0.354628984977588 0.26894274276126
-0.104763469828494 0.343197737032737 0.268753616146655
-0.121263008813771 0.334864045137626 0.267865243103458
-0.132229585177479 0.325536040986836 0.267209320376948
-0.138886545083688 0.31949748929703 0.266811160445614
-0.143081792536974 0.311334323541025 0.266525040558508
-0.153675717325636 0.312678532483292 0.265636957584929
-0.16275793995692 0.297500005542918 0.264875599783926
-0.169629312158907 0.291939112166606 0.264299576376223
-0.175868183196351 0.289806996283655 0.263738821056337
-0.189634549046958 0.281768854826426 0.262252847865901
-0.192968905109268 0.274243331150727 0.26189292980403
-0.207508248720958 0.263487328320741 0.260309149331328
-0.212950856966182 0.26319066366894 0.259589759966561
-0.225073226715228 0.257992920253358 0.257987457636443
-0.238147501402012 0.242902006080766 0.256259335063966
0.0674847190712864 0.47612596654084 0.368891053218942
0.0485833217578598 0.463365926885336 0.359727940565827
-0.0252302345224193 0.393480909861475 0.269957521109904
-0.0375433060199999 0.392401971109309 0.27010464790016
-0.0435949776079591 0.384535586824921 0.270169941515959
-0.0501104133158616 0.384549644481466 0.270092089686461
-0.0573945615985153 0.373252111581086 0.270005052641579
-0.0652257454091696 0.368456064273183 0.269911479162517
-0.0804269354237862 0.355739550244181 0.269626320907907
-0.0849723899490584 0.355238680764252 0.269463321536661
-0.0946520267815578 0.351094632475267 0.269116211097252
-0.095901269167066 0.346580650335432 0.269071413437912
-0.110757963998053 0.33099038124292 0.268493561131722
-0.106119704936287 0.32898886717395 0.268704981743076
-0.127747834801961 0.32214699488979 0.267477378686885
-0.12241320833281 0.317718877491784 0.267796448433223
-0.138071862767211 0.315007272057213 0.266859887471126
-0.149048253457493 0.30524470918202 0.266024875373107
-0.155206384991296 0.302251114528706 0.265508642544074
-0.162378553196006 0.292897139473027 0.264907403570482
-0.168754195430143 0.283570304604695 0.26437293693732
-0.172072899674716 0.275216481033098 0.264094731759094
-0.194484496200336 0.270227478321871 0.261729333416034
-0.193653143025067 0.262996327739593 0.261819071589756
-0.203603688414824 0.261450109921989 0.260744986835664
-0.222894256817868 0.242462908712903 0.258275468035076
-0.228878139819793 0.233788367141473 0.25748453442427
-0.233830287676664 0.226636808013333 0.256829972798579
0.0623968065011143 0.463398947235584 0.366349401868157
0.0551652488541995 0.457951340219314 0.362736899096526
-0.02330853430932 0.387389275775104 0.269934559041971
-0.0301107432623829 0.383469295621832 0.270015837476042
-0.032690862301988 0.375837261933005 0.270046666878181
-0.0502678238486931 0.372562677646102 0.270090208814864
-0.0464335098378515 0.372137700576696 0.270136024378703
-0.0617398652168588 0.362891465512159 0.269953131350113
-0.0718857610263829 0.352074284586807 0.269831899772354
-0.0794320320700676 0.349608074040743 0.269661998004708
-0.0841853416065427 0.344636206461986 0.26949154498148
-0.0893232710791877 0.336753930693523 0.269307299540482
-0.102578646888638 0.327906512518821 0.268831963595408
-0.104747988816819 0.329800583243956 0.268754171293595
-0.109167896539625 0.323972544417204 0.268588664776476
-0.124057864235032 0.311483466953331 0.267698079794937
-0.131148183307305 0.306429670034462 0.267274000185816
-0.132387656814529 0.297466642644202 0.267199865942336
-0.154931675683625 0.289009141181203 0.265531671276454
-0.159182190797921 0.282587473829276 0.265175352898021
-0.160417545467819 0.276301690857311 0.265071793785553
-0.174157506808871 0.263435218472632 0.263919980272806
-0.188314282863108 0.264850823032993 0.262395360434195
-0.185136268918136 0.259726091536297 0.262738402568358
-0.204665829464102 0.243489607042038 0.260630336888045
-0.208245466679619 0.242430759180361 0.260211705838231
-0.216104870949224 0.235895323956499 0.259172870855036
-0.228940784038636 0.22935598805283 0.257476254279389
-0.233874518603086 0.219137763968386 0.256824126473319
0.0911787424595039 0.471382083053189 0.383897554761828
-0.0142867666384892 0.38602526439923 0.269826759479522
-0.0223249582483638 0.381419839771601 0.269922806459453
-0.0177059355908966 0.37738670654598 0.269867614545897
-0.0280240960425159 0.374027410576624 0.269990904484471
-0.0385512201002134 0.365801981636747 0.270116691293517
-0.0441455762824095 0.36213678441366 0.27016336250635
-0.0484462283165263 0.358395506317818 0.270111974749046
-0.0539256112376942 0.354070233655297 0.270046502537508
-0.0639578899364512 0.34478301505109 0.269926628551217
-0.0770549971046463 0.333378909654038 0.269747238150141
-0.0853602866075583 0.327116697924363 0.269449411616082
-0.0908817378353627 0.325922455238286 0.269251413137934
-0.0934038246458857 0.319973767924942 0.269160971453377
-0.105510768910815 0.308689279649859 0.268726818104815
-0.120518823975384 0.306107456248538 0.26790975359899
-0.127399086687902 0.299244755213844 0.267498237686655
-0.132241167992895 0.295091056838624 0.267208627596302
-0.139428965878947 0.280191308344251 0.266778717674493
-0.147914581047908 0.281454318514978 0.266119910516801
-0.152756624888518 0.271428051129377 0.265714004605824
-0.164450804553934 0.262789994310883 0.264733687862219
-0.178376656720204 0.24973203521531 0.26346805065507
-0.183563598255475 0.245704506878625 0.262908160256586
-0.195762198536148 0.237012242730129 0.261591415287388
-0.191549589059377 0.238321709589718 0.262046134042664
-0.208661376503153 0.228332200422237 0.260156731992921
-0.221301949416232 0.219299068320614 0.258485934958022
-0.221816203023574 0.213859971030733 0.258417962295055
-0.23460790564722 0.209072796936418 0.256727189340232
0.0859854067801774 0.458790378158357 0.380097060158653
0.000553710338699186 0.382956933420549 0.269385002155975
-0.0147054751283444 0.375090537064656 0.26983176255582
-0.0160842828629256 0.36917723797518 0.269848237694165
-0.0254412687084034 0.362030270682256 0.269960042721382
-0.0329252139513877 0.358224032450748 0.27004946710605
-0.0400572779849799 0.358286425993445 0.270134686922192
-0.0501334883463251 0.350320590252671 0.27009181396686
-0.0534933559440716 0.343389008497414 0.270051667482252
-0.0570659857202045 0.335441259097463 0.270008978738681
-0.0725325904757937 0.331156902160094 0.269824170917636
-0.0715008137688262 0.330048990526135 0.269836499441448
-0.076348611869477 0.321647176659287 0.269772569027076
-0.0846316683052218 0.31017005299996 0.269475539767733
-0.0980164877869632 0.305232554032392 0.268995561990455
-0.108669081100334 0.299049479403639 0.268613561466072
-0.111770637452955 0.292941499779359 0.268432992043287
-0.123803901915142 0.282214157141878 0.267713269554418
-0.13596725507755 0.275072121298289 0.266985766320482
-0.132112787247152 0.270002254856948 0.267216306186774
-0.15617564999625 0.262529604179636 0.265427389584008
-0.155734924475309 0.258645745894693 0.265464335365575
-0.170648758911116 0.2547157657485 0.264214116707483
-0.176816998321896 0.24409881775787 0.263636403769557
-0.182163669546136 0.239680734997811 0.263059271781092
-0.200409489479368 0.229106486332819 0.261089776014923
-0.212018327057731 0.219326878980724 0.259713019269498
-0.216562768584882 0.207091732466379 0.259112347173301
-0.217527072515049 0.205369012725604 0.258984888065367
-0.234717918637622 0.193511445805502 0.256712648118135
-0.23654270863932 0.186989526665948 0.25647145226846
0.114850916243206 0.469906901165715 0.40311365819881
0.00658784813418833 0.377126594210642 0.269168618808346
-0.00340246281640203 0.377738650778544 0.269526869978705
-0.00598341946564028 0.367887144684399 0.269619422727545
-0.0189329525869232 0.359327981668766 0.269882275962608
-0.0238508827518584 0.353114070346265 0.269941039470967
-0.0351501760673566 0.343198040556702 0.270076052798712
-0.0393426982539408 0.340659548095646 0.270126148530919
-0.0536276694918536 0.32875643398136 0.270050062592589
-0.0466508807236279 0.332123416004244 0.27013342705108
-0.0651388423823047 0.318914618978484 0.269912517551956
-0.067238120410646 0.319395321731869 0.26988743363701
-0.076598780547699 0.316013696936471 0.269763598012839
-0.0775117108452466 0.302561988889558 0.269730860458506
-0.094007792255933 0.297423875497652 0.26913931325833
-0.0948395399230711 0.29127905268621 0.269109486901906
-0.108077148986233 0.279515403873553 0.268634788069899
-0.117377846958065 0.272931869961562 0.268097618812415
-0.122594121634616 0.268713883245222 0.267785627814076
-0.138498531184487 0.260357088416205 0.266834367974221
-0.144737914583723 0.262900535948586 0.266386208744876
-0.154823508262131 0.250379208314159 0.265540738892777
-0.164006013248013 0.243129882674927 0.264770974476335
-0.167969608493552 0.238453439602407 0.264438708435002
-0.175154386330254 0.227114022142103 0.263815869931687
-0.185441714837233 0.215604458546394 0.262705432033372
-0.194087308981993 0.211841754510172 0.261772206717852
-0.211959224418339 0.204996476383421 0.259720831297903
-0.215120116912133 0.196065085661192 0.25930303300327
-0.223438100751913 0.194840198019236 0.258203584202064
-0.234327156221639 0.184036546368642 0.256764298046541
0.168220420042015 0.5 0.462184496311208
0.116625782654088 0.459824303406478 0.404780202847626
0.00977309209253168 0.364207377144638 0.269054396400095
-0.00353722216059948 0.360527619269038 0.269531702430169
-0.0102379901689052 0.354293582582684 0.269771991045123
-0.0193730095182288 0.350510290905683 0.26988753412779
-0.0253175354717075 0.342668241531632 0.26995856425405
-0.0317633100453994 0.342970173796029 0.270035583714542
-0.0391529277225954 0.331671096347811 0.270123880995223
-0.0476605195831225 0.324106308196449 0.27012136304863
-0.0559852769196433 0.316497780883571 0.27002189194373
-0.0692348739884086 0.307390365382126 0.26986357476923
-0.0643698535369787 0.302962363060991 0.269921706068451
-0.0752260392227713 0.302446309264095 0.269791987358161
-0.0807594561802911 0.295517039392026 0.269614396759522
-0.0877591763476784 0.29088099499152 0.269363387761448
-0.106125055596432 0.278109397486395 0.268704789869143
-0.11376118557663 0.269039610110432 0.26831393521924
-0.113865410717215 0.268893597967685 0.268307701401492
-0.125697387985106 0.257555729994576 0.26760001811619
-0.143164372055126 0.244373914916737 0.266518117962255
-0.146448181656032 0.23818116514742 0.266242837983096
-0.149331009108809 0.238731819485914 0.266001172120099
-0.164871672800446 0.228307804953828 0.264698406705206
-0.165937791486871 0.225474443138188 0.264609034553514
-0.18274786944308 0.216700301684274 0.262996211900647
-0.187983156408458 0.206364497093685 0.262431102985249
-0.198855208556875 0.203830955577791 0.261257548672304
-0.199833881630838 0.188654708816109 0.261151908449903
-0.215684366797724 0.182705807945816 0.259228451966298
-0.222911908848281 0.172113341545976 0.258273134837025
-0.238654905181101 0.165131300886457 0.25619226779293
0.171006394692754 0.5 0.464375121646221
0.182382250618698 0.5 0.488305217958501
0.185961237103637 0.5 0.492163155256521
0.00171055229960325 0.355524627673668 0.269343517963094
-0.00531378350152868 0.346381842545599 0.269595409674392
-0.00819037458208887 0.342872988093236 0.269698563833092
-0.020087388324717 0.335534754411436 0.269896070118249
-0.0188409523599275 0.333427107227636 0.269881176667594
-0.0344864845265862 0.324948253683607 0.270068122461743
-0.0342129170664459 0.319713710343375 0.270064853650842
-0.0453632352863211 0.311175723899049 0.27014881290669
-0.0585635133378138 0.306071686380458 0.269991085036713
-0.0577415474993568 0.298910868176203 0.270000906566258
-0.0744887112036889 0.294824974803231 0.269800797564846
-0.0758560450650557 0.286341475987077 0.269784459525854
-0.0792059939747077 0.278378592513894 0.269670103699577
-0.0912561716741302 0.272758953061774 0.26923798599221
-0.108752118050908 0.263512962352731 0.268610583772498
-0.118100574009626 0.250361220905769 0.268054391730191
-0.112813112236435 0.249547538649807 0.268370640505339
-0.125421781560423 0.240947771069618 0.267616502432856
-0.129975784210167 0.243666534176303 0.267344122636694
-0.142154766994653 0.232487071024515 0.266602752607312
-0.144424588886603 0.230098821631342 0.266412474668256
-0.164033760713623 0.219528126199889 0.264768648421332
-0.167918258759057 0.206526831109641 0.264443013055416
-0.17460652749929 0.200711721468964 0.263875007073892
-0.197597098958161 0.18448285541498 0.261393351915847
-0.198550115058914 0.189615459779546 0.261290481166142
-0.212130734164245 0.175088721405409 0.259698161599552
-0.210901029702812 0.173264198007002 0.259860700638098
-0.235944624428284 0.160099387437233 0.256550505435851
0.194153485349271 0.5 0.474283701225842
0.191672387659372 0.5 0.486730078917852
0.194317745222467 0.5 0.502502577136234
0.00298033841862557 0.340653790048745 0.269297983608308
0.000885582456737185 0.342493823886124 0.269373101267676
0.00147153636999345 0.335615613089461 0.269352089041306
-0.0182481830972275 0.328919580748079 0.269874093768823
-0.0192623708059506 0.324327042203268 0.269886212124696
-0.0262427165462081 0.311035776357296 0.269969619084839
-0.0266748820898435 0.312787862933244 0.269974782957176
-0.0388166088587873 0.303765925877288 0.270119862378507
-0.0482718431628563 0.296000949653257 0.27011405844749
-0.0518977667792438 0.292674909972516 0.270070732904916
-0.072214075444413 0.280627528294184 0.269827976799395
-0.0692963973985076 0.281015503728564 0.269862839636501
-0.0808363465481786 0.271449580757455 0.269611639481552
-0.0883921987783968 0.258374998808906 0.269340687664545
-0.0974296167183597 0.254915827080704 0.26901660710589
-0.104840364922327 0.24980846285747 0.268750858699215
-0.104432605118545 0.251161190294223 0.268765480909439
-0.117198530538833 0.24006438453475 0.268108343920298
-0.125242478381659 0.234334557873577 0.267627226748813
-0.138024632924446 0.216603865203594 0.266862712338817
-0.142727614524438 0.216754084172919 0.266554731109349
-0.163359529140967 0.209791859015212 0.264825168888663
-0.162475940069019 0.199737682270197 0.264899239681697
-0.170481632016818 0.196685058873174 0.264228126864456
-0.172388532221406 0.193374825324965 0.264068272453764
-0.188174276691034 0.172301467614085 0.262410473022401
-0.200920544860081 0.172842917981057 0.26103461152178
-0.209231684810718 0.158912134235119 0.260081350169976
-0.217257577788909 0.150532769914804 0.259020509155681
-0.219435179330116 0.148434026837907 0.258732679622696
-0.239110495041679 0.143147829863239 0.256132049146717
0.19755967991028 0.5 0.488195023481057
0.20645359616408 0.5 0.495818963409533
0.205045024296593 0.5 0.507644645597693
0.202887659238138 0.5 0.512263441346128
0.204518500616863 0.5 0.522195298609064
0.00327933990255672 0.3300279951584 0.269287261456407
-0.0112488492999094 0.316678075206912 0.269790459923626
-0.0153098752583786 0.310453569679628 0.269838984429841
-0.0221005241339657 0.316285604756321 0.269920124734518
-0.0248845918600392 0.30214925908454 0.26995339108471
-0.0343479593773338 0.295153742456964 0.270066467248372
-0.0468642877087047 0.284723041877771 0.270130877087431
-0.0470593084415143 0.286722054263874 0.270128546817972
-0.0537125034879147 0.273941451849948 0.270049048925646
-0.0634966050889584 0.273742196859993 0.269932140365148
-0.0718421372560012 0.261753862308951 0.269832421025342
-0.0749839192973921 0.266483351031636 0.269794880407835
-0.0898462243687433 0.255995310901112 0.269288546507774
-0.0978549065164768 0.241754626561882 0.269001356272489
-0.0969691109337939 0.237061954071138 0.269033120779697
-0.116835526092179 0.229238521842048 0.268130055606652
-0.120600431511028 0.225276466972533 0.267904872564517
-0.126898698077456 0.215363908324496 0.267528166467597
-0.139195394837678 0.21509020946652 0.266792687809669
-0.141370222893535 0.206232780777094 0.266662609004692
-0.154845263275087 0.199740983076127 0.26553891518183
-0.164802735655763 0.185679438681559 0.264704185668684
-0.17547372397177 0.177566170520891 0.263781399892234
-0.183893440522033 0.171205598248588 0.262872556323747
-0.188952508168172 0.162791622424086 0.262326468926946
-0.208601216150652 0.157109053147092 0.260164683827009
-0.206775686680498 0.149981967045348 0.260402594047759
-0.222947934241014 0.135867125605158 0.258268373097208
-0.223512993866717 0.138331986108233 0.258193685030958
0.22179658046886 0.5 0.499623721915671
0.215660930312508 0.5 0.505798915446072
0.215698401747857 0.5 0.514549849138635
0.214296719824301 0.5 0.528622466342922
0.21489256658797 0.5 0.528279786274106
0.215127939218294 0.498182964027194 0.530293588783465
0.00609717497332746 0.312763376040313 0.2691862142801
-0.00430150799896352 0.31315095035221 0.269559109614733
-0.0137173362949803 0.305007336971837 0.269819955453514
-0.0174310989779552 0.299236617691197 0.269864330570107
-0.0277652043382239 0.294534169605476 0.269987811031672
-0.0339704226553895 0.283443999256578 0.270061956126503
-0.036957116087775 0.280554446535275 0.270097643616685
-0.0568554499067016 0.270045948411243 0.270011494395192
-0.0528653315460844 0.265818695000124 0.270059171638619
-0.0642531281688278 0.258511067261918 0.269923100799957
-0.0694737198078687 0.255200790724575 0.26986072084129
-0.0853381817231053 0.240749643994461 0.269450204294184
-0.0926859053156421 0.233399549167305 0.269186715941367
-0.0964809173481604 0.234140264309396 0.269050627334226
-0.112556278494665 0.218683667514319 0.268386002007651
-0.118977863271022 0.220153703690544 0.268001920115971
-0.11983620726081 0.205308305368485 0.26795058163882
-0.137924507025464 0.195762473362911 0.266868700976516
-0.132584257485907 0.196914862697232 0.267188107044743
-0.156486209055857 0.180383401131551 0.265401355586351
-0.156972764029278 0.174989913894207 0.265360567946622
-0.158885039833843 0.177065173350111 0.265200262902297
-0.174890518278929 0.162882268095241 0.263844352456003
-0.189834280498239 0.153702620958046 0.262231288393699
-0.195693099843779 0.145513176618073 0.261598873959158
-0.203133217785627 0.139910223923867 0.26079577051739
-0.214245220330744 0.129001386502076 0.259418674487566
-0.222815026628502 0.132357503395301 0.258285940469068
-0.224562379954167 0.115661612572584 0.258054979991603
0.224646982370052 0.5 0.504151717066876
0.228200124462942 0.5 0.51014049546148
0.223996750421 0.5 0.519185408837434
0.22794696942793 0.492702597811749 0.531354877935284
0.227215459897602 0.490930225499236 0.531485236239292
0.214637630200208 0.491726496154819 0.530131401181354
0.204600293301434 0.47892988684455 0.524776172620003
-0.00332910122368746 0.305763640790113 0.269524239242126
-0.0144894132341993 0.291944131945482 0.269829180869115
-0.012061620815127 0.292406054270672 0.269800171591772
-0.0230705845199822 0.279121338945911 0.269931715820541
-0.0294401210513301 0.2770597244593 0.270007824325674
-0.0322026825226045 0.272449190952723 0.270040833701298
-0.0407487691886096 0.265183376343958 0.27014294943259
-0.047916755696531 0.25878605014855 0.270118301327035
-0.0573453805916267 0.252125039868082 0.270005640297038
-0.0712773846890968 0.241627483819431 0.269839169157396
-0.0750713203429707 0.240973378362125 0.269793836067655
-0.0778279390808368 0.231357219336136 0.26971952055767
-0.0900823388778405 0.221735481365051 0.269280079474101
-0.101752621346681 0.215665170569821 0.268861584757213
-0.11123153495515 0.205457076630823 0.268465236343468
-0.108246801560984 0.202909724900805 0.268628704352009
-0.125747670686126 0.195342185038766 0.267597010653765
-0.132108721617717 0.19143682631928 0.267216549356443
-0.137434757218251 0.179122977651445 0.266897993439197
-0.142880463308277 0.171775834727512 0.266541917878637
-0.157346682988236 0.166062301519791 0.265329222522941
-0.161441107705168 0.157742113533926 0.264985989117923
-0.17800447897197 0.155321704845809 0.263508224377165
-0.189121778401515 0.141971659557745 0.262308197508664
-0.189800193714199 0.137238376941671 0.262234967799562
-0.20774006460449 0.120720564696899 0.260278508529403
-0.210552949351947 0.118983317492056 0.25990670896558
-0.224372052530044 0.106854023744262 0.258080136960205
-0.229406589626591 0.104394418693533 0.257414685345722
0.238391209251682 0.5 0.518109590218192
0.239510727121166 0.5 0.518300326896785
0.238001715635191 0.497682617245636 0.528250079925192
0.237028204873622 0.48964149329713 0.528790657720765
0.227053213904858 0.490686007780306 0.531514149208391
0.216916540165351 0.479674207225249 0.53084514252653
0.208869778976527 0.468135544933229 0.527647379219773
0.00556363364711307 0.289852237346675 0.26920534699834
-0.00169464501531931 0.290011797777484 0.269465627868321
-0.0031270623032856 0.287604814031078 0.269516994154356
-0.0167900367266639 0.273538891257057 0.269856670626655
-0.0257784712326454 0.2638409654248 0.269964071896805
-0.0258253363444088 0.262316817552029 0.269964631880028
-0.0345076329684627 0.256855354861591 0.270068375160866
-0.046349427384382 0.257568502002212 0.270137029065591
-0.051119635236887 0.246083359314602 0.270080030665937
-0.0571581827139238 0.24246144001306 0.270007877092535
-0.0679339951815116 0.22966977869499 0.269879118748115
-0.0766134811036996 0.224660298106481 0.269763070852932
-0.0868247298172762 0.21856396099336 0.269396896884919
-0.0930848040774769 0.210253128246621 0.269172411486883
-0.0988579338163337 0.199220905186052 0.268965387852102
-0.11194103272687 0.19699817822887 0.2684228005187
-0.113268329017111 0.190221000580857 0.268343413500116
-0.119743617922997 0.181293846129974 0.267956119506692
-0.125837950168132 0.182989253868394 0.267591610940854
-0.146403081441472 0.166325059706951 0.26624661870964
-0.148677971845206 0.161685660927767 0.266055915879989
-0.162286202404696 0.152875218838948 0.264915145287267
-0.167698020119193 0.146060536454984 0.264461475541235
-0.177028234508575 0.133723398986927 0.263613602449757
-0.189983542146956 0.130930295390029 0.262215176748057
-0.20002535726899 0.121510606959611 0.261131240129157
-0.205366318156069 0.103717904101575 0.260554724527618
-0.221441165355258 0.0972723699478609 0.258467533768477
-0.229371258015933 0.092590647256521 0.257419355383285
-0.23625583543118 0.0832681524500258 0.256509370399928
0.249209826958523 0.496673893206962 0.518582369095703
0.24665927458884 0.489885145936961 0.521735388281841
0.240004536825572 0.491923861112688 0.527137939508504
0.235054847810815 0.487112051978626 0.529538681922159
0.23441732386629 0.485308309258007 0.529765362662993
0.229262682957504 0.478038437803389 0.531120411838584
0.226004818338375 0.467234654311915 0.531551441003949
0.214523267958539 0.46651972364316 0.530093571696144
0.203952021019186 0.454646775588653 0.524283356661885
0.00193725131312446 0.277816278936903 0.269335388567791
-0.0117285768510499 0.270019988675727 0.269796192106275
-0.0117444333283398 0.265802384323505 0.269796381572617
-0.0221729889831579 0.260775064669964 0.269920990604636
-0.0350080316752126 0.249604947371909 0.270074354339626
-0.0420537933719977 0.244868572021724 0.270158542943871
-0.0511539548460463 0.236302465479393 0.270079620586784
-0.0477534363887922 0.237972254871288 0.270120252801574
-0.0579475191912377 0.221099347839941 0.269998445445658
-0.0701716637850385 0.222281947180555 0.269852381227802
-0.0774762162184753 0.205546321725911 0.269732133290918
-0.0856839589466573 0.204528966055026 0.269437804770722
-0.0989764875621996 0.18943063043926 0.268961136531155
-0.0970926986234641 0.194418928839305 0.269028688942221
-0.110687711985473 0.181450821259379 0.268497762980149
-0.116509605066766 0.175975832993962 0.268149549293699
-0.122998135605252 0.164691700563272 0.267761463303988
-0.134955252347324 0.158482519548248 0.267046295292153
-0.145541550481324 0.155638792808 0.266318840383117
-0.145353742881183 0.146586038613568 0.266334584192453
-0.164889518955917 0.133169252470203 0.264696910671665
-0.172367670626518 0.133297321658892 0.264070021269957
-0.179604585634711 0.118099798061194 0.263335505183991
-0.195484135698782 0.11102584998483 0.261621430029554
-0.205649953279262 0.0998016763857535 0.260524108300103
-0.208117666461325 0.0973376420433203 0.260228598128419
-0.217044032158227 0.0857336387634111 0.259048735044572
-0.227068887490936 0.081171445603534 0.257723676546009
-0.231517683874337 0.0739355698473639 0.257135646568462
0.253521126760563 0.479819834796286 0.506899744689617
0.250475866124938 0.482046779731032 0.516671408797335
0.244673905143073 0.480897729085676 0.523730479615785
0.24186493332438 0.473422941988539 0.525965806455955
0.239541699538278 0.472438250353649 0.527394947001745
0.228580906834389 0.465565919270392 0.53124190742468
0.226077115257637 0.466203874214398 0.531550639683359
0.219211838096127 0.453939613180325 0.531201878343253
0.208103460940888 0.4477155512036 0.527243810534667
0.00457388092896183 0.270866455869044 0.269240839394062
0.00360935717880555 0.26279378056644 0.269275427082478
-0.0028121880694562 0.260191085160603 0.269505702807836
-0.0127908271851361 0.247736877676952 0.269808884754257
-0.0207189999436877 0.250939974386365 0.269903617137707
-0.0284317610894777 0.241370229719975 0.269995775604554
-0.0416905419056337 0.234151859737897 0.270154202514084
-0.0412463525145443 0.229784626252106 0.270148894970845
-0.0497161176905705 0.217168689313544 0.270096801057606
-0.066012251483516 0.208299642694337 0.269902081335642
-0.0706051499570333 0.203174414541132 0.269847201575501
-0.0797614103800435 0.196812238499393 0.269650186544022
-0.0888353935615401 0.188873055515443 0.269324794760857
-0.0861547377932848 0.184209555975288 0.269420922706329
-0.0990860793827621 0.182511876313065 0.268957206583612
-0.113955049875441 0.169458162875684 0.268302339987034
-0.119166663866456 0.165074384040023 0.267990627749309
-0.134424184690997 0.152990222203532 0.267078059019824
-0.138327879966071 0.147608703099158 0.266844574807124
-0.149374524767588 0.130248419889066 0.265997524226007
-0.150910397506468 0.130322034433587 0.265868772846684
-0.156430207680569 0.128463528308653 0.265406050151291
-0.171357474535501 0.107126101330214 0.264154705460784
-0.184322360873115 0.104549898547426 0.262826257674601
-0.193288618994619 0.0997613761338802 0.261858419151952
-0.199454230130475 0.0931423712874742 0.261192888905992
-0.207288651945462 0.0851429906181594 0.260338175044315
-0.221265768663868 0.0741446950099263 0.258490717232859
-0.227927553931346 0.0686821331540873 0.257610180318229
0.253521126760563 0.475331736143293 0.505922584313495
0.252866594767752 0.471475175184579 0.511885604561323
0.248448616053771 0.47667440662428 0.519604748666255
0.247687178580125 0.466978221199534 0.520551519331953
0.241746986244134 0.462822096995492 0.526059666519783
0.237679966207873 0.463183984832035 0.528428743174755
0.237236710959165 0.46294366058543 0.528674877018038
0.230644019586616 0.452577051289497 0.530874251408995
0.223728263303625 0.443863155755565 0.531576673758595
0.217289619343915 0.438963671967106 0.530903126591989
0.00584618881908213 0.258282124586684 0.269195214608913
0.000330567000398499 0.245970636435466 0.269393004045255
-0.00876522837363065 0.236680283686912 0.269719178010632
-0.0114119405312601 0.235065311586638 0.26979240867292
-0.0295702745814094 0.226734193674776 0.270009379507997
-0.0295527032463963 0.22358239662818 0.270009169551113
-0.0452282203444078 0.211180667768404 0.270150426177193
-0.0464796519198283 0.206285653041318 0.270135473034839
-0.060178649873158 0.198468307808562 0.269971786045854
-0.0617324583319356 0.194178395967619 0.269953219853718
-0.0724400972176219 0.191979125887174 0.269825276103795
-0.0740885069482259 0.186685870870284 0.269805579537204
-0.0883479805507724 0.173401991907855 0.269342273324078
-0.0941942100793345 0.171700893881494 0.269132628340939
-0.102848941501167 0.164798069790094 0.268822270867949
-0.107307233997537 0.154750315399011 0.268662397115017
-0.120072350640498 0.149250664583018 0.267936457649317
-0.123840756685221 0.138502525559371 0.267711065230983
-0.131928388162948 0.138735647640881 0.267227335294315
-0.145730422508278 0.12332412846642 0.266303007343457
-0.155467276871905 0.115113364257801 0.265486772119114
-0.155572265612914 0.108431702604591 0.265477970969855
-0.165458157735482 0.099055173291169 0.264649241990952
-0.183425886515263 0.087022250789281 0.26292302517854
-0.192560480679882 0.079835038802463 0.261937016076251
-0.20709694719568 0.0665772250099416 0.260363514064131
-0.212879842641094 0.0623072494062247 0.259599146449643
-0.219759725802205 0.0588672523085461 0.258689781940211
-0.22626921408209 0.0477701891185766 0.257829375233052
-0.230735128009998 0.0405114933734292 0.257239082704369
0.253521126760563 0.465346899681955 0.494364571473675
0.251952020339953 0.46501110912832 0.514022052766617
0.250702583467526 0.464310070813932 0.516302795235384
0.24837211139757 0.460422015484831 0.519706874505111
0.248247620736432 0.459820393569755 0.51986225924009
0.240657169721193 0.458382638418076 0.526775540995863
0.235068556930838 0.447433450728296 0.5295338074488
0.236282161708728 0.447415922825275 0.529102292942571
0.222622171890018 0.440713637016477 0.531588933393364
0.222248520864666 0.434881701502207 0.53159307484591
0.209387276523367 0.431254899182652 0.52791991072081
0.00243547740869607 0.244545960100403 0.269317522248842
-0.00611588383215558 0.238980996543988 0.269624172881425
-0.00636498567634332 0.230182232581699 0.26963310563914
-0.0231833140954969 0.223307268734413 0.269933062807004
-0.02893247048908 0.21921926032202 0.27000175849573
-0.0328523241558372 0.210931594181721 0.270048596158321
-0.0426640676336973 0.202498208388181 0.270165835006889
-0.04083035455547 0.19888710442767 0.270143924282217
-0.0585055623596938 0.19389203837576 0.269991777483062
-0.0556200402807268 0.183826370668216 0.270026256094005
-0.0694370150257047 0.176196475237729 0.269861159420468
-0.0752686000519402 0.173923072352522 0.269791478806076
-0.0832712420435267 0.165617568786197 0.269524324465512
-0.0982933194814239 0.151449983645622 0.268985634844141
-0.110311054473474 0.147486141828581 0.268520291271024
-0.115221117959208 0.142097124813804 0.268226615093329
-0.118334246200451 0.131706251264023 0.268040415545151
-0.13219328777391 0.120527745601226 0.267211491363692
-0.141274321435593 0.112412932329612 0.26666834497403
-0.154876223563492 0.105643989994508 0.265536319797633
-0.149437728777888 0.101584822416085 0.265992225868078
-0.164061474075348 0.0949489365528753 0.264766325225238
-0.173443651282586 0.0808964350348891 0.263979822394695
-0.181413402565001 0.0811298701866244 0.263140257324535
-0.19321646288329 0.069985717868239 0.261866207848557
-0.209187818221173 0.0553597509971092 0.260087148338164
-0.21652978295691 0.0427370848076259 0.259116707125162
-0.222890501262465 0.0488614917962761 0.258275964434319
-0.234008618745077 0.0348583008776838 0.256806401476109
0.253521126760563 0.458604387569848 0.497270505498565
0.253521126760563 0.446630671423838 0.499290112817346
0.253521126760563 0.452853622598053 0.507221985662098
0.252077765716679 0.451375417389315 0.513728311244587
0.248019739180647 0.449747323993974 0.520142519495866
0.247171337251527 0.442638667114067 0.5211544022638
0.23929999741898 0.446617375653533 0.52752916102792
0.234261088113665 0.435423457498722 0.529820914515521
0.231600653802647 0.440434984358631 0.530703774868653
0.224656854073556 0.431075967099008 0.531566381495633
0.218171243601317 0.418522801732225 0.531040148869267
0.204834288105027 0.412075787291697 0.524954055241989
0.00495851603025138 0.236331869296634 0.269227046432473
-0.00558526815341754 0.225044988051232 0.269605145076499
-0.0116003030519994 0.223038434223101 0.269794659384538
-0.0211585046148217 0.206179884986651 0.269908868704027
-0.0271470653861945 0.203558678687695 0.269980424994812
-0.0256271165142509 0.201727807958861 0.269962263385101
-0.0401909921048332 0.194429663998481 0.270136284649393
-0.0475033641662261 0.183418000692822 0.27012324087189
-0.0581926634907198 0.177896725848053 0.269995516258254
-0.0601108705375338 0.171052785002976 0.269972595929571
-0.0730699266018498 0.163865789511294 0.269817750379956
-0.0789395559728791 0.15700465086618 0.26967965812951
-0.0894872835685894 0.154616303852426 0.269301418075274
-0.0948523001137782 0.13731932497119 0.269109029323231
-0.100664366240617 0.13313184599344 0.268900609434956
-0.106491454240084 0.123404934160855 0.268691650864405
-0.122276893924995 0.121945421383133 0.267804601544556
-0.121925018901888 0.114094691026611 0.267825647568119
-0.145067636156799 0.0974257201467807 0.2663585683641
-0.146576903169145 0.0953467414804838 0.266232047328413
-0.161558215792694 0.0827381987419806 0.264976172010414
-0.169667044048424 0.0746502171953029 0.264296413332375
-0.174504623551784 0.0641738458767256 0.26388600682035
-0.177134281163947 0.0688683531767794 0.263602155529885
-0.198047660435794 0.0479625486967862 0.26134471727373
-0.210660077602152 0.0429392232489879 0.259892549040707
-0.213663725966235 0.0357624271211677 0.259495534853526
-0.227458913377231 0.0326398293141162 0.257672123970122
-0.235283052799534 0.00936360792085497 0.256637950199889
0.253521126760563 0.446178560762375 0.485188562886091
0.253521126760563 0.445131727971019 0.495264637606039
0.253521126760563 0.441049209396685 0.495032813144373
0.253521126760563 0.444710178650948 0.50935283620795
0.251044675617762 0.437067283758108 0.515710424087262
0.247222085670646 0.440766510698884 0.521096823135123
0.246048502771158 0.429477389859852 0.522379206144617
0.23770151539062 0.428294760601708 0.528416777195368
0.237356982106322 0.428324311497666 0.528608092022774
0.230443556235224 0.427092265974231 0.53090997488411
0.225217978052669 0.421310356078571 0.531560162140742
0.21310042884154 0.408622678808726 0.529622915730083
0.206069516834805 0.399603133371774 0.525893074920342
0.0056293977674808 0.217913115302464 0.26920298870607
-0.000653422905739016 0.217208952394745 0.269428289787335
-0.0100930684000721 0.199219518187569 0.269766794170516
-0.0270573089296136 0.197849993403943 0.269979352510228
-0.0271792821391383 0.193211925211503 0.269980809947296
-0.0284428605934907 0.182649744304072 0.269995908230633
-0.0460367876261052 0.172203344211074 0.270140764744715
-0.0493836847260569 0.17137434106861 0.270100773242373
-0.0542969714708404 0.164244851082741 0.27004206521745
-0.0715888196519214 0.150808592054484 0.269835447874168
-0.0688192587848406 0.152658941768272 0.269868540884378
-0.0835641225682372 0.142174282153674 0.269513821810361
-0.0834361380874906 0.137980546936457 0.269518411316158
-0.103295948313805 0.120193688795214 0.268806241265409
-0.106977261661626 0.11973660016152 0.268674229877391
-0.108938835974407 0.113664687462795 0.26860236513523
-0.120030719482448 0.105946764468956 0.267938947653653
-0.131705471539985 0.0934809101768692 0.267240668177274
-0.142071550679672 0.0896565130967405 0.266609728585897
-0.148321103650746 0.0735357991704203 0.266085831947323
-0.153126713987353 0.070999096187161 0.265682980237241
-0.162515342192572 0.066719260109359 0.264895936623033
-0.177224313489819 0.0566918957645726 0.263592437233569
-0.19051584905422 0.0460906762680176 0.262157718316263
-0.191197321176039 0.0371952665108074 0.262084158648153
-0.2042689649004 0.0329476472496032 0.260673175361778
-0.206814150760381 0.0220148210649107 0.260398442146516
-0.222721398727267 0.0113915007413258 0.258298315954012
0.253521126760563 0.434245028771127 0.481065624899894
0.253521126760563 0.429746088655694 0.476523042998073
0.253521126760563 0.433975912250417 0.496352898651419
0.253521126760563 0.425379522774422 0.497646402896462
0.253521126760563 0.436787100705283 0.509759893028932
0.250584417435992 0.431711828963748 0.516499587447906
0.250316333448804 0.427498846800735 0.516923926426326
0.245362179038673 0.420644880054898 0.523072318566582
0.239116029056128 0.425044513937098 0.52763131625411
0.237980816052411 0.415689279999398 0.528261685190212
0.234581151667256 0.412355585401642 0.52970711134928
0.223028422760974 0.408359074919773 0.531584430612453
0.219721772790883 0.398801990922173 0.531281132529548
0.214433158162146 0.396241087227222 0.530063764592329
0.206893904598216 0.390013295950867 0.526519773695859
-0.00389924436220533 0.201694986091984 0.269544684496298
-0.0110824577894017 0.194165947732141 0.269788471739859
-0.0211031638716793 0.185771346998738 0.269908207446931
-0.0200693290888149 0.183770423423557 0.269895854331521
-0.0357741471104461 0.175660995469235 0.270083508522234
-0.0438729806805775 0.164074596461135 0.270166619704682
-0.0568346714630045 0.156675731240256 0.27001174267327
-0.065996820132007 0.15063679478682 0.269902265722228
-0.0658815896974297 0.139559535946962 0.269903642591028
-0.0722107687414416 0.136251552496805 0.269828016310625
-0.0859673334609379 0.122353485929538 0.269427642999793
-0.0947135532913125 0.121428074829632 0.269114004765114
-0.0977258330289773 0.106646788872181 0.269005984829918
-0.103001473233547 0.101634000147963 0.2688168011011
-0.117741123590238 0.0902173412096314 0.268075890846352
-0.123344661298803 0.0858587503164392 0.267740737229579
-0.133879137690355 0.076586462784005 0.267110658867113
-0.137824477983956 0.0786466970611941 0.266874683821067
-0.150674774369052 0.0650698002390672 0.265888525006596
-0.163133650070192 0.0518146779000824 0.264844104208749
-0.170914681907543 0.0518465411615291 0.264191824526811
-0.170185326601732 0.0464320968335018 0.264252965986818
-0.189136520885656 0.0266605775690539 0.26230660617102
-0.199761451661484 0.0282024936384456 0.261159726707373
-0.206518808207498 0.0143324487576001 0.260430322100916
-0.220306916600626 -0.00299169582889947 0.25861745572764
-0.234546626411429 -0.00444254086105174 0.256735289065313
0.253521126760563 0.421996517268479 0.469567595571911
0.253521126760563 0.41606500232561 0.474303751830552
0.253521126760563 0.423445761144887 0.49106058558364
0.253521126760563 0.416427636425784 0.491565451787693
0.253521126760563 0.420658382314507 0.501158973178488
0.253521126760563 0.418581627461007 0.507507855163353
0.249408899123509 0.417277797131886 0.518293371914418
0.246340556222412 0.41661627476467 0.522073259082176
0.24660460450064 0.409857320339435 0.521797416934119
0.241887983845644 0.405508353317133 0.525947463285504
0.23059098178706 0.405001258859936 0.530883702984554
0.230807163319911 0.399133166125063 0.530845178458473
0.223025569683532 0.398000061859489 0.531584462235235
0.218311800594621 0.386778183158402 0.531061994274664
0.00525129486038863 0.194832145674321 0.269216547424077
0.000609250291397946 0.191755572675639 0.269383010500945
-0.00723140071209161 0.180488887933989 0.269664175162612
-0.0130175398945298 0.180049065899496 0.269811593705736
-0.0195240484454153 0.16650332931833 0.269889338866158
-0.0275442232326556 0.170178682024585 0.26998517056615
-0.0332341808988275 0.159961833125838 0.270053158899384
-0.0449586438880318 0.154494920507555 0.27015364730027
-0.0509216221719919 0.13941258501952 0.270082396690262
-0.0557184594816914 0.13282594271669 0.270025080099767
-0.0662174120425738 0.12755136825081 0.26989962990713
-0.0781932282163331 0.119725511716886 0.269706421339742
-0.0775559493717316 0.120706351582814 0.269729274071058
-0.0909347549633572 0.0983673536989549 0.269249511951049
-0.0963376987371481 0.0975999668402746 0.269055763133829
-0.106028781064769 0.0912790522260191 0.268708242260546
-0.109124317417042 0.0911459911733185 0.268591271290667
-0.125228556808997 0.0762453672294079 0.267628059413047
-0.1346135842748 0.0661067526053689 0.267066730827024
-0.142480875067932 0.0579530298721442 0.266575415144266
-0.151559868698572 0.0536639549634705 0.265814328028636
-0.155933592107848 0.0471591557370081 0.265447681165608
-0.16567498049496 0.0375963192410777 0.264631065856534
-0.181173124883346 0.0299070216452707 0.263166193450094
-0.181897146913442 0.0210703997457308 0.263088040847027
-0.192238554539328 0.0157360559760879 0.261971765524243
-0.202652945624488 0.0039504595409268 0.260847612199015
-0.22182128760614 -0.00791207566452241 0.258417290228565
-0.23284299563805 -0.0228839102907227 0.256960470413049
-0.237804130009602 -0.0368482672302224 0.256304720973944
0.253521126760563 0.408705592538916 0.45650677102596
0.253521126760563 0.407761999658537 0.469191796342382
0.253521126760563 0.409216759348533 0.479305769220604
0.253521126760563 0.40233841737998 0.478331404278131
0.253521126760563 0.413679052387393 0.495482056315037
0.253521126760563 0.406329471617893 0.500528705120355
0.253521126760563 0.404859922642292 0.507786771927714
0.252018756007272 0.403714572517713 0.513866158076867
0.24748035945802 0.402319024995387 0.520803785836713
0.244068811250779 0.395238666464415 0.524212001932693
0.241812807283712 0.391617662365394 0.526007287376839
0.238519587682303 0.394765037904103 0.527962512349498
0.227965062215265 0.384814454470358 0.53135165371882
0.221336818768256 0.37619901039545 0.5315321434062
0.217373250735083 0.374746106789829 0.530916124605115
0.209233641575861 0.371262431946004 0.527839001423536
-2.77226810200619e-005 0.181396752211626 0.269405852263727
-0.00536456175139642 0.169838427108894 0.269597230575417
-0.0138205439219475 0.160171260113944 0.269821188663837
-0.0243540688350951 0.157902093722727 0.269947051955613
-0.0315157873399054 0.145043911069321 0.270032626107971
-0.0396622230429278 0.144827525014734 0.2701299664781
-0.0427954854098975 0.139771668786246 0.270167405295472
-0.0440935402528725 0.134560547234119 0.270163984275988
-0.059901934787396 0.120348648322245 0.269975092467196
-0.0648739779570789 0.111608578990013 0.269915682371777
-0.083310792834171 0.100181949592762 0.269522906179623
-0.0810416440641943 0.0949104845427747 0.269604277540993
-0.0907774146474368 0.08907853716499 0.269255154153039
-0.105673041165903 0.0833415979667158 0.268720999044168
-0.103934026395771 0.0755588260575482 0.26878335987355
-0.119047674780171 0.067988066800305 0.267997744614528
-0.123030663343778 0.0625361367672272 0.267759517784964
-0.141288088134112 0.0544072381619884 0.266667521572986
-0.143178897639392 0.0452874157427526 0.266516900290399
-0.153767546517017 0.0340984805499852 0.265629259593583
-0.156496893304275 0.0280416538075782 0.265400459931597
-0.174559087001861 0.0234811165342281 0.26388012791029
-0.173942708504886 0.00785133387978156 0.263937986698218
-0.190456209912532 -0.00247136312439037 0.262164155902378
-0.204265235093452 -0.0154002603122198 0.260673577965718
-0.210969098608764 -0.0177290456353133 0.259851703472621
-0.21867494278501 -0.0301124603494765 0.258833165650831
-0.237079665758165 -0.0360552138567145 0.256400478716217
