ply
format ascii 1.0
element vertex 865
property float x
property float y
property float z
end_header
0.186095084271843 0.166221013252717 0.300467839707758
0.194414789469475 0.169050816299881 0.310725875753726
0.18509901470378 0.171128655937125 0.318258044438736
0.195281793466721 0.172675236653948 0.323864399537219
0.18652503881359 0.174286192311098 0.329704113794388
0.185385334721804 0.177673169408043 0.341981905770815
0.189504912385077 0.179801389941599 0.349696705204957
0.193790734994485 0.182430524645114 0.359227318505196
0.191653274015763 0.184935927833855 0.368309405064387
0.194601278346501 0.187007411984582 0.375818535110766
0.195434425877721 0.189875195070684 0.386214248797888
0.196278147472059 0.192263370352366 0.394871384193985
0.195345677904277 0.194833638474183 0.404188606135573
0.186817431182415 0.197391921768286 0.413462383076695
0.197188342257831 0.198003429542375 0.415679098757767
0.196355411426542 0.202054935175413 0.430365806677531
0.192526087060961 0.203781549286993 0.43662478283201
0.19146609072573 0.205371241883511 0.442387418494387
0.190360317303111 0.208373664072475 0.453271198929383
0.187572099911171 0.211552828179972 0.46479566881906
0.190138708448608 0.214136022224094 0.474159747229
0.194982698596217 0.215181880475746 0.477950983391241
0.198307952957436 0.227974682857863 0.483333333333331
0.19211375325615 0.237083098554661 0.483333333333331
0.197888807107799 0.243928640849208 0.483333333333331
0.197133222588371 0.269962623430419 0.483333333333331
0.170800929328033 -0.251231644290923 0.241666666666665
0.17895282534678 -0.238648967212041 0.241666666666665
0.178538513890502 -0.234965984630027 0.241666666666666
0.171864563331812 -0.225423995282818 0.241666666666665
0.172844839055481 -0.220387170747247 0.241666666666666
0.179178853133371 -0.208115581191822 0.241666666666666
0.173516830606667 -0.194163040548062 0.241666666666665
0.179652722366355 -0.184363450855526 0.241666666666666
0.178008187068381 -0.175494620500292 0.241666666666665
0.180046854657796 -0.169930950330283 0.241666666666666
0.179994179277313 -0.15598950949354 0.241666666666666
0.177763823827579 -0.147482418788908 0.241666666666666
0.184702422669107 -0.136512323164508 0.241666666666666
0.179711894575131 -0.126808367415215 0.241666666666665
0.178735799200387 -0.113655676533889 0.241666666666666
0.184089095786559 -0.0997660263534956 0.241666666666666
0.18128755040128 -0.0981249013369576 0.241666666666666
0.18719828708839 -0.0931728156537884 0.241666666666666
0.181933365832329 -0.0833366820208931 0.241666666666666
0.180783572300767 -0.0687221389400811 0.241666666666666
0.188726254769849 -0.0608209829000294 0.241666666666666
0.187982101789213 -0.0495553823239688 0.241666666666666
0.1853631559479 -0.0385616100823069 0.241666666666666
0.1911952539167 -0.0216128438507963 0.241666666666666
0.191141942436827 -0.0139461104742954 0.241666666666666
0.190956105856869 -0.00434624419074017 0.241666666666666
0.194997441045441 0.010235916237436 0.241666666666666
0.192276790680409 0.0278563354706234 0.241666666666666
0.19150677020344 0.0265955972807937 0.241666666666666
0.191078198863693 0.0426202406410591 0.241666666666666
0.193113907220689 0.0606885697906077 0.241666666666666
0.194642012779452 0.072451514987909 0.241666666666666
0.191008557594435 0.0846657774886768 0.241666666666666
0.196514553862831 0.0890028889060033 0.241666666666666
0.193085327841271 0.0928818543962296 0.241666666666666
0.200179010708771 0.103559128960335 0.241666666666666
0.198810580083882 0.114792247274103 0.241666666666666
0.194353120790192 0.134893650021989 0.241666666666666
0.201502104020896 0.145955804339506 0.241666666666666
0.202184747752783 0.153224766716208 0.253356446012914
0.204237930030028 0.153992352259201 0.256138943606262
0.202135550940192 0.154409973303696 0.257652819892556
0.202322768377828 0.159521125219057 0.27618074558574
0.19967352306143 0.161919787404682 0.284875896008634
0.19988120064648 0.163181181865315 0.289448450928427
0.20563744820493 0.166834985712311 0.302693489873786
0.196850314195158 0.168178792169043 0.307564788279436
0.19610216727365 0.169811372595958 0.313482892327007
0.203268078696033 0.172864671133156 0.324551099524348
0.198251723664595 0.174831789334359 0.33168190300371
0.204890996525358 0.178032396410775 0.343284103655717
0.200952256709503 0.1789650062806 0.346664814433833
0.205202457398752 0.182709482643598 0.360238541249702
0.201830632086965 0.185349183631434 0.369807457330606
0.202667177204013 0.186101515587411 0.372534660671022
0.199768061597425 0.190041357943294 0.386816589211098
0.19835691969674 0.191215202088911 0.391071774238961
0.205661509278225 0.193334515219922 0.398754284338878
0.205122795133277 0.196939205970033 0.411821288308029
0.202781791505656 0.198839465568718 0.418709729353263
0.203772578029645 0.200388935380735 0.424326557421827
0.207010131995766 0.204791325881201 0.440285222986011
0.207790644100078 0.205514940231362 0.442908325005348
0.207541877080684 0.208847845030901 0.454990104903676
0.203069549508161 0.211842794639524 0.465846797234933
0.208097428615228 0.215239956956545 0.478161510634135
0.202660835631494 0.216193916428391 0.481619613719577
0.208837207064173 0.22762441271838 0.483333333333331
0.206873650025543 0.239597497195086 0.483333333333331
0.201229609620366 0.260947232095083 0.483333333333331
0.212521443984333 0.273471937879439 0.483333333333331
0.17956988075686 -0.258095812656643 0.241666666666666
0.185152533232541 -0.241444373855645 0.241666666666666
0.184580687129757 -0.235513128324985 0.241666666666665
0.18798214674843 -0.227476276789401 0.241666666666666
0.190504851441818 -0.207095160339471 0.241666666666666
0.18497858079725 -0.200221058874094 0.241666666666665
0.187645758573469 -0.19596663866512 0.241666666666665
0.187861288835997 -0.187226274928728 0.241666666666666
0.18522463853252 -0.176515122068374 0.241666666666666
0.191722811823071 -0.164825926496081 0.241666666666666
0.190947266472394 -0.154848427992886 0.241666666666666
0.18944194274513 -0.153943607955592 0.241666666666666
0.186667399124833 -0.137006296492708 0.241666666666666
0.19150645184456 -0.127892045800754 0.241666666666666
0.19648322063683 -0.121266443850786 0.241666666666666
0.18905322492182 -0.108872024108537 0.241666666666666
0.197901432278069 -0.0958353068561666 0.241666666666666
0.19322105251033 -0.0793781163636296 0.241666666666666
0.19634531806689 -0.0764887211037531 0.241666666666666
0.199739575027274 -0.0677756493337194 0.241666666666666
0.196239810051404 -0.0629895289829618 0.241666666666666
0.196177821017243 -0.0393690110327448 0.241666666666665
0.194481759287064 -0.038890193924588 0.241666666666666
0.194703094410794 -0.0247500835908659 0.241666666666666
0.19998936666108 -0.0130550354516658 0.241666666666666
0.195386333381079 -0.000651367346662511 0.241666666666665
0.202611742604553 0.0110179852063248 0.241666666666666
0.20328372737356 0.0283611490085788 0.241666666666666
0.202577877301829 0.035462530301861 0.241666666666666
0.208287702098621 0.044785178092427 0.241666666666666
0.204753351575252 0.0529365862310798 0.241666666666666
0.203216695734901 0.0610147276922096 0.241666666666666
0.205605577969098 0.0781877096004025 0.241666666666666
0.207434235261048 0.0892351434494645 0.241666666666666
0.20697238981577 0.101977922851164 0.241666666666666
0.206656524988068 0.113558076651549 0.241666666666666
0.210530594722362 0.122079061825615 0.241666666666666
0.211056584709764 0.131434119479315 0.241666666666666
0.209516929445144 0.150375786155315 0.243028891479676
0.208561048674804 0.151988995552522 0.248876775544551
0.213295127918296 0.155829578286481 0.262798887955153
0.208711362035441 0.158123514521325 0.271114406806463
0.212595258555843 0.159411198743221 0.275782262110835
0.215864140285124 0.161249849990064 0.282447372880641
0.21169529400517 0.16506495787198 0.296277138952586
0.212786399886781 0.167625463425053 0.305558971582476
0.212555121146296 0.16812305718144 0.307362748949381
0.21257022924496 0.170047752474313 0.314339769386044
0.213038738281112 0.173791526746141 0.327910951121418
0.207300333221933 0.176426079250162 0.337461203948496
0.21516264918243 0.17784204865123 0.342594093027371
0.215730220399375 0.178829382177916 0.3461731770616
0.215085640168775 0.182900961376328 0.360932651655846
0.207600020057501 0.186536423932684 0.374111203422641
0.212365368556408 0.186333694532722 0.373376309347779
0.21758267282988 0.188331200393112 0.380617268091691
0.207708121438701 0.192013067166301 0.3939640351445
0.211098914743908 0.1957829303468 0.407629789173808
0.209252094050066 0.196302309745617 0.409512539494521
0.209843749580031 0.197535788901868 0.413983901435929
0.208965430661704 0.20267425234094 0.432610831402566
0.218841527833406 0.204620729589709 0.439666811429352
0.215147110088328 0.205976385863586 0.444581065422155
0.2123799982105 0.208408693754748 0.453398181527622
0.213105167563484 0.212027291765376 0.466515599316145
0.21826842241639 0.213309494727454 0.471163585053681
0.216835836235372 0.22403024108709 0.483333333333331
0.210921235033976 0.230505755804631 0.483333333333331
0.218350471714735 0.246900798965572 0.483333333333331
0.211532036463835 0.255148029010843 0.483333333333331
0.217084032457736 0.26680086377976 0.483333333333331
0.195498607656303 -0.251198332538541 0.241666666666666
0.195018243899188 -0.238452299725472 0.241666666666666
0.189583039897021 -0.23437531395201 0.241666666666666
0.196456584513606 -0.217238053384187 0.241666666666665
0.196829153367492 -0.21098353813824 0.241666666666666
0.194801996401253 -0.204581161965128 0.241666666666665
0.19761566432313 -0.189047257231925 0.241666666666666
0.194173497895846 -0.183100107897408 0.241666666666666
0.19841477871622 -0.174435886943187 0.241666666666666
0.199383461535037 -0.169005635061358 0.241666666666665
0.200988277248175 -0.15303902354456 0.241666666666666
0.203953551510177 -0.144682099148825 0.241666666666666
0.204144634654953 -0.13649727142533 0.241666666666665
0.203527744430495 -0.128303320685091 0.241666666666666
0.199647358148779 -0.115536102468206 0.241666666666666
0.200120461660133 -0.108215181219389 0.241666666666666
0.204090687407229 -0.0924159864229473 0.241666666666665
0.203020241203388 -0.0844494980220736 0.241666666666666
0.203177050416 -0.0756235109319646 0.241666666666666
0.208716241687667 -0.0640725975538939 0.241666666666666
0.202702793455021 -0.0508746985543434 0.241666666666666
0.206688414150663 -0.0442737311509773 0.241666666666666
0.206708217505997 -0.0384834706669773 0.241666666666666
0.205612282765136 -0.0285109649789172 0.241666666666666
0.207707364118172 -0.0133989384839058 0.241666666666666
0.208592613760207 -0.00457997519996784 0.241666666666666
0.213698517454032 0.010001892022618 0.241666666666666
0.207288399813036 0.0294671678542015 0.241666666666666
0.214041895626971 0.0278275566661328 0.241666666666666
0.21334696187348 0.0485198264767091 0.241666666666666
0.213112873587489 0.0515821831089974 0.241666666666666
0.211692030711337 0.0673166386589002 0.241666666666666
0.210920969818965 0.0757433096460896 0.241666666666666
0.220806539564915 0.0879288693333567 0.241666666666666
0.216483858420633 0.101514339311403 0.241666666666666
0.221511419029734 0.102778091722825 0.241666666666666
0.222158800500136 0.122171007115764 0.241666666666666
0.217885452567846 0.140286237985626 0.241666666666666
0.215374598349742 0.147316651786722 0.241666666666666
0.220401984532814 0.150037351463912 0.241802065723338
0.222285611027617 0.154998367561948 0.259785749078718
0.226359773382977 0.15436675883818 0.257496167455062
0.216877212083357 0.157949065555535 0.270482029305471
0.22074843692062 0.159568728799712 0.276353308565612
0.219879885066849 0.163831269688525 0.291805019287561
0.222229306805194 0.166889143292728 0.302889811102795
0.217605192919839 0.168587828046472 0.309047543335116
0.223842514058133 0.16980645575798 0.313465068789333
0.227334904045145 0.17246255634853 0.323093433430079
0.218877386725775 0.174081124971314 0.328960744687672
0.220121440462829 0.177725383846514 0.34217118311027
0.226876235167683 0.18063355008067 0.352713285709086
0.22741547587249 0.181868472518304 0.357189879545507
0.220113592295714 0.182947458141271 0.361101202428764
0.227348178241412 0.186644361009978 0.374502475327829
0.224328630511692 0.188460412129461 0.381085660635953
0.225609662545965 0.191048094237298 0.390466008276863
0.225743549972931 0.194464000754152 0.402848669400458
0.22075431262279 0.195292018788669 0.405850234775584
0.221012847002378 0.200363660927214 0.424234937527809
0.225950293333118 0.201225750628648 0.427360012695504
0.218975204343493 0.205125973598706 0.441498320961969
0.225534938654592 0.207458128308588 0.44995238178529
0.221227561491784 0.207426959057287 0.449839393249324
0.223193062325102 0.210273064853847 0.460156526761853
0.229649830567959 0.214699532804035 0.476202473081287
0.22771751917599 0.214044231745558 0.473827006744308
0.221901302185605 0.229579546318778 0.483333333333331
0.22176352338493 0.237579801763967 0.483333333333331
0.224511908578559 0.259889946811814 0.483333333333331
0.228345501216159 0.259632960352643 0.483333333333331
0.229270406660897 0.280265333150881 0.483333333333331
0.199711506215001 -0.259534868651625 0.241666666666666
0.202302832195351 -0.238063653246755 0.241666666666666
0.206502013316064 -0.230229302770572 0.241666666666666
0.202616662526857 -0.219224768043076 0.241666666666666
0.20657984937566 -0.216040999590519 0.241666666666666
0.20542132842505 -0.201865005018092 0.241666666666666
0.203629778923082 -0.19724413868305 0.241666666666666
0.201618064658358 -0.189517719164555 0.241666666666666
0.206583043407687 -0.177639179170721 0.241666666666666
0.206069264164268 -0.17333581468067 0.241666666666666
0.2102275445384 -0.153939624636673 0.241666666666665
0.210055921436449 -0.143036315257738 0.241666666666665
0.205475557927157 -0.139974515856121 0.241666666666666
0.213127071317394 -0.128358585285812 0.241666666666665
0.211807254066524 -0.109124241915814 0.241666666666666
0.216810158730668 -0.105106604485467 0.241666666666666
0.211680647868976 -0.0875125242105909 0.241666666666666
0.217368957992365 -0.0802968055091272 0.241666666666666
0.214755843114464 -0.0727126439075352 0.241666666666666
0.217570868547142 -0.0689158136485329 0.241666666666666
0.211334750362497 -0.0513832227533817 0.241666666666666
0.212513632043171 -0.0476621169829859 0.241666666666666
0.213214499916174 -0.0318107874347735 0.241666666666666
0.222850782097537 -0.0213569651153989 0.241666666666666
0.215292238980929 -0.0100437170324012 0.241666666666666
0.215031101632915 -0.00565167719063512 0.241666666666665
0.222496218451962 0.000649281204636605 0.241666666666666
0.218191722501874 0.0209384095793583 0.241666666666666
0.226314460895031 0.0298609907036084 0.241666666666665
0.22352680153138 0.0461035703052736 0.241666666666666
0.226022818635984 0.0554508574016881 0.241666666666666
0.221633631809862 0.062176509660893 0.241666666666666
0.228616638260532 0.0764791968488962 0.241666666666666
0.224364799116877 0.0911791050070517 0.241666666666666
0.231339801535976 0.102625570043265 0.241666666666666
0.226987341279752 0.109614107363154 0.241666666666666
0.224348878867776 0.12100599374526 0.241666666666665
0.232203384049679 0.144327483147991 0.241666666666666
0.227759885122723 0.150022992234355 0.241750013516197
0.231575477741133 0.150531310885877 0.243592668627961
0.22754291786528 0.152356352550329 0.250208444661599
0.234646238493679 0.155840206196282 0.262837414128181
0.230548929509665 0.159039453704791 0.274434686346526
0.232370413179948 0.160662147119487 0.280316949974798
0.226697003127483 0.163791615080535 0.291661271333595
0.233108527684621 0.166687751494644 0.302159765834743
0.229385347307421 0.168588972541099 0.309051692128144
0.230530211514861 0.168695037082689 0.309436176091406
0.229155004795817 0.174877031189372 0.331845904728131
0.231694472907816 0.174618632710883 0.330909210243609
0.235951953111782 0.177355983587431 0.340832107171093
0.235964594094251 0.178134965550092 0.343655916785744
0.230279430970077 0.180680794093044 0.352884545253944
0.230271087338183 0.183859476167354 0.364407267773317
0.23345506222255 0.188361559498979 0.380727319850455
0.233322520984573 0.189514903321732 0.384908191207935
0.238566068964621 0.193412761473774 0.399037927009088
0.233888409590998 0.194251091402854 0.402076873002005
0.237161313084809 0.198505947421472 0.417500726069494
0.234488823696799 0.198283943260601 0.416695960986337
0.23920400868559 0.202029108187334 0.430272183845745
0.230400893245987 0.203619793844308 0.436038419352274
0.231050744553542 0.207139356404575 0.44879683363324
0.233294157887807 0.20930732864478 0.456655733003987
0.238254085534063 0.210879663077347 0.462355445322039
0.23352023083201 0.214828137812863 0.476668666238285
0.234930660296062 0.215386545040387 0.478692892438061
0.236326698956545 0.222197487320173 0.483333333333331
0.233178488316391 0.243314433351258 0.483333333333331
0.237925321272313 0.258630080518122 0.483333333333331
0.239456618248772 0.273234645114253 0.483333333333331
0.237076512371618 0.281409825489322 0.483333333333331
0.208265468682506 -0.245308254505567 0.241666666666666
0.21378680428967 -0.235914998556609 0.241666666666666
0.212854580706836 -0.237786878655781 0.241666666666666
0.208641516825777 -0.228740618306917 0.241666666666666
0.218308234626687 -0.209520736169451 0.241666666666666
0.211391522540565 -0.206846226693301 0.241666666666666
0.213574058535668 -0.193200059955469 0.241666666666666
0.216711540270765 -0.186567720713392 0.241666666666666
0.216531249627018 -0.173187020777763 0.241666666666666
0.215635349480846 -0.165094259978652 0.241666666666666
0.221008681032792 -0.159819200628293 0.241666666666665
0.215200002586798 -0.142004440233831 0.241666666666666
0.224166804073306 -0.134966652921016 0.241666666666665
0.222722045486578 -0.124443668557044 0.241666666666665
0.223057623765262 -0.116532678274423 0.241666666666665
0.217049207525354 -0.111409038581051 0.241666666666666
0.226595733555358 -0.0959071844175387 0.241666666666666
0.221397047965462 -0.0824648824013269 0.241666666666666
0.229024123808341 -0.0732439627231035 0.241666666666666
0.224503666948046 -0.0725631910904562 0.241666666666666
0.229003608785331 -0.0511797079851762 0.241666666666666
0.230415444486834 -0.039402204228215 0.241666666666666
0.225074308827818 -0.035064745043119 0.241666666666666
0.223973884996694 -0.0196503917465542 0.241666666666666
0.224503514870933 -0.0191540835225273 0.241666666666666
0.231477086557826 -0.0072068060679757 0.241666666666666
0.235665589988613 0.00790780103999277 0.241666666666666
0.234353487873853 0.0118919948139546 0.241666666666666
0.235765273027773 0.0307807179444011 0.241666666666666
0.232092939685819 0.0424177541495829 0.241666666666666
0.229708681789287 0.0535102743860802 0.241666666666666
0.22993267916971 0.0635981296576343 0.241666666666666
0.231772637408673 0.0790011230392536 0.241666666666666
0.233822108037141 0.0880529771767189 0.241666666666666
0.237625542778721 0.104149075341517 0.241666666666666
0.237319055225556 0.108832392453973 0.241666666666665
0.237515762869601 0.1243648312223 0.241666666666666
0.236882722302068 0.132512325509931 0.241666666666666
0.238082566632243 0.150619177227293 0.243911184115595
0.24494557353405 0.153087510940935 0.252858893827545
0.245270279098557 0.153057700832058 0.252750832182865
0.237153207968955 0.156699312079746 0.265951672955736
0.237174198456211 0.15758922308936 0.269177600365585
0.245945957061282 0.161086184234796 0.281854084517793
0.237950286203402 0.161369033950132 0.282879414735885
0.237968079464795 0.166690684944541 0.302170399590616
0.244019798391439 0.168467575192113 0.308611626738067
0.246082698281615 0.171035388145419 0.317919948693804
0.241186051250314 0.173793307478806 0.327917406277328
0.246700618487306 0.174593627570308 0.330818566609024
0.243066644311234 0.176883855036963 0.339120641175649
0.244558242447235 0.180985502068217 0.353989111663946
0.248920677497764 0.183489460392486 0.363065960589421
0.247523236521595 0.185767900916196 0.371325307487868
0.246029996561789 0.18671935497449 0.374774328449182
0.242904838377558 0.187847683931851 0.37886452091962
0.248085246840564 0.190626963002319 0.388939407550064
0.241047758647955 0.195639140238523 0.4071085500313
0.239431966337095 0.19727684063898 0.41304521398296
0.240357544469626 0.197784234963224 0.414884518408346
0.247715342142015 0.201460704807729 0.428211721594677
0.241024540467357 0.202272163267875 0.431153258512704
0.246979563723485 0.205348882289586 0.442306364966408
0.249081013116067 0.208088000872057 0.452235669827862
0.245555752838213 0.210384200677456 0.460559394122433
0.244216679152145 0.215523444222023 0.479189151971494
0.250305835874032 0.214809332813144 0.476600498114306
0.245281752720624 0.225448582009781 0.483333333333331
0.250446632821233 0.240934373717823 0.483333333333331
0.254831233851534 0.253652086157496 0.483333333333331
0.245217448964159 0.272642666979652 0.483333333333331
0.21670495134884 -0.254657413749047 0.241666666666666
0.21792312004053 -0.234648665570744 0.241666666666666
0.220922292293937 -0.231709294006385 0.241666666666665
0.225446907448595 -0.219112765383805 0.241666666666665
0.219443458477254 -0.208131343687113 0.241666666666666
0.224177305046454 -0.20624195912227 0.241666666666665
0.225133088008701 -0.191544457649831 0.241666666666665
0.229351899855976 -0.190682835443742 0.241666666666666
0.223301448919462 -0.175892437314847 0.241666666666666
0.22984407161319 -0.162062449394226 0.241666666666666
0.226731167003734 -0.151549778006596 0.241666666666665
0.223976799259911 -0.143653950629061 0.241666666666666
0.230881956562377 -0.133562427018534 0.241666666666666
0.230400177439913 -0.128483400236798 0.241666666666666
0.228073140014662 -0.115998455904052 0.241666666666666
0.229111488646369 -0.103086761031638 0.241666666666666
0.233148501073581 -0.0973272152146992 0.241666666666665
0.23424657219029 -0.0890383323106701 0.241666666666666
0.231576028779884 -0.0770503715090605 0.241666666666666
0.232814240261681 -0.0620872301702991 0.241666666666666
0.237382797281242 -0.0568205431831645 0.241666666666666
0.240977325256453 -0.0375085699900611 0.241666666666666
0.233917526045209 -0.0335563512626297 0.241666666666666
0.242612342698865 -0.0255769984565374 0.241666666666665
0.23408058106327 -0.013590737391854 0.241666666666666
0.235273356059338 0.00260010663027287 0.241666666666665
0.24547248815453 0.0155124120474809 0.241666666666665
0.242293206825556 0.0271379291762068 0.241666666666666
0.247683215219623 0.0381467690264202 0.241666666666666
0.240701718672139 0.0503346373211047 0.241666666666666
0.243711698068484 0.0505938682128378 0.241666666666665
0.245282124882631 0.0578444218766072 0.241666666666666
0.24206509715857 0.0806185013672975 0.241666666666666
0.243721969195164 0.0927762944317304 0.241666666666665
0.250969779490111 0.0927002431371371 0.241666666666666
0.243648081590259 0.114979572503064 0.241666666666666
0.247060630031105 0.120147519352897 0.241666666666666
0.250112520340481 0.135546701392368 0.241666666666666
0.253084275786482 0.144930626905596 0.241666666666666
0.256086146343349 0.152750250562745 0.251636324956609
0.256934378329694 0.154267514018153 0.257136404982461
0.254780034938731 0.156137681499397 0.263915762101969
0.254966172892712 0.158398223926716 0.272110228400998
0.256165776388824 0.160428492269233 0.279469951142626
0.251013228615533 0.16300734361232 0.288818287261317
0.255147336975721 0.166636878343033 0.301975350660151
0.258567695185436 0.168417355032903 0.308429578660931
0.251896689741664 0.170719868587848 0.316776190297605
0.253969607245797 0.173002076868015 0.325049195313212
0.248594067389549 0.175994319712765 0.33589607562543
0.254364359634559 0.178967437416265 0.346673627300617
0.258642601790293 0.180563342119494 0.352458781849821
0.257822360598127 0.183840140207995 0.364337174920641
0.253086612490195 0.185516454194342 0.370413813121147
0.250687301202684 0.185970751817182 0.372060642003943
0.252149380930424 0.188645020401492 0.381754865622066
0.251261739352102 0.189896779542342 0.38629249250765
0.257276681185792 0.194555710811595 0.40318111835869
0.25466991304536 0.197067953261908 0.412287997241074
0.256136266475582 0.1989247144665 0.419018756607719
0.253017907861747 0.201081651729052 0.42683765418447
0.256936292828358 0.20591424991413 0.444355822605379
0.254372499298078 0.206424520462033 0.446205553341526
0.259863723840036 0.209716825854058 0.458140160387615
0.254726472084691 0.210977788836191 0.462711151197848
0.2537573509605 0.214909908484047 0.476965084921328
0.256710233697277 0.2139090405933 0.473336938817371
0.258216746244318 0.218694859311072 0.483333333333331
0.261555556084615 0.247497825937842 0.483333333333331
0.257852426815983 0.247039438433031 0.483333333333331
0.265251832608946 0.263050153992666 0.483333333333331
0.260666526632165 0.281283358732317 0.483333333333331
0.224825722413576 -0.248346784924028 0.241666666666666
0.230816058705125 -0.241134998192112 0.241666666666666
0.235317004805779 -0.228230424152872 0.241666666666666
0.231925786415252 -0.225398375693 0.241666666666666
0.233700422609119 -0.206315842625924 0.241666666666666
0.235780503648302 -0.209554886522414 0.241666666666666
0.235320199671099 -0.199092987373096 0.241666666666666
0.232970049767592 -0.182910887793468 0.241666666666666
0.233564411115234 -0.176586984427221 0.241666666666666
0.240065671888707 -0.164333201645564 0.241666666666666
0.240029926850169 -0.156609072052848 0.241666666666666
0.235096031970301 -0.151532508259215 0.241666666666665
0.242367869408315 -0.131192637888314 0.241666666666665
0.23725174061975 -0.125384755389433 0.241666666666666
0.239812544647324 -0.113345922060485 0.241666666666666
0.240416326103094 -0.101890985270844 0.241666666666666
0.245762518361648 -0.0965177047527384 0.241666666666666
0.242536358435754 -0.0898094586380786 0.241666666666666
0.243017749172322 -0.0740171478546328 0.241666666666666
0.248156828026666 -0.070809048721918 0.241666666666665
0.240868185376971 -0.0506899089419959 0.241666666666665
0.248322194679307 -0.0403652998096793 0.241666666666666
0.245787660234484 -0.0368773167248174 0.241666666666666
0.25181960244962 -0.0324106302382445 0.241666666666666
0.25308495152084 -0.0194604161324794 0.241666666666666
0.254523586657509 0.000594445308715939 0.241666666666666
0.253073263389434 0.0136879044229992 0.241666666666666
0.256832375791104 0.0223168843060305 0.241666666666666
0.252384709618992 0.0269237255081729 0.241666666666666
0.252070629945215 0.0427809425325253 0.241666666666666
0.249512861704149 0.0462274713456696 0.241666666666666
0.25432703531818 0.057633150599142 0.241666666666665
0.256472296816847 0.0717624531188969 0.241666666666666
0.254031166869152 0.0909113482662841 0.241666666666666
0.257547457534753 0.0969767851954339 0.241666666666666
0.26130045360195 0.104667795081499 0.241666666666666
0.264306050101152 0.113542355864063 0.241666666666666
0.266713200591902 0.142186131610374 0.241666666666665
0.265344948173477 0.146540339699369 0.241666666666665
0.26613343103254 0.152195347001189 0.249624799545963
0.265904506200841 0.15400131711496 0.256171441208385
0.257702259007828 0.155522958419533 0.261687390937464
0.265447246969839 0.158533022143352 0.272598871936311
0.262567867262015 0.160677301010889 0.280371882831129
0.261929879781601 0.163527659190274 0.290704431231401
0.263700981529518 0.166143813355129 0.300187990079
0.265689921417961 0.168605761042761 0.309112550446661
0.267574450126623 0.171182070846528 0.31845167348532
0.263008466986622 0.17339192314685 0.326462388073987
0.261581802256127 0.177002201606119 0.339549647488839
0.266065938868578 0.17672726487546 0.338553001840199
0.262531433729927 0.178240142978584 0.344037184964025
0.265241157019846 0.182943472705445 0.361086755223893
0.268286688093901 0.184318315772773 0.366070561342956
0.262597856989159 0.185684411066402 0.371022656782365
0.266616625123909 0.190562126686954 0.388704375906862
0.27069838982694 0.190849068801837 0.389744541073316
0.26453799104508 0.193384212163119 0.398934435757961
0.267879562513594 0.195479402545623 0.406529500894542
0.262773062852045 0.19813540247083 0.416157500623415
0.269036603490698 0.201327780654263 0.427729871538359
0.269220152072507 0.204150202783839 0.437961151758073
0.267511975512292 0.207591796540619 0.450436929126401
0.262275350971896 0.210300883733382 0.460257370200166
0.265354122735972 0.210774540347867 0.461974375427675
0.26901438001575 0.213772654696242 0.472842539940533
0.26418779585534 0.215293428865564 0.478355346304325
0.266905545176041 0.231877135893937 0.483333333333331
0.273131997603313 0.232339155911695 0.483333333333331
0.274218012974986 0.252868609338714 0.483333333333331
0.276950261930276 0.271542538957403 0.483333333333331
0.235316680057169 -0.246755073441451 0.241666666666666
0.243227077420494 -0.233808875975937 0.241666666666666
0.240759504035973 -0.229703970520192 0.241666666666666
0.242576210107849 -0.219530341252803 0.241666666666666
0.245109603641472 -0.217237843289781 0.241666666666666
0.246918581535683 -0.204622200603107 0.241666666666666
0.239076634702972 -0.193140967144537 0.241666666666666
0.24729351893571 -0.182238843767909 0.241666666666666
0.249313582067556 -0.170913258680646 0.241666666666666
0.242889967561223 -0.164149067897306 0.241666666666665
0.244336422986173 -0.154854573580459 0.241666666666666
0.244654081985913 -0.143053782224806 0.241666666666666
0.243804093456284 -0.139147794028226 0.241666666666666
0.249336492707546 -0.124660742086052 0.241666666666666
0.250200568923275 -0.119833072265744 0.241666666666666
0.247090334310048 -0.0998435390513266 0.241666666666666
0.252502186422258 -0.0967820859587302 0.241666666666665
0.25147444781543 -0.0841152026682468 0.241666666666666
0.249083394001705 -0.0728949656620002 0.241666666666666
0.25725515878858 -0.0575149570074378 0.241666666666666
0.254224180573825 -0.0592625776520696 0.241666666666665
0.26036905326744 -0.054228500740575 0.241666666666666
0.254124970517926 -0.0299424340931553 0.241666666666666
0.257282728538946 -0.0186823304688413 0.241666666666666
0.263520587329322 -0.0135654108174257 0.241666666666666
0.263052293760531 0.00666572739398411 0.241666666666666
0.26256774946238 0.0103661374950138 0.241666666666666
0.260233040454752 0.0198828388728474 0.241666666666666
0.265803597219571 0.0264234078327457 0.241666666666665
0.268312346794491 0.0438782565983044 0.241666666666666
0.262516780219663 0.048652863940143 0.241666666666666
0.268391097133651 0.073487250724282 0.241666666666665
0.263788845432501 0.0720278828324285 0.241666666666666
0.266327257353707 0.0955169280244503 0.241666666666665
0.263223658717389 0.100869426882912 0.241666666666666
0.266341666735438 0.115533473056487 0.241666666666666
0.270686158381096 0.123495454787867 0.241666666666666
0.271237902334578 0.13434733558636 0.241666666666666
0.267597903495417 0.143467579672964 0.241666666666666
0.276122447895894 0.152467856242204 0.250612645544643
0.26842898315602 0.153465562786072 0.254229331766166
0.268371054693063 0.154898974997274 0.259425451031773
0.27756330274001 0.158013258462351 0.270714728592679
0.276531729312963 0.161103088694754 0.281915363185139
0.269005284827739 0.162781738950076 0.288000470360681
0.277217094687083 0.164935933411933 0.295809425284914
0.280037592370597 0.167769960691358 0.306082774172828
0.277846775406595 0.169666304505236 0.312957020498134
0.278867288526206 0.17129368818564 0.3188562863396
0.272712459851303 0.173791777054772 0.327911858490203
0.270731899772155 0.178161183783855 0.343750957883131
0.274785428214333 0.178886196296357 0.346379128240949
0.278039234720217 0.181857126903559 0.357148751692057
0.27203787268356 0.184220639782551 0.365716485878401
0.274619957250605 0.185452630574879 0.370182452500591
0.276170657251261 0.189474188180321 0.384760598820319
0.277653512389504 0.193008932480887 0.397574046909871
0.276068395774696 0.194693666111198 0.40368120631975
0.27498186615889 0.196269428234099 0.409393344015265
0.276484680216793 0.198761897134532 0.418428543779334
0.280029563244982 0.201205683707069 0.427287270104784
0.282416483848935 0.204648656688808 0.439768047163586
0.275259400698902 0.20602966498485 0.444774202236737
0.277542248669903 0.208481427948256 0.453661842979084
0.274999817211422 0.213082475318436 0.470340639695985
0.278511011449147 0.214364436588903 0.474987749301428
0.279968119514888 0.215006683573118 0.477315894619208
0.281344394547531 0.230261883116051 0.483333333333331
0.277709922678613 0.242165950087393 0.483333333333331
0.28283826253721 0.244125738400746 0.483333333333331
0.281329153295155 0.271925009003752 0.483333333333331
0.251216262297148 -0.247912917553247 0.241666666666666
0.244974664075417 -0.243327641555721 0.241666666666666
0.247321892161431 -0.225749453102334 0.241666666666666
0.248763596244121 -0.224321952620092 0.241666666666666
0.252435062679146 -0.208022113977575 0.241666666666666
0.254747957260351 -0.207040788949418 0.241666666666666
0.254780406321297 -0.198045898193622 0.241666666666666
0.250353938434881 -0.189310786981359 0.241666666666665
0.257182522998797 -0.178082210398676 0.241666666666666
0.257809516652507 -0.166993858324048 0.241666666666666
0.257377650520991 -0.152820313740782 0.241666666666666
0.257041620842191 -0.144536016059524 0.241666666666666
0.257029167906058 -0.128423776610422 0.241666666666666
0.262642041577989 -0.126200785397385 0.241666666666666
0.254309446479986 -0.120115892188733 0.241666666666666
0.257381332731524 -0.113378020487989 0.241666666666666
0.263802450863505 -0.090746955069531 0.241666666666666
0.259361680546033 -0.0837464289498387 0.241666666666666
0.263933709052724 -0.0726786428235816 0.241666666666666
0.261279416397482 -0.063109294602036 0.241666666666666
0.263623581192148 -0.053944900081448 0.241666666666665
0.270386182101757 -0.0400034393570916 0.241666666666666
0.265021907849234 -0.0301796827991235 0.241666666666666
0.267347014441539 -0.0315747406184182 0.241666666666666
0.263848122460014 -0.0175362891154596 0.241666666666666
0.271077412050966 -0.00188236252104761 0.241666666666666
0.275112309603299 0.00994336420492535 0.241666666666666
0.27249473004551 0.0174275118064495 0.241666666666666
0.2710944418441 0.0309923973791298 0.241666666666666
0.273111381391191 0.0421924134059491 0.241666666666666
0.278119200489068 0.0520387276742325 0.241666666666666
0.276211991682317 0.0657219017771553 0.241666666666666
0.277299096745487 0.0710916118137912 0.241666666666666
0.279291102624223 0.0813896027445775 0.241666666666666
0.274527956926715 0.105518521946801 0.241666666666666
0.281280982490869 0.112559870610776 0.241666666666666
0.282401896324206 0.118723720656663 0.241666666666665
0.280719675003521 0.130392874490723 0.241666666666665
0.283847124542818 0.146062581342833 0.241666666666666
0.288373293980377 0.151424039911228 0.246828811344855
0.284454322073228 0.154092149593954 0.25650070894474
0.284093145919758 0.156203245217678 0.26415343058074
0.283311586656893 0.157937482243607 0.270440039799729
0.284912786202304 0.161009731368499 0.281576942877464
0.287692724802496 0.163694139730865 0.291307923191042
0.289861170553112 0.166154930806931 0.300228290841781
0.288303422192884 0.167300945414487 0.30438259379417
0.289625834623795 0.169827857753968 0.313542651024791
0.281872485957226 0.174350328057392 0.329936605874702
0.290927149067546 0.174771571192716 0.331463612240249
0.291665936831661 0.176763677949461 0.338684999233452
0.29141552330699 0.180140730246356 0.350926813809698
0.290462774755481 0.181862729404289 0.357169060757202
0.282172700029814 0.183693126148448 0.363804248954777
0.286476379931864 0.185244294859456 0.369427235532183
0.284540466736884 0.187485490845859 0.377551570982894
0.285061511929558 0.192667710180005 0.396337116069175
0.291295892083128 0.194213942761023 0.401942209175363
0.292498506465586 0.195559535798153 0.406819983934962
0.29159395982324 0.199716722513615 0.421889785778511
0.288061378343979 0.200327210799766 0.424102805815806
0.288240407847804 0.204886745220921 0.440631118092493
0.2919353474806 0.208023306937191 0.452001154313975
0.283875762190439 0.208853622312659 0.455011047550045
0.286677770232367 0.211377298982373 0.464159375477759
0.288077826719284 0.212959835455332 0.469896070192235
0.293596083226734 0.219584511694323 0.483333333333331
0.295919883884415 0.231052031173477 0.483333333333331
0.294182216815824 0.242595591315522 0.483333333333331
0.293109763182998 0.252439742765375 0.483333333333331
0.296180098815696 0.279189549897899 0.483333333333331
0.260315652793729 -0.245448680135981 0.241666666666666
0.258333464260925 -0.243690989574129 0.241666666666666
0.261412552875852 -0.236531382635628 0.241666666666666
0.255630569655556 -0.219738574955887 0.241666666666666
0.264913411958596 -0.20785802917509 0.241666666666666
0.264193053478603 -0.199710032191974 0.241666666666666
0.259395237820595 -0.193333805416531 0.241666666666665
0.265502512315149 -0.186111625443362 0.241666666666666
0.266747418629531 -0.179248692307219 0.241666666666666
0.264749422289569 -0.171294113426666 0.241666666666666
0.262226916263923 -0.153834570574666 0.241666666666666
0.265757108891954 -0.148485196890502 0.241666666666665
0.262043930180308 -0.13892042738629 0.241666666666666
0.269515746334115 -0.127219691421284 0.241666666666666
0.272635751809135 -0.117481660254307 0.241666666666666
0.266691557209369 -0.107177579170518 0.241666666666666
0.26971159004239 -0.0952493759089657 0.241666666666666
0.270618546653352 -0.0932204147924885 0.241666666666666
0.271408458643433 -0.0811296428565273 0.241666666666666
0.271714031583522 -0.0709345997335078 0.241666666666666
0.272445224671998 -0.053181059326318 0.241666666666666
0.2792953239765 -0.0517091949748246 0.241666666666666
0.273035743289822 -0.0414731813324695 0.241666666666665
0.277111777959506 -0.0234566801679044 0.241666666666666
0.282402822095458 -0.0117932123955579 0.241666666666666
0.27722082588106 0.00229696364059672 0.241666666666666
0.278418606532283 -0.000354077062885835 0.241666666666666
0.281721893035141 0.0223652641501238 0.241666666666666
0.280081909653987 0.0342344827514252 0.241666666666666
0.284724887858189 0.0476045794125269 0.241666666666666
0.286858047097045 0.0495442533282162 0.241666666666666
0.290183170227739 0.0571376043292992 0.241666666666666
0.282473186763949 0.0785782994493373 0.241666666666666
0.292330298966509 0.0957697068103362 0.241666666666666
0.292635310894441 0.0994767263788511 0.241666666666666
0.293109824769517 0.113407990632689 0.241666666666666
0.289713742937567 0.121621770857945 0.241666666666666
0.296113490140906 0.134197204136349 0.241666666666666
0.298907568320856 0.148504957323684 0.241666666666666
0.296697688366746 0.151110406775008 0.245691891226062
0.29744735677286 0.153437651273705 0.254128152533836
0.298155924524598 0.154936595902257 0.259561826812337
0.298316614635303 0.160675551558722 0.280365541067024
0.290077547570855 0.161542356918749 0.283507710497121
0.291359987255256 0.162912093356167 0.28847300508276
0.293478781479766 0.16400938627436 0.292450691911206
0.294483616099468 0.16711293639213 0.303701061088125
0.293678855807785 0.171156894316493 0.318360408563941
0.296397638784578 0.173482666179297 0.326791331566608
0.293724776650621 0.174658483918731 0.331053670872054
0.29868458237804 0.177522185543537 0.341434589261978
0.300797961524101 0.180878076049445 0.353599692345896
0.302172921886642 0.181900444361245 0.35730577747617
0.300908525039198 0.18497392480121 0.368447144071042
0.299060518088658 0.185975954975061 0.372079503451252
0.295492725272622 0.190931603331658 0.390043728743916
0.300825469714718 0.191204062235862 0.391031392271656
0.301380096965026 0.195365658397155 0.406117178356342
0.303056611813232 0.196731578841283 0.411068639966306
0.302559651437645 0.198433141953941 0.417236806249692
0.299067222652375 0.201535491728792 0.428482824183527
0.299749245244702 0.20391141017905 0.437095528565716
0.301587631141639 0.207994709483065 0.451897488542768
0.294805556194074 0.209895960007445 0.458789521693645
0.303833867118844 0.210791127837558 0.462034505077804
0.303779155675923 0.214912500760949 0.476974481925097
0.298116304827995 0.215750795676411 0.480013300993646
0.298661522218629 0.226078413487789 0.483333333333331
0.301569461489467 0.24358782227024 0.483333333333331
0.30505948389669 0.248160916084604 0.483333333333331
0.30413561627446 0.268672059004895 0.483333333333331
0.263237943198241 -0.247550499018555 0.241666666666666
0.265775681319748 -0.242091331453562 0.241666666666665
0.271238669058225 -0.236435959676863 0.241666666666666
0.265624541805321 -0.215558623385658 0.241666666666666
0.2649607780404 -0.216951512029213 0.241666666666666
0.273842767504444 -0.204654879661898 0.241666666666666
0.268548160410119 -0.199761630535894 0.241666666666666
0.271371823975592 -0.180599150882702 0.241666666666665
0.272369857985848 -0.178477633720766 0.241666666666666
0.272137745094441 -0.173434223106735 0.241666666666666
0.279020197305879 -0.157260075830957 0.241666666666666
0.272729575069865 -0.142168213858617 0.241666666666666
0.280156504350291 -0.135502183094837 0.241666666666666
0.274378061166289 -0.126106014022639 0.241666666666666
0.276949072039361 -0.115432485152345 0.241666666666666
0.279017548824821 -0.111089019478961 0.241666666666666
0.282211939178345 -0.0965620916553702 0.241666666666665
0.279811625098105 -0.0832938681324448 0.241666666666666
0.28773250226319 -0.0660318368777004 0.241666666666666
0.280856368276695 -0.0694966476594438 0.241666666666666
0.285884950886568 -0.0606695577113246 0.241666666666666
0.285192953019016 -0.0398567508953762 0.241666666666666
0.283822524037109 -0.034764739319701 0.241666666666666
0.292729184996851 -0.0210582408444447 0.241666666666666
0.287670032253765 -0.0103482591207007 0.241666666666666
0.286589702876534 0.000330901224677598 0.241666666666666
0.291344667448493 0.00364914646641793 0.241666666666666
0.292248317786429 0.0213061617840189 0.241666666666666
0.293716198467339 0.0310212356914663 0.241666666666666
0.297502691770774 0.0384940985948808 0.241666666666666
0.291194713955213 0.0468675470700322 0.241666666666666
0.295272480837845 0.0624089168613502 0.241666666666666
0.300493842883382 0.0785347502228664 0.241666666666666
0.300146040123307 0.0873941369562932 0.241666666666666
0.300285473335473 0.0986480686898384 0.241666666666666
0.298581511411867 0.113105424564518 0.241666666666666
0.29945049368656 0.129078546958938 0.241666666666666
0.304836842387615 0.133871809775297 0.241666666666666
0.30685430544508 0.150004757813915 0.241683913742096
0.308609312761795 0.152441423653483 0.25051682741053
0.305420693802701 0.152965719146118 0.252417398571331
0.30644161222695 0.156192799810237 0.264115565978765
0.304603725720677 0.160243532818856 0.278799473135008
0.302484259597919 0.161250152925682 0.282448471022252
0.310292473726033 0.163728549561475 0.291432658827
0.309783673817806 0.166025420286211 0.29975881520417
0.304033407331226 0.16753137689053 0.305217907894827
0.302432821486579 0.170966131254494 0.317668892464195
0.308727308548234 0.172478874043764 0.323152585075302
0.306106826166681 0.17510541962097 0.332673812792672
0.305062488945582 0.178516622134695 0.345039421904925
0.31110280202995 0.179026725971883 0.346888548314728
0.312513345463057 0.182222032290809 0.358471533720834
0.310037335584978 0.182546122415619 0.359646360423273
0.308586167142994 0.185257548695189 0.369475280686714
0.308870984053148 0.188318769767618 0.380572207074273
0.30729872316347 0.190048392951296 0.386842091115106
0.305789445591075 0.194058122985965 0.401377362490779
0.305367374637234 0.196844767554617 0.411478949052143
0.304381971381395 0.200336141639038 0.42413518010817
0.310345776790428 0.199886552722357 0.422505420285199
0.314831833235583 0.203162496480888 0.434380716409875
0.306838730878726 0.20523048344295 0.441877169147353
0.305616503375445 0.206985832867975 0.448240310813065
0.310092657127096 0.211645199960379 0.465130516523027
0.310970590420083 0.213090858856297 0.470371030020729
0.315667631175407 0.218790858788026 0.483333333333331
0.315310569413261 0.226533272918668 0.483333333333331
0.310239747837852 0.235974903861358 0.483333333333331
0.311159901874672 0.260502014522112 0.483333333333331
0.313679663230255 0.266936809284741 0.483333333333331
0.275117527195424 -0.250277868105006 0.241666666666666
0.273027547040586 -0.244452189517954 0.241666666666666
0.278563239773705 -0.233600350902763 0.241666666666666
0.280859457264814 -0.220591873394745 0.241666666666665
0.280780516691833 -0.221165069027197 0.241666666666666
0.280607081079159 -0.210415749770663 0.241666666666666
0.283138803655916 -0.195743232780246 0.241666666666666
0.277105439983513 -0.186337734661043 0.241666666666666
0.285116821156422 -0.173379361804295 0.241666666666666
0.287252061683813 -0.166637430742618 0.241666666666666
0.283248206234668 -0.157970351012318 0.241666666666666
0.286353110946076 -0.150717293396117 0.241666666666666
0.285160240085989 -0.13576097606152 0.241666666666666
0.290909884719135 -0.130344456465686 0.241666666666666
0.287640730148886 -0.115126551402044 0.241666666666666
0.289797093204922 -0.099227883490742 0.241666666666666
0.287509077486216 -0.0982093824381744 0.241666666666666
0.296115356424105 -0.082443849837734 0.241666666666666
0.297248420357084 -0.0711797179321758 0.241666666666666
0.289987298357568 -0.0657256561874577 0.241666666666666
0.299784420874567 -0.048553393398279 0.241666666666666
0.293051897753459 -0.0418286659811573 0.241666666666666
0.294790647448254 -0.0298489747540658 0.241666666666665
0.298792385686925 -0.0258278347328098 0.241666666666666
0.301500905528401 -0.0102224687869276 0.241666666666666
0.300395462375032 0.00442041371173578 0.241666666666666
0.305742942544249 0.00748520200123131 0.241666666666665
0.307451818276765 0.0209499079184975 0.241666666666666
0.299264710709787 0.0332222091293992 0.241666666666666
0.30416118446045 0.0377016246294449 0.241666666666666
0.302644795409622 0.0524459136456127 0.241666666666666
0.309314393657483 0.0563578963145445 0.241666666666666
0.31074342231429 0.0757098937001079 0.241666666666666
0.313767962672401 0.0930454905353289 0.241666666666666
0.3075498186015 0.0981225744514116 0.241666666666666
0.312175980740948 0.10178299078219 0.241666666666666
0.30996479648519 0.123983719871762 0.241666666666666
0.318414476818527 0.136250295789014 0.241666666666666
0.311846919707436 0.140398681691384 0.241666666666666
0.315143186767043 0.153385021250195 0.253937368698611
0.315422428779526 0.155665769385161 0.262205080687864
0.31054305798205 0.157651075958039 0.269401817014548
0.316694049621462 0.158492246996545 0.272451062029129
0.310944691792427 0.161180608495332 0.282196372462233
0.313354334101855 0.16465856288911 0.294803957139675
0.316433210286376 0.165953630394517 0.299498576846776
0.315530787254748 0.168147782722621 0.307452379036156
0.316811956122579 0.171699992928137 0.32032914103115
0.320941445789054 0.172189459118103 0.322103455969779
0.31289666065349 0.174243131555282 0.329548018554549
0.31722691485577 0.178016091156742 0.343224997109843
0.323456608971085 0.179830951861594 0.349803867164932
0.319550648013994 0.180631999454672 0.35270766468984
0.320980216883677 0.184690541176691 0.36741987843216
0.315668619803506 0.188136720768113 0.379912279451061
