ply
format ascii 1.0
element vertex 890
property float x
property float y
property float z
end_header
0.466443535751004 0.0951961659036633 0.53473805875321
0.458401493106183 0.0921179475187326 0.5361560878515
0.453702334290279 0.0759129938826896 0.536984676337378
0.449573787689002 0.0763720276680385 0.537712650494296
0.44623785500257 0.0710996760620288 0.538300865432741
0.433824329292068 0.0607269070364155 0.54048970494122
0.437010351552683 0.0604005637650851 0.539927923255537
0.424534439129213 0.0454642875764942 0.54212776322475
0.420063088204403 0.048087782479961 0.54291618303301
0.402074855759989 0.0234076514501017 0.533298402064469
0.394742728682073 0.0112840398658746 0.529065196522302
0.396307936512195 0.00347443848016542 0.529968869684361
0.282960636493561 -0.120839251667152 0.392544570284397
0.28665004700024 -0.127090545920861 0.392544570284397
0.284394441520201 -0.129516438543672 0.392544570284398
0.271454018422645 -0.141984390177943 0.392544570284398
0.263122148538161 -0.156354618466909 0.392544570284397
0.259111892030638 -0.153562481364183 0.392544570284397
0.250307643395966 -0.162226074104812 0.392544570284398
0.242331238748985 -0.170863151287208 0.392544570284397
0.237780245896651 -0.185389483401905 0.392544570284397
0.219386454989483 -0.205995698128164 0.386003399433413
0.218197081827327 -0.203652809055633 0.38678436245759
0.20693056325283 -0.224591529835181 0.379804788864407
0.200803704056894 -0.224396712889474 0.37986972784631
0.422479951223973 0.0302616112037292 0.316460940189014
0.422307974745542 0.0259710207575483 0.314429405152856
0.422808509622262 0.0265928889436039 0.320342156409059
0.5 0.126352726489933 0.460303503342886
0.5 0.123515571576034 0.46497965299145
0.5 0.127452477556333 0.485137915317732
0.5 0.125690689818507 0.48832249157332
0.5 0.124021100304832 0.486161967200803
0.498889222680282 0.122609118672571 0.4976798578166
0.495334044033053 0.117386929801982 0.50191675474175
0.490472830583209 0.113013234643753 0.50771012333497
0.490172503646402 0.107865283322228 0.508068039040862
0.484380398611149 0.102892687882478 0.514970801025308
0.479657708424251 0.100621982941681 0.520599084022253
0.480955958402583 0.0995434493988082 0.51905188994649
0.476551168542912 0.0982132137923558 0.524301314086376
0.474495964983045 0.0965260003085197 0.52675061031236
0.469714482856499 0.0886835877701187 0.532448958814595
0.45943937412776 0.0766794482289526 0.535973081424631
0.458881134303157 0.0766564119332403 0.536071514167414
0.457621175193954 0.0741677962456289 0.536293678952956
0.448685645626255 0.0603823590855347 0.53786925390266
0.442598644893709 0.0609669085703358 0.5389425563634
0.440397628426966 0.0537836027918281 0.539330654951471
0.43035321875872 0.0442241536838791 0.541101755381271
0.426906194850101 0.0308716203838737 0.541709558699508
0.421064858357457 0.0348531055053231 0.542739543926558
0.419144196989871 0.0219183755240955 0.543078208346468
0.406995151683217 0.0089040770437323 0.536139136240238
0.386855727233852 -0.00766880866831481 0.524511634113072
0.381661177401616 -0.0239775649944049 0.521512559369112
0.281892691995337 -0.135236376213696 0.392544570284397
0.280760563529775 -0.141268775485228 0.392544570284397
0.27722005356425 -0.150234076500816 0.392544570284397
0.262775800334774 -0.168476295969285 0.392544570284397
0.257952406544357 -0.174845157713757 0.392544570284397
0.251606132026554 -0.181179811549446 0.392544570284397
0.244636749985664 -0.192811474984266 0.390398140481379
0.225815764436633 -0.213257914382382 0.383582660682007
0.2267033941811 -0.212928569622872 0.38369244226851
0.42112153914456 0.012763600852063 0.300414200785687
0.422123826451757 0.0186591349591161 0.312254086097077
0.423208620626884 0.0162437794829704 0.325068613955257
0.5 0.114183019838417 0.451823889392261
0.5 0.109988185393907 0.46149132865758
0.5 0.1120089322949 0.46661859828843
0.5 0.108882148618811 0.473635686732543
0.5 0.111344108305153 0.482879628569068
0.5 0.111430363796351 0.489591331362783
0.494724252334329 0.114107755828042 0.50264347618944
0.494681611273308 0.110433119519267 0.502694293827103
0.491804389451965 0.0966484020465487 0.506123233269379
0.491905943515135 0.098237303403603 0.506002205849754
0.483211511410474 0.0949008046002477 0.516363826546049
0.48051251262968 0.0899107311530047 0.519580368039468
0.47922972020536 0.0884413250466967 0.521109140519703
0.476352271880419 0.080532687597425 0.524538349898456
0.470915272102582 0.078148968851954 0.531017913916628
0.469399303758254 0.0773170221377249 0.532824574637241
0.469028098034119 0.0682633400819841 0.533266960392569
0.457004482197692 0.0688237760991634 0.536402418567011
0.45711823837951 0.0511581683356924 0.536382360282935
0.451988798053497 0.0534757666631623 0.537286819008344
0.445712046527356 0.0394446476833915 0.538393579653606
0.43651683175192 0.0366912084375513 0.540014944111925
0.432155833908695 0.0254507678005293 0.540783905694497
0.430669054267772 0.0285158959788956 0.541046065059559
0.421241871696044 0.0152152355045749 0.54270833169902
0.418411380922789 0.00843656848467395 0.542730299264835
0.402812121183922 -0.0071616414813939 0.533724062455441
0.397576808341628 -0.0205981696415805 0.530701453176651
0.390588224172377 -0.0286393988680612 0.52666659222528
0.284916634095051 -0.153503080801641 0.392544570284397
0.278498825231433 -0.164144164703738 0.392544570284398
0.267860477592076 -0.169089303388 0.392544570284397
0.268698862293352 -0.181799435306852 0.392544570284398
0.259331598190783 -0.189430585712075 0.391525103572109
0.237474712508516 -0.210189585801033 0.38460543687579
0.234718371006408 -0.21260640126054 0.383799831722621
0.231431986053438 -0.222375259299209 0.380543545709732
0.419927275977649 -0.00219904512791937 0.286306530433762
0.421064388955202 0.00171723651972355 0.299739093276422
0.422080410808755 0.00111853938554098 0.311741222938805
0.422733300454788 0.00215124207544326 0.319453720617389
0.5 0.10123753055307 0.448627907524842
0.5 0.099551964219412 0.452947004692526
0.5 0.100614324851963 0.467112826184622
0.5 0.0996283376706511 0.478247201642157
0.5 0.0923957967965993 0.481769761602402
0.5 0.0973562962877695 0.489523473962516
0.499471182834083 0.0920844770488046 0.496986304712562
0.497021328017759 0.0965112145987407 0.49990592799125
0.492842852552955 0.0859084850436671 0.504885641137997
0.486721697879603 0.0902815373708412 0.51218054921079
0.483902492124228 0.0779519196934604 0.51554034779802
0.483986979808866 0.0794862524990551 0.515439659296323
0.478349712712872 0.0734829874278176 0.522157892610387
0.473460859206787 0.0747967148024222 0.527984201339931
0.469396898869396 0.0691668522118988 0.532827440672176
0.468605874420634 0.0650859907090053 0.533770146900819
0.463670832304728 0.0581307309064639 0.535226961180292
0.455937980838135 0.0430196068318831 0.536590471531664
0.452951082125811 0.0462629664275702 0.53711714236329
0.44887918151501 0.0300041015466507 0.537835128303737
0.445856037336586 0.0264931908618317 0.538368190188965
0.440963252677434 0.0232723961831858 0.53923092013517
0.436430612760724 0.0173616707380318 0.540030146846322
0.421866628157828 0.00955520274829821 0.542598170278436
0.422337423269589 0.002878165673565 0.542515156397846
0.414968938707642 -0.00778895584326414 0.54074280432525
0.408887359449804 -0.0227825604337617 0.537231602903639
0.392361751344123 -0.0316826708166781 0.527690538615302
0.287227368351281 -0.165358455750764 0.392544570284397
0.285260688042162 -0.171498989385526 0.392544570284397
0.278406478777136 -0.184532604053916 0.392544570284397
0.269798543925091 -0.187031930610539 0.392324655272621
0.261101475365432 -0.195246068599822 0.389586609276194
0.244594203880907 -0.213080463678655 0.383641810916583
0.237805763570276 -0.221726528469424 0.38075978931966
0.419456593217898 -0.0108197316111455 0.280746418224929
0.420166923223755 -0.0135132022207577 0.289137451157506
0.421555843104118 -0.0111756363099276 0.305544575115008
0.420904008029624 -0.0216189367383039 0.297844534948347
0.5 0.0906272002743328 0.450358037102549
0.5 0.0851039711247145 0.447105659622884
0.5 0.0785628055801861 0.453362623184374
0.5 0.0902596854174383 0.465294942886664
0.5 0.0844934945018898 0.473665759788362
0.5 0.0870251112479785 0.482881533614114
0.5 0.0936619732810028 0.49483577606345
0.495040687613554 0.0858645409123346 0.502266363308599
0.492059349326017 0.0757266187907098 0.50581938392351
0.493505303822863 0.0782051804095444 0.504096162457166
0.487407457552661 0.075565129493927 0.511363292656766
0.485011159118839 0.0668954496751734 0.514219089924202
0.485083935565091 0.0662204814494174 0.514132358332923
0.478289915487028 0.0644871327082724 0.522229156169113
0.477607023668346 0.0571402587901896 0.52304299494738
0.473124924445899 0.0532200608990072 0.528384552798096
0.471377846832004 0.049137430449658 0.530466638820996
0.465372029913118 0.0440152353478857 0.534926994142416
0.457293018778679 0.0379312044292758 0.536351541782862
0.451272844406762 0.0223433062339892 0.537413060953201
0.450442096912665 0.0171473993054346 0.537559544150566
0.43933682125216 0.00949779479473282 0.539517703877718
0.436771960886759 0.0114234176937729 0.539969957961888
0.435184902287274 -0.000438513412120321 0.540249799212942
0.4254895481606 -0.00495354132686597 0.541959351732998
0.42400513843239 -0.00928935589750366 0.542221093218508
0.405773830671342 -0.0330884146475751 0.535434006225265
0.401453238990308 -0.0302314313300653 0.532939511455161
0.401439418353803 -0.0427344930770851 0.532931532106955
0.38904536849828 -0.0595547406217093 0.525775824086519
0.376138925687597 -0.0687504350517221 0.518324285855491
0.27853033164628 -0.20039357430643 0.387870774040658
0.266540012445697 -0.210151042562204 0.384618284622067
0.255403321770684 -0.221687006135655 0.380772963430916
0.248275167523169 -0.225930647088518 0.379358416446628
0.417437907761728 -0.0385936037231596 0.25689995812391
0.418984157853688 -0.0289166911291451 0.275165602735067
0.420267110396537 -0.0209150350961684 0.290320948770304
0.420323323782759 -0.0347402810675653 0.290984989949972
0.421753614663719 -0.0244718719940218 0.307880823979695
0.422635742375412 -0.0195950292068443 0.318301280131788
0.5 0.0754245268627177 0.456349596899227
0.5 0.0776698027915649 0.463340833635806
0.5 0.0676671385217829 0.461497316029746
0.5 0.070127546687434 0.475274447244489
0.5 0.0731239552916768 0.478583525071732
0.5 0.0668251616350485 0.489543893910063
0.499119445251665 0.0730543125641196 0.497405489240059
0.494049207722381 0.0676182219728043 0.503447963030889
0.491563674341107 0.0604067586669075 0.506410106367537
0.489886534991983 0.0633602849086692 0.508408843212135
0.484605453232731 0.0537919475618171 0.514702591371508
0.480978256568838 0.0447894739112379 0.519025316026747
0.47943884491164 0.0485476103665806 0.520859915399694
0.477270128123295 0.0357808984967222 0.523444491423525
0.47501877480544 0.0401978610507914 0.526127549828276
0.470489175793948 0.0293482062087555 0.531525715723234
0.463636310077092 0.0236737769674375 0.535233048380458
0.458934874848821 0.026057748669229 0.536062038259256
0.45442693907586 0.0119730210747639 0.53685690896333
0.445822426963069 0.00938363652128382 0.538374116604648
0.443904198080028 0.00373129760044051 0.538712352111902
0.440214993920515 0.00141680245640536 0.539362858342566
0.433724802820276 -0.00947991857078011 0.540507254143492
0.423774863425305 -0.0223576546740471 0.54226169691524
0.41926236477647 -0.0251215637197587 0.543057372177439
0.404538207139815 -0.0422005659907581 0.534720618646721
0.409187687282408 -0.0448362727855817 0.537404997258639
0.389237017862577 -0.0652770150607343 0.525886472898586
0.376884515504544 -0.083026039868582 0.51875475233701
0.278784487049731 -0.200857191689709 0.387716234912898
0.263555708394977 -0.225135470822651 0.379623475201917
0.264034103566628 -0.220555355578377 0.381150180283342
0.417144985681033 -0.0469814539874297 0.253439708936176
0.417457196735248 -0.0493108048549674 0.257127816176794
0.417941552369825 -0.0492527590932733 0.262849444219112
0.419646946953488 -0.0421792633220722 0.282995041331092
0.421280976310769 -0.0428305576957771 0.302297610611126
0.421237394468989 -0.0502800466147674 0.301782784169006
0.422903275653629 -0.0374389715619206 0.321461614806619
0.5 0.0600416236932035 0.453669908178752
0.5 0.0630775460998893 0.458682310286988
0.5 0.0505263334142185 0.453631458476009
0.5 0.0588133715783091 0.471545950017168
0.5 0.0604537562973991 0.478519279189013
0.5 0.0544573919201733 0.489883343513489
0.499494952181611 0.0622564355872235 0.496957977507253
0.497857150106576 0.0504224950059767 0.498909834014134
0.489692172122674 0.0532904489683572 0.508640475859902
0.489735843098294 0.0486267510858522 0.508588430817815
0.48736839728444 0.0380281283805945 0.511409842871747
0.484088218083005 0.033229407270842 0.51531900821941
0.476359067719458 0.0361392364787828 0.524530250932868
0.477807227126115 0.0235719886920728 0.522804401757335
0.476285257799506 0.0219387055628715 0.52461821417014
0.467094058187861 0.0221178720890578 0.534623354096036
0.469458228058336 0.0145398452700439 0.532754351390926
0.463924807784593 0.00551229093876796 0.535182178450754
0.454323770861491 0.000624098766202422 0.536875100303075
0.450158364517447 -0.0131143999312756 0.537609573827144
0.440179881565622 -0.00962548082130251 0.53936904959809
0.44051346982215 -0.0167799093173316 0.539310228988016
0.430796513570629 -0.0273363456808988 0.541023590545524
0.42341946687773 -0.0330391863438633 0.542324362915428
0.426782344240746 -0.0422241881779334 0.541731396903514
0.407064864189218 -0.0607956784964415 0.536179384774343
0.413500772281127 -0.0562927933411833 0.539895158043686
0.394410239953826 -0.0753731889546957 0.528873234065546
0.381767412808613 -0.0837190657573533 0.52157389440994
0.272718859873899 -0.221799933971232 0.380735320819057
0.416927964187088 -0.0543431937589356 0.250876063183147
0.417378474724976 -0.0609586988007987 0.256197883645069
0.417432732051462 -0.0675349890420944 0.256838818153844
0.419118041993247 -0.0573322070840169 0.276747158089522
0.419342788985207 -0.0586558484301607 0.279402064112753
0.420792434038025 -0.0596788510140368 0.296526526374569
0.421933041396882 -0.0493621269742561 0.310000367874141
0.42191274204343 -0.0562009168633802 0.309760574338851
0.5 0.043373790430005 0.446930950362282
0.5 0.0447731583605266 0.454559333723362
0.5 0.0415326672916167 0.459478999529427
0.5 0.0416499320008983 0.473669836349163
0.5 0.0467157825525187 0.489791885088077
0.5 0.0414334566067082 0.494744623475024
0.499029785907949 0.0453860035410665 0.497512341085043
0.493424229539735 0.0425628610701454 0.50419278302535
0.495877107360798 0.0344387144859039 0.501269557069905
0.489564074270127 0.0340984697593054 0.508793136935878
0.488916761020968 0.0223604181786565 0.509564574826097
0.480982158624007 0.0285939222336891 0.519020665738481
0.483565602113771 0.0186387070236705 0.515941837678291
0.479049075744211 0.0104022834029751 0.52132442420526
0.474971022265627 0.0109198544413054 0.526184459089155
0.467496303638538 0.00547920119675993 0.534552427370215
0.466169671459995 0.00191097271841212 0.534786348416768
0.459673446928839 -0.00386407409006926 0.53593180807435
0.457436577463687 -0.00935514438559514 0.53632622851338
0.452941594535733 -0.01664288770111 0.537118815281402
0.448788975547307 -0.0292683296063466 0.537851034049664
0.440239355066528 -0.0346311828629713 0.539358562815243
0.435102131782388 -0.0432437926730688 0.540264393886161
0.42594698638227 -0.0516690077862533 0.541878693032511
0.424048907182818 -0.0506407224972251 0.542213375606895
0.402653441756147 -0.0717876666096986 0.5336324488451
0.405538926095336 -0.0727433924347633 0.535298384005074
0.392943483572893 -0.100007644527428 0.528026401874179
0.378421093755284 -0.116246616122593 0.519641896203705
0.376168620602446 -0.120971263126381 0.518341430222573
0.415784618620885 -0.0718446744644623 0.237369875608056
0.415449611159344 -0.0757012214004697 0.233412477470187
0.416865300076048 -0.077729533149789 0.250135820457805
0.416599785491598 -0.0853150392823722 0.246999332341254
0.41814857615549 -0.0779317246028801 0.265294988387348
0.41925467198746 -0.0811635370090642 0.278361149856113
0.42061498767312 -0.063286832476844 0.294430376304309
0.421360115606554 -0.0659550019804148 0.303232472480563
0.421714751413451 -0.0754886946375465 0.307421737625212
0.5 0.0337608660812025 0.448892795311509
0.5 0.0308355960705899 0.461136155685832
0.5 0.0329308225092541 0.467296096396545
0.5 0.0254891160063551 0.471050635186112
0.5 0.0256283148962136 0.477869257669387
0.5 0.019982038906983 0.482741414094585
0.497691598116847 0.0292911010487484 0.499107131192653
0.49593485160534 0.0273076020596449 0.50120074015902
0.492105169733284 0.0218896698701437 0.505764777288537
0.488007004350874 0.0154301296667898 0.510648780606068
0.485918738717348 0.015738173138142 0.513137478677113
0.482423530798319 0.00606724034571809 0.51730290527148
0.481146459729408 0.00362758001580264 0.518824859305853
0.474247182474019 0.00230988119425851 0.527047097761265
0.475311184327997 -0.00689226054403744 0.525779069729261
0.468997597433429 -0.00583463780495499 0.533303309593017
0.466988011230698 -0.0116008186036719 0.534642053035806
0.462508897099108 -0.0175217717138798 0.535431841706878
0.455134453627456 -0.0272399044441574 0.536732155058639
0.446922057924688 -0.0387801237293572 0.538180221997292
0.449391500330226 -0.0406848566169715 0.53774479267389
0.441001569659553 -0.054727294115344 0.539224163817403
0.433901429115458 -0.0549023368394586 0.540476110162149
0.429679592964943 -0.0677690454469249 0.541220533783615
0.420599309641258 -0.0656972823727594 0.542821632726058
0.412750764880611 -0.0823146702774187 0.539462141069104
0.407739023562833 -0.0919268674989775 0.536568610870177
0.395747520164069 -0.0991951462191009 0.529645313154912
0.382511390430713 -0.12117733753463 0.52200343009033
0.379157908454431 -0.13313551101484 0.520067296368601
0.413616252657204 -0.104886575788449 0.21175525978007
0.415209716053145 -0.0951307878603542 0.230578628808461
0.415925868630814 -0.0873850557274354 0.239038442999645
0.41728358907535 -0.0841052930664807 0.255077012213096
0.418224590523397 -0.0839674800387751 0.266192935903562
0.418582478620419 -0.0908356074174034 0.27042061991455
0.420015055609569 -0.0829068978988165 0.287343459433199
0.419460324237496 -0.0920266000151495 0.28079049225821
0.421046147350947 -0.0868986730475628 0.299523607655961
0.421703483377021 -0.0953958240801463 0.307288629824629
0.422415553910554 -0.0938136637631213 0.315700223376813
0.5 0.016318403249102 0.449128701693465
0.5 0.0131013341743925 0.464226939787014
0.5 0.0138733414568923 0.466930336177632
0.5 0.0167626913216255 0.481493676224373
0.5 0.0135249631032754 0.482292207326859
0.497039156618724 0.0173053230392903 0.499884680692
0.49385809636961 0.00770731836646808 0.503675720672139
0.493858774800757 0.00387268706521947 0.503674912149383
0.49313843519652 0.00555858670326916 0.50453337946062
0.48673782937387 -0.00500194795144444 0.512161324444542
0.481667994233744 -0.00505557238731368 0.518203318686649
0.479848891386169 -0.0113734771129624 0.520371241040544
0.478813058832493 -0.0104103942357328 0.521605698207714
0.473689139634316 -0.0202327941628813 0.527712147320303
0.472115863823259 -0.0182988999047812 0.529587104420272
0.465211093789612 -0.027736829004678 0.534955371523161
0.456275807271085 -0.0386314720169156 0.536530903616738
0.456019258319243 -0.0474514008113975 0.53657614011882
0.449615699831477 -0.046325775046836 0.537705260252758
0.44785896170798 -0.0558938730196249 0.53801502058197
0.443470819023716 -0.0572582898375047 0.538788768532404
0.438222399911938 -0.0653134219663732 0.539714206427877
0.430436266833837 -0.0830582173950876 0.541087111764933
0.416378903013737 -0.0921984860240168 0.541556847596921
0.41872493955949 -0.0945290628322715 0.542911332428141
0.412462790434789 -0.103878609643316 0.539295878945289
0.402845680841588 -0.112960711755859 0.533743438132828
0.39295472280132 -0.127355026281272 0.528032890845737
0.376361831887105 -0.150695892912347 0.518452980809781
0.411708740228946 -0.11804012321227 0.189222071722649
0.413768140510813 -0.107539386084826 0.213549490589947
0.414473710184467 -0.111230634055512 0.221884290357716
0.41495663736731 -0.1182940029035 0.2275890442916
0.416129361888718 -0.110069843949363 0.24144228151772
0.417800694542698 -0.107972715832543 0.261185509630286
0.418088624115081 -0.106075045136034 0.264586782988029
0.41908521660019 -0.104230446554336 0.276359396131144
0.4198602396031 -0.108379219569984 0.285514638746959
0.420892109563206 -0.10065826724358 0.297703979963002
0.422212186988574 -0.100938695108486 0.313297877248031
0.5 0.00286453174215237 0.447272016411488
0.5 0.00781200499262266 0.456648869165783
0.5 0.00317121556656246 0.462670648500901
0.5 0.00279289101865202 0.468169345885033
0.5 0.00509295397319059 0.47443004796063
0.5 -0.00489758084380356 0.483546396094024
0.5 -0.00421557353012989 0.492771381598168
0.4998830144613 0.000471734556232687 0.496495502891283
0.493158326268146 -0.0123677504027366 0.50450967420455
0.490886379818197 -0.014018639348499 0.507217274548457
0.486063906329636 -0.0134214858484587 0.51296447465364
0.483405222130388 -0.0197542690269964 0.516132971099667
0.481623223280187 -0.0181304953301024 0.518256674631394
0.478019351492468 -0.0259626604648094 0.522551601781657
0.470857247920327 -0.03054459359938 0.531087064444287
0.472037741364794 -0.0411387854491918 0.52968020714081
0.46548930150399 -0.0437202198272655 0.534906315996875
0.462098434708354 -0.044621780648871 0.535504217300934
0.45333593689757 -0.0562723345042242 0.537049282083374
0.448637603041967 -0.0626718376190906 0.537877725106493
0.444226050307277 -0.0632577938655483 0.538655600880437
0.436246882994003 -0.0812046133838753 0.540062543361354
0.43268751579155 -0.0841551997531541 0.540690155833396
0.430170460912494 -0.0937662737575519 0.541133980520497
0.426414029539766 -0.0974447171289691 0.541796340722689
0.419525831776941 -0.104232382622852 0.543010915836731
0.399815195875176 -0.122167413667347 0.531993786821695
0.398043568528113 -0.137904329756676 0.530970937295965
0.379199962398647 -0.151785637021676 0.520091576224614
0.411609739557956 -0.132900080306314 0.188052590096125
0.412678829202398 -0.132968053200948 0.200681602443086
0.413260286729181 -0.122234195989325 0.207550282093247
0.414139054664455 -0.126845853649845 0.217931049657855
0.414853279416049 -0.126291114685964 0.226368090698592
0.41731962071324 -0.113314237143547 0.255502649110949
0.416867492577177 -0.129427491400411 0.250161720179095
0.418441490339248 -0.119088424990749 0.26875514428962
0.419942286844508 -0.112252216782737 0.286483851787387
0.420330936914325 -0.118761805282994 0.291074922850403
0.420511807626789 -0.116892589646869 0.293211524278342
0.422197054768268 -0.10954450838737 0.313119122362441
0.422688576414047 -0.116646869032078 0.318925401532394
0.5 -0.0125535628521407 0.451677424341073
0.5 -0.0112405104813422 0.464480072059007
0.5 -0.0113003062107217 0.468864801920371
0.5 -0.00705744424169742 0.48317842726434
0.5 -0.020399880245882 0.484785525102605
0.499837134420725 -0.0130160464644283 0.496550180594466
0.494662369767217 -0.0186984453122685 0.502717224961114
0.494247160202097 -0.0253915164517623 0.503212052452025
0.492330598640013 -0.0290610926559534 0.505496121579067
0.487346688023165 -0.0321030628421961 0.511435714961864
0.483237566521227 -0.0384701337600487 0.516332775274205
0.4837772612077 -0.0361236264489318 0.515689592192697
0.480545736528255 -0.043696656972016 0.519540773338981
0.476168529861508 -0.0444558128155199 0.524757325109605
0.470850870083038 -0.0560478848274523 0.531094665254791
0.469476027494449 -0.0557677050394602 0.532733138848993
0.459530676517293 -0.0666031306641509 0.535956982349954
0.455928203418361 -0.0699311674612921 0.536592195554572
0.450517940399014 -0.0727917621786207 0.537546170897612
0.446638212609338 -0.08733496694797 0.538230271584735
0.441684130262208 -0.0922534455286979 0.539103809967187
0.436008603545546 -0.096494515832603 0.540104558457066
0.430846786546444 -0.109406538703687 0.541014726063487
0.424532976052186 -0.10766032408185 0.542128021204705
0.419209809431665 -0.118586859794131 0.543066639102709
0.415243283412465 -0.133024634836572 0.54090119731443
0.390486895010814 -0.157095485908467 0.526608089806574
0.411002259772239 -0.141104882987339 0.180876512997039
0.412270868651613 -0.141882325283134 0.195862419262592
0.412083746001078 -0.145237070295069 0.193651964530102
0.413081766814116 -0.145388517845256 0.205441450319168
0.415069839601707 -0.138455739206873 0.228926287078811
0.415567089111398 -0.141755763614697 0.234800228735664
0.416179845557268 -0.143537894739886 0.242038638312268
0.417898761149946 -0.134860040991314 0.262343957287311
0.417552523402105 -0.141526433089273 0.258253897286073
0.419681184919644 -0.131023527318702 0.283399489825725
0.420186577212642 -0.128350597516302 0.289369621087887
0.420808728886276 -0.130981608244585 0.296719015227887
0.421792000839947 -0.133966437325217 0.308334274722625
0.422563357829861 -0.126899198563993 0.317446211219422
0.5 -0.0312360177999854 0.446888710970188
0.5 -0.0331189374496248 0.454895831614697
0.5 -0.025737090319555 0.473244706153657
0.5 -0.0293831582017337 0.479019816983694
0.5 -0.03664787925077 0.481341252572545
0.5 -0.034573066601121 0.486439135584111
0.499701779017772 -0.035483111933039 0.496711490882213
0.49633436922172 -0.0390276244913408 0.500724613604394
0.489969284923661 -0.038802798651137 0.508310225683771
0.487676240261363 -0.0378535246791014 0.511042969898044
0.481117531404357 -0.0506719932818026 0.51885933474116
0.482128617599935 -0.0563050850143393 0.517654369135157
0.477472599509059 -0.0599954818094115 0.523203195422142
0.475090950147745 -0.0646150596316211 0.526041534604788
0.471666752530723 -0.0659379407601192 0.530122334416626
0.468194282386855 -0.0739196717425053 0.534260663185757
0.45641225438814 -0.0816419339689825 0.536506844308562
0.452603735845016 -0.0848073682665167 0.537178388884242
0.452408856263265 -0.0938871445879057 0.537212751412494
0.448683199698277 -0.1017696869555 0.537869685185755
0.438483208790293 -0.106070767991022 0.539668218785814
0.429927866194507 -0.120007487880182 0.541176756514655
0.431358484953592 -0.123471703954503 0.540924499828321
0.423468607972298 -0.129591250321009 0.542315698014594
0.410773837570761 -0.148200516651904 0.538320761554594
0.406145323120863 -0.146946428329714 0.535648487490998
0.392958574491093 -0.166318168993918 0.528035114619864
0.390937671032957 -0.183222059952431 0.526868345464303
0.409297623362741 -0.171803422767466 0.160739872094614
0.409824981730288 -0.169914888119112 0.166969485644468
0.411420782091067 -0.158756212122255 0.185820460924545
0.412943388425503 -0.154416194042608 0.2038068050044
0.413231463673305 -0.160621892339053 0.207209799206301
0.414476819912432 -0.161958497746081 0.221921025156396
0.414795662968522 -0.162336552305864 0.225687475344218
0.415236839954067 -0.165731129211838 0.230899039806204
0.417032198653544 -0.151912131015322 0.252107370932397
0.418193680910601 -0.1446377670338 0.265827804800042
0.418122535848421 -0.155025950451132 0.264987377738232
0.419290395645243 -0.152879533884673 0.278783148626344
0.421345742192105 -0.140190580372683 0.303062681266608
0.421070044561537 -0.150761465449348 0.299805902194274
0.422654318709998 -0.136660236392889 0.31852071987668
0.423027494816854 -0.146312416410513 0.322928999094032
0.5 -0.0495062924494138 0.450463925080945
0.5 -0.0439041590970043 0.468169571506621
0.5 -0.0374787050478709 0.474109035053526
0.5 -0.0426297870955047 0.490037204671042
0.5 -0.0444333800047323 0.485649326498972
0.497293727373905 -0.0413851415666044 0.499581295079943
0.493668571557171 -0.0507350559178017 0.50390158754825
0.493107478139715 -0.05040326963786 0.504570272644284
0.490512870839364 -0.0611382638548262 0.507662405215848
0.483703180358256 -0.0632076441083989 0.515777878311162
0.481227347295638 -0.0672012215619567 0.518728461258201
0.478678169902945 -0.0785847015482726 0.521766452574104
0.473824489009038 -0.0736807221449442 0.527550844216723
0.469242780073484 -0.0821536951470377 0.53301111230089
0.469090903949046 -0.0798631543547041 0.533192111217819
0.461660820231693 -0.0996441978630618 0.535581380540318
0.453275968836059 -0.104275102014709 0.537059856070599
0.450910567697019 -0.104358020248812 0.53747694011161
0.443257391546884 -0.115797692131249 0.538826401554994
0.440455072757406 -0.126427891083388 0.539320525966125
0.432571299537801 -0.125667534703554 0.540710647894528
0.426147547554408 -0.138710838639232 0.54184332868658
0.427093991085492 -0.144139670858727 0.541676445156333
0.419528993164052 -0.155144460517125 0.543010358398887
0.40696862478828 -0.165412538229782 0.536123820930305
0.39785770444401 -0.183803644657097 0.530863628616976
0.409132318098099 -0.178665113292764 0.158787143210712
0.40971233341387 -0.178488080063165 0.16563878621593
0.410783793613069 -0.178876381474061 0.17829580160778
0.410592437226843 -0.183703328650889 0.176035334324345
0.411914801758908 -0.179356224282084 0.191656248893536
0.413500090315621 -0.173195005270313 0.210383049644347
0.41376423842217 -0.178181383349671 0.213503395741031
0.415272216438397 -0.17085680165461 0.231316937463065
0.415889757321949 -0.177761413462259 0.238611864959264
0.41700192486313 -0.167507487115221 0.251749750713257
0.41788945370363 -0.170694179596388 0.262234009674358
0.419703682656128 -0.164837158460376 0.283665252564432
0.420272438359159 -0.159375994532026 0.290383887276986
0.420386207015447 -0.164348721949185 0.291727821129904
0.421624709804061 -0.163254529362605 0.306358088189791
0.421733349052896 -0.163557119907334 0.307641429041548
0.422625092598636 -0.168922789195677 0.318175475749436
0.5 -0.0529024260381616 0.459319195458448
0.5 -0.0627578490959396 0.465652829951676
0.5 -0.0564697188884433 0.480161375028153
0.5 -0.0621544203500096 0.475337222032877
0.5 -0.0513754600787093 0.495731628046573
0.496682975722173 -0.0637028844155385 0.500309160555078
0.49373337283394 -0.0594216553972677 0.503824360393855
0.489869180078392 -0.068971335775089 0.508429525992757
0.488005923917022 -0.0762057675939335 0.510650068216993
0.485639204693619 -0.0783111633261951 0.513470614354145
0.481352696663096 -0.0791454801923552 0.518579075699205
0.476641694305163 -0.0870966629098059 0.524193429683991
0.474789603459667 -0.0943699960557746 0.526400665602922
0.47417682215212 -0.0988040355206257 0.527130949927665
0.470531656376731 -0.100804479809347 0.531475089336087
0.463853567700528 -0.109082677709589 0.535194739999682
0.452648103373744 -0.117754174884159 0.53717056569186
0.451389286812515 -0.124091594134142 0.537392529015367
0.451212319702509 -0.126462503585563 0.53742373309156
0.44637792229201 -0.138270528982259 0.538276167790498
0.438577783358292 -0.146553143972575 0.539651542737787
0.427291226301008 -0.14910962159082 0.541641667266291
0.423035642784133 -0.157416880143205 0.542392041458975
0.417748442005127 -0.169238145530699 0.542347551302266
0.402728951993612 -0.180414560768472 0.533676044701028
0.391226699461016 -0.202082876440153 0.527035216105046
0.386351904779343 -0.20612151268712 0.524220752083339
0.407480930005692 -0.193571768426206 0.139279517524643
0.408304926722654 -0.195920490114663 0.149013280045371
0.409126494751773 -0.198595154512438 0.158718352802882
0.409519414974663 -0.195551508514192 0.163359866610494
0.410543554169358 -0.194588770076429 0.175457885333284
0.412869495975995 -0.187900000931809 0.20293392342518
0.413940327719873 -0.183395599615106 0.215583514958728
0.413935583569248 -0.190236526544275 0.215527472944731
0.415292123074857 -0.182082063159598 0.231552091885287
0.415052454505039 -0.193308195852975 0.228720919267402
0.416293301606545 -0.196047746693839 0.243378879380553
0.417857977738154 -0.1820601655327 0.261862188322711
0.418508426717705 -0.185052015632884 0.269545854736016
0.419717079383888 -0.178067095626701 0.283823506309737
0.420413479522534 -0.182764768028504 0.292049987592298
0.421773816843714 -0.180172859241952 0.30811946961799
0.422093212863715 -0.178770441208695 0.311892451894205
0.422540008608161 -0.179366464473052 0.317170390000241
0.5 -0.0699473405303322 0.453703927551617
0.5 -0.0734090516339219 0.457141836132691
0.5 -0.072422172440027 0.471890142702676
0.5 -0.0770372717450246 0.475393885254996
0.5 -0.0701201087406911 0.495227917608245
0.498620359469831 -0.0793170030254304 0.498000276513572
0.49549299575914 -0.0749133490701072 0.501727323451138
0.493075024213756 -0.0837139603622431 0.50460894972714
0.489381568460061 -0.0876844017400307 0.509010638890692
0.485858777846518 -0.0972364446396052 0.51320893726034
0.481295161164054 -0.0964193015349079 0.51864764383689
0.476498884667986 -0.105115668323335 0.524363623582154
0.476203117220668 -0.105461950543605 0.524716105500068
0.471414673157247 -0.109205218162136 0.530422750915585
0.466896976611623 -0.114138771060636 0.534658104895327
0.464101820362853 -0.121808163495646 0.535150966357282
0.455252275912982 -0.133017354818705 0.536711379810773
0.45034724133244 -0.136480130551914 0.53757626974863
0.444787107418551 -0.149975730840022 0.538556671374001
0.43923680509666 -0.152282400502068 0.53953533942444
0.435540675310427 -0.157261164016854 0.540187066829952
0.430268796857459 -0.172127728044758 0.541116641240226
0.4288626352957 -0.17261830636516 0.541364585462799
0.412731970729888 -0.187445155123407 0.539451290261125
0.403837601301815 -0.202810720139072 0.534316123677555
0.395918987018209 -0.211981886430271 0.529744309589307
0.391542624100866 -0.220883742001737 0.527217615280907
0.406939322678946 -0.206404755990028 0.132881582933988
0.407309224391983 -0.214681090908956 0.137251182177036
0.40837182439735 -0.211642757631194 0.149803533289438
0.409689559927643 -0.205957808234893 0.165369766082556
0.409254900511599 -0.209674357868444 0.160235192793514
0.410730435311411 -0.210075282928137 0.177665487158506
0.411484762019079 -0.209614718446247 0.186576247219006
0.413394377368977 -0.19440368685955 0.20913427680725
0.414284522142145 -0.200189727732586 0.219649437429524
0.413835438176711 -0.206346956383057 0.214344468876351
0.416677828950312 -0.199744087076254 0.247921249234591
0.416788830946032 -0.196752882357992 0.249232500897878
0.417906213429328 -0.197088853259717 0.262431990062507
0.417603268069768 -0.20223841897267 0.258853337228077
0.419807271202754 -0.198386144235587 0.284888930149515
0.420142347323722 -0.195895553422301 0.288847139351968
0.421541368641228 -0.192454352016596 0.305373590229408
0.42147918993883 -0.199779815122818 0.304639081571145
0.423106422178509 -0.195597217900315 0.323861357414065
0.5 -0.0889263357448119 0.448020924639999
0.5 -0.0887463003623616 0.459989834460796
0.5 -0.0857630702877039 0.475706149252214
0.5 -0.0833286716473783 0.488053539790891
0.5 -0.0897370440287776 0.48728961405466
0.498262776526774 -0.0880213575185884 0.498426427270611
0.492031564724005 -0.0948576332810646 0.505852496322777
0.493805212676577 -0.10085534500908 0.503738745003302
0.486432869146462 -0.103706506420947 0.512524761891155
0.482333212443197 -0.108739828290476 0.517410542495673
0.483763917742858 -0.11482348453077 0.515705494314858
0.475869826210417 -0.119536266232521 0.525113306258913
0.473855755811998 -0.117272630700594 0.527513581891967
0.473148983377172 -0.129830898773533 0.528355880480317
0.465403808237905 -0.130697135371446 0.534921390766355
0.46422280564352 -0.133250190771122 0.535129633388031
0.45483063611941 -0.149382976931876 0.536785726282519
0.455967169260214 -0.144959431141383 0.536585324825327
0.44244787366785 -0.1573199457275 0.538969141398433
0.43491310497074 -0.170817750101616 0.540297724413132
0.438077422813091 -0.17265768929742 0.539739769801988
0.427271497572314 -0.180623813419081 0.541645145973456
0.41530387550824 -0.197053570367582 0.540936180177236
0.41790488817999 -0.202819983153936 0.542437875543437
0.403634687617535 -0.211077197395211 0.534198971407314
0.398466456797382 -0.227746792169137 0.531215091952065
0.407341873134721 -0.227694730908659 0.137636857388933
0.408823654758466 -0.222539524702555 0.155140944645842
0.411878969032451 -0.215634539982609 0.191232961709707
0.411994999533427 -0.221870956533746 0.192603614430058
0.412402907059011 -0.228229619017809 0.197422171230973
0.413054804044765 -0.228596624903323 0.20512294274704
0.415437859362662 -0.212652378591191 0.233273655074735
0.415894704472129 -0.210058417235708 0.238670304979728
0.416852078143139 -0.215332407484871 0.249979631540594
0.418228209571363 -0.213733118701333 0.266235687230995
0.419506978089213 -0.20456789089185 0.281341607941003
0.419534698718705 -0.214491891604094 0.281669068013177
0.420950301280862 -0.203601524138066 0.298391390906127
0.421399687868324 -0.202844630610728 0.30369993429266
0.422971433165369 -0.202240121334886 0.322266750336435
0.423063531314341 -0.211488382704054 0.323354693397655
0.5 -0.107227270431876 0.450657698018742
0.5 -0.093382174212937 0.473120300268286
0.5 -0.0929060222761188 0.481621674152982
0.5 -0.101692921909665 0.475739689369346
0.5 -0.105071918663824 0.490891953465084
0.499393587821291 -0.100232922856428 0.497078778847824
0.494621229090183 -0.112081700496983 0.50276625451077
0.493723220653999 -0.109000053727602 0.503836459290773
0.488906637651976 -0.114715065141506 0.509576639387462
0.486891985772766 -0.121889627600245 0.511977608002337
0.482318718313857 -0.130202749762173 0.517427815926386
0.479292888976526 -0.130867100790834 0.521033858909727
0.474527052909951 -0.14007018784392 0.526713561163784
0.473555883784802 -0.141796041921743 0.527870955457695
0.470654752713179 -0.147360987307802 0.531328388834889
0.465199238649414 -0.152520129059173 0.534957461904238
0.459794185182356 -0.159641300907922 0.535910518662652
0.446679966232706 -0.172418646798888 0.538222909294394
0.450800218204776 -0.175290510786602 0.537496397704401
0.437052380891468 -0.184224809148998 0.539920512349128
0.438153649597837 -0.190251208667088 0.539726328963184
0.430570348420109 -0.198676753633258 0.541063469563656
0.420668306450389 -0.212076606515034 0.542809466727026
0.410427396128858 -0.228327158485822 0.538120743494853
0.418388843692732 -0.221662868346691 0.268133236526947
0.420580877227315 -0.225057480655395 0.294027434190457
0.421977062922828 -0.228222311680036 0.31052038824624
0.422126873701461 -0.22920648800647 0.312290082848453
0.5 -0.118422927036834 0.449410618708707
0.5 -0.115153258237987 0.460059892568009
0.5 -0.119327361838623 0.463990479715253
0.5 -0.114229686579794 0.48402350612966
0.5 -0.118206377027398 0.493076715476052
0.498041777927963 -0.118262162104053 0.498689803144703
0.494650363888211 -0.121887589686536 0.502731533010552
0.494659799844921 -0.124229237153896 0.502720287675243
0.490527096561374 -0.12705044600449 0.507645451660535
0.486037141870844 -0.132885194236077 0.512996371293561
0.482572470364058 -0.139516620226967 0.517125406008931
0.475942463175539 -0.143651433235188 0.525026740894774
0.477837820460725 -0.155949576554772 0.522767942040904
0.475779127417931 -0.161399865108543 0.525221396870703
0.46810637988042 -0.165313160150794 0.534365421313599
0.467087581817038 -0.170653991553534 0.53462449605495
0.459000867947695 -0.175630060078718 0.536050401895384
0.448562777019324 -0.187204594999564 0.537890918953144
0.451631639777485 -0.185423169791834 0.537349795648789
0.439880493784662 -0.194233641407186 0.539421839741568
0.438780315579905 -0.204586387891963 0.539615830842654
0.433720458791172 -0.210390681424079 0.540508020113028
0.424786782909924 -0.22025553049334 0.542083268207797
0.5 -0.135065187553506 0.448990782564143
0.5 -0.131068496196954 0.461179415920664
0.5 -0.130634675484086 0.469897712406539
0.5 -0.132240294829724 0.48248387994509
0.5 -0.133805852423398 0.487469325957174
0.497141060766612 -0.133334358986988 0.499763236057654
0.49620559969722 -0.138592837796367 0.500878075147834
0.496542479387965 -0.144630123140683 0.500476597566117
0.489890555789059 -0.143883663851429 0.508404051412776
0.488065239138384 -0.157518580392333 0.51057937908884
0.481085000010679 -0.154816904694951 0.518898104146448
0.477717087802779 -0.165297736986405 0.522911825619755
0.476674758585017 -0.167561197406972 0.524154025209689
0.471863751517697 -0.170634877606785 0.529887560166162
0.472129745637913 -0.179415953561383 0.529570560717787
0.463577291866938 -0.18338153883041 0.535243454883262
0.453773158230499 -0.193821018700286 0.536972188165837
0.454297788728557 -0.2008490863915 0.536879681654127
0.447497616881929 -0.199758467467913 0.538078735424142
0.44421224542145 -0.211607171008416 0.538658035054274
0.434287854397093 -0.223138091571351 0.540407972958969
0.425570657373992 -0.225414258732314 0.541945049990294
0.5 -0.151584454241652 0.457729597239173
0.5 -0.141242213690282 0.478275009625592
0.5 -0.143434087755769 0.478245955538335
0.5 -0.147888747983561 0.486987536354369
0.5 -0.153069365060142 0.484831672905032
0.4968232950224 -0.156990313907003 0.500141934524922
0.495738887955785 -0.158334418584965 0.501434280542394
0.492545514454 -0.163916112821707 0.505239994885643
0.483379231179507 -0.167591643167416 0.516163945908755
0.483617554623103 -0.16603036449989 0.51587992308865
0.477512133450816 -0.177781798090174 0.523156080705025
0.47715440006762 -0.17591835334016 0.523582410749638
0.473816750134613 -0.18362997292043 0.527560067048122
0.469375745815625 -0.189435514388828 0.532852649900002
0.465348044702321 -0.196943981153583 0.534931223382218
0.456089240573065 -0.205828102603528 0.5365638003593
0.450029558568271 -0.217438120911268 0.53763228579126
0.444862355029323 -0.227851015655191 0.538543403189988
0.439851653896695 -0.227050453928394 0.539426924991937
0.5 -0.163260311086785 0.458634853438108
0.5 -0.162630323842365 0.455131206443002
0.5 -0.162761590016319 0.463565165072871
0.5 -0.160844238253395 0.483669179944813
0.5 -0.159703790197657 0.490423310536006
0.5 -0.171336255408241 0.496193087235749
0.499135622484353 -0.168919899250417 0.497386209964886
0.49437623554416 -0.166944904382588 0.503058226449407
0.489779256364273 -0.170698826991823 0.508536692902117
0.488090414953991 -0.185068886434387 0.510549375720143
0.484134935832031 -0.190530043980057 0.51526333217417
0.480280775106773 -0.193690213449402 0.519856542064932
0.475015445701242 -0.200668792180588 0.526131517300165
0.471720352151171 -0.197091028696271 0.530058456876395
0.468412828593914 -0.204222441300074 0.534000209958346
0.461109478041629 -0.20842628175092 0.53567859704403
0.454696564957973 -0.227525158769336 0.536809366645616
0.450604497423758 -0.228466860153797 0.537530908558779
0.5 -0.173055335713397 0.461510404722857
0.5 -0.178505022900783 0.471936828749263
0.5 -0.179429496573735 0.477585726527012
0.5 -0.189845155036147 0.483394018962488
0.5 -0.182522664136691 0.492917528654814
0.499099166164272 -0.181164836377837 0.497429656915314
0.494990673257977 -0.189013649421675 0.502325968096539
0.487259106709828 -0.190862032422468 0.511540090306678
0.483274279385103 -0.197817265140264 0.516289022586786
0.481557207078881 -0.196815724313062 0.518335349676469
0.482805471874152 -0.205545433555131 0.516847725622196
0.474799561006368 -0.213077349753973 0.526388798660867
0.473803259228824 -0.215222409718266 0.527576144883563
0.469372045854183 -0.222297733155665 0.532857059342343
0.5 -0.194432229498525 0.452528009295061
0.5 -0.195410785660372 0.450329569960453
0.5 -0.200641214337174 0.458096561415677
0.5 -0.199142512565229 0.465201352367813
0.5 -0.203934787402377 0.479127068560167
0.5 -0.195231249780557 0.496356084955255
0.5 -0.1988239958392 0.495916016452524
0.49314298044553 -0.200011686002737 0.504527962643784
0.487557759874741 -0.211546447596517 0.511184169324453
0.485923179951943 -0.207643960144848 0.513132185819829
0.484769406973317 -0.219076751155303 0.514507198912146
0.479706079826337 -0.224003889821667 0.520541437230039
0.477150646032366 -0.22874433964498 0.523586884634639
0.5 -0.211698579912706 0.450326020738667
0.5 -0.208905267939609 0.467276350428081
0.5 -0.209029707759633 0.479213159378548
0.5 -0.218457547376027 0.476153862337494
0.5 -0.211245801791934 0.490596544310001
0.499153621882156 -0.219106774261189 0.497364759117889
0.496904551626152 -0.220118892370067 0.500045096675478
0.487212107024206 -0.224124138044195 0.511596102350868
0.5 -0.228403451298525 0.458605248127518
0.5 -0.225684267230516 0.466866198464407
0.5 -0.225564887943389 0.484903549870763
0.498060045835593 -0.227788841321361 0.498668032300155
0.5 -0.229059733008084 0.493088520560122
-0.49676548815896 0.235555992522572 0.450976784404089
-0.497515622499533 0.235555992522572 0.469868078093239
-0.498295337572423 0.235555992522572 0.480773923986306
-0.497087367202656 0.235555992522572 0.495718068834675
-0.498717563194589 0.232933051906416 0.497884433625379
-0.498967752530112 0.217693244006966 0.49758626958594
-0.499014363521007 0.199184227646275 0.497530720770087
-0.484841867869167 0.235555992522572 0.433736276104151
-0.48540949833948 0.235555992522572 0.438769053938118
-0.492867187996863 0.235555992522572 0.450119719471348
-0.492233508010996 0.235555992522572 0.460410110683057
-0.486316431257831 0.235555992522572 0.470862473260442
-0.488683797625006 0.235555992522572 0.485976765858808
-0.488678124060863 0.235555992522572 0.493887080417152
-0.485054553130564 0.235555992522572 0.496586736027973
-0.494903400587821 0.221966301639217 0.502429975614733
-0.487726093269643 0.230819248504723 0.510983557396324
-0.491421179709301 0.213330966203072 0.506579924856915
-0.499590922967473 0.18331212667931 0.496843603978416
-0.499831021463411 0.183510600639348 0.496557465733306
-0.497981486800217 0.163198496190265 0.498761655312794
-0.475112661998739 0.235555992522572 0.418830751571373
-0.475906600916348 0.235555992522572 0.423279992868108
-0.479218669856099 0.235555992522572 0.441748943887459
-0.478462866441145 0.235555992522572 0.447831144608626
-0.481965582448368 0.235555992522572 0.460745077039029
-0.477056250473328 0.235555992522572 0.461944782316025
-0.483413769381106 0.235555992522572 0.47571501729354
-0.482084001685911 0.235555992522572 0.488819608890302
-0.47558780566305 0.235555992522572 0.493026656669795
-0.48278527282897 0.235555992522572 0.506602758367966
-0.477747989850016 0.235555992522572 0.506526207570141
-0.47402722022263 0.235555992522572 0.525407246241434
-0.482587785603449 0.220205834566724 0.517107154017365
-0.485193477682309 0.20074788776225 0.514001811121189
-0.490484814874644 0.183746873225378 0.507695841012596
-0.491167213712896 0.173785677946244 0.506882589745528
-0.495369579956529 0.165983949635288 0.501874404677282
-0.495105378625314 0.155096000788743 0.502189267562925
-0.495199880211938 0.140078247682204 0.502076644957559
-0.494422782631549 0.139085058372078 0.503002753790785
-0.49613753412448 0.113466624425809 0.500959192538678
-0.467721492207915 0.235555992522572 0.421146747263959
-0.468104361489607 0.235555992522572 0.430589765181259
-0.470342463401305 0.235555992522572 0.442001156933335
-0.474191923683235 0.235555992522572 0.452496815262063
-0.466552771181724 0.235555992522572 0.464369071242684
-0.468187920951058 0.235555992522572 0.462826995981544
-0.471630746919274 0.235555992522572 0.474767777909733
-0.471484220742717 0.235555992522572 0.488041875536032
-0.471332938395035 0.235555992522572 0.497401541716512
