ply
format ascii 1.0
element vertex 830
property float x
property float y
property float z
end_header
0.0459137401418971 -0.0744329307519896 0.979452054794521
0.067591624862237 -0.0747012804130269 0.979452054794521
0.0851114253032481 -0.0720304835537821 0.979452054794521
0.0878160255111065 -0.0725955910514443 0.979452054794521
0.111664075366691 -0.0707710152821869 0.979452054794521
0.123531006064292 -0.0767065211791429 0.986301369863014
0.125412438952873 -0.0709834102319599 0.986301369863014
0.142350258649353 -0.0782309946228544 0.986301369863014
0.163090585722386 -0.071223479487256 0.986301369863014
0.181014346467151 -0.0729447122262786 0.986301369863013
0.192964781354894 -0.071368639448976 0.986301369863014
0.195489313178755 -0.0767640189568083 0.9961487251392
-0.266587087357777 -0.0560985588370347 0.264469300444282
-0.266363410985393 -0.0577975495624846 0.267044722225722
-0.266265076791955 -0.0585444719167169 0.275446497165591
-0.266744831688258 -0.0549003716900204 0.282846315980739
-0.266179032824943 -0.0591980407330237 0.29283007281476
-0.266730906157335 -0.0550061465988028 0.30260573097786
-0.267225386486689 -0.0512501956034545 0.313363403822958
-0.26636726794983 -0.0577682530089993 0.321375132464913
-0.267328358871046 -0.0504680426914757 0.337459869322723
-0.267207089514249 -0.0513891749071142 0.336139949665746
-0.267223111449573 -0.0512674762259814 0.341968537600127
-0.266727379277481 -0.0550329359109582 0.361803512935833
-0.266445186948048 -0.057176399457833 0.371809803750802
-0.26682069104353 -0.0543241626802292 0.377561251587016
-0.266953857469255 -0.0533126632543457 0.39025515161498
-0.266555869197759 -0.0563356843043748 0.397074375525431
-0.267213138042627 -0.0513432317728086 0.402265432017854
-0.2666997704958 -0.0552426454279566 0.418181314943804
-0.267057188411215 -0.0525277868269796 0.419597832828823
-0.266931822131303 -0.0534800382632226 0.43394442350778
-0.266725392190654 -0.0550480293338957 0.437715487732428
-0.266393669892747 -0.0575677103425086 0.453960451564564
-0.266278331664752 -0.0584437911621556 0.460710027868505
-0.266791699718789 -0.0545443736543639 0.460786378175003
-0.26661164975849 -0.0559119888807976 0.482841488382328
-0.266609718242038 -0.0559266602048355 0.481983837497335
-0.267288422651976 -0.0507713883917249 0.4944262056253
-0.266605550836378 -0.0559583147935168 0.503574218974257
-0.267356423453724 -0.0502548710221777 0.513660752722423
-0.267027834258408 -0.0527507537538993 0.525473948031045
-0.267102194106734 -0.0521859346301469 0.537289997951954
-0.266497090407283 -0.056782153543878 0.5364561273268
-0.267088285013541 -0.0522915846819775 0.551001296220131
-0.267314192192233 -0.0505756493003313 0.562037823722921
-0.266893581199701 -0.0537705069767116 0.562918101791499
-0.266229878975491 -0.0588118258758796 0.58188043967595
-0.26692904953517 -0.0535010982217108 0.591708641967544
-0.266337968099908 -0.0579908074645482 0.58589069329421
-0.266398977745639 -0.0575273931970739 0.604286292719747
-0.266454034013152 -0.0571091993266755 0.605446311701788
-0.266681552747082 -0.0553810229677133 0.62235809914228
-0.267269463483129 -0.0509153975764606 0.6363845311995
-0.267267725274721 -0.0509286005801278 0.641206948874932
-0.266936756339435 -0.0534425592315088 0.646084832467558
-0.267064567429891 -0.0524717376155313 0.659432839970353
-0.267190314227957 -0.0515165958569574 0.66870015567765
-0.266232431875476 -0.0587924346753185 0.674937099222239
-0.266973857543071 -0.0531607476114116 0.680742389678537
-0.267137774980182 -0.0519156710643258 0.700973570106651
-0.266664411729373 -0.0555112219234721 0.705754845449675
-0.266346499112622 -0.057926007989642 0.710325699726385
-0.267343871448953 -0.0503502129640391 0.716362933198108
-0.267137166197032 -0.0519202952314388 0.73043378100257
-0.266210121182824 -0.0589619012107878 0.739351790303
-0.267281834892982 -0.0508214273891903 0.75475421921445
-0.267364383950607 -0.0501944050452379 0.762883825107774
-0.267294538044512 -0.0507249373737171 0.766107758843328
-0.267158898123434 -0.0517552248620918 0.775405972997526
-0.267019189394248 -0.0528164180163886 0.785837011548742
-0.26737254983623 -0.050132378985933 0.798557590001702
-0.266596818016502 -0.0560246471460047 0.797932148591296
-0.266393911284743 -0.057565876788265 0.812819881945934
-0.266203607616564 -0.0590113766585005 0.828068970967612
-0.267170209951089 -0.0516693030006577 0.83251920413313
-0.267145643040542 -0.0518559072124863 0.836396002452109
-0.266223219162007 -0.0588624121815436 0.850295193370489
-0.266888575616362 -0.0538085281569512 0.864267785662149
-0.266941762682233 -0.0534045322826089 0.861589036829169
-0.266291081229352 -0.0583469486044084 0.873370434191649
-0.26714167487229 -0.0518860484428052 0.885821242445207
-0.267216948597548 -0.0513142877345926 0.898553931389651
-0.267270584476948 -0.0509068827830593 0.907145734450501
-0.266716452330278 -0.0551159343151186 0.907576871335433
-0.266869452275442 -0.0539537843523903 0.922550186636846
-0.262303631435825 -0.0582863833691278 0.935468091272389
-0.263090195607856 -0.0586107313072671 0.934645920364569
-0.252439266147561 -0.057536018246472 0.945346007850389
-0.246446532589485 -0.0587674901741384 0.951126733400581
-0.243862248178276 -0.0588476753286971 0.953678442637505
-0.24106567193052 -0.0590566768055725 0.956423813620837
-0.236049102958719 -0.0569595596894212 0.961671193861468
-0.230073141305303 -0.0563186037383844 0.967679691874183
-0.225868806780864 -0.0549319795713395 0.972029048506501
-0.22108904841361 -0.0602582590817423 0.975816094353102
-0.211080718442923 -0.0594500222354511 0.985371884418141
-0.21136053007629 -0.055788781012671 0.995135993613551
-0.204849870432611 -0.0586658870600922 1.0
-0.177263170913923 -0.0535063698373539 0.986301369863014
-0.162865151434326 -0.0556291004209076 0.986301369863014
-0.146824226383647 -0.0589337548491405 0.986301369863014
-0.136091990707626 -0.0543552909821413 0.986301369863014
-0.129048498242023 -0.0594050965674215 0.986301369863014
-0.107689617591446 -0.0627519868838211 0.979452054794521
-0.0961162677532243 -0.0625615386252451 0.979452054794521
-0.073667570637811 -0.0570745391750484 0.979452054794521
-0.0596825271382162 -0.057952078166136 0.979452054794521
-0.0378142212237087 -0.0552944100059187 0.979452054794521
-0.0305625069391676 -0.0543661023249856 0.979452054794521
-0.0217071575823976 -0.0559293034989112 0.979452054794521
0.00592769478905282 -0.0598656365718367 0.979452054794521
0.00882694560596133 -0.0641119565002597 0.979452054794521
0.0393295338077041 -0.0652998506492844 0.979452054794521
0.0420463993683328 -0.0603749181413638 0.979452054794521
0.0642508464395702 -0.0562889241463106 0.979452054794521
0.0798333425912098 -0.0624570423502812 0.979452054794521
0.0954966772261758 -0.0646710919565221 0.979452054794521
0.101178621978248 -0.065932028597382 0.979452054794521
0.122625514132327 -0.0579787937437059 0.980048685240924
0.132640607095084 -0.0677744211536105 0.986301369863014
0.155444248418901 -0.0620401375312663 0.986301369863014
0.170782945917896 -0.0620380030971252 0.986301369863014
0.182654355035268 -0.0649067063979274 0.986301369863014
0.200480362599683 -0.064714559754329 0.990100574696149
0.201815418961218 -0.0614914485797785 0.998486588653604
-0.26847916339605 -0.0417268144877276 0.261313679647326
-0.267934000004383 -0.0458677415620982 0.267306240443759
-0.267568655764928 -0.0486428065714951 0.276330950527644
-0.267839521798713 -0.0465853747813754 0.283820955762258
-0.268488428299844 -0.041656440556635 0.288634233648794
-0.26777463588492 -0.0470782322279247 0.312576238642997
-0.267715749096348 -0.0475255217944064 0.309649771474271
-0.267984664859561 -0.0454829037800006 0.32421842343299
-0.267756344668457 -0.0472171678105983 0.332742307925309
-0.267877456790592 -0.0462972299107927 0.335986885629741
-0.267990873563737 -0.0454357439897283 0.343463087442059
-0.267839965774359 -0.0465820024515401 0.361654559909222
-0.26832949189926 -0.0428636823750355 0.373759819490437
-0.267933545205209 -0.045871196104787 0.371345316969056
-0.267715382574174 -0.0475283058067171 0.38581427836461
-0.267432604195288 -0.0496762208411331 0.393449665244028
-0.267578277583939 -0.0485697216001689 0.399270942724848
-0.267650241725951 -0.0480230996725084 0.41828069562691
-0.267575669817407 -0.0485895295535288 0.422235650503141
-0.268143305116107 -0.0442779113988993 0.427058448339377
-0.268350422673587 -0.0427046973598607 0.44087678564274
-0.268103604431899 -0.0445794680342496 0.45212423661674
-0.26792058857527 -0.0459696114799421 0.459650826969514
-0.26839781248269 -0.0423447360224656 0.466793634381287
-0.267395828896178 -0.0499555569705933 0.474548661172882
-0.267991760556981 -0.0454290066071393 0.489555546927119
-0.267836644532495 -0.0466072297880818 0.500474161227244
-0.267995785738057 -0.0453984323214338 0.505851178060683
-0.268400797880285 -0.0423220596763957 0.513922916113851
-0.268544209296691 -0.0412327418204163 0.52367073450174
-0.268062192447913 -0.0448940232819325 0.531546185519819
-0.268084732821892 -0.044722812143577 0.546754923425409
-0.268134441735489 -0.0443452354586876 0.549712428109011
-0.267598993370589 -0.0484123695785238 0.552696216229172
-0.267865315722421 -0.046389450479283 0.563294498977988
-0.267412358271448 -0.0498300039004063 0.579063390355014
-0.26789456114041 -0.04616730947532 0.590774410797848
-0.268024424776563 -0.0451808972269179 0.598107739642163
-0.267422424642767 -0.0497535422190581 0.605908827540747
-0.268112108406758 -0.0445148739322484 0.619051410252982
-0.268019632795549 -0.0452172959364129 0.625054890280743
-0.268428382822734 -0.0421125312363418 0.63110248278639
-0.267653404153326 -0.0479990786517748 0.6479792728898
-0.267857678748303 -0.0464474590568558 0.649441251286752
-0.267552037044137 -0.0487690382882944 0.659771486959035
-0.268195507858157 -0.0438813922062784 0.670648848771473
-0.268268305466225 -0.0433284394754008 0.678032773318109
-0.268261281372072 -0.0433817927674462 0.69191691542587
-0.267993558636144 -0.0454153488399433 0.69742494164321
-0.268404958218266 -0.0422904587720707 0.708713538896231
-0.267685214006042 -0.0477574588321816 0.711128988995893
-0.268011739183765 -0.0452772538705849 0.730004777937649
-0.267768778281971 -0.0471227251396137 0.727401380916585
-0.268365268605668 -0.0425919313101934 0.737591001227339
-0.267533714522279 -0.0489082116590481 0.751623053641931
-0.26791930209557 -0.0459793832634063 0.753868546144051
-0.267505324262711 -0.0491238570899211 0.776180693662594
-0.267599597852157 -0.0484077780851674 0.773237319367201
-0.268460718320001 -0.0418669187499894 0.789670235062522
-0.268571617336662 -0.0410245570880942 0.801194054438671
-0.268380861950372 -0.0424734880980237 0.801566642065788
-0.267764340864601 -0.0471564306708524 0.809356047310724
-0.268385596080038 -0.0424375288131481 0.823509036219555
-0.268428803673922 -0.042109334554203 0.828162403740198
-0.268061260395306 -0.044901102924356 0.837238833335428
-0.268515558263431 -0.0414503680241448 0.854182669412513
-0.267414422514048 -0.0498143244211838 0.865439336440797
-0.268007456700233 -0.0453097825624891 0.870648574100195
-0.268520173248591 -0.041415313731635 0.874597495712277
-0.268382480461816 -0.0424611942830694 0.8874584378637
-0.268211166351328 -0.0437624541423771 0.891829686999122
-0.268559449093383 -0.0411169840720234 0.912846520319461
-0.267735970800314 -0.0473719227033481 0.915576507390003
-0.267922031958511 -0.0459586478957486 0.923271370543165
-0.267536072777535 -0.0488902989319913 0.926449658191997
-0.262522986775074 -0.0457181026369595 0.9368911023752
-0.255062844911454 -0.0458259758246474 0.944273341414573
-0.253003574806841 -0.0454057108112488 0.946369849769895
-0.246925548131755 -0.0501055089604561 0.951782431327582
-0.244145276226355 -0.0505144520710439 0.954485539834354
-0.234357859644728 -0.049664560810515 0.964300156780371
-0.229510342180919 -0.0499993471736131 0.969062504671101
-0.226345584965158 -0.0420772941855574 0.97323422236126
-0.218486185273482 -0.0474981380204913 0.980318821694661
-0.217535293604607 -0.0486495706335487 0.98111128623891
-0.211998840412408 -0.0509403326519064 0.990790342890442
-0.21252527980101 -0.0469416285008368 0.999395928075519
-0.184219581058887 -0.0478430824616373 0.986301369863014
-0.164958342732914 -0.0491163075577446 0.986301369863014
-0.158035017023006 -0.0460769291922498 0.986301369863014
-0.135045683835619 -0.0475172067923354 0.986301369863014
-0.109644575882292 -0.0433699836925029 0.979452054794521
-0.10466544811109 -0.0461733545219799 0.979452054794521
-0.0839623248430324 -0.0463616919360618 0.979452054794521
-0.0657066752416708 -0.053100389421718 0.979452054794521
-0.0575827336377096 -0.0487730052999416 0.979452054794521
-0.0350770847779063 -0.0453244814646866 0.979452054794521
-0.0285872289897584 -0.0462018742136452 0.97945205479452
-0.0143400339581207 -0.0529453156175302 0.979452054794521
0.0002853947710302 -0.0488337889024322 0.979452054794521
0.0127139419073181 -0.0469101320822283 0.979452054794521
0.0322916521012242 -0.0552008372959077 0.979452054794521
0.0445840440914117 -0.054674787973555 0.979452054794521
0.0553328678706471 -0.0500711570136312 0.979452054794521
0.0727000072135546 -0.051007755601528 0.979452054794521
0.084206728308873 -0.0466284251873694 0.979452054794521
0.105159199460139 -0.0566119522339964 0.979452054794521
0.122721224977132 -0.0486466247472216 0.984801211010626
0.133000229075816 -0.0553765772026053 0.986301369863014
0.148793663236126 -0.0505114328680931 0.986301369863014
0.159600220023448 -0.048499553003992 0.986301369863014
0.170983869392212 -0.0527077816940726 0.986301369863014
0.19362204451106 -0.0564882626492423 0.986301369863014
0.205423975676797 -0.0484067475796764 0.988916195191483
0.205006581921428 -0.0515771679136434 0.997046705046357
-0.269587611544112 -0.0333073149083451 0.256131660112093
-0.26970178540183 -0.032440078359021 0.267612667150798
-0.269187464566019 -0.0363467329628897 0.271836274133963
-0.26864936738906 -0.0404339868078225 0.289662878776147
-0.269395548249015 -0.03476618047199 0.296307313416678
-0.269713828767682 -0.0323485999133203 0.312269246119175
-0.268736205454187 -0.0397743862174911 0.310746197728938
-0.268810683036102 -0.0392086728183538 0.322220524326916
-0.269512538053365 -0.0338775546844443 0.332278964297394
-0.269604025916641 -0.0331826353707047 0.347587861694803
-0.268734430261 -0.0397878701484439 0.347591238020729
-0.269576134504572 -0.0333944916786402 0.361375387392935
-0.269687610667729 -0.0325477461538647 0.366363394954892
-0.26886667114654 -0.0387834008982309 0.374518631007454
-0.269589204143363 -0.0332952179160341 0.390764960338874
-0.268738769907364 -0.0397549072617322 0.394087696369403
-0.268884576381901 -0.0386473971331046 0.404616254287626
-0.26909471566294 -0.0370512308248986 0.4196794782786
-0.269166793689387 -0.0365037438590811 0.425253150819488
-0.269212533194858 -0.0361563178222817 0.428894695730641
-0.269040575559298 -0.0374624657398093 0.443570702804558
-0.269183386192504 -0.0363777112852867 0.454876822025273
-0.269547501892319 -0.0336119779609138 0.459789416657761
-0.268606640996434 -0.0407585259803328 0.468714843762243
-0.268680170819918 -0.0402000115212003 0.484200827474159
-0.269079637197779 -0.0371657631386608 0.492721644000666
-0.268608254063021 -0.0407462735231698 0.497823173409181
-0.268687568095708 -0.0401438236331934 0.502638408031857
-0.269627682989423 -0.033002942062826 0.51066305381485
-0.268978264863734 -0.0379357624619029 0.521850377695598
-0.269334579886631 -0.0352292811613092 0.533177766196131
-0.269462019111705 -0.0342612841433322 0.545925751204149
-0.269635578148399 -0.0329429723765611 0.558207577991609
-0.268854099656118 -0.0388788908483076 0.561944432986678
-0.269682545815 -0.0325862175298063 0.562912627254086
-0.268611318062825 -0.0407230001340559 0.575737230636795
-0.268911488766136 -0.0384429772798685 0.590361964580064
-0.269018867317531 -0.0376273562064907 0.593179791496226
-0.268944691609728 -0.0381907766440924 0.608052030532642
-0.268747303028362 -0.039690091772814 0.61891109598135
-0.268701598323979 -0.0400372534691023 0.623357780173896
-0.269550186656783 -0.0335915851501978 0.633269892429243
-0.269279256952634 -0.0356495005647424 0.647008686666952
-0.269538859454424 -0.0336776237941034 0.646972910342167
-0.268645636733072 -0.0404623239533925 0.666449590500997
-0.269176858654685 -0.0364272928575265 0.672047424748148
-0.268988903150453 -0.0378549566518088 0.673358261573501
-0.269124963131719 -0.0368214784895235 0.690705500449032
-0.269084564189021 -0.037128338924681 0.691160241699204
-0.26959982656094 -0.0332145326440398 0.709124337075926
-0.269451182288879 -0.0343435979848748 0.717146203511368
-0.26922084277624 -0.036093200285329 0.726017388297396
-0.26883750604166 -0.0390049318635765 0.736738081400758
-0.268989500024174 -0.0378504229457887 0.740968571408799
-0.269676133561294 -0.0326349234322718 0.74680346242341
-0.26930739440002 -0.0354357754330384 0.763115870053192
-0.269556893612066 -0.0335406407670157 0.764156016963741
-0.269714815284565 -0.0323411065736497 0.780912611391838
-0.269518085303919 -0.0338354191332339 0.783203007335404
-0.268897828285297 -0.038546738933384 0.794440376390407
-0.269350184992468 -0.0351107486144699 0.803987269771029
-0.268803030979788 -0.0392667959565783 0.811287426451605
-0.268601499842192 -0.0407975769238146 0.823229151695962
-0.269275000416509 -0.0356818321665219 0.833500876063902
-0.268675746531878 -0.0402336173252703 0.842356074429886
-0.269122644257294 -0.0368390920894732 0.855278037599569
-0.269465727631363 -0.0342331151398833 0.855787725974445
-0.269395744744234 -0.0347646879426128 0.868139079226797
-0.268615321640778 -0.0406925899403561 0.877375359585643
-0.269258301428774 -0.0358086735712843 0.888806273270341
-0.269476747769422 -0.0341494088808997 0.901555214219426
-0.268592817478604 -0.0408635260227474 0.910670955363977
-0.269233030920714 -0.0360006221368177 0.921368966404786
-0.269188856272083 -0.0363361619058303 0.920096699342666
-0.266829432884828 -0.0378275196376994 0.93365142626219
-0.265710253892754 -0.0361722525475205 0.934977086233227
-0.258427369245741 -0.0354828426596146 0.942287650840034
-0.252630413209841 -0.0376042339139015 0.947758115990806
-0.249135634889917 -0.0344460037071651 0.951635227760775
-0.237953109825611 -0.0403460606906364 0.961951972801032
-0.23689980976417 -0.0381712058983352 0.963280137249102
-0.231184628233898 -0.0388258076028722 0.968860981941195
-0.224218618529404 -0.039539097662284 0.975674293431592
-0.220312860632291 -0.033329190385909 0.980357192579279
-0.214857037630735 -0.0345665995000175 0.985604825958854
-0.213645456663699 -0.0384330404890806 0.988830662357561
-0.206620272683293 -0.0419509578501388 1.0
-0.17893624094902 -0.0332398174589384 0.986301369863014
-0.157500901171018 -0.0420377125416081 0.986301369863014
-0.146109184339311 -0.038614069916957 0.986301369863014
-0.129652426565113 -0.0383088452685326 0.986301369863014
-0.126437882251823 -0.0408808705396477 0.986301369863014
-0.100305094225124 -0.0386574402389625 0.979452054794521
-0.08163287527453 -0.0354831448597497 0.979452054794521
-0.0623536654539342 -0.0420468894439438 0.979452054794521
-0.0559452542498823 -0.0441743815718041 0.979452054794521
-0.0335295309243501 -0.0394528427486357 0.979452054794521
-0.0375360607525132 -0.036070147544929 0.979452054794521
-0.00869326614395371 -0.0399514002109153 0.981552537646822
-0.00212900605584604 -0.0424766716614439 0.979452054794521
0.0195018314945871 -0.0408477914117171 0.979452054794521
0.0355001986578502 -0.0391207988269635 0.979452054794521
0.0457221503450291 -0.0455283475891494 0.979452054794521
0.0622162904662688 -0.0415667935314632 0.979452054794521
0.089348707694505 -0.0404520472663301 0.979452054794521
0.0925145003693894 -0.0457987186965319 0.979452054794521
0.109925782571087 -0.0373386593769049 0.979452054794521
0.121484431714834 -0.0392522472385329 0.979990581109508
0.137856636306579 -0.0385630339673098 0.986301369863014
0.151096542709634 -0.0374161851981257 0.986301369863014
0.17217680229109 -0.0398481361455087 0.986301369863014
0.187346827205197 -0.0467102214836001 0.986301369863014
0.186370916991794 -0.0467152771335304 0.986301369863014
0.206002885355779 -0.0440094920046515 0.997447646672554
0.20739829333336 -0.0382724264678934 1.0
-0.270346609073071 -0.0275421563062112 0.261107307472528
-0.270275257748926 -0.0280841234200289 0.267084506912529
-0.270861736261901 -0.0236293768430759 0.275067078727849
-0.270010009442796 -0.0300988843322168 0.289996382880106
-0.270777571743653 -0.0242686698287014 0.300230860414252
-0.270493735451007 -0.0264246205159142 0.306874390443042
-0.270043194126685 -0.0298468216330802 0.314544410649063
-0.270416027088839 -0.0270148741274414 0.318334889226204
-0.270958308157371 -0.0228958404708845 0.338634809265459
-0.270412793807498 -0.0270394333374842 0.342230009746404
-0.269956808935312 -0.0305029823057275 0.351644027099923
-0.269969106781829 -0.0304095708874695 0.357077671618955
-0.270867346669184 -0.0235867615688858 0.363584656811534
-0.270047881780778 -0.0298112153652233 0.375321116158989
-0.2707871710528 -0.0241957558367745 0.396297676813269
-0.270795867740567 -0.0241296979348999 0.401562239380725
-0.27056569919912 -0.025878001580219 0.412146988707376
-0.270449825461899 -0.0267581499962685 0.418244023086524
-0.270814518857438 -0.0239880286372222 0.428771265087232
-0.270328690101053 -0.0276782644116069 0.438002287928221
-0.27022426572638 -0.0284714462849999 0.436489191591585
-0.270941709413579 -0.0230219204473114 0.450686361332156
-0.269796707084494 -0.0317190765975341 0.459843805436247
-0.26986538903486 -0.0311973853905745 0.466181535875814
-0.270296886881532 -0.0279198338470805 0.48183661801551
-0.270568554288566 -0.0258563150228105 0.487887839756512
-0.270945235811848 -0.0229951347931573 0.497815677501556
-0.270462798817236 -0.0266596075791102 0.505243764804394
-0.270706425511327 -0.0248090791154981 0.521850573458553
-0.270515793801656 -0.0262570707082466 0.526676379099683
-0.270556850410548 -0.0259452148024039 0.537375759562681
-0.27018263745225 -0.0287876444194299 0.539578696297437
-0.270436180245712 -0.026861795703242 0.551876414039197
-0.2706509910253 -0.0252301458407271 0.557870661987879
-0.27051658207288 -0.0262510831938534 0.577240091936599
-0.270616971160767 -0.0254885523666656 0.581527128737529
-0.270184723225068 -0.0287718014019715 0.584480986945506
-0.270250011453569 -0.0282758880718178 0.590074940013681
-0.270673520356322 -0.0250590185819533 0.614619355582687
-0.270779448417417 -0.0242544150762426 0.619330781484788
-0.269998175271386 -0.0301887737883699 0.621883875621698
-0.270964204796766 -0.0228510510479547 0.636410046559934
-0.269871047710907 -0.0311544034787196 0.638843993786499
-0.270277670605504 -0.0280657959547585 0.653054915213518
-0.270255232655242 -0.0282362291077392 0.659290066283714
-0.27039967051411 -0.0271391146472095 0.669689164548621
-0.270448604660908 -0.0267674229004118 0.676042549135661
-0.270596184705106 -0.0256464411727429 0.688733302380077
-0.270743042480638 -0.0245309456202598 0.691155967767216
-0.270065707443325 -0.0296758160156264 0.705472509589902
-0.270971492676559 -0.0227956941050412 0.716411652339514
-0.270142002748331 -0.0290962956388485 0.719212657604719
-0.270031124244059 -0.0299385014936785 0.733245649167744
-0.270735786532003 -0.0245860600219448 0.745411690561458
-0.270202437048655 -0.0286372515536083 0.754309408526313
-0.270489943311511 -0.0264534246750847 0.760581316083974
-0.270667206404211 -0.0251069778096692 0.774270838209306
-0.269829630476109 -0.0314689986102778 0.778200376077743
-0.27045910214839 -0.026687686566699 0.790907556230494
-0.270785598665009 -0.0242076993078014 0.792966847460888
-0.270054125448031 -0.0297637900040135 0.800945515314659
-0.270074530183887 -0.0296088006477137 0.818680794422279
-0.270279492900978 -0.028051954246411 0.819301508093397
-0.270257456620787 -0.0282193364123082 0.83458500997264
-0.270180653691235 -0.0288027125803172 0.840820863876541
-0.270110930716842 -0.0293323111498139 0.854283427240717
-0.269972371842453 -0.0303847702898131 0.860129273175608
-0.270164605724498 -0.0289246089896605 0.871070452254733
-0.270439253581163 -0.0268384514028449 0.882801802046275
-0.270578950219154 -0.0257773500902956 0.889652882820074
-0.270449708396229 -0.026759039198312 0.904326437776521
-0.270258887769967 -0.0282084657550357 0.912443202449496
-0.270361382315038 -0.0274299423927804 0.923969789478801
-0.270543098298451 -0.0260496724644304 0.926384295132232
-0.270554511892578 -0.0259629776098917 0.929886924082
-0.264693943223504 -0.0243315444698719 0.93753022476238
-0.259687329959562 -0.0280148874041173 0.942013233027954
-0.255431209917844 -0.0296737670525465 0.946016414128844
-0.247768346734958 -0.0294412878985748 0.953644065073665
-0.242112094023954 -0.0263043312821286 0.959661382760926
-0.237988359060364 -0.0288097965697998 0.963422809756505
-0.229766399032079 -0.0280771627942678 0.971670057673981
-0.230381915753142 -0.0255332160974274 0.971391858459343
-0.224581846821301 -0.0270444548234061 0.976945050760994
-0.217057751803151 -0.0281457319293323 0.984261030596011
-0.215031284932797 -0.0279066297145504 0.992944694320948
-0.183678269338256 -0.0290840771173442 0.986301369863014
-0.180437536434692 -0.029701282870024 0.986301369863014
-0.161746132792684 -0.0313759955855188 0.986301369863014
-0.147692821915011 -0.0262484225825544 0.986301369863014
-0.134882394414262 -0.0244061063493658 0.986301369863014
-0.120583631538803 -0.0262162102950703 0.986301369863014
-0.107151508654001 -0.0293483687986098 0.97945205479452
-0.0949196708474333 -0.0275934425286173 0.979452054794521
-0.0764379064174928 -0.0261613283392105 0.979452054794521
-0.0605111618596143 -0.0292730739829627 0.979452054794521
-0.0462580283963889 -0.0331188766145041 0.979452054794521
-0.0264597025520503 -0.0327718913019665 0.979452054794521
-0.0162650038424789 -0.0284340715710256 0.986301369863013
-0.00687545497768341 -0.024960053109129 0.986301369863014
0.00492948420016586 -0.0274498949495591 0.986301369863014
0.0398616098185977 -0.0296952227749191 0.979452054794521
0.0495591712575443 -0.0324582221553666 0.979452054794521
0.0603765964947887 -0.0314884442751683 0.979452054794521
0.0805548885144481 -0.0323776248488564 0.979452054794521
0.0920864601690592 -0.0279764986899412 0.979452054794521
0.110128689489232 -0.0346552443233768 0.979452054794521
0.113151663804085 -0.0318329128834069 0.979452054794521
0.126914356812253 -0.0274682798992008 0.986301369863014
0.142521225584701 -0.0280489226200907 0.986301369863014
0.171235557956551 -0.0346431400230746 0.986301369863013
0.178439607918865 -0.0284354334157489 0.986301369863014
0.191956052465479 -0.0363368313302531 0.986301369863013
0.207434794252995 -0.0331330641095813 0.994699927232124
0.20700774711098 -0.0363768091948595 0.999552297590686
-0.271256432761067 -0.0206313592862594 0.256443554052686
-0.271975117171153 -0.0151724092225987 0.268293103277621
-0.271384427424926 -0.0196591432918418 0.279089614262693
-0.27188474228172 -0.0158588746606952 0.288572704489884
-0.27133328092158 -0.0200476395549886 0.294696927106163
-0.271959063175227 -0.0152943514281811 0.307005024535811
-0.271184109970189 -0.0211807054225109 0.313210109038484
-0.271843070447845 -0.0161754036642398 0.329947165807435
-0.271062646870837 -0.0221033092589631 0.330350622828131
-0.271626012236195 -0.0178241244680809 0.343181339309855
-0.271471683746607 -0.0189963657275811 0.34533890246121
-0.271586367477812 -0.0181252563046129 0.366569273650012
-0.271096673015387 -0.0218448550315497 0.372720177830833
-0.271497542280987 -0.0187999506587032 0.380698207299857
-0.271300076783805 -0.0202998500210521 0.388201325940832
-0.272139592799267 -0.0139230927939061 0.398555837527032
-0.272176138255514 -0.0136455024943211 0.413607116535901
-0.272070953973974 -0.0144444564334253 0.421505134618015
-0.271271103971105 -0.0205199203822709 0.42586333232302
-0.272052360117872 -0.0145856907923753 0.432480110223828
-0.271594168658804 -0.0180660004520105 0.44202927945022
-0.272064854633417 -0.014490785524536 0.456936748512754
-0.271294401461258 -0.0203429583756319 0.46003785514848
-0.271914996224502 -0.0156290731503834 0.472543378692227
-0.271881994761359 -0.0158797441497764 0.476902927582616
-0.271505793033457 -0.0187372799717007 0.48953952561619
-0.271994888377787 -0.0150222319984899 0.498110086181744
-0.271371289962529 -0.019758932225874 0.509333856518694
-0.272071624252499 -0.0144393651625582 0.513788625482488
-0.271625124018344 -0.0178308711524665 0.522314085592231
-0.271973759522893 -0.0151827215849497 0.539629307799369
-0.271323326230418 -0.0201232529413204 0.54380155371259
-0.27189426445987 -0.0157865465368502 0.548500273378659
-0.271812417329233 -0.0164082372160014 0.567589593178876
-0.271545948334306 -0.0184322701801336 0.572882427905085
-0.271897393214734 -0.0157627812842239 0.580628227580483
-0.271833530253139 -0.0162478686374052 0.591490294221483
-0.271173801356153 -0.021259007119976 0.595800214602155
-0.271632694305318 -0.0177733691140509 0.603771483019808
-0.271225616173361 -0.0208654345090674 0.618430008957268
-0.271116248432611 -0.0216961649756685 0.623181030956542
-0.271587959544164 -0.0181131633600737 0.634170783238682
-0.271290309271686 -0.0203740416414018 0.640620081652792
-0.27192000566342 -0.0155910226841158 0.656583371273243
-0.271953302541344 -0.0153381077866899 0.667339842704384
-0.271463549458845 -0.0190581517772992 0.670827513185895
-0.272161802235858 -0.0137543953745741 0.68360717659998
-0.272184189665548 -0.0135843459634372 0.69301756228064
-0.271056018402736 -0.0221536574728034 0.697883337123114
-0.271135832942006 -0.0215474058578836 0.703446365642124
-0.271183643225386 -0.0211842507012747 0.715882522799895
-0.271384207834352 -0.0196608112478438 0.726199079594407
-0.271259576514355 -0.0206074801092935 0.735723248032236
-0.271624583159804 -0.0178349793809517 0.743034259886601
-0.272027400597649 -0.0147752771707628 0.75736764270007
-0.271405077612542 -0.0195022895443261 0.759907611174961
-0.272042771565968 -0.0146585230749418 0.773182288537173
-0.271001168562434 -0.0225702833728595 0.785880464004662
-0.27216844735887 -0.0137039206541336 0.795420574776693
-0.271411206897969 -0.0194557329993409 0.801689540580691
-0.271615362802807 -0.0179050149455286 0.808029940366963
-0.271812487908953 -0.016407701109798 0.816229010593732
-0.271450345839252 -0.0191584432251224 0.829388026444981
-0.271650828206188 -0.0176356284619423 0.832366985968589
-0.272080315079389 -0.0143733517784672 0.844964641050164
-0.271412712348108 -0.0194442979702605 0.849355650899669
-0.272048986561057 -0.0146113155004287 0.863514065495346
-0.271998368461337 -0.0149957981395519 0.874875605497614
-0.271743475768206 -0.0169319003617069 0.878668154052547
-0.272019050928459 -0.0148386992048528 0.88242466892128
-0.271869820650202 -0.0159722157046686 0.897586674564944
-0.271783008487317 -0.0166316195479368 0.907828938732519
-0.271976653932043 -0.0151607363647511 0.920392797232978
-0.271657477627352 -0.017585121093792 0.928974961336676
-0.268408040263352 -0.0146888906992691 0.935106521217152
-0.263650674139418 -0.0187644408092089 0.939291221377347
-0.262045291626145 -0.0184570172136854 0.940922996451994
-0.252688365570047 -0.014723806253965 0.950687154519893
-0.2461607749243 -0.02294820097018 0.956085401797148
-0.24232873456344 -0.020854037106223 0.960158001756546
-0.237131010209858 -0.0175511203420973 0.965742376006185
-0.232047077125425 -0.0151305750261181 0.971098759901504
-0.226703097640679 -0.0157487652159091 0.976316330889402
-0.22516485162344 -0.0143111237788482 0.97802906686128
-0.215747142358092 -0.0224691527322406 0.987224575764756
-0.216361043873811 -0.0178061077694131 0.992746852320076
-0.185241776260916 -0.016701841198502 0.986301369863014
-0.177198982624842 -0.0142460677565095 0.986301369863014
-0.174410704007837 -0.0209562913257316 0.986301369863014
-0.146424837946545 -0.0203281688153773 0.986301369863014
-0.142597583292484 -0.0145839654529239 0.986301369863014
-0.127424708263024 -0.0217644867744441 0.986301369863014
-0.0972774930603862 -0.0216622651406742 0.979452054794521
-0.0821760774662403 -0.0211134999478996 0.979452054794521
-0.0632191466483101 -0.0215061583653246 0.979452054794521
-0.0533889615378591 -0.0221552353223094 0.979452054794521
-0.0355237944729972 -0.0241279783448025 0.979452054794521
-0.0329835072955923 -0.023944903519568 0.984642113193097
-0.0327943753679233 -0.0241913850465211 0.985241092274762
-0.00906084273287353 -0.0204366670042214 0.986301369863014
0.00770485030556345 -0.0231444641912873 0.986301369863013
0.0159551143020855 -0.0194163044691004 0.986301369863014
0.0306033293180626 -0.0247753141726862 0.986301369863014
0.0621107420585527 -0.0167289840364481 0.979452054794521
0.0824363231246777 -0.0219723299989078 0.979452054794521
0.0916115668919802 -0.021861989208543 0.979452054794521
0.101558216466744 -0.0221968624974898 0.979452054794521
0.119002319842376 -0.0208361918154501 0.986301369863014
0.12633271366802 -0.0259022045457703 0.986301369863014
0.142165874674866 -0.0182339482638949 0.986301369863014
0.159146402878274 -0.0187081560010656 0.986301369863014
0.17408329107448 -0.0225030190644144 0.986301369863014
0.197361891759914 -0.0193999677411811 0.986301369863014
0.208831682255489 -0.0225226463196138 0.992243609001641
0.209473309414262 -0.0176490041895309 0.996136290700243
0.215017629483136 -0.0169060444935065 1.0
-0.273208535125222 -0.00580366972526431 0.26485926631708
-0.273135817504406 -0.00635601489264535 0.277966614985471
-0.272200378785688 -0.0134613773875577 0.281350870515812
-0.272588120775406 -0.0105161845744764 0.293509671925002
-0.272476325895192 -0.0113653509956438 0.302472785512893
-0.272276089246433 -0.0128862993439723 0.315670634181256
-0.273141025142216 -0.00631645895633883 0.319428588801482
-0.272490230170885 -0.0112597375363705 0.324293466641526
-0.273287099135403 -0.00520691682181889 0.338292339862049
-0.272500785987095 -0.0111795581519734 0.343469838800774
-0.272581094052931 -0.0105695578306158 0.355601237433266
-0.273275715401616 -0.00529338486455322 0.367941343861382
-0.273364847251061 -0.00461636125255577 0.373628284497825
-0.272589660608576 -0.010504488380339 0.382858889489478
-0.272751921895773 -0.0092719915407822 0.394975302777186
-0.272837137335832 -0.00862471601148073 0.400250615244875
-0.272661730060291 -0.00995706654607925 0.4156428927879
-0.273367513365528 -0.00459611010262545 0.418850849794889
-0.27224851373728 -0.0130957561310349 0.428817256407957
-0.272443818052754 -0.0116122725735434 0.436005222243145
-0.273229276619834 -0.00564612243226164 0.448256086148641
-0.272412051782984 -0.0118535613477848 0.453160138275111
-0.27220120235554 -0.0134551217534607 0.462267819470797
-0.272354092062483 -0.0122938091331555 0.46942940864837
-0.273097952205678 -0.00664363039118815 0.486536239226527
-0.272936176545445 -0.00787243852774646 0.485805860448856
-0.272168348567135 -0.0137046710518547 0.502867875112797
-0.272845509907371 -0.00856112001678027 0.506739811268487
-0.273090720279681 -0.00669856232282557 0.51563153938384
-0.273068700065399 -0.00686582245602539 0.527697114177948
-0.272560162971842 -0.0107285451758778 0.540113974566221
-0.272906318178543 -0.00809923534093741 0.545307497112784
-0.272261684566473 -0.0129957137510223 0.556775270019267
-0.272174658760337 -0.0136567403758878 0.564201922877551
-0.272259955419032 -0.0130088479298125 0.579713096197666
-0.272929242741743 -0.00792510599573567 0.580219523715411
-0.272697478011064 -0.00968553390197243 0.590521374698016
-0.273358828610047 -0.00466207736979414 0.602428200611578
-0.273021717807964 -0.00722268813115624 0.608072816971557
-0.273044063020333 -0.00705295939240382 0.619037869303285
-0.272223923637623 -0.0132825364816347 0.628207471162469
-0.272606265870019 -0.0103783588974377 0.642696639973082
-0.27271708298744 -0.00953661932202993 0.643129883036249
-0.272935675554305 -0.0078762439332533 0.655486223213945
-0.27330404229933 -0.00507822071474258 0.663101076144342
-0.273028560348741 -0.00717071387391008 0.676181602277254
-0.272241680359914 -0.0131476607852639 0.679302322585135
-0.272993854266992 -0.00743433273709432 0.689465149012032
-0.272251244251368 -0.0130750158174158 0.703822960045855
-0.272811031665335 -0.00882300826552768 0.709531694734907
-0.27312251407342 -0.00645706448327293 0.726187825597075
-0.272207446783092 -0.0134076906172082 0.725563630429123
-0.272856714368929 -0.0084760136818246 0.736115973130071
-0.272329060915905 -0.0124839395677229 0.741380442256704
-0.272322275863838 -0.01253547715486 0.758295256172685
-0.272880681826327 -0.00829396276871824 0.761516864864855
-0.273075567347914 -0.00681366026662026 0.775532710140721
-0.272925393055084 -0.00795434726900171 0.782241922372788
-0.273217514562802 -0.00573546412533736 0.786615181161853
-0.272323736834933 -0.0125243799776635 0.800733931689453
-0.273226521476689 -0.00566704982213777 0.812620680411169
-0.272390669269288 -0.0120159776641336 0.823496441480025
-0.272495555061827 -0.011219290974088 0.83195556648871
-0.272807699743945 -0.00884831672112718 0.834094237400863
-0.272753010383478 -0.0092637236558186 0.850825709651207
-0.272209391317859 -0.0133929204092458 0.855151015159647
-0.27338429324605 -0.00446865425613939 0.871705558784079
-0.272460023074951 -0.011489183209538 0.87572392132197
-0.272950925461013 -0.00776040939165768 0.880698818916896
-0.273126784118645 -0.00642463026969041 0.891255268600243
-0.273172485726019 -0.00607749209752406 0.898925781866173
-0.272382022922574 -0.0120816531877578 0.909621637610798
-0.273287987845255 -0.00520016640031687 0.920151084960764
-0.272344781730936 -0.0123645281223002 0.930711579895901
-0.272190787387547 -0.00817798365161216 0.932205979923821
-0.267000703593759 -0.0123304127520993 0.936809661072321
-0.255742889472907 -0.0135871920347275 0.94780712041852
-0.255442264685718 -0.0054004248292029 0.949173760868908
-0.250693795505728 -0.00706342476086456 0.95366454118806
-0.246766076586218 -0.0075947904877732 0.957489300782719
-0.238933383054869 -0.0072412308494395 0.965301133328405
-0.229533065255105 -0.0101549024279498 0.97424071964974
-0.229759533055824 -0.0103391910098575 0.973992134825583
-0.225473052094155 -0.00815766369159068 0.978526690802484
-0.21825198442088 -0.0139516832873237 0.984929709925306
-0.215048101047842 -0.0113551496563853 1.0
-0.211714231121077 -0.0107835908288971 1.0
-0.173002359118233 -0.0107214200515654 0.986301369863014
-0.161504017916151 -0.011118190878597 0.986301369863014
-0.155810353243851 -0.00906927056571853 0.986301369863014
-0.12962470458839 -0.0136832724905239 0.986301369863014
-0.131245519125249 -0.013205704180173 0.986301369863014
-0.0910357452318352 -0.00641759247712989 0.979452054794521
-0.0881457919955427 -0.0143927474362395 0.979452054794521
-0.0758568202055894 -0.010187192975208 0.979452054794521
-0.0585395951917424 -0.00745664245203293 0.97945205479452
-0.0401182370100025 -0.007426014841132 0.985047088116801
-0.0402067892331475 -0.00675339392798671 0.985518495210538
-0.0191558692099504 -0.00873012653712063 0.986301369863014
-0.00115416236619447 -0.00892113816967313 0.986301369863014
0.00518461879370601 -0.0110155979892127 0.986301369863014
0.0223314306391638 -0.0146937113811687 0.986301369863014
0.0322783217043313 -0.0143691739046221 0.986301369863014
0.0692228097932795 -0.010539724569217 0.979452054794521
0.0722696768114961 -0.00758334772081621 0.97945205479452
0.0851271634485632 -0.00795263602464081 0.979452054794521
0.112540524824875 -0.00673400340866755 0.979452054794521
0.119502767084563 -0.0110633539021662 0.986301369863014
0.133447535351037 -0.00954375817733054 0.986301369863014
0.138541533155629 -0.00549536504824476 0.986301369863014
0.158168357802885 -0.0107124388136501 0.986301369863014
0.188971674886441 -0.0109581141447055 0.986301369863014
0.188182842871377 -0.00711580935644971 0.986301369863014
0.210625052878436 -0.0089006440347226 0.989712408651992
0.210312330664739 -0.0112760050755537 1.0
-0.273896814000236 0.000575672629683493 0.266906155853503
-0.273475803627786 -0.00377356389772027 0.269799329710288
-0.273803604578297 -0.00128366847971915 0.276104145365288
-0.273666698614154 0.00232357251991697 0.296573287340847
-0.273553915026365 0.00318024892070882 0.300586085464193
-0.273973332471134 5.54286034369044e-006 0.304580156216107
-0.273813333494846 -0.00120977002183058 0.316249960459405
-0.273484284529162 0.00370914505620896 0.33360260754189
-0.273666106321572 -0.00232807142873083 0.339922648200207
-0.273795221337737 -0.00134734551368055 0.34761289747839
-0.273787781059896 0.00140386003469383 0.360382511121688
-0.273923053685648 -0.000376362431294786 0.371152964061188
-0.273667037335453 -0.002320999676211 0.377343932752109
-0.273710285259123 -0.00199249908212933 0.378687929785804
-0.273471291289879 -0.00380783850692725 0.385246510662346
-0.27390408097003 0.00052047451398225 0.401530407648528
-0.273458024295533 0.0039086113337937 0.406721328319097
-0.273701060053711 0.00206257147408261 0.419429603297635
-0.273447631009911 0.00398755617580843 0.424394017497494
-0.273614257351738 0.0027219034545857 0.435460809052964
-0.273895747387028 0.000583774361343154 0.440801524129442
-0.273922476732988 -0.000380744821839001 0.461590395141604
-0.273690487085648 -0.00214288113972552 0.466668758680696
-0.273377159450303 -0.00452284081452567 0.470303768979708
-0.27376194410096 0.0016001112217895 0.481094813430157
-0.273925433041816 0.000358289426895149 0.490368696781692
-0.273539383510595 -0.00329062674138219 0.49679574438264
-0.273669970805749 0.00229871775714897 0.505031855456838
-0.273749484565301 0.00169475079101598 0.51842846606743
-0.273612820134417 0.00273282020396556 0.524255809828326
-0.273487046342893 -0.00368816699820351 0.532063668174758
-0.273453995380076 -0.00393921398495313 0.543801817272448
-0.273791590589457 -0.00137492378486288 0.54853512124017
-0.273817354989195 -0.00117922373958588 0.566149252591458
-0.273758520839709 0.00162611347251932 0.575596161161408
-0.273730280173578 -0.00184062262842381 0.577484452696774
-0.273498433161118 -0.00360167552684098 0.584529544117615
-0.273976732190613 -3.13662935608787e-005 0.601537434687304
-0.273509025775186 -0.00352121663496957 0.610897752966066
-0.273833896569559 -0.00105357796250798 0.622738645639773
-0.273747661883212 -0.00170859543597823 0.630291139760884
-0.273644113446195 0.00249512390231884 0.638340619008305
-0.273580892466375 -0.00297533491980128 0.64270745222305
-0.273710969002816 0.00198730553316378 0.651101886597837
-0.273434877729369 0.00408442695893164 0.670156601872877
-0.273777264394624 -0.00148374203818114 0.671023235300295
-0.273935277373867 0.000283514301235587 0.686240231137522
-0.273827265893099 -0.0011039429504959 0.691058589519426
-0.273619254520157 -0.00268394619201045 0.69479580048022
-0.273382632003379 -0.00448127264699158 0.712369934102958
-0.273684969184307 0.00218479376153493 0.716701735886985
-0.273584355035615 0.00294903409526363 0.731013424547962
-0.273737246452165 -0.00178770848919636 0.734632809223104
-0.273444084083456 -0.00401449775700859 0.747224104471324
-0.273461645328242 0.00388110685971287 0.757682799205286
-0.273838305281411 0.00102009047132371 0.768140048960047
-0.273825448015976 -0.00111775109812543 0.777259419953103
-0.273421216366635 -0.00418819531110237 0.782835154522129
-0.273604199464853 0.00279830069026505 0.794548784434356
-0.273366230210685 0.0046058566313118 0.802641574390537
-0.273692982930612 0.00212392331508008 0.809621935893953
-0.273993032537541 0.000155179720776997 0.822519336285464
-0.273980143296656 5.72762163153526e-005 0.829328212636669
-0.273481335830987 -0.00373154264250024 0.838643489906303
-0.273700146971175 -0.00206950702450709 0.842128201606872
-0.273999345971182 0.000203135010321573 0.855394145620173
-0.273398382106076 -0.0043616387396531 0.868667770412886
-0.273693821725306 -0.00211755203683453 0.876761845726174
-0.273591637096806 0.00289372134901582 0.884068738763298
-0.273376526050251 -0.00452765196557456 0.892948757688291
-0.273529031460204 0.00336925837072134 0.89817611382204
-0.273786451071704 -0.00141396229797452 0.905016006059813
-0.273561680608412 -0.0031212634689425 0.920245477032331
-0.27378649374849 0.00141363813560213 0.929882802683705
-0.273682177567713 -0.00220599819476186 0.929696610990588
-0.263514042798406 0.00152002338151642 0.941677531962187
-0.258566142032389 0.002204041738639 0.946493820439678
-0.253905946510345 0.00347476738733705 0.950948284362724
-0.245440681437633 -0.00216304049223632 0.959512342636082
-0.242206364882125 0.00369594411136916 0.962518905092651
-0.238686330296196 -0.000782965832435861 0.966389045257496
-0.232406203586388 0.00262851344149894 0.972374552310741
-0.226747438114681 -0.00443690263270546 0.977748864104204
-0.221491679691361 0.00147705876241751 0.983345995935583
-0.218221180632016 0.00367696633804252 0.989748979785485
-0.21833825083535 -0.00278772985959843 0.994258266332754
-0.216023009385434 0.00160970599325304 1.0
-0.180509519247677 0.000418432033033156 0.986301369863014
-0.159195174335541 -0.00374731869564218 0.986301369863014
-0.145840171993992 0.00372012056690819 0.986301369863014
-0.129936468334166 -2.03864911947227e-005 0.986301369863014
-0.120863617179213 -0.00124063785379494 0.986301369863014
-0.0909424668449901 -0.00359470899433548 0.979452054794521
-0.08092817948669 0.00202214839026183 0.979452054794521
-0.0776253183394338 -0.000672309463554158 0.979452054794521
-0.0568657242474753 0.00105196866334542 0.979452054794521
-0.0455010520850552 -0.00378919167847655 0.979452054794521
-0.0337005391456924 -0.000301206894740378 0.986301369863014
-0.0311286620426064 0.00466897525907501 0.986301369863014
-0.0117742143585033 -0.000901983835907404 0.986301369863014
-0.00319201545297918 -0.00241900669942691 0.986301369863014
0.0191384658477734 -0.00253849586572106 0.986301369863013
0.0278366931738229 -0.000243428019117217 0.986301369863014
0.0577070035508784 -0.00188470629189311 0.979452054794521
0.076699542686102 -0.0025936757967912 0.97945205479452
0.0868987314418806 -0.000461966657283402 0.979452054794521
0.106329101347531 0.00454087348571132 0.979452054794521
0.115475921502919 -0.00262103074373652 0.986301369863014
0.134418154982825 -0.000970197146132719 0.986301369863014
0.155637996965345 0.00523466571938032 0.986301369863014
0.165834408171846 0.0035322703259997 0.986301369863014
0.179799711940786 -0.00504071373202447 0.986301369863014
0.196816207802216 -0.0012576294918916 0.986301369863014
0.211511617415248 0.00216651780803691 0.989151881983426
0.216531359456952 0.00369690358737986 1.0
-0.272983776995712 0.00751087721186054 0.257394023677907
-0.27317377838998 0.00606767333993289 0.271182489750729
-0.273348724142676 0.0047388284193854 0.280450269017165
-0.272579043962281 0.0105851298151014 0.293709594994813
-0.27320657050975 0.0058185924613241 0.302086097913472
-0.273277966130009 0.00527628888511281 0.313009376366377
-0.273230049312907 0.00564025324567462 0.316502452576194
-0.272266280932262 0.0129608008866818 0.322547769028493
-0.272655593724817 0.0100036766414963 0.338374859790335
-0.272988988046533 0.00747129535115931 0.346937016218896
-0.272265391409665 0.0129675574815971 0.358092077503599
-0.272443365032131 0.0116157136068033 0.366785939857095
-0.272284716256961 0.0128207706932742 0.369016339735238
