ply
format ascii 1.0
element vertex 877
property float x
property float y
property float z
end_header
0.131804197147465 -0.0410362397248348 0.984375
0.143910047758646 -0.034514257692231 0.984375
0.154366089913572 -0.0231118033000635 0.984375
0.160941634970491 -0.00982070087557244 0.984375
0.173015278795942 0.00396542990333031 0.984375
0.192209355297264 0.012590304993991 0.984375
0.195924007542792 0.0145353470562603 0.984375
0.217849912327205 0.035355085281399 0.984375
0.218250359145084 0.0431517046209472 0.985359253292081
0.223075796878474 0.0385971103888623 0.989486551633486
0.233850105481072 0.0447943810237512 1.0
0.238319540636509 0.0544149392329842 1.0
-0.0969321592150691 -0.239310891525871 0.231813467521384
-0.0924040102049031 -0.241186512258328 0.235704744217715
-0.0974136791603996 -0.239111439433962 0.246077321659191
-0.0919542096324445 -0.241372825755803 0.256959773203673
-0.0984658540085622 -0.238675614341865 0.265008521584638
-0.100365848787735 -0.237888610735893 0.273897414509752
-0.0970936501200049 -0.239243999802847 0.283356868939393
-0.0968018995482245 -0.239364846846508 0.298551810523635
-0.0901816924922241 -0.242107026394822 0.299956863964261
-0.0939809035557357 -0.240533341645997 0.311023688801792
-0.0979517742276959 -0.238888553159242 0.320934254196031
-0.0984231481373896 -0.238693303692898 0.331292802361453
-0.0967416776452779 -0.239389791575461 0.341103621698081
-0.0957673940649919 -0.239793353048013 0.347206980500714
-0.100322078073736 -0.237906741159267 0.357405762535364
-0.0980923391849571 -0.23883032924755 0.366765746805965
-0.092798049193287 -0.241023295965236 0.37986768830918
-0.0988291334045997 -0.238525139089096 0.383971980737495
-0.0942662062695306 -0.240415165392561 0.398877654942616
-0.0972358946680205 -0.239185080181885 0.403661250316564
-0.094756402753664 -0.240212119360606 0.407414491876029
-0.0922293645971607 -0.241258852837664 0.417252549529465
-0.0980834609173923 -0.238834006746385 0.430054620467693
-0.0995960405422038 -0.238207475751619 0.437670133830392
-0.0964493782598187 -0.239510865945191 0.454965941031055
-0.0973019266534819 -0.239157728837956 0.454052207050396
-0.0954982134787046 -0.23990485129758 0.462181718576813
-0.092466777767169 -0.24116051308276 0.477650896367844
-0.0953147079994614 -0.239980861755853 0.48006971897579
-0.0974809087043274 -0.239083592045075 0.497384225058213
-0.100752637181672 -0.237728397737357 0.50912202977178
-0.0937984236835611 -0.240608927283912 0.513146884408254
-0.0958766831123464 -0.23974808404238 0.517493954461439
-0.0982651818946682 -0.23875873545303 0.5248837996496
-0.0967024716730146 -0.239406031220898 0.549820048037803
-0.0949029020306519 -0.2401514373732 0.544187056873253
-0.095697752313647 -0.239822199605927 0.556220426522854
-0.093027735103282 -0.24092815694623 0.571689358189984
-0.0964912565561532 -0.23949351938688 0.572232612757384
-0.092298818772809 -0.241230083976147 0.579869310955957
-0.100381915213801 -0.237881955804318 0.601364698992292
-0.0967974248804539 -0.239366700314586 0.610519902306024
-0.0968738768112508 -0.23933503288798 0.613149554308331
-0.0972840197848226 -0.239165146105815 0.617540444563892
-0.0942763004104094 -0.240410984262509 0.62916296485272
-0.091786139380936 -0.24144244273341 0.645462841419093
-0.101786420137057 -0.237300190816686 0.651816200145648
-0.0984482037350272 -0.238682925324543 0.663284108101164
-0.0938525125737648 -0.240586522932016 0.66632678768221
-0.0978449275502127 -0.23893281050215 0.682959404999843
-0.0913632658077063 -0.241617602702611 0.686561594195941
-0.100108235420453 -0.23799531768647 0.699428131931747
-0.0950079726665217 -0.240107915690815 0.706663858906109
-0.096397025584685 -0.239532551133258 0.719760193800102
-0.0974724769706858 -0.239087084583504 0.729405417785774
-0.0905132165244104 -0.241969704644438 0.735918442516652
-0.0984512873274645 -0.238681648058735 0.740929948808728
-0.0944388657495215 -0.240343647494277 0.754517133869619
-0.0980677887123157 -0.238840498386281 0.764536701789821
-0.0942160384296274 -0.240435945592244 0.771868409427973
-0.0963446507856792 -0.239554245485333 0.77699836818542
-0.0944359300327615 -0.240344863507974 0.79008801325697
-0.0972411308066988 -0.23918291130223 0.799542245023981
-0.0970483291802131 -0.239262772350768 0.807651131173903
-0.0903348402660203 -0.242043590509868 0.813900943489483
-0.0963086332971091 -0.239569164417581 0.827897031945228
-0.094835106215822 -0.240179519319174 0.835512393278857
-0.0981604039084827 -0.238802135915946 0.846066401686108
-0.0955895438560731 -0.239867021016618 0.854347329857275
-0.0925551447852599 -0.241123910265401 0.857373827625033
-0.0985627173826896 -0.238635492218604 0.872713059683464
-0.0946387851811935 -0.240260838154296 0.883227864394186
-0.099828290544388 -0.238111274650854 0.894005376107224
-0.100912982833358 -0.237661980393761 0.905027674842528
-0.0965340316259167 -0.239475801372853 0.909657471815665
-0.096078450606126 -0.23966450921001 0.923146475863261
-0.097347214563065 -0.239138969971595 0.929412134339132
-0.0947554587338461 -0.240212510386418 0.934653689835639
-0.0924259064006838 -0.239169508068906 0.94378688615878
-0.0967696147850041 -0.234940906638813 0.951393322621623
-0.0941436560524429 -0.233000706741829 0.960873766633812
-0.0916538240449681 -0.231586118481338 0.968531964956176
-0.0867791373626132 -0.229986270327385 0.979863161668983
-0.0869777207014891 -0.230211362046494 0.978900849611124
-0.0837524757068839 -0.236036923104533 0.992739371688117
-0.0861498126302505 -0.225623417829874 1.0
-0.0650501012282385 -0.203890603664839 0.984375
-0.0461070465176051 -0.192945339649976 0.984375
-0.0464653195333042 -0.187775206254459 0.984375
-0.0299599822408152 -0.178388651839284 0.984375
-0.0163392144072184 -0.167070099392781 0.984375
-0.00857075213684404 -0.159431237355622 0.984375
-0.00562258479629296 -0.148539841016419 0.984375
0.00981592051877956 -0.148498926841184 0.984375
0.0188866612584769 -0.127708828587074 0.984375
0.0305130640893652 -0.122907320516418 0.984375
0.0470005507804208 -0.110482945608817 0.984375
0.047855197296896 -0.0997867373831489 0.984375
0.0584907591494241 -0.0909635595352254 0.984375
0.0740305666512007 -0.0729781941304493 0.984375
0.0845172442088554 -0.0695284346798883 0.984375
0.0907990553217433 -0.0657693445218649 0.984375
0.106764220289458 -0.046047945590751 0.984375
0.119331636696834 -0.0445491477692783 0.984375
0.124130838931865 -0.0324173455444067 0.984375
0.146781695668866 -0.0164046425214019 0.984375
0.160438952714173 -0.00669603560296218 0.984375
0.166433382589044 0.0020540609226787 0.984375
0.170593271412094 0.011903424962672 0.984375
0.188732544957282 0.0259292371173396 0.984375
0.200354464417456 0.0406033060400352 0.984375
0.202454368778788 0.0442671457660856 0.984375
0.220764123752388 0.0584910391867106 0.989786797269945
0.22951618807439 0.0593997824012306 0.998451675406652
0.232666781143045 0.0652115857208607 1.0
-0.105544311309451 -0.235743621327158 0.22656800626918
-0.102006816140938 -0.237208899802786 0.239886191862114
-0.106573467568482 -0.235317330846866 0.256784317871468
-0.10104367000542 -0.237607847994664 0.257169348053149
-0.103518684817388 -0.236582663292473 0.263778886309876
-0.106158801190312 -0.235489091284564 0.274306230464474
-0.108314362017765 -0.234596228755313 0.285686793441622
-0.103352598527176 -0.236651458486403 0.29820365023746
-0.11044539264613 -0.233713526967212 0.307569636311475
-0.101979892308843 -0.23722005201919 0.311374091857093
-0.105093425936402 -0.23593038416375 0.328976364407352
-0.10579126931691 -0.235641327971132 0.3317475086213
-0.105954089720237 -0.235573885551843 0.341437319089304
-0.106583269766956 -0.235313270643317 0.357014055092829
-0.10186179214521 -0.237268970708686 0.355745791852262
-0.105113562895794 -0.235922043162065 0.364279947342467
-0.100087512154429 -0.238003901544314 0.378596051508512
-0.106653934214158 -0.235284000470909 0.395866645589889
-0.106121564242069 -0.235504515333548 0.395472233653327
-0.106126632997507 -0.235502415786302 0.400156252908645
-0.108157678402725 -0.234661129233665 0.413505267301682
-0.102873877613062 -0.236849751181621 0.425147163099115
-0.103758793637766 -0.236483206962627 0.432392643017167
-0.103238015162526 -0.236698920470063 0.437767973855485
-0.0996391025358758 -0.238189638889818 0.448311898069944
-0.109092456314494 -0.234273931544803 0.461414086301294
-0.104794420739662 -0.23605423617146 0.466637069483874
-0.10304381951312 -0.236779358941801 0.477712404986731
-0.108292127265157 -0.234605438691399 0.488781325072019
-0.107859382205127 -0.234784687564314 0.499109719521179
-0.10711757670321 -0.235091953463851 0.512577620220458
-0.103381063997037 -0.236639667702727 0.523518975106718
-0.106919508475492 -0.235173996010047 0.521410248329956
-0.102623788484246 -0.236953341490578 0.535961573887915
-0.100760190609956 -0.237725269004919 0.537721557674412
-0.107800610509277 -0.234809031597818 0.551009018209647
-0.105990124215084 -0.235558959575364 0.5645714770543
-0.106392035188816 -0.235392482599177 0.572568369927049
-0.104859245106561 -0.236027385039519 0.576852400248383
-0.10267237164615 -0.236933217686015 0.592615540679865
-0.104797473730736 -0.236052971581152 0.600478679913323
-0.101032835641801 -0.237612335735015 0.60745108956609
-0.104456893588699 -0.236194044495058 0.623891690922527
-0.108615460460497 -0.234471509696724 0.629038146552449
-0.103441423119576 -0.236614666135559 0.643801290433955
-0.101548365999908 -0.237398796068872 0.650854184151277
-0.109007399082128 -0.234309163404027 0.657090863753803
-0.109960030719161 -0.233914570460022 0.67116292777135
-0.103006753064858 -0.23679471236738 0.671674360701318
-0.102804342900617 -0.236878553402571 0.683408437944301
-0.104315759136952 -0.23625250429909 0.689971853598246
-0.105171105029903 -0.23589820842971 0.703874466209099
-0.104092283414069 -0.236345070974369 0.713901847499905
-0.105534729037756 -0.235747590434052 0.722585221267711
-0.104733831843119 -0.236079332914138 0.726864376766453
-0.104583873219718 -0.236141447809745 0.731871949013453
-0.104812425939562 -0.236046778173469 0.740237809543728
-0.108492434488762 -0.234522468722741 0.754631593274053
-0.103862876353334 -0.23644009449023 0.763456967405575
-0.105116056084309 -0.235921010449569 0.779590656534394
-0.107752984580239 -0.234828758903547 0.785046152542089
-0.109750675240054 -0.234001288338825 0.795026715219505
-0.107560922116008 -0.234908313781054 0.797839215018127
-0.106038948658352 -0.235538735828787 0.814524566068064
-0.103512253455253 -0.236585327249894 0.818717342268197
-0.105875256204078 -0.235606539463406 0.82347963105698
-0.105914574398875 -0.235590253333873 0.847331154470215
-0.103397172075332 -0.236632995518234 0.85392851699594
-0.10523569918192 -0.235871452655894 0.853578893071165
-0.107142757215458 -0.23508152335417 0.869197958214111
-0.107435294814366 -0.234960350313198 0.880568824010078
-0.103623484722285 -0.236539253750529 0.885408157368664
-0.105483508068144 -0.235768806854344 0.893205114676597
-0.109985474044755 -0.233904031489489 0.902854595646768
-0.108839861528606 -0.234378559730902 0.915556524021264
-0.107206310403382 -0.2350551987618 0.918501402898746
-0.101001193433813 -0.237625442366707 0.931009502048043
-0.107931601140057 -0.233137134927312 0.942564861241786
-0.10327960961605 -0.233667217733218 0.946938382281425
-0.0975193731641878 -0.233248649203815 0.955719446790696
-0.101412296680266 -0.231128629105098 0.95730849778022
-0.10152512066019 -0.226484619610093 0.971702668872522
-0.0943240413720586 -0.229416596085413 0.971861750534286
-0.0967388016507704 -0.22553883737681 0.980871366031529
-0.0928978129137834 -0.225514029102848 0.985930464086638
-0.0905106460627111 -0.222080817807271 1.0
-0.0908763583897462 -0.222303108412144 1.0
-0.0575914002966569 -0.19393610770563 0.984375
-0.0432640399344967 -0.178672913561456 0.984375
-0.0420214589403905 -0.172907569689416 0.984375
-0.0175917453842787 -0.15894332012756 0.984375
-0.0110492279879117 -0.15037981371652 0.984375
-0.0102400580268882 -0.146066813885404 0.984375
-0.00167435748683049 -0.134705316690406 0.984375
0.0113564011460566 -0.129021970258055 0.984375
0.0156565461298115 -0.115647321384384 0.984375
0.0267245340423866 -0.113872275202184 0.984375
0.0361878336917581 -0.0964204288302838 0.984375
0.0632318093994062 -0.0848144410115045 0.984375
0.067776982673595 -0.0692006286447676 0.984375
0.0716636124543782 -0.0710251335126774 0.984375
0.0916562352551382 -0.0562137177020154 0.984375
0.0926919367792996 -0.0442726790114239 0.984375
0.114344318018802 -0.0301281607997218 0.984375
0.113169565781471 -0.0275357620271811 0.984375
0.127209578918647 -0.0194321966767649 0.984375
0.149061007779505 -0.00213286509603717 0.984375
0.152675062617896 0.00513599123013866 0.984375
0.166270105165244 0.015821372351844 0.984375
0.175665256262933 0.0271987883289006 0.984375
0.19232184985567 0.0429610836379772 0.984375
0.197686755112134 0.0552130572777766 0.984375
0.213291123049827 0.0643052561667273 0.98501272377657
0.221532938052594 0.0701147883203384 0.994703945817644
0.225787264547063 0.077843689447417 1.0
0.231566154747726 0.0798109458945462 1.0
-0.113510340649389 -0.232443983936294 0.23788235219451
-0.118527125667682 -0.230365963542207 0.24608198158856
-0.112286019574614 -0.232951114330164 0.25394414472122
-0.118250071248842 -0.230480723240006 0.262362808606265
-0.109991135783271 -0.23390168632061 0.2755508025904
-0.116711639993445 -0.231117962330769 0.288919038412214
-0.116069520826852 -0.231383936798232 0.286386155514113
-0.119069148864783 -0.230141450182846 0.300759996264418
-0.113684112218779 -0.232372005395498 0.30490914209083
-0.116101488549473 -0.231370695333964 0.313403538057756
-0.115383935466628 -0.231667915552601 0.322274825511618
-0.116610749753641 -0.231159752436407 0.337731448774643
-0.114645284386596 -0.231973874847812 0.347585199397598
-0.11502135361897 -0.231818101871372 0.362266411776989
-0.118881459242891 -0.230219193769751 0.367085614709051
-0.111817398019461 -0.23314522373393 0.373896891901329
-0.111216771033109 -0.233394011577604 0.384431835977534
-0.111384384758787 -0.233324583699188 0.389049696881186
-0.110265127758878 -0.233788195128331 0.400920126010971
-0.114287970133923 -0.232121879257298 0.414801999985803
-0.114905029061435 -0.231866285080739 0.424332640806086
-0.110822159233863 -0.233557465136724 0.424864174691216
-0.118402415343739 -0.230417620249752 0.436749542233226
-0.111946134286961 -0.233091899425962 0.447274481759506
-0.119421241375512 -0.229995608689693 0.460769159456409
-0.115453585974912 -0.231639065367444 0.470135921627279
-0.116074670995587 -0.231381803528494 0.47156570872224
-0.118152369571787 -0.230521192599709 0.485544709404182
-0.115130168811113 -0.231773029142993 0.487665461563455
-0.11985797612316 -0.229814707234057 0.499533804730879
-0.120230888615529 -0.229660241822139 0.511034549457595
-0.113842573625546 -0.232306368531703 0.517139031101953
-0.116072934398708 -0.231382522850474 0.523108163760238
-0.110576656060992 -0.233659155880533 0.536996919126432
-0.114404605216403 -0.232073567424287 0.551678142435477
-0.115363777135044 -0.231676265406938 0.566671902247959
-0.118965082424701 -0.230184555913717 0.56587162741954
-0.113376349199924 -0.232499485011905 0.575097906345399
-0.114268289815517 -0.232130031112094 0.579973279202714
-0.117280304689458 -0.230882413701238 0.599099806099336
-0.111701637839563 -0.233193173170426 0.599588428548285
-0.11215672452297 -0.233004670094103 0.609682977659085
-0.114568779795619 -0.232005564086978 0.624265896107343
-0.119120262866147 -0.230120278070254 0.632441868360191
-0.120572686745247 -0.229518664401217 0.64129257311798
-0.11278857878945 -0.232742947487484 0.649243075867904
-0.113571971059635 -0.232418455784516 0.657600386947925
-0.116761224535965 -0.231097423740774 0.675395061745767
-0.113970043404984 -0.232253568820266 0.670253734935993
-0.111035886161064 -0.233468936544833 0.686475530353829
-0.113793179587211 -0.232326828212281 0.69349800259437
-0.118271231411849 -0.230471958413506 0.705424322487527
-0.113449744853425 -0.232469083536805 0.717934153886609
-0.112837521804664 -0.232722674626799 0.723773207203456
-0.118217707960626 -0.230494128552909 0.7317331422636
-0.114318520686377 -0.232109224804134 0.739116087520333
-0.117818313736227 -0.230659563057387 0.746683516109117
-0.111069051623965 -0.233455198960297 0.761617012158981
-0.117429882250905 -0.23082045664666 0.773939874256397
-0.117380984752127 -0.23084071065382 0.77439823631974
-0.114811385909214 -0.231905073344413 0.791980353853942
-0.11513255583702 -0.231772040404489 0.801080227756501
-0.114322169920718 -0.232107713241778 0.807002935599518
-0.117566812089507 -0.230763738450418 0.809290190835366
-0.116596027886486 -0.231165850433447 0.825498911215887
-0.115762541093663 -0.231511091967093 0.832176492352963
-0.118096594654395 -0.230544295326932 0.840990229927193
-0.114815572141695 -0.231903339350145 0.844732439918188
-0.115176034795158 -0.231754030830351 0.857380388913307
-0.113430867894642 -0.232476902629149 0.869097039839733
-0.116306122594077 -0.231285933137367 0.87670898661384
-0.117731366245496 -0.230695577887262 0.885212794743228
-0.117260548411365 -0.230890597019566 0.902825486413863
-0.116449985452051 -0.231226343190472 0.905225979902971
-0.11680433543214 -0.231079566622892 0.919125773545166
-0.111950280869496 -0.233090181855238 0.929208463113407
-0.116759849919871 -0.231097993125403 0.929797776057008
-0.117959617690033 -0.228241612760257 0.944887395758008
-0.1148389686795 -0.227186650551763 0.95223771104386
-0.11150957287395 -0.22543787659206 0.96203109201432
-0.109729063687219 -0.223933521266565 0.969050423963811
-0.106547399505031 -0.22572210057807 0.967576680748012
-0.10177513022742 -0.223740160083561 0.979971390494852
-0.10279751296617 -0.228148210375835 0.994134799877018
-0.110760203775335 -0.224849955849695 0.999369283876314
-0.077177995957465 -0.202900552284508 0.984375
-0.0724962975571323 -0.187853240335313 0.984375
-0.0545346309100968 -0.182836697961733 0.984375
-0.0558025229585038 -0.175868166364901 0.984375
-0.0464165605315117 -0.167453309132526 0.984375
-0.0298842526362156 -0.156245421291649 0.984375
-0.0162699274692931 -0.141447832684828 0.984375
-0.0062826130533109 -0.131854868354718 0.984375
0.00195997092597937 -0.122430510233223 0.984375
0.00262856400770802 -0.121433338683124 0.984375
0.0167655903207998 -0.106815361819104 0.984375
0.0265703698918068 -0.0961382776961371 0.984375
0.0319251750898329 -0.0908639866686625 0.984375
0.0487618569662473 -0.0848070495813823 0.984375
0.0541546331384326 -0.0746060886778309 0.984375
0.076353369385814 -0.0501865497834264 0.984375
0.087861458493578 -0.043836852905004 0.984375
0.089414086892245 -0.0360962236973274 0.984375
0.101573901463184 -0.030339766944738 0.984375
0.114664759257295 -0.0129304138088789 0.984375
0.12768519114314 -0.00932600359267809 0.984375
0.140079743633551 0.00708854384018341 0.984375
0.141715340392506 0.0127454884216973 0.984375
0.157687047027996 0.0249076166762852 0.984375
0.168260154320612 0.0339464408615921 0.984375
0.191386334515642 0.0485125711930981 0.984375
0.198211924132398 0.0593783669444899 0.984375
0.206666046467237 0.0683990427145591 0.984375
0.210858888041955 0.0777944530660838 0.987884333925406
0.217191550757845 0.0886985807585736 0.997758581052093
0.230454970562602 0.0866716497223512 1.0
-0.12144324639813 -0.229158066786138 0.246629967738773
-0.125115590641925 -0.227636931994655 0.250292095519672
-0.12178001296016 -0.229018573508791 0.256757206414899
-0.123116763860916 -0.228464873156183 0.268019752434413
-0.121933615778413 -0.228954949138252 0.280217751975273
-0.121759772028348 -0.229026957577263 0.280042493463539
-0.124656860613549 -0.227826944193877 0.291273084319019
-0.121678055351934 -0.229060805732905 0.310954851883143
-0.126423489250514 -0.227095182652769 0.314483590867034
-0.1254576787349 -0.227495234467019 0.319939415839329
-0.127353209262211 -0.226710080014714 0.334443222434288
-0.124907738469085 -0.227723027183614 0.344304345778191
-0.124857241152349 -0.22774394385707 0.353992426490878
-0.120682648355616 -0.229473116810862 0.354430662766395
-0.122061977527913 -0.228901779960719 0.373839421189277
-0.123864773048146 -0.228155037606054 0.36973127455588
-0.12903270026073 -0.226014412065244 0.390902039758603
-0.127104199768815 -0.226813223124038 0.395428332793463
-0.121891339277003 -0.228972460638506 0.405677678290049
-0.122250769637454 -0.228823579708478 0.410726437553639
-0.125852975916623 -0.227331497013181 0.424138505415645
-0.129305991143218 -0.225901211275245 0.435403070725803
-0.127419546808068 -0.226682602103525 0.443763810813362
-0.119427953002809 -0.229992828642641 0.44403707731561
-0.125764106602114 -0.227368307888529 0.457466098753292
-0.122944377181425 -0.228536278056801 0.472124207848305
-0.124057086917334 -0.228075378593204 0.474467363149867
-0.126634212730942 -0.227007898129265 0.490022716446324
-0.122491856460705 -0.228723718276578 0.497677077201511
-0.12601426956212 -0.227264686997692 0.50673156689246
-0.128003328085392 -0.226440791980998 0.515398674527008
-0.128213123666893 -0.226353891805814 0.521592417222332
-0.124031471224472 -0.228085988960597 0.529345923768826
-0.128963505003406 -0.226043073679279 0.539090650624322
-0.124110159711518 -0.228053395122059 0.552535027155831
-0.119383457266803 -0.230011259379962 0.560192685463675
-0.123398519719156 -0.228348166058423 0.568885367950659
-0.128079210082346 -0.22640936062872 0.581027460609999
-0.126266259140706 -0.227160309496665 0.596181222692981
-0.130158253346017 -0.225548192712147 0.595367922559687
-0.126076456060486 -0.227238928506672 0.613401137340818
-0.128971423660689 -0.226039793664037 0.621825072521229
-0.120309453058392 -0.229627699364385 0.620928596997879
-0.123997771714021 -0.22809994775487 0.631980034652168
-0.12585323536311 -0.227331389546927 0.645756939420188
-0.128831156966017 -0.226097894031319 0.658569929835392
-0.12842889471306 -0.226264516512125 0.663977766095041
-0.120610044668875 -0.229503190242588 0.674376972605231
-0.123511415127945 -0.228301403248973 0.681195658867774
-0.122420710098362 -0.228753188064774 0.682832813836452
-0.120308046919809 -0.229628281806057 0.69609760166992
-0.125256602506144 -0.22757852296804 0.706355859660861
-0.121658399078635 -0.229068947627892 0.717522650200119
-0.125557070092969 -0.227454065218524 0.729191399838364
-0.12244783627023 -0.228741952036491 0.734457631176247
-0.122197371212465 -0.228845698060318 0.740944226268329
-0.120561541895379 -0.229523280749183 0.750966149897889
-0.127957809215249 -0.226459646514356 0.758809846278116
-0.128271425573541 -0.226329742365369 0.776305869845252
-0.124995635216148 -0.227686619158892 0.779896468185139
-0.129583481126772 -0.225786271160633 0.793771344169309
-0.123179511503663 -0.228438882231551 0.799192390542055
-0.128893493592042 -0.226072073355388 0.807087355323327
-0.119833931183264 -0.229824666974269 0.816397751156052
-0.121379129595486 -0.22918462483537 0.8309367308852
-0.120581568016838 -0.229514985658073 0.836847922009572
-0.122765369066985 -0.228610425645577 0.84302962429108
-0.123017097830985 -0.228506156177489 0.857428866688944
-0.12812214391898 -0.226391576851302 0.867074869614785
-0.125975578537141 -0.227280713344979 0.874113889702187
-0.124105236339944 -0.228055434449337 0.884137293922049
-0.119510398492359 -0.229958678602713 0.891704829791769
-0.118546200953298 -0.230358062300198 0.901437274283448
-0.126013782866036 -0.22726488859381 0.909149276227534
-0.125295024548083 -0.227562608037175 0.918277867923908
-0.123039446537842 -0.228496899040007 0.92237775716512
-0.126223793934249 -0.227177899161108 0.932875323640561
-0.118939885676012 -0.227458079792384 0.946069333454147
-0.118786543928218 -0.226212025274953 0.950169627694141
-0.114534370240676 -0.226344507572083 0.955269516109633
-0.117430898424608 -0.22078922414158 0.968906687285724
-0.116375106249229 -0.219620440007212 0.97393544471098
-0.113377438778388 -0.219646110449462 0.977742779692511
-0.119044992532571 -0.221418283985053 0.998455231336026
-0.118323864852205 -0.220951807058187 1.0
-0.0939312808331689 -0.195409657458779 0.984375
-0.0848213372747899 -0.189882974226639 0.984375
-0.0754104376483994 -0.179093949087703 0.984375
-0.0660585592170791 -0.170703574963531 0.984375
-0.0494685158268658 -0.156164282282727 0.984375
-0.0403193894715849 -0.141415253524953 0.984375
-0.030062592130043 -0.137685023567367 0.984375
-0.0226191643553575 -0.126634898939905 0.984375
-0.0146174858805504 -0.125189638117952 0.984375
0.00451704370545334 -0.102238898651967 0.984375
0.0100009520229714 -0.104412292035221 0.984375
0.0159449563917068 -0.0955651827721879 0.984375
0.0318074892621493 -0.0810178510372032 0.984375
0.0400244220413685 -0.0774639756351505 0.984375
0.0492929459137254 -0.0588767894901264 0.984375
0.0660669686252862 -0.049303685995277 0.984375
0.077846405620682 -0.0403740384900272 0.984375
0.0862105277185971 -0.0231361537796168 0.984375
0.0999773699383964 -0.0217920163925149 0.984375
0.112805186325287 -0.0052326773457156 0.984375
0.121678171446214 0.00303960210869818 0.984375
0.123172414046693 0.0148203973679585 0.984375
0.140653952928164 0.022667062949774 0.984375
0.150125781614299 0.0343459908619138 0.984375
0.167029447799647 0.0448588326402356 0.984375
0.172871193368043 0.0577882187582493 0.984375
0.188246919360408 0.063110133678669 0.984375
0.197006728682258 0.0741026388742613 0.984375
0.20693494112411 0.0901696966464163 0.988978349847933
0.217805148748486 0.0865869365947969 0.99752097071994
0.216834904703698 0.10040624347201 1.0
-0.130285553596625 -0.225468195710154 0.246734574228414
-0.132867705124134 -0.223486841156046 0.2446359258576
-0.128715344129283 -0.226145865278992 0.25514371472104
-0.131141872184274 -0.224811119347544 0.274372009000463
-0.1307633402701 -0.2251015771011 0.279631414790439
-0.129697974413953 -0.225738846488283 0.286190508635128
-0.131026595516176 -0.22489957424606 0.297278693676127
-0.133411896729906 -0.223069268250306 0.309595546192035
-0.136231883890447 -0.220905415996268 0.314075902186344
-0.132283329373989 -0.223935248440253 0.323292474023945
-0.132879004717129 -0.223478170673387 0.331161312632759
-0.13107726169311 -0.22486069672112 0.336329974233153
-0.131811150470123 -0.224297564056343 0.350966776386737
-0.133691170636372 -0.222854973844836 0.360894268328594
-0.135119757420682 -0.221758780650565 0.368029342977294
-0.13251581675092 -0.223756854601569 0.380913049895169
-0.133915133573349 -0.222683121038986 0.384017270845695
-0.129557039402498 -0.225797223681441 0.39551044066836
-0.134627917229265 -0.222136182903211 0.402973730709313
-0.132186688710285 -0.224009403429649 0.416310155757846
-0.133152139179567 -0.223268587229012 0.428311208322748
-0.129883651594337 -0.225661936481945 0.433672216687851
-0.135166048360819 -0.221723260362898 0.44266471515325
-0.132720573409406 -0.223599739291545 0.453350486099115
-0.131404376302453 -0.224609692853209 0.466221738367918
-0.131594714120867 -0.224463641508307 0.468926690624597
-0.134943723249706 -0.221893856420761 0.480994176030434
-0.137652075605048 -0.219815664565551 0.493277691903331
-0.132903907294568 -0.223459062253649 0.49217178426371
-0.136537484019396 -0.220670920769795 0.506584749100069
-0.134387538346388 -0.222320632107384 0.520318813494843
-0.133452612373574 -0.223038026038086 0.522162941019679
-0.133434381871858 -0.223052014794057 0.53571858925846
-0.127986797427841 -0.226447639203551 0.544424476972221
-0.12865772246751 -0.226169732952784 0.553321244625328
-0.136202227769026 -0.220928171938593 0.566451753692798
-0.134269365709887 -0.222411309160611 0.567113956852417
-0.129500693659387 -0.225820562852419 0.583252467875442
-0.1317382509232 -0.224353501846109 0.594852886337624
-0.134771465081985 -0.222026034761753 0.595069564190315
-0.130208333333334 -0.225527448902197 0.605555560299038
-0.134082664728811 -0.222554569862073 0.620236412871143
-0.13617442338782 -0.220949506990677 0.624819623464744
-0.133866134019033 -0.222720719719412 0.636451127859432
-0.134216260159801 -0.222452058482403 0.645819691959799
-0.133215024978829 -0.223220333258078 0.663914187592014
-0.131147965542957 -0.224806443748979 0.660115831137971
-0.135424537170398 -0.221524914923218 0.674160026423488
-0.13611184043465 -0.220997528579631 0.682458702586982
-0.132240365484531 -0.223968215792143 0.698637229887994
-0.131166159138836 -0.224792483311853 0.703268708552508
-0.131578410819546 -0.224476151471404 0.71349802658735
-0.131399899706781 -0.224613127865883 0.717892813957511
-0.132263121238115 -0.223950754688285 0.729128694367078
-0.133508800195009 -0.222994911606303 0.732690585763997
-0.132547795190545 -0.223732316681811 0.749211167002129
-0.131955110791951 -0.224187099416207 0.754338929877143
-0.131576963699517 -0.224477261885657 0.759101934276069
-0.129112364211726 -0.225981414176309 0.774982909599478
-0.133091503655216 -0.223315114503278 0.783780955862638
-0.131121668321855 -0.224826622316439 0.793027421020426
-0.130327938336988 -0.225435672754996 0.799186123968461
-0.131951110864354 -0.224190168668601 0.810848873727326
-0.13457920964727 -0.222173557545396 0.824375606336097
-0.134596909368769 -0.22215997607141 0.828769113963219
-0.135656072482001 -0.221347251629955 0.841136287125073
-0.136407036995928 -0.220771016291404 0.843952301992976
-0.130756293721349 -0.225106984108129 0.854447753223169
-0.134544538275737 -0.222200161824482 0.865489199625215
-0.131687754832877 -0.224392248859001 0.873861617842178
-0.133938476549383 -0.222665209343496 0.889506686183599
-0.129466352384604 -0.225834787474184 0.889807823869641
-0.134144806155575 -0.222506887068245 0.902507498059928
-0.133158186217991 -0.223263947173232 0.916837616064154
-0.129046396859464 -0.22600873874829 0.92218798331989
-0.133001507176456 -0.223384171230253 0.931146148867085
-0.131403663072665 -0.223494112460784 0.940500898053581
-0.13230941207728 -0.221112444321589 0.945035775457912
-0.126100209944102 -0.221489624230724 0.955470388913811
-0.127348493795199 -0.219129398639629 0.960602342232183
-0.121193909309024 -0.22026695620468 0.965661627018626
-0.121887772761276 -0.215970893553411 0.978212812217409
-0.119313463984445 -0.214754145297002 0.985361128124374
-0.128589383801185 -0.216599718285122 0.995711743346877
-0.122874764577952 -0.211701885453577 1.0
-0.0935025070624245 -0.191584309609359 0.984375
-0.0854369127590724 -0.17805441064817 0.984375
-0.076342816785529 -0.167294498489175 0.984375
-0.06576697490481 -0.15823067990551 0.984375
-0.0541941987610205 -0.153352628184655 0.984375
-0.0500486093026806 -0.142993501207896 0.984375
-0.0345691119708536 -0.131576083316665 0.984375
-0.0329869312622617 -0.126729566169271 0.984375
-0.0171585457476695 -0.104731144349107 0.984375
-0.00673477957481813 -0.0991191008190419 0.984375
0.00766953981704215 -0.0921016827564633 0.984375
0.0127348304499377 -0.0813681875604216 0.984375
0.0242304116633068 -0.0691083167597536 0.984375
0.031933903661243 -0.0641010492672998 0.984375
0.0416027725683678 -0.0508935214044654 0.984375
0.0528516076298688 -0.0389552415646412 0.984375
0.064337667208476 -0.0271993802312471 0.984375
0.0696598379442712 -0.0279271954493427 0.984375
0.0845861172001155 -0.011085807968906 0.984375
0.106413730209107 0.00710221387201105 0.984375
0.101587102372284 0.00366692186009125 0.984375
0.116296074090261 0.0136359063884046 0.984375
0.144180617958159 0.0385743636150408 0.984375
0.141083303659705 0.0431286554551446 0.984375
0.150317693059156 0.0496153667238849 0.984375
0.168686469312794 0.0556764673881231 0.984375
0.181989444964835 0.0713777898334967 0.984375
0.202101636949424 0.092551050039488 0.985477166237026
0.198763186187562 0.0971956788032954 0.984375
0.211837719360097 0.0995943859276808 0.996993490403188
0.215033148689576 0.109096810676596 1.0
-0.139898630753455 -0.218091822170195 0.248898041287209
-0.137116014630915 -0.220226998618205 0.251117022195297
-0.139098562324632 -0.218705736267861 0.260621104097723
-0.142253933905114 -0.216284534497055 0.271818932205702
-0.140707352020559 -0.217471268516194 0.278886953613089
-0.144639994532295 -0.214453645782866 0.292368933934039
-0.141866426948376 -0.21658187904299 0.297960888144904
-0.143950203416778 -0.214982941121869 0.311706317597411
-0.142305023647874 -0.216245331958626 0.318667809890222
-0.142219862412584 -0.216310678472794 0.328396861737978
-0.13957886646215 -0.218337185940706 0.333596376585622
-0.142367175862949 -0.216197640886637 0.347216557532884
-0.139966118656243 -0.218040036881024 0.346864046583906
-0.139839980390226 -0.218136826176755 0.359647986146138
-0.137565748793435 -0.219881905457888 0.374566181018642
-0.13857639389823 -0.219106410193709 0.384743256724607
-0.143105644986995 -0.215630993597967 0.388137507104531
-0.139807447714904 -0.21816178937652 0.39859398987109
-0.136100041423424 -0.221006582279376 0.40532793477316
-0.140102956938562 -0.217935037174012 0.416959090015396
-0.139402022861938 -0.218472882807799 0.428228546119019
-0.141926729857098 -0.216535606993674 0.435684308201505
-0.13929250181408 -0.218556921263573 0.446530238637364
-0.138827102905214 -0.218914034406521 0.458412678155459
-0.138648523633636 -0.219051063101096 0.459721767495968
-0.14123086617272 -0.217069561978651 0.474863849485756
-0.138733602389934 -0.218985779875285 0.477499636685866
-0.140634671509807 -0.217527038233594 0.492847979521524
-0.136409652832533 -0.220769009089381 0.499977556662622
-0.141613914019919 -0.216775639027808 0.508497272529467
-0.139999424537639 -0.21801448037937 0.525572763994596
-0.142250282897853 -0.21628733601346 0.525383478132708
-0.136243771132664 -0.220896294594501 0.537934861274528
-0.138977844203348 -0.21879836654026 0.546797403144298
-0.139234339083316 -0.218601551096582 0.554080322178077
-0.139914831806433 -0.218079390665011 0.570516995076
-0.139005853171073 -0.218776874503419 0.576353699413338
-0.13729736144272 -0.220087846315323 0.580817061695404
-0.144303697880267 -0.214711695279933 0.596234663766866
-0.141115504692362 -0.217158081955903 0.59815000615369
-0.142909156616298 -0.215781764427627 0.614211991331347
-0.142466470667441 -0.216121449303384 0.615499318681269
-0.140236516516194 -0.217832553305591 0.624696181811373
-0.140482680930021 -0.217643664707382 0.635773881545995
-0.139605024640354 -0.218317114064613 0.64577980764274
-0.139851868086389 -0.218127704426664 0.659017325317593
-0.138983628821207 -0.218793927846862 0.667552686914557
-0.136460307048258 -0.2207301407426 0.669863164004774
-0.138862598773924 -0.218886797468499 0.682686208059844
-0.140401007600397 -0.2177063348574 0.698996930638216
-0.143024262474894 -0.215693440595851 0.703284918041806
-0.138866940616095 -0.218883465855823 0.712415981715156
-0.137491042004165 -0.21993922999348 0.719102410146276
-0.141729465114241 -0.216686973554645 0.725031454534248
-0.143901636027189 -0.215020208190636 0.744502757302728
-0.143277772685384 -0.215498915369614 0.750777296484364
-0.140798294587209 -0.217401485830447 0.754361744517481
-0.14121636371659 -0.217080690104632 0.768374128389502
-0.141927728010989 -0.216534841083255 0.78001252183982
-0.142838741224071 -0.215835796058452 0.788008529041747
-0.143491060238041 -0.215335254074261 0.798139492169926
-0.143994355776031 -0.214949061825031 0.799458366599018
-0.13730397065264 -0.220082774890183 0.81511885241403
-0.138413262878348 -0.219231585027842 0.822336731878509
-0.138506950129514 -0.219159696271592 0.833159371793688
-0.140962286295815 -0.217275650566629 0.838355282157272
-0.144138057800432 -0.214838795383482 0.849406135205155
-0.135681273772791 -0.2213279139994 0.853107552807061
-0.144338542248472 -0.21468495825583 0.871043816940232
-0.14205404494019 -0.21643791469444 0.879185710004075
-0.137611742092662 -0.219846613558124 0.885674696615191
-0.139483829859928 -0.218410110090436 0.887683285413679
-0.139924475337785 -0.218071990923146 0.908689257479232
-0.141222612118156 -0.217075895537479 0.919406241202759
-0.138567848995038 -0.219112966928538 0.922826380291387
-0.141520332888263 -0.216847446355693 0.934285964205574
-0.13998535461108 -0.216791599143514 0.940816950568525
-0.135591540792874 -0.21693489527994 0.949496501024448
-0.139811527337092 -0.212862469476016 0.951739701368288
-0.136834332453188 -0.209859762429533 0.965955203458727
-0.130533385593411 -0.212845593289959 0.970926702535927
-0.130640436150799 -0.208923028153608 0.981252327685038
-0.130074053211074 -0.207542735398472 0.986131976326497
-0.136659120952239 -0.210407591183221 0.999172377909848
-0.129510646360807 -0.205746245718096 1.0
-0.0985866618490227 -0.173954738209617 0.984375
-0.0935309087257247 -0.170238800261986 0.984375
-0.0831387221946922 -0.159751609833265 0.984375
-0.0730863218717701 -0.155129382030003 0.984375
-0.0606396075446311 -0.145531146311764 0.984375
-0.0486415277396931 -0.133472089081545 0.984375
-0.0481165356418559 -0.129997698858343 0.984375
-0.0285619813422768 -0.112690765239054 0.984375
-0.0188508532948578 -0.109035987121633 0.984375
-0.0155926782316425 -0.104972132718381 0.984375
-0.00369441345315959 -0.0901185843471757 0.984375
0.00948230196385406 -0.0752719634169829 0.984375
0.0146229062695332 -0.0682218769265106 0.984375
0.032809025511056 -0.0544587234087337 0.984375
0.0306404413153386 -0.0461246389934532 0.990567189916335
0.0465951304659568 -0.0371471886384744 0.984375
0.0637765410485143 -0.0226460500988034 0.984375
0.0713320866485343 -0.0160241810973657 0.984375
0.0783336626353702 -0.0117316732136239 0.984375
0.0897382863324395 -0.00299092420478646 0.984375
0.104222858067373 0.00835465859742568 0.984375
0.110724765205787 0.0252585351701623 0.984375
0.133914869753584 0.0427641871000142 0.984375
0.141356312836478 0.0502763620495641 0.984375
0.148370537974411 0.0593034821449377 0.984375
0.161661235779998 0.0728937014136832 0.984375
0.167655227591587 0.082128290721774 0.984375
0.180953691546159 0.0884770143227449 0.984375
0.197480415461267 0.102394375667803 0.984982072762624
0.203813250123247 0.114764854817051 0.995409272076818
0.206798389490564 0.116951598925014 0.998950504150398
-0.148009381719476 -0.211868224061191 0.238988281694547
-0.146257206771549 -0.213212715186395 0.260564420627979
-0.14566903952057 -0.213664031791517 0.260462140334535
-0.148328250319677 -0.211623547578638 0.279632858875733
-0.146165132595999 -0.213283366186191 0.274094747678005
-0.148848192168857 -0.211224582165582 0.28800691563576
-0.146488353500987 -0.213035350062715 0.305225557507045
-0.146554904110007 -0.212984283984348 0.306675256311014
-0.148119335275803 -0.211783853729997 0.321006655630676
-0.145741248468868 -0.213608623916715 0.327261904932759
-0.147104452391614 -0.212562600756673 0.338540017767995
-0.143428724771758 -0.215383085759848 0.350176201446035
-0.146663484836128 -0.21290096706282 0.353151711293375
-0.149095683132032 -0.211034675670257 0.371147980349558
-0.148872363703752 -0.211206034694516 0.377183056856758
-0.149917937252814 -0.210403737892404 0.378030616398958
-0.150628198125833 -0.20985873555603 0.398071098479487
-0.14553793123381 -0.213764634718296 0.396593557129169
-0.14933116534225 -0.210853983815167 0.411748028177599
-0.150063522684406 -0.210292026261687 0.41765899584651
-0.14954230537239 -0.210691970371798 0.427578462725793
-0.148364951408456 -0.211595385842729 0.431862562290277
-0.145211786933849 -0.214014894041632 0.446530685561355
-0.146003527679147 -0.213407370000282 0.453749312702633
-0.148849337074631 -0.211223703648482 0.464556224300637
-0.148895937357029 -0.211187945994151 0.469948671089536
-0.147519069205231 -0.212244454085914 0.486618279659415
-0.148189462965974 -0.211730042860724 0.486717150488814
-0.146639094884174 -0.212919682131191 0.496029520593419
-0.146791159084625 -0.212802999166279 0.509829925395023
-0.149997390731478 -0.210342771093936 0.516528586998735
-0.147180546110341 -0.212504211992678 0.533187660638469
-0.149092934608938 -0.211036784686204 0.542886639724615
-0.150552388993337 -0.209916905949331 0.546693176047686
-0.146494395005719 -0.213030714253086 0.554954748185156
-0.14961530978396 -0.210635952116559 0.570823107549645
-0.152457057532312 -0.208455402376221 0.572902255688876
-0.144555303870397 -0.21451863121337 0.580967720970564
-0.146491102008559 -0.213033241058678 0.591800412534752
-0.149398995559533 -0.210801935858845 0.598627019860149
-0.144525478544585 -0.21454151699079 0.615112491524604
-0.143457293991004 -0.215361163826895 0.617559384315746
-0.146881987932503 -0.212733303740015 0.628335100284824
-0.145469049742769 -0.213817489345344 0.644085006853165
-0.148790239660188 -0.211269050689504 0.649168115721543
-0.144876032662905 -0.214272527355056 0.655209561672236
-0.146283767773529 -0.213192334212748 0.666747594717311
-0.146560778874484 -0.212979776119016 0.679044165825321
-0.147083570434132 -0.21257862404621 0.680969016624542
-0.144467122284376 -0.214586295324166 0.692165776478223
-0.143429412698731 -0.215382557894916 0.702431219574867
-0.149128038968729 -0.211009848163541 0.71753291192422
-0.148644358766048 -0.211380989036609 0.721851232644059
-0.149424854655825 -0.210782093476377 0.727482840206922
-0.146249205622134 -0.213218854684277 0.739892548813164
-0.147546329492117 -0.212223536532088 0.755279368762069
-0.143715419188746 -0.21516309739639 0.753550318734952
-0.147452106586357 -0.212295836310563 0.770134623403117
-0.146878226669322 -0.212736189858763 0.771826729361697
-0.145647404930591 -0.213680632596282 0.784942340019839
-0.149876948960868 -0.210435189315005 0.795684950687841
-0.148417004510921 -0.2115554440924 0.805317121093512
-0.150716984409287 -0.209790607444574 0.815612594464261
-0.149464679025056 -0.210751535163086 0.826187298900593
-0.144467974143771 -0.214585641669461 0.833678086953776
-0.148855593249336 -0.21121890311679 0.838994995366098
-0.148645888306021 -0.211379815379308 0.845110848661152
-0.146217705123426 -0.21324302586707 0.855684174866029
-0.14433178955453 -0.214690139780133 0.868086645625507
-0.147907280594719 -0.211946569009719 0.871445026546457
-0.144601992124727 -0.214482806055799 0.881497897398173
-0.146727751685624 -0.21285165337477 0.88972731259029
-0.144583404654584 -0.214497068723279 0.907127794057135
-0.148636115268985 -0.21138731449438 0.915397081515036
-0.14863453938749 -0.211388523710781 0.922947113356139
-0.149164902481254 -0.210981561795508 0.927485933796095
-0.143881527248853 -0.214187739083334 0.9397797202036
-0.148317628088747 -0.207865473809288 0.947626131649051
-0.143652566810086 -0.209264618601971 0.953488728043886
-0.143211777493848 -0.207293493695377 0.959697818121322
-0.142591404710577 -0.204773150036764 0.967754072289078
-0.142032391658488 -0.202752543831161 0.974340107228277
-0.140652499508216 -0.199576126729844 0.98572728143095
-0.140587681835292 -0.207312770569269 1.0
-0.133986056044918 -0.195782175841678 1.0
-0.108663913309197 -0.180525419679435 0.984375
-0.0969516398179525 -0.158891976778511 0.984375
-0.0928409460486314 -0.161231394696373 0.984375
-0.0825222464268043 -0.146198424806289 0.984375
-0.0685291403374642 -0.140731322764467 0.984375
-0.0636528585111261 -0.134210048221755 0.984375
-0.0544592300267265 -0.116468268019199 0.984375
-0.041439303177611 -0.114494302556114 0.984375
-0.0285433815663132 -0.100396175933641 0.984375
-0.0184673207285074 -0.0851819426352104 0.984375
-0.00924830280465426 -0.0858538366099098 0.984375
-0.00392895899710369 -0.068538983180893 0.984375
0.00496686817452054 -0.057694847238338 0.986773271329724
0.0180093368891219 -0.0563410784115634 0.984375
0.0232794617055548 -0.0512593142347684 0.994064603864358
0.0251683775298167 -0.0435351950669539 0.997395833333333
0.0390190497156142 -0.0262751413238432 0.997395833333334
0.0670997903576286 -0.00110538941124263 0.984375
0.0769138127658515 0.00351951304012274 0.984375
0.092118179901036 0.0161680564658746 0.984375
0.0902640880496081 0.024618722188473 0.984375
0.106271985049186 0.0367009448904607 0.984375
0.119873030697941 0.0509645443613198 0.984375
0.128111306424232 0.056153242269306 0.984375
0.141205402175881 0.0611437374313857 0.984375
0.154203188838008 0.0788345533054785 0.984375
0.1653617410921 0.0918704352488093 0.984375
0.185952865870361 0.107068542005811 0.984375
0.18359965047604 0.109912889238278 0.984375
0.197897385451999 0.11950305253526 0.992979882048244
0.200876535619246 0.12119074392011 0.996320328237469
-0.154681022881925 -0.206748893743132 0.243705303020096
-0.152050505491537 -0.208767360729125 0.258586742121989
-0.15742627970627 -0.204642384092879 0.265505574222122
-0.154980177997732 -0.206519343949182 0.267162106330248
-0.156095462866334 -0.205663555770219 0.276986017816003
-0.154581199779708 -0.206825490703488 0.294646489670322
-0.156562184481162 -0.205305427679288 0.296816907544309
-0.15589586128193 -0.205816715452775 0.315731465062131
-0.156667541654386 -0.205224584276897 0.321364274003236
-0.152169646249549 -0.208675940810133 0.324768558469653
-0.15639276899766 -0.205435424751961 0.336573075004939
-0.15723569926492 -0.204788621608907 0.34703161393772
-0.153762667512223 -0.207453572602859 0.35318609287182
-0.155671638235773 -0.205988767847418 0.369409997566102
-0.158368370166264 -0.203919492657807 0.377323493157392
-0.155541149092587 -0.206088895688624 0.39035460573851
-0.155850615829411 -0.205851433509576 0.388319866740335
-0.158179143022972 -0.204064691751713 0.407968683432177
-0.151286980216561 -0.209353234278618 0.406761447228006
-0.152201607110413 -0.208651416379034 0.421144057508903
-0.150967328900808 -0.209598511359938 0.429609505826592
-0.157272614623224 -0.20476029545821 0.445531829700526
-0.151465306037664 -0.209216400063432 0.448135715166529
-0.15374254684098 -0.207469011736921 0.455497397491471
-0.156504020479798 -0.205350058487263 0.464176055005232
-0.153083487525005 -0.207974725736748 0.482959527927212
-0.151103753311005 -0.209493829228175 0.486449355990458
-0.154413990702425 -0.206953794741122 0.49880194848967
-0.15262274084474 -0.208328269099137 0.495667787190163
-0.155476880242806 -0.206138210911546 0.515815715533235
-0.150485078735425 -0.209968554926794 0.516770358110634
-0.156195489413201 -0.205586802701293 0.526998898339058
-0.154915352540438 -0.206569086272072 0.538363958167264
-0.154846082387396 -0.206622239129962 0.549599600311423
-0.150670503652436 -0.209826273383728 0.556889873145924
-0.155170550006337 -0.206373266369223 0.565388554264365
-0.154771469671322 -0.206679491480652 0.573460131527378
-0.150996241375475 -0.209576326037837 0.589341861288418
-0.152312985012526 -0.208565953108878 0.599738538572967
-0.154247745522184 -0.207081359154541 0.60072580491517
-0.158500456606335 -0.203818139167595 0.613012973800675
-0.156639375011357 -0.205246197302253 0.620327671857409
-0.156149655859778 -0.20562197202379 0.632216514488014
-0.152464164798311 -0.208449948779208 0.64018198180311
-0.154886885197107 -0.206590930032885 0.644470095834866
-0.152173418483372 -0.208673046273316 0.658941701365693
-0.152139849823867 -0.208698804411705 0.668632185120467
-0.152254791635295 -0.208610606457749 0.676840794633801
-0.157653717897588 -0.204467864630584 0.688086628639326
-0.154680860309711 -0.206749018489179 0.689030209435041
-0.156999644919837 -0.204969752478519 0.703076562600052
-0.156800927572906 -0.205122233661799 0.714306475345964
-0.155331737545772 -0.206249582820088 0.727901201047414
-0.157164557673275 -0.204843210472144 0.730367229298597
