ply
format ascii 1.0
element vertex 852
property float x
property float y
property float z
end_header
0.11175908263385 0.220847500032489 0.53388597989571
0.104530265929089 0.223841773951509 0.537250540142722
0.10962446887029 0.221731686003783 0.551934781102476
0.0965637814525263 0.227141599866136 0.551242906199163
0.11327801064732 0.220218339449041 0.577664230933461
0.104923263320349 0.223678989102072 0.571194671388744
0.0961726682837528 0.227303604245065 0.57908138693275
0.114644315340311 0.21965239751487 0.600114081030054
0.121262286137396 0.216911144255328 0.616864694396643
0.111997058078747 0.2207489273757 0.620992017900355
0.118684743154583 0.217978797516409 0.636752809943952
0.116991822998737 0.218680028004975 0.6376240748993
0.116032722259049 0.219077300539036 0.65338515248482
0.114937624968266 0.219530904688996 0.662243175914195
0.108443338028397 0.222220926417432 0.671287853972061
0.0969105079285987 0.226997981057313 0.669283517700895
0.097574986329391 0.226722745091801 0.673439625592845
0.106164639191992 0.223164794380035 0.694021528440475
0.0978009187650486 0.226629160812772 0.699077325550175
0.104526189214308 0.223843462582062 0.714764398584072
0.118778573944052 0.217939931530843 0.731234741577355
0.110438888150126 0.221394342492617 0.737652524680352
0.11441096548924 0.219749054187961 0.754780172744798
0.101472657378806 0.225108276881464 0.749119762302488
0.105534622733529 0.223425755741649 0.769311415652851
0.0987215101562143 0.226247839373147 0.766310947755248
0.105407136009712 0.223478562471676 0.77743008076549
0.10452751881833 0.223842911842043 0.793103870525415
0.112425034396061 0.220571653780694 0.8053269908149
0.102148626295006 0.224828281388632 0.802879421154868
0.110122180681418 0.221525527021461 0.821912811349919
0.114805992489293 0.219585428647035 0.830608551838754
0.113233860892347 0.220236626876326 0.84391288262042
0.107915097578296 0.222439730776058 0.850435469679041
0.111076442609111 0.218862802530166 0.856978096417387
0.102207844697376 0.221963650240447 0.858578959289676
0.097007581567324 0.219508967007505 0.871462841109259
0.0821339659506599 0.226519432662334 0.869087703106367
0.0902861909095615 0.219312802546924 0.87979430950832
0.0767612319847556 0.220889314270888 0.891048402199627
0.0765525992063938 0.219853598085841 0.894185391455327
0.0682305163018481 0.222925263200717 0.895234995120107
0.0617669369301504 0.224548259085707 0.898182366470089
0.0433830067369581 0.227944766540265 0.896474065483143
0.0378858065409974 0.225503990968231 0.905967552605853
0.037753748928802 0.222871441168196 0.91391735914937
0.00337412821064657 0.23184574165662 0.900572946485056
0.0924599966304898 0.228841443196485 0.0816702405001996
0.074045470285689 0.236468989753177 0.0736465799846188
0.0710758881945479 0.237699030929908 0.0789742213554788
0.0849888267943991 0.231936103069386 0.0988635320829876
0.0906875247693182 0.229575625080307 0.112911327226323
0.0686726702780971 0.23869447638424 0.104101051201693
0.0715977200068249 0.237482881115986 0.125331621416388
0.0736927239524062 0.236615102068501 0.125733237142732
0.0735667186524658 0.236667295172667 0.148505770965735
0.0840457138146237 0.232326753256459 0.156043363530665
0.0752375993789117 0.235975193714665 0.164772158288237
0.0943183894957488 0.228071671667477 0.194423681394161
0.0737503376672995 0.236591237686413 0.182195677974633
0.0739118133674716 0.236524352261408 0.190887549033609
0.0950205094217768 0.227780844071704 0.217890206639006
0.0786203763971536 0.234574001595225 0.213743825786914
0.0893501043128969 0.230129602771951 0.234193003939828
0.0923937989662998 0.22886886316679 0.251383388872891
0.0770400899410248 0.235228577677788 0.247748411075288
0.0709518719411476 0.237750400144021 0.249197318548841
0.0915747035678559 0.229208143589702 0.267266760070717
0.095314329615037 0.227659139762756 0.291591235034766
0.0732595855711198 0.236794513860414 0.273882780921849
0.0794462283780761 0.234231922504215 0.287624891171696
0.0675100714606139 0.239176040582041 0.289333636504584
0.0834686576881367 0.2325657777303 0.316082819667455
0.0924867583262047 0.228830358139167 0.334275449048223
0.0668518493451832 0.239448685109306 0.322879576656051
0.0876332612312452 0.230840742460838 0.344993407841023
0.0708335744149889 0.237799400583752 0.343932773582319
0.0692231200694128 0.238466472615272 0.352611895850285
0.0795423157625493 0.234192121806393 0.377694729868661
0.0691398975651388 0.238500944505237 0.374079610893304
0.0736573546989233 0.236629752492984 0.389277171228341
0.0741495168676804 0.236425892247798 0.395620654980487
0.0828624488128725 0.232816877668066 0.405427738663754
0.0678896127201067 0.239018829444879 0.412752268803536
0.0728930632090262 0.236946332393706 0.42550236471798
0.0796131846729826 0.234162766942541 0.438554513971201
0.0720872475458204 0.237280112170179 0.441094903208815
0.0829002848213471 0.23280120548021 0.464035954100005
0.0767966681290643 0.23532940629368 0.468339516085334
0.0754039449981241 0.235906291103146 0.471578609378841
0.0933281969972683 0.228481822829708 0.499480520406804
0.0653099338761682 0.240087367408605 0.478555974578959
0.0841994040098434 0.232263092693195 0.51379703259891
0.0840547110877686 0.232323026463898 0.518405039751353
0.0885454942587245 0.230462883168812 0.541418189834511
0.0685269293272589 0.238754844262671 0.530142892179823
0.0852739932395571 0.231817983260268 0.550719219968106
0.0766826955757613 0.235376615270996 0.54982504576186
0.0881010419982957 0.230646981322909 0.568186328424235
0.0692521009362726 0.238454468347169 0.564554205275476
0.0783748141110727 0.234675716824528 0.587433315800225
0.0693672428837558 0.238406774990924 0.583776601199155
0.0781979472798818 0.234748977464741 0.605707142235474
0.0758295487469203 0.235730000258198 0.610987635218925
0.0672854406919823 0.239269085692934 0.614615174086966
0.0820540463684307 0.233151728924409 0.640696332209926
0.0690751447621106 0.238527765994453 0.630786290884673
0.0681978383490218 0.238891158209111 0.638862492958227
0.0705917167107302 0.23789958132502 0.659712545843139
0.0949209636583138 0.227822077277007 0.681745790338431
0.0859566373418679 0.231535222814817 0.687862047956689
0.0731620563705306 0.236834911778025 0.686946527487608
0.0743335353093956 0.236349669313513 0.694128544577359
0.0709589747719511 0.237747458055171 0.707754212016739
0.0908531424822284 0.22950702397745 0.731247466369963
0.0718336822967768 0.237385142335279 0.724373686136742
0.081489717793004 0.233385481473986 0.738832551302746
0.0899294482656382 0.229889630649447 0.755898332545303
0.0788832040615117 0.234465134812081 0.762701550284941
0.07592958050451 0.235688565747536 0.76970232628122
0.0859094245473825 0.23155477899461 0.788105331663902
0.0931412442863453 0.228559261178094 0.804396349854971
0.0789860684144421 0.234422527002013 0.807363529144303
0.0822694196148961 0.233062518404751 0.814909342913307
0.0858842214507727 0.23156521845904 0.823062718556695
0.0963217818050133 0.227241839402226 0.845799942948222
0.0882605093294532 0.230580927791587 0.844244295130496
0.0700219789181375 0.238135574445708 0.842019455856167
0.0793963057279082 0.230528400103314 0.861050506511734
0.0693424503749816 0.234763944482569 0.860851739373078
0.0695734307363972 0.231757791711393 0.868988139381194
0.0582830622281685 0.234120075349214 0.872063250497468
0.0579062644812193 0.232336839870524 0.877561776026954
0.0290837894224577 0.236809579247285 0.875527210381079
0.00578648880551254 0.243928773885659 0.86337106990575
0.0179547082800388 0.236549361795852 0.880703376720133
-0.00609117109931674 0.240353405960817 0.873976837125427
0.0648568145864228 0.24027505556379 0.0627398405466589
0.00548965973321888 0.248211776199071 0.0636109960598034
0.000403027748650084 0.248881444004147 0.0681247424500572
0.064627871682839 0.240369886819464 0.149014450970128
0.0561206706750644 0.241546077153202 0.158095803934043
0.0602194615576438 0.241006461096422 0.165036088358839
0.0663538169406006 0.239654976885785 0.213507934424787
0.00926709400136629 0.247714467543197 0.169319846265429
0.0272627021337186 0.245345300786969 0.21533791588275
0.0612160303447403 0.240875260326583 0.258096321649697
0.0541607725943884 0.24180410263054 0.26124244901564
0.024261749601532 0.245740383682972 0.242109635950242
0.0618067062167589 0.240797496372767 0.337237483779081
0.0666905914632064 0.23951548031106 0.35039203056918
0.0296131421982534 0.245035859482043 0.327574271259096
0.0192996411088031 0.24639365765934 0.328286688679087
0.046928164069914 0.242756293606859 0.368017193925909
0.0247526304765488 0.245675757989759 0.35610653300799
0.0213819377817826 0.246119518101624 0.383097278193236
0.0223657031830987 0.245990002929501 0.410097842244362
0.0654733905952908 0.240019661418683 0.464983030735639
0.0547532592348397 0.241726100284537 0.479361497876795
0.0650442662859401 0.24019741052756 0.532709083477973
0.00474748475054632 0.248309485389187 0.48868124128436
2.64643049418296e-016 0.248934503613854 0.519166232389965
0.014833219141679 0.246981673266591 0.54110007725815
0.02636757022684 0.24546314713818 0.564470728427956
0.0205335729152309 0.246231207455171 0.564911808232575
0.065347838125571 0.240071666954431 0.644915236889859
0.011643490029398 0.24740160907085 0.633810241117195
0.0636013104391637 0.240561232244707 0.685940553471918
0.0370353844195665 0.244058702755909 0.687344889640224
0.0648719943555701 0.240268767897536 0.720414560784009
0.0439563407702914 0.243147541566643 0.723810579276952
0.0213378247330736 0.246125325694663 0.751475274937225
0.0672346041073576 0.23929014289575 0.801682189160955
0.0190091390274767 0.246431902983901 0.775529850040367
0.0439495767792561 0.243148432062956 0.801444530377617
0.00701104193606222 0.248011482432281 0.812896493366713
0.0151935901763567 0.246934229519817 0.832206411316489
0.010739142039735 0.246229278593781 0.854513468277476
0.00979613230012797 0.246656204771231 0.853605138507531
0.00385542915364165 0.245657804709599 0.858946663912409
-0.11769118230099 0.218390343897009 0.0582148546714063
-0.122500002292544 0.216398465437496 0.132190226931484
-0.14287375601437 0.201459796575349 0.129806818480625
-0.166630901410579 0.183230297755498 0.13826592793029
-0.156050971784372 0.191348563288604 0.20482764001503
-0.142246392947086 0.201941189188137 0.235713671198354
-0.144897220039736 0.199907138019481 0.255840049160637
-0.166884733462992 0.183035525571267 0.240200777144323
-0.149878047486935 0.196085214696779 0.310828122328111
-0.174781310007022 0.176976269276391 0.309827005933672
-0.123618945055372 0.215934984169614 0.371996645033651
-0.123010310975562 0.216187088659994 0.390579072844762
-0.153172199188653 0.193557523193553 0.374483918389686
-0.170323800153656 0.180396636886061 0.36168120774674
-0.171140124286603 0.179770249347912 0.383199420680575
-0.119295642837518 0.217725754582487 0.456901841972603
-0.140824382007776 0.203032336559071 0.498950373387872
-0.134860379519421 0.207608676624759 0.53777550830175
-0.116444395541283 0.218906779882267 0.584199858090147
-0.135234236574705 0.207321806016593 0.5756694729089
-0.162292554375902 0.186559228518423 0.586178302083879
-0.142024341267991 0.202111575434232 0.670479696243769
-0.16366012881108 0.185509851746242 0.695019038236753
-0.157843731783829 0.189972930158052 0.708488518780108
-0.173269805921134 0.178136087153933 0.757061560643079
-0.12284981861563 0.216253566772135 0.848063471270112
-0.172793487920379 0.178501578810773 0.83632443827266
-0.115579796100601 0.219264908696617 0.0608796806970397
-0.110212010063991 0.221488318472898 0.0814044800976074
-0.103754275729733 0.22416319961635 0.0951620248593412
-0.106332478023924 0.223095273259555 0.110144238423769
-0.100179822398694 0.225643786664136 0.116034880125803
-0.0955709544699446 0.22755284226741 0.1292228354402
-0.114085172426392 0.219884002093119 0.125443613184663
-0.107441383783782 0.222635949454428 0.144768376866381
-0.0955516486402135 0.227560839003918 0.164619962765616
-0.105061438248156 0.223621755172993 0.15777204010141
-0.111314939763804 0.221031470032891 0.171228327068578
-0.13776044912188 0.205383374951774 0.145426891693224
-0.115697754446212 0.21921604875007 0.173638347754525
-0.0942180990772505 0.228113213318994 0.213686281046532
-0.10423688131209 0.223963297838861 0.212876855512492
-0.110408332620146 0.221406999007539 0.221968563564762
-0.107187120059443 0.222741268937469 0.22863463906114
-0.104603354165879 0.22381149981258 0.240669326219937
-0.109563465431849 0.221756954455335 0.24270288657332
-0.123189044187067 0.216113054939741 0.244616260159767
-0.104977870931409 0.223656369888961 0.270504775149084
-0.110342604599408 0.221434224445156 0.270483674207586
-0.107747354996073 0.222509212028601 0.281700708023044
-0.0972780233322158 0.226845751192753 0.312594482899381
-0.111665079185035 0.220886437535896 0.302961840319998
-0.118721833094161 0.217963434360407 0.305393573908842
-0.0953112183120415 0.227660428506653 0.342986083909219
-0.106455046392439 0.223044503778998 0.332030383909279
-0.111590138746753 0.220917478881803 0.346306419320381
-0.104812247834014 0.223724973222144 0.358307506804004
-0.10117853117463 0.225230107944282 0.362590739822492
-0.115304063708196 0.219379120793138 0.372861330880188
-0.108853547678147 0.222051012017088 0.383487256625843
-0.11810555058293 0.218218706934812 0.378665915834398
-0.0985217858389344 0.226330567894099 0.4076153891474
-0.107581904534315 0.222577743853762 0.412118455837913
-0.105903402505088 0.223273002158739 0.417262768635899
-0.093530427073318 0.228398056389487 0.446415553429757
-0.10677491131153 0.222912011391383 0.438590475714174
-0.1068189867129 0.222893754762369 0.454154314865898
-0.0996735941526225 0.225853473269315 0.469930134201657
-0.119407595500193 0.217679382271263 0.45926540673243
-0.106428264335152 0.223055597270354 0.48530549451462
-0.102381375496632 0.224731873512686 0.497827341378589
-0.0976421170632772 0.226694938631372 0.513254812550373
-0.117921858606369 0.218294794642803 0.505629565669063
-0.115548452837714 0.219277891501194 0.509335663652685
-0.0918914725287632 0.229076933589955 0.538575534230625
-0.115648259470501 0.219236550240279 0.531303679727382
-0.108606799822487 0.222153218325389 0.546569322849829
-0.105721360321922 0.22334840649993 0.560383199941264
-0.0991678534268327 0.226062957936982 0.578974047012562
-0.117404837141854 0.218508951945443 0.574087258886657
-0.102636247724171 0.224626301979367 0.596676669286328
-0.102677214789811 0.224609332865168 0.602973723824662
-0.110618824379362 0.221319810466104 0.601836258688219
-0.115177753544923 0.21943144017583 0.604683871543196
-0.10010502078174 0.225674770508366 0.634827780711511
-0.0977777785818125 0.226638745790503 0.650210600648278
-0.1087289420419 0.22210262536157 0.642160671831166
-0.113288339967511 0.220214060904526 0.65384396921284
-0.101629123426033 0.225043466522651 0.662556419095685
-0.107784233967126 0.222493936258625 0.672773264722546
-0.111617886615152 0.220905985338385 0.682627378056404
-0.108926929670654 0.222020616200558 0.695983673956632
-0.11051958962614 0.221360914846748 0.708124257226438
-0.0954779164462298 0.22759137987865 0.721769653417316
-0.104298011568194 0.223937976857711 0.722307758764501
-0.120556112298417 0.217203651036825 0.726409351237269
-0.110958972053866 0.221178916686115 0.736812092762095
-0.101978253714975 0.224898852021936 0.75671853287445
-0.108488127677768 0.222202373937208 0.753024268283142
-0.122288695930481 0.216485991398479 0.759444287808962
-0.094978760788287 0.227798136921905 0.79094698159937
-0.11234955210766 0.220602919568268 0.787052063399652
-0.106274674720602 0.223119216171741 0.79843459074954
-0.0953273558871865 0.227653744104164 0.824427900385709
-0.112030741762431 0.220734975137087 0.812732534394341
-0.0948614427068286 0.227846731662356 0.842782992639105
-0.109637742414757 0.221726187921643 0.835959764154331
-0.112558343725622 0.220516435248398 0.846016680438683
-0.11628119747393 0.218051930581775 0.853218052340017
-0.117205906247973 0.216262469707785 0.857149815765529
-0.117953911642673 0.212916663758683 0.865637042257494
-0.140529734684338 0.197975334057297 0.863321878322865
-0.127860472591497 0.2041158845702 0.87191821669578
-0.140082348443762 0.192115461906475 0.878213177345325
-0.144642660877402 0.188092638994471 0.879470063220654
-0.161260452737431 0.174442951421696 0.881626777742706
-0.0625452513675029 0.24070026505909 0.111521892953388
-0.0735778343555869 0.236662690897677 0.118523234927253
-0.0896145860833011 0.230020050835648 0.106274333899003
-0.072453193314543 0.237128532469679 0.130761455396962
-0.0742461462855892 0.236385867032375 0.148134631404498
-0.0730207196336409 0.236893455371305 0.151994403914642
-0.0745865584614805 0.236244863692323 0.167803849663556
-0.0621792118870333 0.24074845507091 0.183529564994966
-0.082822119076796 0.232833582791714 0.179943850420674
-0.0853188835851395 0.231799389070307 0.180367785364034
-0.0820333058793432 0.233160319916278 0.195989281022749
-0.0784967111845222 0.23462522540349 0.21026955579173
-0.0852708843914791 0.231819270987304 0.208004575004123
-0.0657410400121572 0.239908797400255 0.238349821783766
-0.0785448821955193 0.234605272317422 0.227283269600852
-0.080702724298438 0.233711464852933 0.244763618481237
-0.075884440964393 0.235707263157251 0.254952062719019
-0.0757599182480939 0.235758842155165 0.265500397520695
-0.0857004367770418 0.231641344563454 0.265179270028575
-0.0792319010016854 0.234320699810302 0.2748025486511
-0.0799484182495562 0.23402390864856 0.297039040392317
-0.0814341887696311 0.233408482348571 0.297764445847202
-0.0806351640360296 0.2337394492299 0.311257553428488
-0.087366897770932 0.230951073818619 0.305920750839722
-0.0636389801095866 0.240556272938512 0.348342435862312
-0.0742054966740866 0.236402704652764 0.354326385392704
-0.0907079426069239 0.229567167735055 0.337355417442204
-0.0789002202133546 0.234458086491207 0.363033456650276
-0.0928288646732423 0.228688653050449 0.355665837527609
-0.0777459108661924 0.234936217077976 0.382285972597757
-0.06610933179354 0.239756245949496 0.402118745226087
-0.0683531753577691 0.238826815513348 0.40366171185744
-0.0710859676153681 0.237694855897103 0.421174580906186
-0.0724596492768263 0.237125858322544 0.422131236439883
-0.0744145928608949 0.236316094176348 0.433288800876275
-0.0654380721190826 0.24003429081053 0.453833927985088
-0.0710721878207284 0.237700563674929 0.458235425479748
-0.070061152678967 0.238119348142683 0.457651710511534
-0.0782268662508225 0.234736998834766 0.46408278077548
-0.0675478141248678 0.239160407058625 0.487972553141707
-0.0773089044823509 0.235117231049007 0.48378190613127
-0.0788078730474134 0.234496337939787 0.494096891082295
-0.0789593099466065 0.234433610722298 0.506548902644567
-0.0820716625870386 0.233144432047743 0.505996203579785
-0.0789851094135932 0.23442292423317 0.526544961622282
-0.0760645672508783 0.235632652406449 0.536179097928502
-0.0751856099592481 0.235996728437389 0.55066001405907
-0.0716156034196762 0.23747547356384 0.561027957101077
-0.0695780838121445 0.238319441818881 0.566791224061211
-0.0844332328388394 0.23216623762095 0.57384939300619
-0.086788162818815 0.231190793684805 0.570776152994307
-0.0827413621815406 0.232867033392984 0.5821491675487
-0.0706096476708062 0.237892154078169 0.603868529427485
-0.0731356213421294 0.236845861525309 0.617535499543394
-0.0811526043260084 0.233525118444073 0.626899600481061
-0.0824292540959189 0.232996312794975 0.62382793247809
-0.0718196470265155 0.237390955934572 0.64669852878261
-0.082613227876335 0.232920108360006 0.652083660142467
-0.07131729208739 0.237599038163482 0.669091631204864
-0.0722210579320006 0.237224686093435 0.673455264328123
-0.0890930215362519 0.230236089944689 0.673337542011927
-0.0676710666323012 0.23910935419845 0.695015805099729
-0.0869418576008678 0.231127131221613 0.692027358018488
-0.0793352431009586 0.234277894111219 0.71445430982943
-0.0727332208155193 0.237012541280937 0.727945897548153
-0.066585223510338 0.239559125146177 0.741491037726449
-0.0763658395645145 0.235507861328173 0.744116509333431
-0.0890352186254106 0.230260032694304 0.737773364455232
-0.0751592493972847 0.236007647339665 0.75550298937342
-0.0699607274400477 0.238160945638647 0.773619910702977
-0.0922809757658528 0.228915596066564 0.764582924183564
-0.0743182890672649 0.236355984513777 0.788756587204053
-0.0899138533270589 0.22989609028451 0.786583678961164
-0.0782288573923354 0.234736174076947 0.807987542948994
-0.0763160474046191 0.235528485916102 0.812327801319354
-0.0795579525037848 0.234185644856101 0.828090467046421
-0.077401761732043 0.23507876831682 0.839404136834902
-0.0746642114128826 0.236212698786695 0.845916837814297
-0.0847205813097544 0.23204721398717 0.841654382705973
-0.0788708288295992 0.232649705642131 0.855728759831825
-0.0780432450464344 0.230383132740442 0.863023395195167
-0.0971682829327662 0.222933154602998 0.861704251265141
-0.093523373602453 0.219785543594385 0.874724218288982
-0.0938905185422167 0.217745494714326 0.880002149078199
-0.107459924943945 0.210158491705603 0.885499246839258
-0.114877793447711 0.205364107068069 0.890312641470846
-0.115570268911496 0.204495654764491 0.891938590956881
-0.123105512457409 0.195436440884254 0.901512909292206
-0.1362482782553 0.186034485275594 0.899873677433866
-0.132791384888726 0.18830067717485 0.900801209900954
-0.154561476968196 0.169548963308512 0.905715076111866
-0.151907275844955 0.168904659118655 0.912150944305987
-0.0571937458543636 0.241404804125748 0.125235115697984
-0.0573209093717838 0.241388062731078 0.127211605505057
-0.0545387277217947 0.241754343894041 0.141856275397015
-0.0634177064747277 0.240585404165192 0.149400699882251
-0.047555129962943 0.242673751981139 0.166726469380924
-0.0516048567604174 0.242140595333705 0.175435560884211
-0.0599881754633046 0.241036910488399 0.179302426437185
-0.0546309411644373 0.241742203764005 0.184251824931249
-0.0609702467984667 0.240907618344316 0.190716787295954
-0.065823582310657 0.239874607260747 0.198380540241087
-0.0533390351935649 0.241912286411719 0.226799913384358
-0.0551686645629439 0.241671411135581 0.228135564613169
-0.0563714279392899 0.241513064333079 0.235529210309345
-0.0574471114917185 0.241371447906788 0.244693975488761
-0.0531094085449182 0.241942517333526 0.259903950985661
-0.0508804472963496 0.242235965648925 0.275906202253707
-0.0562703056077756 0.241526377340584 0.283665902646321
-0.0582963078205967 0.241259649089149 0.284360556691745
-0.0544459098968923 0.24176656359251 0.293733816902208
-0.06669147573559 0.239515114033445 0.298230535463937
-0.0543545079816735 0.241778596882932 0.313619716838794
-0.0647536861486666 0.240317772761374 0.316613608737615
-0.065975886806975 0.239811520672761 0.318196153264225
-0.0570713296855277 0.241420920520121 0.331057612436062
-0.050784410853568 0.242248609086477 0.356186415629709
-0.0627479271393717 0.240673582287524 0.349343642946868
-0.0563258342286341 0.241519066858961 0.372865807521535
-0.05798476738753 0.241300664165262 0.38345185302689
-0.0532010385842088 0.241930454009999 0.386970194309669
-0.0561886096957968 0.241537132811439 0.392280475382963
-0.0559341905420378 0.241570627728465 0.412807654174397
-0.0597882973190581 0.241063224945302 0.421684095096737
-0.055171046032456 0.241671097609172 0.423190160536
-0.0532258492361788 0.241927187625701 0.439936082413294
-0.058722068759978 0.241203596598104 0.443275785348139
-0.0526433746577837 0.242003871858728 0.451897062773843
-0.0475175643948179 0.242678697582007 0.475350172438185
-0.0517235385817112 0.242124970575513 0.48399521260325
-0.0622819536654897 0.24073492885917 0.483326506582043
-0.0557738808797266 0.241591732895896 0.491369078891804
-0.0574202040398234 0.241374990340034 0.506625531089328
-0.0536831127736419 0.241866987738938 0.513494236945538
-0.0487769860025545 0.242512891581832 0.526649190374609
-0.0567560295750434 0.241462430567155 0.527386823502185
-0.059652055836916 0.241081161476701 0.532859314346133
-0.061682915617113 0.240813793714389 0.553724483123808
-0.0568966424163434 0.241443918535405 0.562132354859232
-0.0520701740872192 0.242079335145461 0.573186036105182
-0.0499353330617139 0.242360392298421 0.583450759143982
-0.0592804734566196 0.241130081225126 0.589750730695833
-0.0611934003074576 0.240878239627512 0.592018307233493
-0.0559530837423702 0.241568140391454 0.617165974413928
-0.0667099999184651 0.239507441065666 0.611549878268997
-0.0566211455756464 0.241480188382561 0.625463642299781
-0.0523360154558617 0.242044336465317 0.639129888551809
-0.0578484407150544 0.241318611912181 0.647437586473934
-0.0535923208755589 0.241878940719082 0.658314475904907
-0.0556386386685961 0.24160953787077 0.664780871538292
-0.0547276897555391 0.241729466570349 0.681404418175289
-0.0547427312102744 0.241727486325266 0.690794161670376
-0.0528706894338918 0.241973945300714 0.691573099014188
-0.0533770651519541 0.241907279672714 0.7082766811922
-0.0554211298615586 0.241638173448465 0.71205587642853
-0.0580668697280312 0.241289855187077 0.72711373900422
-0.0514753025418692 0.24215765147015 0.732583055493593
-0.0599254415268061 0.241045169567823 0.736136799262527
-0.0597886597961017 0.241063177224294 0.751990002913806
-0.0595518909163038 0.24109434843867 0.759636046704925
-0.0562417172392087 0.241530141070708 0.772123141678854
-0.0624800831688898 0.240708844615202 0.775911239449826
-0.0558431540652293 0.241582612908009 0.791981637378766
-0.0581141092901888 0.241283635980734 0.802902623079466
-0.0444808783983381 0.243078484877832 0.821268228243745
-0.0561381970640993 0.241543769760312 0.827659765659319
-0.0540691599734361 0.241816163660899 0.837273685208903
-0.058371112544868 0.241249800860367 0.830747759422214
-0.0483032269738287 0.241187359193059 0.854803009676164
-0.058286369387451 0.240893492646241 0.851741692419049
-0.070002176803339 0.235025787644093 0.859355807735486
-0.0711829753908378 0.231565075395404 0.867663105291926
-0.0677289235170347 0.232595791091531 0.86878132569593
-0.0685977297298488 0.228560582367099 0.879055933408239
-0.0822586581151567 0.221481506584857 0.883027114191935
-0.0771922265114647 0.219894138073011 0.893331398919999
-0.0835697875364906 0.215990682886624 0.896858782403498
-0.0827140619428911 0.212435308482719 0.907788920196029
-0.092679001883894 0.208965298375033 0.905950554410378
-0.10576187420416 0.201570013969863 0.911475077716069
-0.0986169007623066 0.201188620924013 0.920814853360814
-0.105437294916485 0.195143621992994 0.929816258453464
-0.111682742344 0.191821439765836 0.931232308078503
-0.121750582850566 0.18529718119468 0.928349029298465
-0.142248996197248 0.169508487645407 0.928492363638047
-0.124779023940347 0.175967430856787 0.945167484925331
-0.166834815664135 0.14743104450451 0.925365216857225
-0.0476064914605996 0.242666990111693 0.129002655780147
-0.03148421451891 0.244789528137862 0.155174118093501
-0.0347103557975263 0.244364798580963 0.160157787386432
-0.0339387207751194 0.244466386258888 0.162761170111865
-0.0383450905213108 0.243886276676508 0.169428399629278
-0.039444374184674 0.24374155323667 0.183081760463441
-0.0358316327384216 0.244217179671206 0.198559835529917
-0.0377497641292998 0.243964652882897 0.198498439437987
-0.0346005445676959 0.244379255503633 0.209946721403345
-0.0384389941459344 0.243873914029794 0.224069327288776
-0.0360042132972831 0.244194459009597 0.227096010665485
-0.0429664168202196 0.243277867527091 0.234544273768786
-0.0388413400712736 0.243820944183829 0.257923684563608
-0.0382484992687729 0.24389899315615 0.264647904649976
-0.0387700042544002 0.243830335722288 0.27466265935878
-0.0469965482496483 0.242747290658801 0.276985472633196
-0.0388247210214423 0.243823132123247 0.283331662029711
-0.0383150664211827 0.243890229424278 0.291579410080452
-0.0425145127238476 0.243337361830049 0.298153955741037
-0.0401019917842819 0.243654976237224 0.313645076308837
-0.0416334362700624 0.243453357745755 0.329672425000077
-0.0321639244668731 0.244700042625578 0.338406682584896
-0.0455469299403512 0.242938136529769 0.337344864380024
-0.0309776339675468 0.244856220732678 0.360147321592902
-0.0492957741354314 0.242444591828421 0.360399800338587
-0.0436255059969889 0.243191096790837 0.369511990659531
-0.0482012685570177 0.242588686221442 0.377727444100095
-0.0484326255272185 0.242558227498481 0.382865720313311
-0.0363955856692181 0.244142933859345 0.399859231956294
-0.0311292713182684 0.244836257296728 0.422825596044673
-0.0421209047719279 0.243389181299989 0.420831813751158
-0.0461055883303701 0.242864587757425 0.423155944957072
-0.0407659335108607 0.243567566650667 0.43708204313609
-0.0323794954405228 0.244671662168489 0.45960285870484
-0.030213554348942 0.244956813722823 0.463911575077256
-0.0378811674274634 0.243947353310502 0.467995487768306
-0.0447425852882247 0.243044030512142 0.471690016817772
-0.0413193658287908 0.243494705903766 0.492025418530873
-0.0427295772807954 0.243309048043983 0.487139072965323
-0.0390543498540011 0.243792900913923 0.51537014422053
-0.0293687326204792 0.245068036613392 0.525086223818662
-0.0358027206861883 0.244220986015094 0.527959315419614
-0.0329497360501516 0.244596588568006 0.535438548078322
-0.0364932045061545 0.244130082095651 0.546384801131741
-0.0363145297150413 0.244153605078157 0.560391809744005
-0.0365714846155164 0.244119776323742 0.562009591967485
-0.0369234058621363 0.244073445012671 0.571258595863813
-0.0411132788861314 0.243521837764488 0.58463466329529
-0.0422664686900675 0.243370017446607 0.587938011020232
-0.04030767867771 0.243627897043983 0.599228257781502
-0.0466624800281995 0.24279127157452 0.600008187709397
-0.0391379825652288 0.24378189045861 0.62151795220423
-0.0367789299650231 0.244092465625367 0.63643718331125
-0.0428616125858633 0.243291665266302 0.638316379993652
-0.0450771696496873 0.242999981645302 0.650349288485315
-0.046042113047596 0.242872944436937 0.657899238144611
-0.0447658020859601 0.243040973962734 0.66697743279489
-0.0387216999015828 0.243836695110981 0.681295165568389
-0.0323339379690984 0.244677659923386 0.692049213090066
-0.0320366746096152 0.244716795387104 0.697303080473678
-0.0414937580125062 0.24347174673722 0.712391504718801
-0.0426270291068963 0.2433225487672 0.716273399780941
-0.0326608147619995 0.244634625777197 0.722892457137981
-0.0362053294050497 0.244167981571705 0.738207459538336
-0.0322612955469835 0.244687223479688 0.753944101957898
-0.0428298832785168 0.243295842508861 0.756190931420535
-0.049691968433442 0.242392431859557 0.752144956595342
-0.0404346843870831 0.243611176425137 0.776911502080096
-0.0364706522092692 0.244133051161862 0.776900112098395
-0.039398722999556 0.243747563329208 0.794772025148658
-0.0390937706312491 0.243787711070141 0.792956772074784
-0.0418214697253483 0.243428602671736 0.814982444840502
-0.0397592270798644 0.243700102066645 0.816435677832957
-0.0299324672239368 0.24499381954487 0.83669408474609
-0.0383652835862774 0.243883618209072 0.843476323960176
-0.0384861625070827 0.243867704197242 0.84659497929018
-0.0417986661316855 0.241594777865897 0.856149778699383
-0.0455162220616558 0.237920147664232 0.865705392735073
-0.0506554388429344 0.237019011565753 0.866379028855814
-0.0455062732566752 0.233945869369532 0.877632156974244
-0.0456026097618048 0.232354573047425 0.882367997116039
-0.0601063521045597 0.228205734977108 0.889086149615627
-0.0533908389747819 0.225814915692047 0.898910949699159
-0.0583224054600709 0.222949374119648 0.905559815281936
-0.0686117720085691 0.217737408993836 0.909296449038463
-0.0820608359118015 0.21160380868742 0.910869831081303
-0.0757282859810705 0.210103616685328 0.922396519383686
-0.0781744007228908 0.208498853844844 0.924050226953691
-0.0850008576533101 0.203559035848914 0.92995501757122
-0.0970123902915839 0.199066034372599 0.928606614492548
-0.0949586075751464 0.196557334905821 0.937998013341101
-0.101903836888163 0.1890192629693 0.951028832358252
-0.0965715274743662 0.191214735882726 0.951065850997866
-0.101333942316344 0.187477972418377 0.955997508081294
-0.121891889871723 0.175892032863158 0.950666710900239
-0.110034433610952 0.17621894209183 0.971723880371673
-0.140028887463279 0.157916737263696 0.960409026464812
-0.142801583482543 0.153067206084458 0.966943372810635
-0.0182103960711663 0.246537059489029 0.159386158616763
-0.0243217704207588 0.245732481792214 0.151548027394012
-0.021049868708609 0.246163235824479 0.169665993719541
-0.0197594548167471 0.246333122036264 0.176898787943464
-0.0182750388606374 0.246528549104344 0.190065040958025
-0.0166781513115319 0.24673878333855 0.204071924908162
-0.0207219368292587 0.246206408875434 0.205331261904305
-0.017752944996165 0.246597284065577 0.219082328461676
-0.0134964857927473 0.247157657550586 0.230841519656768
-0.0220461674372725 0.246032070608507 0.235646713303605
-0.0241306707323859 0.245757640543477 0.246248894352452
-0.020975019901341 0.246173089856897 0.253828600036853
-0.011625005632042 0.247404042587928 0.265315775740971
-0.0176017606596489 0.246617187861076 0.273666661432718
-0.0221446492659407 0.246019105229796 0.280445498830161
-0.0189433895495934 0.246440559066879 0.298253651436156
-0.0199346529640206 0.246310056762603 0.297576328166445
-0.0272428392867831 0.245347915780377 0.302712415851117
-0.0231110309867696 0.245891878662626 0.315962996319696
-0.0259815102487134 0.245513972898518 0.326036796223225
-0.0253651816108635 0.245595114103026 0.333637423092259
-0.0139874147933854 0.247093025521514 0.348931492331699
-0.0173795135101553 0.246646447253388 0.356799567231965
-0.0178970084849213 0.246578317747471 0.377135751111476
-0.021630243806522 0.246086827993301 0.376571326180882
-0.029006784625404 0.24511568797094 0.377449288962573
-0.0229004826904801 0.245919597871695 0.387413401909081
-0.0149302967082587 0.246968892762491 0.41676359584379
-0.0323884399217724 0.244670484605193 0.411409059461963
-0.0239342435295654 0.245783500675322 0.417416948316325
-0.0229646623992341 0.245911148452743 0.439792187002333
-0.02882457118043 0.245139676826065 0.432799730926098
-0.026306902869933 0.245471134147239 0.444892614509335
-0.0173339783671291 0.246652442068696 0.462020445043704
-0.0225591875672372 0.245964530227084 0.47620613118541
-0.0242049286674905 0.245747864300854 0.476577780928225
-0.0282470488076144 0.245215709088858 0.487826921732753
-0.0177600411850615 0.246596349834585 0.506332042430818
-0.0239857972988101 0.245776713492841 0.503744942273035
-0.024753464148545 0.245675648234758 0.51530305094898
-0.0215325338034878 0.24609969175924 0.533761334318264
-0.0152237362444722 0.246930260714657 0.539663011890175
-0.0181746798489647 0.246541761618886 0.54543320695666
-0.0241275691568869 0.245758048873637 0.557151484647763
-0.0219977296965662 0.246038447558049 0.566666098755713
-0.00997989615961462 0.247620625358778 0.580274484991833
-0.0192619758488362 0.246398616384887 0.592057073195874
-0.0125017633390719 0.247288615246018 0.597615488506145
-0.019677625386956 0.246343895085072 0.60214692714773
-0.0180531849235216 0.246557756729265 0.614171408848413
-0.0171166982891157 0.246681047533642 0.620817067105184
-0.015416235092219 0.246904917760569 0.643462538734901
-0.0189286916593132 0.246442494080844 0.642434489225647
-0.0233359066471495 0.245862273220291 0.648304788643435
-0.0208757718574187 0.24618615610976 0.663961332093373
-0.0249603273860285 0.245648414172884 0.66257652979301
-0.022325384768525 0.245995310949478 0.678796808305038
-0.0220692667635278 0.246029029524513 0.689495133454237
-0.0163256353054686 0.246785192951188 0.706357806242207
-0.014391204051076 0.24703986565724 0.709243512642286
-0.0198120028794877 0.246326203952561 0.714173644166566
-0.0159145670803306 0.246839311109706 0.725606972055249
-0.0262222603258261 0.245482277549572 0.734836332072503
-0.0216313658080477 0.246086680278998 0.744197256457393
-0.0267867074506072 0.245407966675839 0.754351274775093
-0.0230823036358123 0.245895660690129 0.765375179084747
-0.0217765977431546 0.246067560132011 0.780758253893129
-0.0199743341889769 0.24630483263023 0.790016894934087
-0.0244681060946208 0.245713216335264 0.788961343591857
-0.0255237569381159 0.245574237265137 0.801051616242118
-0.0302079258375208 0.24495755473041 0.811137796475695
-0.0170619640258119 0.24668825343611 0.820265020974719
-0.0213514790687349 0.24612352806727 0.828713470065367
-0.0257364872752316 0.245546230784943 0.832575991080014
-0.0275988971364628 0.245301039875181 0.847153528837737
-0.0303961315888586 0.243404736101761 0.85522342044596
-0.0363852938609534 0.240099960163387 0.862772283746351
-0.0290074981362497 0.239963532816413 0.866095481488813
-0.0290572228381915 0.235906445418455 0.878247104539078
-0.0358891833644226 0.235456150680551 0.8768996547527
-0.045857616384465 0.23232467559171 0.882356972706861
-0.0442719249837792 0.227572159842524 0.897240800654328
-0.0447339680302112 0.225065974404116 0.904576869606386
-0.0451233075940837 0.222220945620461 0.91295818337937
-0.0572700689802415 0.219706653924671 0.915703604044483
-0.0520440597320059 0.217951975503101 0.923031690819027
-0.0548738342669399 0.216730290620685 0.925579104810877
-0.0537453446318385 0.213266399012149 0.936416485073371
-0.0664946884713733 0.207194006006664 0.941222602761821
-0.0745527968697601 0.200423502950224 0.950818974911023
-0.0656505847368579 0.202981541645694 0.953976214031005
-0.0791277258285964 0.194858170777009 0.961079596863214
-0.0860693777572352 0.190545560434604 0.965097603186439
-0.0968163482544079 0.18638057686942 0.964296516312384
-0.0824715771478799 0.187111465193658 0.983095508720389
-0.102777291050402 0.180717014927258 0.973226800865216
-0.0880496829545529 0.184800938116182 0.994398164658097
-0.102705274633374 0.174356999472222 1.0
-0.142250112051794 0.148981737367352 0.977766772867361
-0.166274291688942 0.114046231878796 0.950213099277229
-0.136252431448044 0.150696087474374 1.0
-0.133802628909746 0.149883719890124 1.0
-0.146441218254804 0.137401011352403 1.0
-0.160561310283368 0.12362024984302 1.0
0.000586772287701189 0.248857253576664 0.163459138570129
-0.00279210473113142 0.248566916052475 0.17722770621288
-0.0108734287782316 0.247502989557861 0.179951899369748
-0.00772376308517726 0.247917650912917 0.187909828346189
-0.0106124422163328 0.247537349090572 0.198936321059706
-0.00425044533449322 0.248374921869709 0.209533654289076
-0.00231804740706759 0.248629326883188 0.215676360563643
-0.00567655322811671 0.248187171203685 0.229210853948083
-0.00967390688225623 0.247660909611377 0.238610572856124
-0.00248279247403205 0.248607637783656 0.244053320556712
-0.00934760379760131 0.247703868227442 0.253449056552714
-0.0106456001746507 0.247532983762544 0.256718642895568
-0.00898705234599516 0.247751335726555 0.273974089819596
-0.00943143591294929 0.247692831520079 0.281028253449406
-0.000917523667974112 0.248813709331369 0.298102606682837
-0.00421629930168017 0.248379417280212 0.299736083236978
-0.00596201172961667 0.248149589879005 0.319182852401129
-0.00796511913751268 0.247885875785819 0.312420455396292
-0.00376544005309558 0.248438774026348 0.332381532044592
-0.00243891950628973 0.248613413769436 0.34326377421112
-0.00496047492530422 0.248281444700718 0.358504292972027
-0.00298913552981207 0.248540976455727 0.371388046585591
-0.0074686084039927 0.247951242663966 0.363560595395816
-0.000763078197694369 0.248834042463273 0.383347767518368
-0.00248734866996928 0.248607037949082 0.390313531208584
0.00439417880025256 0.248355998999955 0.403271988987409
0.000580708014289752 0.248858051953404 0.407926269059364
-0.00742463534955095 0.24795703182641 0.421418352247791
0.000858147313238314 0.248821526376769 0.427416536919003
0.00207119192947443 0.248661826023356 0.437791584450053
-0.002371407603491 0.248622301880057 0.451806513105939
-0.00103461298060903 0.24879829423092 0.452202012347096
-0.00137535676839979 0.24875343446022 0.465108700541578
-0.00447241610099718 0.248345698863908 0.470227601556734
-0.000982499919313037 0.248805155045597 0.478614590489622
0.000147397959892629 0.248915098304295 0.492033514527038
-0.00802486041930305 0.247878010696862 0.49949797059788
-0.0108664657248567 0.247503906261229 0.501498378602635
-0.00482378408324212 0.248299440391473 0.523335241739572
0.000525789852212952 0.248865282066604 0.531562740530908
0.00297777909307119 0.248542471558988 0.542941470134841
-0.00599627793539793 0.24814507864743 0.543879688278376
0.00137931966389246 0.248752912735132 0.566276144597806
-0.00866951471003226 0.247793140349408 0.560062916351862
-0.00528095271518931 0.248239252999258 0.57465224631115
-0.00670678519029287 0.24805153859277 0.583253022497477
-0.0028511210205352 0.248559146410576 0.600910682793864
-0.00959758449568056 0.247670957644192 0.603927707863077
0.000815379255505394 0.248827156898386 0.618094738770084
-0.013772370847898 0.247121336594028 0.615905042177597
-0.000418923568820858 0.24887935127972 0.63470609442973
-0.0045198549430212 0.248339453421873 0.652157489561282
-0.0086304313768682 0.247798285767833 0.651770674847155
0.00293789283771269 0.248547722684125 0.667943392191172
-0.000878084686417981 0.248818901571794 0.671976270215566
-0.000181265661214695 0.248910639536828 0.684993585144411
0.0033958364229474 0.248487433267374 0.691111571490451
-0.00671010977401056 0.24805110090302 0.697196632633096
-0.011959548409127 0.247359999195775 0.703950132380114
0.00057989115843138 0.248858159494518 0.721946314076049
-0.00871479332745813 0.247787179306336 0.725438555709055
-0.0139337930807241 0.247100084953911 0.731344643335217
-0.00155084750848472 0.248730330665985 0.754449612541766
-0.00424187522776637 0.248376050145665 0.761522479953021
-0.00456791702789245 0.24833312592836 0.766609117159007
-0.00153932251195779 0.248731847960562 0.778977264377008
0.00282338435820949 0.248562798011447 0.78755378992952
0.00256584483546026 0.248596703732844 0.795784691416407
-0.00462500688350771 0.248325609906281 0.808869549359157
-0.00986676375786208 0.247635519522027 0.812801136316721
-0.00671016643951654 0.248051093442864 0.822826417878265
-0.00667065872941243 0.248056294731574 0.837105423485904
0.00143574867974983 0.248745483714257 0.843073837605177
-0.00499304192542537 0.248277157173813 0.844075838519041
-0.00446125125563175 0.244958321026903 0.860805840982033
-0.0118645453689026 0.242399127214918 0.865559435936831
-0.0133149013891228 0.240394729614212 0.870999799761587
-0.0198225330457354 0.239643049340566 0.870684602699612
-0.0244598789241283 0.236064392795635 0.879589017833204
-0.0203674003956831 0.233111412057571 0.890064315106174
-0.019105775283147 0.229242800029273 0.90216843948232
-0.0280245822279616 0.229010105746009 0.89934397270276
-0.0389855084950203 0.225038405241083 0.906929974260749
-0.0268496008902448 0.223545576861246 0.916201627040235
-0.0360883361710129 0.220878184575332 0.920554896175192
-0.0445254319595727 0.215511547635122 0.933322512796978
-0.0493842422426788 0.214069130760002 0.935730739895115
-0.0438829824899907 0.211031127629443 0.947017513045747
-0.0429465125227638 0.209481418483486 0.952036506313921
-0.0444877514383003 0.205835328624882 0.962366052031907
-0.049339601739931 0.20483704505558 0.963444628109422
-0.0567902957597099 0.202626985358621 0.965227227291952
-0.0651934002932394 0.195314274207891 0.975939881354246
-0.0648807711199215 0.194397815623513 0.98396230043357
-0.0650655911653566 0.193709051361758 1.0
-0.0741113708579056 0.189955032723168 1.0
-0.0751822629920853 0.18606491472773 1.0
-0.138434134907203 0.135751748314868 0.962659824457922
-0.142019800127632 0.128760000537661 0.962659824457922
-0.155460639263555 0.111383022711499 0.962659824457922
-0.184805682294122 0.0927225974862115 0.950213099277229
-0.1889057590719 0.0897558940794571 0.955544618917291
-0.191989176243553 0.0812242524878635 0.95772799584004
-0.181771487000973 0.0953634249234365 0.979071720153827
-0.167297552049657 0.108751005570317 1.0
0.00562816193533487 0.248193542038241 0.167073445312969
0.0156128210830084 0.246879036723891 0.183346404358397
0.00787803366551234 0.247897340805712 0.199752029375775
0.0108812660527355 0.247501957761098 0.209557353948496
0.00251512096033448 0.248603381657692 0.205731740112654
0.00349473945705301 0.248474412435916 0.21657910488875
0.0128627603698255 0.247241089085299 0.236521743504159
0.00206043213583409 0.248663242577062 0.23231628500136
0.00803985463049397 0.24787603667151 0.24148930838746
0.00855599752839183 0.24780808516989 0.249128958590496
0.0135219390882529 0.247154306560661 0.26719772373853
0.00924433084593298 0.247717464369463 0.275342562950278
0.0147156157763726 0.246997156043358 0.28468397278563
0.0108075702378535 0.247511659999189 0.294459217687861
0.0138448330053023 0.247111796770026 0.306536388898941
0.010113302092778 0.247603062134484 0.318226985317343
0.00616644317570118 0.248122675968542 0.324090085606574
0.0130248391433841 0.247219751009954 0.336263657449449
0.014300716364659 0.247051778587158 0.343654664541948
0.0117006369001189 0.24739408554259 0.349501136034057
0.00535374029534584 0.248229670332538 0.353234770825698
0.0145677557963634 0.24701662217902 0.37633318610855
0.0105592741295003 0.247544348801996 0.382176587149276
0.00951860068385058 0.247681356060288 0.388821105285244
0.0124543996375608 0.247294850795618 0.403444841565081
0.00356645198063337 0.248464971303078 0.407123921534396
0.0131759731725684 0.247199853837541 0.421167162911763
0.00815202139860615 0.247861269636342 0.423096058685569
0.00759176405022409 0.247935028915548 0.443962649382955
0.0125529701682291 0.247281873739067 0.444773380252614
0.00666230026405304 0.248057395144414 0.445375298640215
0.00856960776621724 0.247806293348087 0.454959490268152
0.00560052330773168 0.248197180732595 0.474814901930564
0.00996274866003854 0.247622882869925 0.484212360724174
0.00951000060238845 0.247682488282492 0.498202605230166
0.00716210253615789 0.247991594926992 0.505642980875879
0.0081783370797502 0.247857805111193 0.513777534934069
0.00614811283559531 0.248125089203599 0.518513316526822
0.00626483206689199 0.248109722825282 0.529017151620541
0.00942547441916938 0.247693616365624 0.538107429167794
0.0143642585431075 0.247043413100663 0.556201897626613
0.00694563503910695 0.248020093413625 0.550090547404869
0.0050504513697086 0.248269599077088 0.56221669630459
0.00946860548861217 0.247687938052609 0.583196985858659
0.00880340167064143 0.247775513796649 0.584300285532845
0.0100953264483209 0.247605428672973 0.599004857753591
0.00760723218371259 0.247932992497141 0.605557720192332
0.0037093828816758 0.248446154092974 0.616229821738138
0.0141199655528465 0.247075574882974 0.625607058603474
0.00438301989085468 0.248357468098248 0.6273720243083
0.0128508231100047 0.247242660655368 0.641769716217122
0.00885538650463924 0.247768669863417 0.649424527232436
0.0118165841654217 0.247378820795525 0.666324107061695
0.0121519994243071 0.247334662538963 0.675374793311926
0.0050676704746605 0.248267332138916 0.671126527988049
0.00756317178544281 0.247938793158618 0.693833240230626
0.0122531142090648 0.247321350525007 0.703043461811239
0.0117259104537839 0.247390758216127 0.709057414793806
0.0105159958375874 0.247550046497217 0.717325302097582
0.00692061817010174 0.248023386946911 0.722644285161254
0.010217647621891 0.247589324784964 0.738669749572264
0.0137441197594097 0.247125055920388 0.748906625523838
