ply
format ascii 1.0
element vertex 855
property float x
property float y
property float z
end_header
-0.143626512354148 0.181417752578064 0.943538249894785
-0.137760906730446 0.178344193616251 0.955660301184851
-0.130834790366571 0.177908033662698 0.964863801306652
-0.136906419887933 0.171997809338035 0.966866378322645
-0.127165562725552 0.173830227923361 0.975895831991421
-0.130219796607495 0.170072901745486 0.978158363242485
-0.126864841814239 0.164933247518773 0.990503838339156
-0.11943157990539 0.165115609314267 0.999340246641599
-0.0928077430040287 0.132175329903277 0.974358974358974
-0.076153739301065 0.120060502390903 0.974358974358974
-0.0727793141574806 0.106392496552399 0.974358974358974
-0.0571314835020059 0.0997434323168167 0.974358974358974
-0.0580973933951581 0.0983249629122463 0.974358974358974
-0.0442590684556557 0.0873995394456087 0.974358974358974
-0.028435097578094 0.0725930105234472 0.974358974358974
-0.0303824825130178 0.0636522571391487 0.974358974358974
-0.0117129692127072 0.0483487808050563 0.974358974358974
-0.0114460796635948 0.0504784522109448 0.974358974358974
0.00132432011000904 0.0351516968986856 0.977564102564103
0.0154573690286851 0.030654336302611 0.977564102564103
0.0242758067591247 0.0258580444715322 0.977564102564103
0.0313811012339259 0.0110313864439115 0.977564102564103
0.04588941958986 -0.00737439004441517 0.974358974358974
0.0546388795944878 -0.0208620976049093 0.974358974358974
0.0739060942776915 -0.0361794691822755 0.974358974358974
0.0789332044152534 -0.040389714204077 0.974358974358974
0.0941573038072515 -0.0505867203401861 0.974358974358974
0.110202313414494 -0.060282377018697 0.974358974358974
0.107613132141486 -0.0718255830857505 0.974358974358974
0.134517748676415 -0.0806292655218391 0.974358974358974
0.147162750104916 -0.103916736015124 0.974358974358974
0.14403235470133 -0.10623606493401 0.974358974358974
0.165061880241573 -0.11374439914257 0.97848235035805
0.161441692697186 -0.118462319404858 0.991286395345502
-0.168383165926193 0.223271408245881 0.271978851276999
-0.171438210117617 0.220927190388332 0.273587941917865
-0.173553170409244 0.219304324278063 0.287559672948552
-0.16896483524315 0.2228250776809 0.301757737174269
-0.172464973621766 0.220139327041327 0.309781019381424
-0.171575259537675 0.220822028669635 0.321124401406037
-0.166674152568415 0.22458278031812 0.320722917522417
-0.173185244950665 0.219586643411996 0.328036103208967
-0.170386616942491 0.22173410621198 0.348139543911181
-0.172839983510174 0.219851571833192 0.353507178318804
-0.172710880338168 0.219950636181306 0.358662664526081
-0.173353942863875 0.219457196950373 0.36492507830744
-0.168074787019515 0.223508035703498 0.373342980267763
-0.171073076286527 0.221207367431152 0.389302259895071
-0.16961817683352 0.22232375104624 0.395487540716631
-0.171485751550509 0.220890710563827 0.413120738498262
-0.173124682650502 0.219633114499364 0.416682354189135
-0.168721459665849 0.223011826329578 0.424313027581515
-0.166831531499042 0.224462019217311 0.436430920407239
-0.16849261681437 0.223187423625523 0.44075096330447
-0.171993027958731 0.220501463685432 0.451714276193044
-0.170252006493729 0.22183739644218 0.453824396689179
-0.172974958460026 0.21974800191147 0.466933333693619
-0.168336622787698 0.223307122052153 0.478366913903999
-0.166939706519483 0.224379013604701 0.480358145325344
-0.169039140730542 0.22276806107507 0.496578077607397
-0.169097764391671 0.222723077557751 0.506210376863866
-0.173829626797886 0.219092191830059 0.515409498456267
-0.170724392005814 0.221474922290027 0.526860487462327
-0.168662512121373 0.223057058371329 0.535861752187855
-0.167918033203965 0.223628317136637 0.536606985712089
-0.170684660689391 0.221505409201387 0.553473644836619
-0.169088195898693 0.222730419720647 0.562542157925427
-0.173016731296863 0.219715948486401 0.574007639644954
-0.172280644280398 0.220280767919635 0.578146588233671
-0.17140888923316 0.220949689094288 0.578705244263788
-0.174550143351178 0.218539320033433 0.598324451786343
-0.167023820367852 0.224314470778785 0.603709414140894
-0.169583085403336 0.222350677647667 0.613034064001856
-0.170862344979917 0.221369067249926 0.624193448534887
-0.166230576830208 0.224923147953258 0.627462467407625
-0.167999718665066 0.223565637677809 0.63959721539712
-0.170757176918711 0.221449765541563 0.641746421499277
-0.168144153111379 0.22345480922916 0.660733564346589
-0.170082739513702 0.221967279564129 0.668384933244566
-0.170219219978662 0.221862554420032 0.679233313137208
-0.168487517367638 0.223191336568625 0.686466210684324
-0.17294731879826 0.219769210569882 0.691736294906428
-0.169221011573648 0.222628506668828 0.696610908740476
-0.168258254254585 0.223367256342619 0.71564080191021
-0.168077245070417 0.223506149574703 0.725402537094605
-0.172241479703536 0.220310819956434 0.730534104774427
-0.16748596961733 0.223959851187186 0.735309275376075
-0.171423231429264 0.22093868394015 0.752110940037365
-0.167555987004645 0.223906124956271 0.756724676823554
-0.168999330774807 0.222798608328495 0.766573008684321
-0.171466536207864 0.220905455014822 0.773562007869529
-0.171078457155908 0.221203238544857 0.792850408895822
-0.169310357380805 0.222559949219733 0.800407447649998
-0.167365771483841 0.224052082458917 0.806874741567203
-0.168471658617376 0.223203505415696 0.815306496380413
-0.172948191066093 0.219768541255233 0.827740558318293
-0.17186712814652 0.220598070009125 0.835786984363031
-0.171978210557218 0.220512833477506 0.840929852165733
-0.169232517474407 0.221637476191183 0.847725760077736
-0.169098337388794 0.219030626791442 0.852062534462958
-0.163138247230762 0.218053990505243 0.860944703977516
-0.161322750111963 0.215811977206147 0.866762301047354
-0.161871738008811 0.210008177651265 0.875376519090171
-0.161441968140531 0.207620327233745 0.879725800644824
-0.156587517937304 0.207969226214098 0.885128828035716
-0.15288302830879 0.205187995499787 0.894129124978381
-0.153723265223617 0.19873606221588 0.90342295295942
-0.146895562929381 0.2005525866164 0.908900405534745
-0.150415416822427 0.193627705664665 0.915660491302303
-0.143986693513728 0.194644262076368 0.921928253604246
-0.140472351668311 0.194426420792812 0.926592599477399
-0.136964580814916 0.193612677858033 0.932202555978539
-0.133273813612002 0.193262295358845 0.937295676011855
-0.138015487364728 0.181970106667589 0.949544763710769
-0.131475819541844 0.184004865815425 0.954319239134845
-0.132790694734752 0.179089422622174 0.960571201489425
-0.13028125883865 0.174412643299499 0.971137570802808
-0.127269766210686 0.173181631043769 0.976805880459035
-0.121809576636227 0.173980250205428 0.982233041833911
-0.118898731643596 0.172896762722309 0.987541654897045
-0.117552433149329 0.168482564419862 0.996259423744438
-0.114533682878477 0.168855702215474 0.999369366964137
-0.0696785207816222 0.128991289184115 0.974358974358974
-0.0688981975086151 0.126437476082684 0.974358974358974
-0.0554199285538048 0.109793203496282 0.974358974358974
-0.0543218055195773 0.106461534959337 0.974358974358974
-0.0359736901584925 0.0896192340764585 0.974358974358974
-0.022031498243819 0.0839658050650453 0.974358974358974
-0.0186013308244826 0.0708005107532856 0.974358974358974
-0.0122304934096537 0.0673789007092393 0.974358974358974
-0.00303792029167331 0.0580034813914473 0.974358974358974
0.0181548302350565 0.0381562725494589 0.974358974358974
0.0196350666575954 0.0389909890747844 0.974358974358974
0.0309911834744477 0.0248365141356982 0.974358974358974
0.0452087642778737 0.0172243611200138 0.974358974358974
0.0530334497553067 0.00403280350924185 0.974358974358974
0.0663353220939446 -0.0108626855934019 0.974358974358974
0.0810360783567151 -0.0258109883437657 0.974358974358974
0.0945267277239165 -0.032484171410539 0.974358974358974
0.0992153245268148 -0.0496963359474259 0.974358974358974
0.114901410312588 -0.0532212326824991 0.974358974358974
0.129118778834264 -0.0678219107652859 0.974358974358974
0.141690208686007 -0.0812449861141769 0.974358974358974
0.14894220396043 -0.0912004207207809 0.974358974358974
0.155908269998655 -0.0981705333048214 0.974358974358974
0.170673663414025 -0.106430980925348 0.974392204284186
0.172167524434768 -0.104484143339617 0.983204262044651
0.167594335416075 -0.110444039303578 0.998849678027853
-0.162843084334968 0.227522462366432 0.2719421810493
-0.166068191797064 0.225047750371635 0.277409361577767
-0.165577180965858 0.225424516233809 0.283267961012977
-0.163689237061751 0.22687318654322 0.299571582877285
-0.162035406515827 0.228142215354652 0.310124616497669
-0.160548123433369 0.229283447802587 0.309389203520411
-0.1660278780624 0.225078684188228 0.324558220853381
-0.161694816922903 0.228403558941127 0.333747995405913
-0.16270834495683 0.227625851527622 0.338735869715392
-0.164223939386108 0.226462895019206 0.342015187354501
-0.164671462201081 0.226119498685541 0.35343223535434
-0.165872874918169 0.225197622284018 0.371575035119322
-0.167688674038474 0.22380431061426 0.379930330080879
-0.164121607456663 0.226541417070401 0.383998046984753
-0.164306883708401 0.226399249602211 0.398977000968156
-0.165771374020714 0.225275506661939 0.406036595320438
-0.161925737139365 0.228226367626966 0.414814012001114
-0.159004885207891 0.230467616141877 0.415984224632948
-0.159345933020908 0.230205920950757 0.428447442368116
-0.162886773096493 0.227488938800643 0.437455467186719
-0.165785333875217 0.225264794888831 0.444196960443867
-0.164420193655598 0.22631230382172 0.464341333528226
-0.161383917719106 0.228642120290742 0.467915082124851
-0.16680486037543 0.224482484690257 0.477536829489734
-0.162913780995268 0.227468214911024 0.487469781347741
-0.164794261441134 0.226025271514545 0.490032884737382
-0.163582596763534 0.226955014522048 0.500805277622074
-0.164260453228734 0.226434876962325 0.516573551344545
-0.161412190019865 0.228620426191357 0.525181688636047
-0.160492751542166 0.229325936149082 0.530144408562892
-0.163243027986436 0.227215574808991 0.547456124202463
-0.160768741001991 0.22911416198816 0.543788012949411
-0.162070953815087 0.22811493895258 0.556875424984544
-0.164183996051142 0.226493544618115 0.564222813211413
-0.165013093852792 0.225857355499235 0.570997038593701
-0.160439448000999 0.229366837394774 0.58473962462272
-0.164829018256063 0.225998601672434 0.599214461082321
-0.165521977018441 0.225466875712505 0.603803595133602
-0.161866289558842 0.228271983359872 0.61138448012307
-0.164831487702501 0.225996706799537 0.622565736288342
-0.164532375905458 0.22622622335383 0.62855324980497
-0.162694702982934 0.227636319382362 0.639245916100731
-0.162258426470974 0.22797108612421 0.648890037100764
-0.167454130641466 0.223984282092636 0.662636134853202
-0.163633196049595 0.226916188324281 0.669780979706437
-0.164076363174385 0.226576134229245 0.67806520196113
-0.161995442765195 0.228172880619053 0.689366559973195
-0.165761596159913 0.225283009478417 0.695297286702359
-0.163026920467907 0.227381399940262 0.708516454846807
-0.161633223383669 0.228450821326066 0.717058445632128
-0.163469973892214 0.227041433090676 0.718036012941942
-0.166129109752001 0.225001006380758 0.728122541557596
-0.164652152234256 0.226134315744223 0.738750399934173
-0.163090149374734 0.227332882693634 0.743182728665882
-0.165926296301683 0.225156630614713 0.756925512491484
-0.164254584615185 0.226439380107882 0.7657104352599
-0.164263473311671 0.226432559571181 0.780454280579172
-0.160060619553102 0.229657522686659 0.786012829513027
-0.165619268921605 0.225392221009495 0.797251856791455
-0.161937604909737 0.228217261166473 0.803996160451182
-0.166252487427721 0.224906335360464 0.813720103828363
-0.167448987520255 0.223988228548344 0.825812080928078
-0.164138905208524 0.226528144038567 0.829626070881912
-0.158797042483583 0.230627099473493 0.841952091881712
-0.161296518103228 0.225931028072552 0.850600002804738
-0.163543451421227 0.219712190709046 0.857793320751984
-0.158743443747617 0.221800597503205 0.860345585782342
-0.152073515975313 0.220894923777611 0.869985887978968
-0.151658681059891 0.219249311794081 0.873128951845802
-0.151499269980983 0.214498013111661 0.880928683625655
-0.147942299879707 0.211324160378144 0.890376173954131
-0.145673562900373 0.211296618038169 0.893206327052224
-0.141242336001744 0.210900788370414 0.899281486499818
-0.141135337761536 0.207768660478125 0.904425535607387
-0.134476299088297 0.206398832018339 0.914795298128764
-0.138472369622089 0.199826168510986 0.920406887936677
-0.129791823544063 0.200254586858533 0.930381208649008
-0.133555472990439 0.196414874932359 0.93190440715765
-0.125989378763295 0.19668863398936 0.94075766535164
-0.127714402745771 0.190419946522192 0.948671683023257
-0.123928892942461 0.18873728397517 0.956013328436822
-0.12338563226159 0.186475208369078 0.9603006901839
-0.119892648123052 0.185672172306253 0.965875352913339
-0.119434201164604 0.180853626995702 0.974149930759928
-0.117849328632647 0.178466205452581 0.979917025299727
-0.111421741690464 0.178514066172657 0.987733691058608
-0.107126372551009 0.177191736605739 0.995124782136044
-0.104131139870244 0.176509572155721 0.999894749007886
-0.0767110923530314 0.143723016104064 0.974358974358974
-0.0653606874491279 0.131063632701736 0.974358974358974
-0.0505909239019533 0.117177338379211 0.974358974358974
-0.0367685570357199 0.104444721461967 0.974358974358974
-0.0291475452114163 0.0982279378407657 0.974358974358974
-0.0202935736887311 0.0834709557945649 0.974358974358974
-0.00994375918945202 0.0862027502288582 0.974358974358974
8.43025502384052e-005 0.0638380548041192 0.974358974358974
0.0106810055746536 0.061029112918371 0.974358974358974
0.0171628138867362 0.0525613007467188 0.974358974358974
0.0353679666739254 0.0380917702710217 0.974358974358974
0.0433626439522632 0.0263826891798073 0.974358974358974
0.0511852820454695 0.0160889175164981 0.974358974358974
0.0623735408045556 0.00967149041924205 0.974358974358974
0.0789205735469848 -0.00426305271734851 0.974358974358974
0.0914660027511689 -0.0221423947722111 0.974358974358975
0.0989149841954921 -0.0278407549146684 0.974358974358974
0.105163231909842 -0.0268360562089388 0.974358974358974
0.116830074396305 -0.0394826287743283 0.974358974358975
0.134491826161035 -0.0555998992302807 0.974358974358974
0.14551438927269 -0.0700281428033826 0.974358974358974
0.155837215770406 -0.0824345812091303 0.974358974358974
0.171268760491358 -0.0991834422433791 0.974358974358974
0.173347271797573 -0.102946666642867 0.978208831482347
0.171851543302913 -0.10489593796799 0.983337136409495
0.17375737090338 -0.102412215082799 0.997334427108202
-0.157268706597217 0.231799832845798 0.273705293427133
-0.155377303274663 0.233251157660347 0.272547513797623
-0.155897879471725 0.232851705495042 0.280402098312343
-0.158300319236251 0.231008248626727 0.300034837123102
-0.156588561117341 0.232321726828259 0.305091258451635
-0.1605586485874 0.229275371567845 0.30933069309083
-0.155098676089104 0.233464955819411 0.326484963612972
-0.155474548583493 0.233176538710427 0.329571976515367
-0.152247980478429 0.235652371495995 0.337105931176492
-0.152516227584508 0.235446538252054 0.34088559991099
-0.157997064374443 0.231240944266428 0.352576723264267
-0.155452394369722 0.233193538236552 0.364285535310311
-0.157237568702922 0.23182372579244 0.367805078216603
-0.159934259312955 0.229754482309132 0.387413173668861
-0.15282364718757 0.23521064689399 0.39716458183336
-0.153207672713487 0.234915973743881 0.404955285456869
-0.156341426407743 0.2325113599606 0.404600126377306
-0.157344818772258 0.231741429919776 0.42533120392476
-0.154882241645412 0.233631031809184 0.432740370240516
-0.158980365191437 0.230486431012246 0.432307767509304
-0.155855456168643 0.232884258040415 0.447346940496469
-0.158983112080872 0.23048432324985 0.459683725031097
-0.155961317842357 0.232803027521183 0.470847427597499
-0.154843699264045 0.233660606418587 0.474508056776865
-0.157479237142719 0.231638287076441 0.484787196734447
-0.153978648298332 0.234324383370556 0.494399632852966
-0.153680764467626 0.23455295767314 0.503087888708321
-0.155403502656646 0.233231054167482 0.512159752939242
-0.154419256170924 0.233986293058801 0.519441316340179
-0.15520437478972 0.233383850353834 0.535478257396932
-0.156771094566161 0.23218166398677 0.530615716503067
-0.152684701610163 0.235317263585396 0.54639111211856
-0.157532741096424 0.2315972320488 0.560748632549186
-0.152909966862805 0.235144411477589 0.561852636494657
-0.154409565233144 0.233993729176898 0.577026231446474
-0.157207264608061 0.231846978942273 0.583428089400653
-0.152018793886767 0.23582823255306 0.594096470625349
-0.156345252965809 0.232508423739325 0.596923598366674
-0.156482204209651 0.232403337353888 0.608763192336078
-0.155664238238066 0.233030984719133 0.628261552618066
-0.157248286148404 0.231815502007279 0.622903403914975
-0.15504712132676 0.233504515179915 0.632474077971061
-0.157665114758636 0.231495658165286 0.641766719874015
-0.15475069067179 0.23373197442154 0.661660626206509
-0.156710584194936 0.232228095227664 0.669240512154985
-0.155648409461355 0.23304313056669 0.678556631842527
-0.153880656893387 0.234399574820162 0.686184220872316
-0.158699896257433 0.230701642394599 0.698962176300837
-0.157687355585789 0.231478592178376 0.700266267253437
-0.153780027576266 0.23447679041097 0.710144812982672
-0.157627056286371 0.231524861458177 0.723662781774691
-0.155111097765293 0.233455424332036 0.732221816744764
-0.158709780114362 0.230694058244431 0.744548657100929
-0.15722986317586 0.231829638451311 0.746467305058032
-0.155335663733799 0.233283108803819 0.759610292049774
-0.157474923523655 0.231641597032765 0.770885200755237
-0.157523228867418 0.231604531038831 0.775004775521204
-0.157144192820805 0.231895375626815 0.780761536543254
-0.158038842129086 0.231208887067793 0.79201894013592
-0.157169910660475 0.231875641634363 0.801058226916758
-0.153134386463993 0.234972208260966 0.814837480244079
-0.156014924682139 0.232761893546276 0.819792155135025
-0.156912638646972 0.232073053393576 0.827535866235538
-0.154568083273064 0.233872094006786 0.83867408123503
-0.15347682105704 0.234187300045436 0.846989492388036
-0.152366125318679 0.231591216824819 0.852508225958026
-0.152894567109113 0.228083582118164 0.857472896869011
-0.152758149257996 0.223294947565494 0.865304144566243
-0.147385767224002 0.222870052498452 0.872581585855124
-0.146346495082608 0.218133847625063 0.881437656266237
-0.142641494719437 0.218617067326728 0.885214159477031
-0.140210265663922 0.216560632748436 0.891490893236182
-0.132452220582547 0.215902695936167 0.902070957104783
-0.13168199735227 0.212502366162587 0.908458695448383
-0.132391608854226 0.210105615112112 0.911423028407317
-0.130769901157834 0.206358480152826 0.919411440643728
-0.127405011341658 0.207476342213813 0.921754597743304
-0.125723166672604 0.204581576700198 0.928452729294642
-0.124229234313851 0.200898515832483 0.93618168566675
-0.120990870346254 0.198214520922313 0.944453950849891
-0.115382453584525 0.19681877782595 0.953574993131091
-0.114206526127847 0.192807755420494 0.961438299410954
-0.110715773733891 0.194112284577133 0.963019316844977
-0.110109299742594 0.185970489597759 0.977412160140258
-0.107727714580558 0.185729256639552 0.980722884162683
-0.0996097316338768 0.185732109438875 0.987211021431158
-0.10382934237159 0.180588328090622 0.993540085828475
-0.0667150806084296 0.150663814965716 0.974358974358974
-0.0633642909703337 0.145287156621484 0.974358974358974
-0.0597745012080938 0.136458505335122 0.974358974358974
-0.0374642742856094 0.126334884571937 0.974358974358974
-0.0304655312528071 0.113485955784238 0.974358974358974
-0.0246700066850315 0.104324280147409 0.974358974358974
-0.0181823169091882 0.0987373548427712 0.974358974358974
-0.00325042941171631 0.094128389954936 0.974358974358974
0.00932252526457619 0.0757072226278112 0.974358974358974
0.0151692088273796 0.0684455032223559 0.974358974358974
0.0264075538542021 0.0552329337735051 0.974358974358974
0.0437338478245879 0.0400993027009273 0.974358974358974
0.0529956335335073 0.0270702871930744 0.974358974358974
0.055786258432357 0.0200897065273376 0.974358974358974
0.0714972301310286 0.0144797497425336 0.974358974358974
0.0800399076209318 0.00758925220972312 0.974358974358974
0.093014992633101 -0.00629773872635552 0.974358974358974
0.105273158482064 -0.0175936305246456 0.974358974358974
0.11629435918288 -0.0317133273472263 0.974358974358974
0.127186695092954 -0.0320425669433275 0.974358974358974
0.143884573973224 -0.0571614941502843 0.974358974358974
0.143664281147427 -0.0565876303390358 0.974358974358974
0.16789000493339 -0.0726954576671671 0.974358974358974
0.172577907182213 -0.0861138307774257 0.974358974358974
0.180099604744598 -0.0883373972119479 0.981187557705318
0.179086846239042 -0.0907824125314695 0.983019019516206
-0.15165921508057 0.23610414707536 0.262573069417634
-0.147583765250595 0.239231349718054 0.272711536902571
-0.150750939401747 0.236801091516246 0.280833463074355
-0.149163700077122 0.238019023086413 0.295812451355251
-0.14960281270154 0.237682080118935 0.303456458340054
-0.146332204431823 0.240191706111395 0.308851310738226
-0.15155065944111 0.236187444747214 0.322504557315774
-0.146330560600201 0.240192967467762 0.324432351645721
-0.152930778680761 0.235128442008002 0.336376312719663
-0.146817306739606 0.239819474018703 0.342580547275024
-0.152369806373445 0.235558891198915 0.357964127693096
-0.15072039599164 0.236824528299126 0.36093179820944
-0.148610444158507 0.238443551284025 0.372148270653415
-0.145197699082886 0.241062242683641 0.377781397087461
-0.148969205976845 0.238168263658557 0.393405905266782
-0.150509988525023 0.236985979626734 0.398916105497808
-0.148950153440169 0.238182883184139 0.406689957511655
-0.148591502228962 0.238458085937769 0.422655910361719
-0.147843901783095 0.239031739936107 0.429164956387166
-0.151691028396615 0.236079735859382 0.437500388894537
-0.145995170333324 0.240450321471042 0.451229541899544
-0.150577049240483 0.236934522129928 0.45784101916252
-0.147389096091347 0.239380724617673 0.461905005137356
-0.150405049500858 0.237066502172068 0.474995608272903
-0.149763080477854 0.237559102328865 0.486900351438474
-0.15110094494482 0.236532522817104 0.487397848719385
-0.14735760438157 0.239404889056483 0.502562271749631
-0.14666179346118 0.239938803554228 0.51385283476022
-0.145780781047608 0.240614828155906 0.520628488229732
-0.152482822284152 0.235472171040558 0.529705989230474
-0.152166625229336 0.235714797574238 0.543424689692948
-0.150036436085699 0.237349349193651 0.549644363290717
-0.147499414535901 0.239296074297894 0.555930586680822
-0.147471331150399 0.239317623437505 0.564528251821162
-0.149832669927687 0.237505704465929 0.574260645827591
-0.148014561773203 0.238900787919929 0.580138823977402
-0.145483955393455 0.240842590491063 0.59125239240473
-0.148927789163487 0.238200043897204 0.609366380530539
-0.147267123010141 0.239474317854689 0.610537424862312
-0.146736840418652 0.239881217998394 0.624610429154751
-0.150011034404353 0.237368840589287 0.627867129928069
-0.149290279376528 0.237921895373859 0.640911939903835
-0.148236227134034 0.238730698106264 0.645950752400145
-0.149684128216934 0.237619684529432 0.649594786176985
-0.14762326194773 0.239201042836406 0.666372357795649
-0.146442204550754 0.240107300051459 0.675206436881095
-0.149829048744578 0.237508483097458 0.676671723024668
-0.14678681733727 0.239842869359961 0.69466144156787
-0.150029535014494 0.237354644571832 0.700705198981855
-0.148640065339619 0.238420822152342 0.714228460160627
-0.151351426562845 0.236340321511601 0.721807256337752
-0.15066421359792 0.236867638566077 0.725604664268402
-0.150379161485392 0.237086366745 0.738121798809039
-0.153593060386244 0.234620255381741 0.742369960682189
-0.153329484493962 0.234822504277269 0.757238108316723
-0.145084150235482 0.241149371778708 0.761962499445297
-0.148994456034819 0.238148888607627 0.774334587065377
-0.145477640978514 0.24084743571206 0.783735838866896
-0.145439055335979 0.240877043516925 0.787901169942907
-0.146343374972303 0.240183134654215 0.797448029070841
-0.149432450587328 0.237812803566898 0.810483520566153
-0.146645708451411 0.239951146016326 0.81469930136421
-0.147825031525583 0.239046219593967 0.827173566048241
-0.148549160856158 0.23849057561583 0.837118379645598
-0.147484353915917 0.238294161367866 0.847775800789119
-0.14523147540499 0.238167843849495 0.850744558859624
-0.14363193711734 0.235147281790388 0.857542940381768
-0.139866408806185 0.23099905677332 0.868805929957417
-0.138060946185159 0.231640464573608 0.869996582120427
-0.135264316820448 0.226381581040868 0.881847231882697
-0.136410119800046 0.225946540597964 0.881136390797305
-0.132891938692303 0.220095071710323 0.894821499491864
-0.131632899723113 0.217646504451018 0.900286318528608
-0.129424689033795 0.21810395872516 0.90226595583693
-0.12720398971978 0.213898764347033 0.911723024559366
-0.119051296765328 0.2117885833329 0.923641156836789
-0.120963208243154 0.212718800464384 0.920431567524729
-0.116246666290159 0.209964973098416 0.929204919170179
-0.11154024172649 0.208630319576046 0.935325541499693
-0.112816124165564 0.202666093272747 0.94545614529514
-0.115092365488405 0.19958925059992 0.949433274442058
-0.110003491456202 0.194744019116753 0.962391812489638
-0.104826216525781 0.194574952018845 0.966703610463126
-0.0995529579910436 0.192859810929752 0.973970928220792
-0.093765353565896 0.193554565385725 0.977143975892678
-0.0919933360426531 0.191467985585376 0.982400688030735
-0.0947135639545648 0.185873431325839 0.990727339729842
-0.0885176597731984 0.184645369984967 0.997799141204254
-0.0571329887609762 0.154854939017242 0.974358974358974
-0.0494478550793164 0.142635660324417 0.974358974358974
-0.0374947795697635 0.124968721356749 0.974358974358974
-0.0268097126178777 0.126342340586102 0.974358974358974
-0.0191174371680402 0.114382099455187 0.974358974358974
-0.00753067521406379 0.112375850908417 0.974358974358974
0.00269881692643046 0.0921619664606461 0.974358974358974
0.0163573807867561 0.0816177667015973 0.974358974358974
0.0257114489490615 0.0670433341981408 0.974358974358974
0.035216985905292 0.0615152551299104 0.974358974358974
0.0504571435906634 0.0565381807356544 0.974358974358974
0.0539014148738768 0.0380404660071638 0.974358974358974
0.0617247431214219 0.0380171199084147 0.974358974358974
0.0825803794083523 0.0264560171650119 0.974358974358974
0.0894079195343403 0.0101209751913946 0.974358974358974
0.101448985680625 0.00145716356826462 0.974358974358974
0.101930416761054 0.000323824092024489 0.974358974358974
0.117147291836821 -0.0204684537382556 0.974358974358974
0.131308752433059 -0.0236658407673608 0.974358974358974
0.150344567723532 -0.0483751094856488 0.974358974358974
0.159747429092504 -0.0577654868961196 0.974358974358974
0.169269438431875 -0.0630175996260159 0.974358974358974
0.175722545846743 -0.0800421671827005 0.974358974358974
0.183174012166328 -0.0809151211181438 0.979614979038303
0.183273017955564 -0.0806760999990186 0.989528047193586
0.184870132935368 -0.0847785824329897 1.0
-0.140737006689913 0.244383131682806 0.266496124962562
-0.139588618679792 0.244858809571464 0.279132702940551
-0.142701834372707 0.242977387034107 0.276246018507318
-0.141975486705738 0.243534733201627 0.290727174307772
-0.143707742993762 0.24220552620173 0.305510910759339
-0.137745559100777 0.245622229845354 0.310364302572237
-0.140929183018743 0.244303529641037 0.321543778093309
-0.140449047410537 0.244502408321734 0.326779130144684
-0.135731973115323 0.246456284469533 0.336788790017734
-0.143408929387338 0.242434813946314 0.35089617369588
-0.136951884949619 0.245950980442868 0.350821949031637
-0.141097314668673 0.244208578305756 0.363293782240469
-0.139108594394057 0.245057642140884 0.369734361149156
-0.145604644678426 0.240749982345544 0.382726453333765
-0.143599383683609 0.242288673224808 0.390642446328287
-0.140650147768065 0.244419109826248 0.404130953733484
-0.141723675097333 0.243727955044642 0.406620525110595
-0.142937304546394 0.242796704414972 0.416832219415434
-0.138260578445347 0.245408901847949 0.421777363566179
-0.137982446434765 0.245524107898862 0.437610655463227
-0.139348370650791 0.24495832356341 0.447208619563982
-0.139242569441186 0.245002147859344 0.450235676000538
-0.142763165003086 0.242930326386226 0.466207823551116
-0.140082866113353 0.244654085581315 0.468329683623701
-0.141574063515412 0.243842756049165 0.47516978900097
-0.136642821161482 0.246078998855553 0.494797193301393
-0.140146223899689 0.244627841926933 0.497205870567777
-0.143215512838973 0.242583227683796 0.514918692505418
-0.141396883771831 0.243978710848137 0.524684764561745
-0.136622440032112 0.246087440995755 0.528968241853069
-0.141268044565267 0.244077572648444 0.537655965604165
-0.13846745938605 0.245323208956513 0.548704021948963
-0.138286747130638 0.245398062423591 0.551015960280057
-0.141887665739691 0.243602120598986 0.563368291468359
-0.141723892368785 0.243727788326394 0.576191338266757
-0.142026005838098 0.243495968507958 0.573649741237901
-0.14538796373355 0.240916247482329 0.593656724938774
-0.14010044281711 0.244646805072237 0.594795743174783
-0.145657798356572 0.240709196093793 0.611795380858245
-0.142177374936144 0.24337981891388 0.623645761818834
-0.135590237375448 0.246514993335263 0.622255174299134
-0.142852411764159 0.242861844937865 0.636046109564929
-0.144322709165827 0.24173364606121 0.641137035134255
-0.143596743918331 0.242290698787949 0.652748962657679
-0.140588902377911 0.244444478497483 0.665482258694088
-0.140236026337381 0.244590644539306 0.672636441618133
-0.1427226497165 0.242961414859049 0.681730295107951
-0.135173999048674 0.246687404895392 0.687051608516836
-0.134939467452389 0.246784551063378 0.700325261334931
-0.14235805494545 0.243241178266552 0.712531949899856
-0.140867792467302 0.244328958440045 0.71767864808039
-0.144539853052304 0.241567025696842 0.730280521407111
-0.140210658418451 0.244601152275377 0.736525960108946
-0.135759563787543 0.246444856038905 0.747074297449694
-0.142811251748466 0.242893428128732 0.756373854669672
-0.143212441263296 0.242585584586709 0.760596623068594
-0.145811811451042 0.240591017689903 0.775491567562945
-0.142948024974313 0.242788478341307 0.780656913362013
-0.141149534353547 0.244168508732248 0.791220880273861
-0.143806417654982 0.242129810471147 0.798988751375979
-0.140359081396423 0.244539673464933 0.814443674845594
-0.137205319551686 0.245846004393518 0.817076223396504
-0.140959299228428 0.244291055098538 0.8260442403919
-0.141025641025641 0.24426357542638 0.830978803894743
-0.139563549892412 0.244869193403189 0.845647795417113
-0.139041609602453 0.242776928548201 0.850456129943611
-0.135376374323577 0.238110248677355 0.861982892665413
-0.133787804641652 0.238255666803334 0.862938206443581
-0.134944104186963 0.233495289515009 0.870855695203752
-0.130637419291884 0.231141913714002 0.878628138300643
-0.12620260512111 0.232690238374493 0.87916606926514
-0.126655782545494 0.225184310496765 0.892805051945703
-0.122777754132558 0.226710897075392 0.892953673683819
-0.114351119835497 0.224525297075425 0.903532102493354
-0.117213905122297 0.219013266657131 0.911594904051125
-0.113778738610908 0.215923993702847 0.920004241829831
-0.115052166139389 0.215060717835758 0.920630082558116
-0.109498106771931 0.213337540470314 0.928129147702227
-0.103135723216237 0.212750274111331 0.934135214730881
-0.105813968597362 0.207703899572588 0.941472631376576
-0.0982301715408891 0.206754515096436 0.949096475164914
-0.0931963920260549 0.203392148078893 0.959248862426937
-0.0988889949390415 0.197328708784587 0.966154788862536
-0.0889385339214791 0.198343878277145 0.971944283309328
-0.0872017266011795 0.197242471110797 0.975337744691151
-0.0896126880786453 0.193634378654507 0.980200965737931
-0.0831866730647605 0.190863320869923 0.990326093716449
-0.079826766030163 0.186527732447658 1.0
-0.053636339584365 0.15639839634308 0.974358974358975
-0.0487187896897524 0.155351175644917 0.974358974358974
-0.0290259058049946 0.139913648288509 0.974358974358974
-0.0248789339664993 0.136184392389561 0.974358974358974
-0.0130192395455762 0.118050347296773 0.974358974358974
-0.00265901266467043 0.116172808843974 0.974358974358974
0.00976757319177408 0.102390001465518 0.974358974358974
0.0120831039156019 0.0983849113917318 0.974358974358974
0.0354819893890705 0.0840204312821302 0.974358974358974
0.0416415372162974 0.0670539025177123 0.974358974358974
0.0506299023163998 0.0553784468779616 0.974358974358974
0.0659098088003453 0.0493484092692103 0.974358974358974
0.0712475843818052 0.0337455032988803 0.974358974358974
0.088642342983211 0.0286352434403151 0.974358974358975
0.0982217492445534 0.0231486065533784 0.974358974358975
0.110882841408253 0.00859981106761473 0.974358974358975
0.125368914588437 0.00106815513373023 0.974358974358974
0.123788190823324 -0.0134124135773156 0.974358974358974
0.13358116597325 -0.017979709655197 0.974358974358974
0.156745753180649 -0.0360509555750097 0.974358974358974
0.16171989297814 -0.0513302903850835 0.974358974358974
0.173573448742089 -0.0581520102630144 0.974358974358974
0.189039354262686 -0.0667549326811625 0.977299105321396
0.187451969383997 -0.0705872187839955 0.986381486937465
0.187370377133752 -0.0707841999011221 0.989492532276389
-0.132525352513635 0.247784510212138 0.253414528781659
-0.133401412144988 0.247421634431384 0.272029012132689
-0.128892952589792 0.249289099524556 0.278842544524263
-0.126347642530695 0.250343401471479 0.283256258482837
-0.129617505729214 0.248988979787547 0.290978673741489
-0.13513800297619 0.246702314956807 0.303935754871402
-0.13428028100285 0.24705759503091 0.308024360749247
-0.131260465643152 0.248308443508759 0.31473354564079
-0.134391418400859 0.247011560413367 0.333586761239595
-0.135065478966118 0.246732355385376 0.342347801995386
-0.130378499945025 0.248673765662471 0.35162725507395
-0.127425338702438 0.249897005101026 0.358617304767182
-0.132220786297351 0.247910665669563 0.368516111362599
-0.131821406588383 0.248076094161555 0.383829458956368
-0.12847204164991 0.249463446544407 0.389010981124763
-0.137117877734786 0.245882223979996 0.398587699233545
-0.136981059763126 0.245938895839434 0.409082106668297
-0.129892321978917 0.24887514716976 0.412554097101772
-0.13310540549535 0.247544244400216 0.427749330671473
-0.133315847689815 0.247457076389173 0.435111551195127
-0.135251142580786 0.246655450998142 0.441889418081877
-0.134465210276684 0.246980994817608 0.456314013918168
-0.129779699885946 0.248921796768092 0.456791158564119
-0.133374266087881 0.247432878696402 0.468784071741753
-0.128653970090027 0.249388089317129 0.473756490807762
-0.132639624361799 0.247737177262831 0.483552138368865
-0.13497890761409 0.2467682144135 0.499660111072022
-0.135037730561015 0.246743849151105 0.502519574096772
-0.134879039076063 0.246809581316404 0.509125175520066
-0.129112944445821 0.249197975914177 0.521265087724003
-0.134966381826416 0.246773402764633 0.539040828873493
-0.132919100285249 0.247621414544981 0.540127733816331
-0.1354668344387 0.2465661085053 0.55352541376484
-0.133583716963463 0.247346121303085 0.563990806892931
-0.131329991524074 0.248279644945945 0.562145062157964
-0.132431244602753 0.247823490985151 0.584061118909156
-0.129424758576226 0.249068818272424 0.585418925297038
-0.130405681938775 0.248662506512008 0.596133753169511
-0.131421513058041 0.248241735485327 0.605166674091741
-0.131535261994187 0.24819461913327 0.616393326816607
-0.1338997828381 0.247215202531207 0.626104238572653
-0.135515771003656 0.2465458383164 0.636824419698971
-0.135216897104111 0.246669635939031 0.644748606077782
-0.133191689008133 0.247508504599012 0.651088477498252
-0.134551807355627 0.246945125133048 0.65807425371885
-0.132579571033435 0.247762052165904 0.676107418121961
-0.137129205575924 0.245877531834564 0.679840747532544
-0.130083329834087 0.248796029125629 0.686610922043187
-0.130665283015168 0.248554976225359 0.6979188978395
-0.134786264823219 0.246848009670171 0.702052515865837
-0.13571689181992 0.246462531346627 0.714676698477311
-0.136960876326862 0.24594725609247 0.727377255249081
-0.130347866636303 0.248686454394405 0.731334232548061
-0.132834929821006 0.247656279092821 0.747359527948861
-0.131335665835496 0.248277294569197 0.746136095682518
-0.131787154113257 0.248090282001296 0.761823605530156
-0.126592643881677 0.250241918589102 0.768886463754068
-0.134207622991654 0.247087690964562 0.780258913729317
-0.126828930673342 0.250144045395385 0.786600004852689
-0.134114770228817 0.247126151838233 0.802272205267165
-0.134422409489445 0.246998723484163 0.80763612900026
-0.130264532219906 0.248720972639888 0.815806570755567
-0.13545088881835 0.24657271339751 0.828560899977873
-0.131007029058781 0.248413420379208 0.834485072229359
-0.132600524906983 0.247753372787297 0.845263079983972
-0.131177692919481 0.247843612294065 0.84708405178261
-0.130936938527184 0.241240548442828 0.859576059159888
-0.124532257261604 0.2411457836548 0.864696901996194
-0.125249230534074 0.237302072814598 0.871306955886212
-0.117658252798467 0.239063827653114 0.873883583650444
-0.118699693072524 0.234572804027227 0.881449557342831
-0.118174056729551 0.230243501095894 0.889923869635664
-0.109270076711955 0.229942568325366 0.897358335042224
-0.1076837026174 0.226563193611941 0.904881121954995
-0.108573280648935 0.224970794599167 0.907162152650868
-0.102181468126674 0.223093326647305 0.915595490966688
-0.103028700884367 0.220068011183377 0.920579742119827
-0.0959117692360123 0.217540413172969 0.930784501045748
-0.0983896680057536 0.212433790749396 0.938388863684575
-0.0964296847279691 0.209650460894826 0.94508921534787
-0.0929911074861357 0.209639511500479 0.947764104319207
-0.0861500666881447 0.209487328595724 0.953328814474855
-0.0888389871410659 0.204095413662402 0.961301975048162
-0.0863115527388723 0.205109343173561 0.961363417798086
-0.0798424414327783 0.19877676322033 0.978159435509475
-0.0773204636321072 0.198561698079335 0.98050714731549
-0.0706077706132502 0.196982513073643 0.98863228521594
-0.0678777202585308 0.194645602920853 0.995095112599633
-0.0726387021262917 0.18992074815535 1.0
-0.0330729723626942 0.158111486512803 0.974358974358974
-0.0252317536785726 0.150810904271919 0.974358974358974
-0.0175825322039384 0.133675891590899 0.974358974358974
-0.00428373530208383 0.133107340259118 0.974358974358975
0.000531957449558709 0.124735035299032 0.974358974358974
0.0183626651589052 0.112285997154394 0.974358974358974
0.0284614649461462 0.0946122780932764 0.974358974358974
0.0339066968668967 0.0934202627633903 0.974358974358974
0.0481418272053064 0.0695368590319091 0.974358974358975
0.0664036579798924 0.0661376848459522 0.974358974358974
0.076883946941913 0.0555928967325126 0.974358974358974
0.0743464856356856 0.0461502765285739 0.974358974358974
0.0883530349200039 0.0430049400106169 0.974358974358974
0.105171820760093 0.0328600489524708 0.974358974358974
0.10765517511698 0.0147771216392535 0.974358974358974
0.126334845682 0.00731075281825261 0.974358974358974
0.136510461643373 -0.00315746327104943 0.974358974358974
0.156921737956162 -0.0153650323311648 0.974358974358974
0.159742900478554 -0.030146453884518 0.974358974358974
0.171470448101215 -0.0330795422971691 0.974358974358974
0.190713189723615 -0.0530194556959741 0.974358974358974
0.193420892972371 -0.054734517528172 0.974358974358974
0.191608239923772 -0.0605530940779818 0.98785477016984
0.193935014840231 -0.0624384669617872 1.0
-0.117965613186306 0.253815351706134 0.256638060779538
-0.122059380678114 0.252119657689825 0.261417211432103
-0.124033347809831 0.251302013732189 0.270183409268567
-0.126172210055151 0.25041606798213 0.283016540444395
-0.122355687672137 0.251996923314275 0.301021795914476
-0.123036266564673 0.251715018306722 0.300117992643563
-0.122588239510176 0.251900597189004 0.304962619650684
-0.124541141226471 0.251091678812133 0.32006923224269
-0.121597169398844 0.25231111187038 0.334992309446274
-0.119697045686425 0.253098168882251 0.335085953052996
-0.120755119536511 0.252659900343553 0.34967212800442
-0.125454488187337 0.25071335811379 0.358717157041272
-0.120091898985146 0.252934615290773 0.356297388377222
-0.123087680188036 0.251693722086633 0.375639910698955
-0.124908948209835 0.250939328171288 0.388124172213513
-0.120619726561191 0.252715981950181 0.391117283409726
-0.123907188807697 0.251354270501888 0.400716503314048
-0.119994119457688 0.252975116897169 0.406562145378948
-0.122409834035886 0.251974495156057 0.423521052507843
-0.121854505349562 0.252204519829507 0.427136367847628
-0.122106303366938 0.252100221675732 0.434522886104439
-0.123881081403077 0.25136508454296 0.454323479346735
-0.12003523090576 0.252958087977808 0.458534492573779
-0.124296414910108 0.251193047771441 0.458676588456417
-0.121163192996291 0.252490870782068 0.46700568351891
-0.125267008047965 0.250791014930193 0.486536104484485
-0.122026744804439 0.252133175911321 0.494714247380919
-0.11864929417463 0.253532161768433 0.501276494266797
-0.122161837960372 0.25207721849395 0.512600733620062
-0.12304495520317 0.251711419354817 0.519040468769512
-0.122516560276381 0.251930287699783 0.528256852149359
-0.124523229039001 0.251099098283116 0.539422862347105
-0.125225452788322 0.250808227682325 0.549509618640348
-0.125034045339418 0.250887511243601 0.55551894827489
-0.123702588029224 0.251439018919204 0.565897858678404
-0.128307868920143 0.249531449115648 0.58104082152085
-0.1277053762354 0.249781009756899 0.589985458172684
-0.119448957663046 0.253200930306197 0.588351488371757
-0.126051772679119 0.250465954776699 0.603090757076865
-0.123796164465588 0.251400258290144 0.611008272069445
-0.128351240875714 0.249513483863424 0.618159528695463
-0.124126675474672 0.251263356147667 0.634486248899531
-0.120723976177354 0.252672800345294 0.63668411955261
-0.121899233077474 0.252185992997992 0.644575530921226
-0.124481628608712 0.251116329745541 0.653026289787959
-0.125087504262741 0.250865367832531 0.665653081059865
-0.126389606960862 0.250326019235366 0.673591572545241
-0.123783865008964 0.251405352891887 0.689327590441021
-0.119499253454505 0.253180097107245 0.695418439809727
-0.120610577853786 0.252719771468866 0.70265710007744
-0.119571159180885 0.253150312780166 0.710459456684944
-0.128900419592695 0.249286006590683 0.724656200561151
-0.122239647855454 0.25204498858012 0.729152959367373
-0.121499768660996 0.252351456576982 0.73130756074451
-0.12507287691635 0.250871426677788 0.747682284970781
-0.122206097967686 0.25205888539865 0.756565847523431
-0.119993983348839 0.2529751732753 0.766206137404245
-0.121915987890573 0.252179052927171 0.770322932095602
-0.121254628285381 0.252452997045247 0.784961907505042
-0.123980138705105 0.251324053665008 0.795933957238416
-0.121919390005393 0.252177643725072 0.798805830060196
-0.127238679222443 0.249974321989185 0.807587011415107
-0.119423499524942 0.253211475412273 0.818767562109054
-0.121786921856461 0.252232513828942 0.837428679926762
-0.125319087226235 0.250769443028237 0.835471837186941
-0.120560556648817 0.249541593386502 0.852115642079208
-0.121956619721819 0.249733506606017 0.850680252312568
-0.117639535334369 0.246364978311919 0.860290854379132
-0.111285633262542 0.243343851906113 0.870826366960184
-0.11309500099092 0.240094655744569 0.875485124835752
-0.109366808094363 0.238083631826932 0.88211113424694
-0.109750772043777 0.235109565216648 0.887357502913168
-0.104828666745649 0.236048013977984 0.889408236315792
-0.102523121760562 0.230953141986925 0.900683380379627
-0.100950342139259 0.22891982003999 0.905687029760949
-0.0936637690776853 0.227026165357407 0.914841264694351
-0.0908291574264856 0.223508693915594 0.923585026362308
-0.0876950140280955 0.221352684587032 0.93002265646785
-0.088074016289038 0.217546517905776 0.936823643067095
-0.0845186509024366 0.219641000437738 0.935664788681123
-0.0828316107294506 0.215538345109623 0.944613267377929
-0.0796597537368688 0.214212389838565 0.94953303680105
-0.0799702816697874 0.207726497529015 0.961381097118823
-0.0796689456731393 0.206498965230659 0.963901475826941
-0.0720724069479961 0.204310328058539 0.973844755161744
-0.0696011549418025 0.201870312697535 0.980299955194914
-0.067016644636059 0.1995871119055 0.986550331541343
-0.0638067538940331 0.198486840261873 0.991078854600737
-0.064621230839474 0.193954033682813 0.998897908470846
-0.0310564240267248 0.165267991883887 0.974358974358974
-0.0213013304868768 0.154103110709238 0.974358974358974
-0.00292876227824974 0.14002649368779 0.974358974358974
-0.00147205285589474 0.133347945620938 0.974358974358974
0.0142120153523172 0.122939548559251 0.974358974358974
0.0161431061335579 0.117976934316811 0.974358974358974
0.0388727015094592 0.102195653150694 0.974358974358974
0.0404761940276819 0.0913223486789346 0.974358974358974
0.0514058503596508 0.0879757462260537 0.974358974358974
0.0686407921340675 0.0743460995322266 0.974358974358974
0.0727468276532423 0.0670392207525707 0.974358974358974
0.0887010102032628 0.0519092646284417 0.974358974358974
0.10414367849127 0.0440519776592899 0.974358974358975
0.109251653438848 0.0351054351939324 0.974358974358974
0.122048819944741 0.0283156045025034 0.974358974358974
0.130187878278479 0.0168433327028344 0.974358974358974
0.146519428995951 -0.00609182618176321 0.974358974358974
0.153735658291773 -0.0132597326438823 0.974358974358974
0.159221609414481 -0.0128637414662533 0.974358974358974
0.180644079270664 -0.0295369489327868 0.974358974358974
0.193111313176641 -0.0415678493300603 0.974358974358974
0.196160892938231 -0.0437681327011696 0.974718964080421
0.196656015509525 -0.0400073033939681 0.991148951741516
0.195905368183838 -0.0457090359052568 0.999957782279801
-0.116187416071978 0.254551905067461 0.254237460124117
-0.112210378016722 0.256199248168023 0.262346132194305
-0.110327438786197 0.25697918713443 0.273290073018605
-0.117726826252616 0.253914260492586 0.279217290029704
-0.114125534329242 0.255405964449312 0.287192366924824
-0.110085700412406 0.2570793184474 0.290943350438016
-0.113879894684804 0.255507711721495 0.301399901203563
-0.112303024124078 0.256160872893854 0.316272092496663
-0.115863421476983 0.254686108022844 0.320120376080872
-0.111909313183908 0.256323953304927 0.326917814761043
-0.110458379163389 0.256924949854335 0.345376740786094
-0.117715989078143 0.253918749397231 0.356271159180741
-0.108102462577952 0.257900802455843 0.358081541615529
-0.113836025504108 0.255525882931109 0.367004866237761
-0.112089196349449 0.256249443258118 0.375811511514436
-0.114593490272278 0.255212130751113 0.382151515999951
-0.112022929534301 0.256276891871688 0.394677358425597
-0.110545180407177 0.256888995601927 0.407253048290935
-0.114564534921788 0.25522412444999 0.416401995057715
-0.113635122817804 0.255609099548493 0.42601899847932
-0.116039091900563 0.254613342950889 0.439788501296849
-0.110032194171749 0.257101481457953 0.439863732603624
-0.118148219453741 0.253739713713589 0.454610455850591
-0.115583009234728 0.254802258576641 0.461965892597162
-0.114911259819604 0.255080506294902 0.46992422375307
-0.112954163365185 0.255891162189194 0.475452103071122
-0.110797324569512 0.256784554070215 0.492569839724872
