ply
format ascii 1.0
element vertex 830
property float x
property float y
property float z
end_header
-0.0763389232856413 -0.262388200438398 0.327768782454393
-0.06883786948359 -0.264909925293616 0.340481494775046
-0.0722239993446838 -0.264092657742876 0.356994677094823
-0.0764333199305863 -0.26234910006782 0.362344535703294
-0.0777344883508048 -0.261810138461234 0.370816538705094
-0.0690193881842817 -0.264886027903311 0.385857602076518
-0.0697517466490911 -0.264789611082289 0.394322728009256
-0.0741954376888427 -0.263276061243344 0.396637706031421
-0.0747997095868237 -0.263025763627839 0.404880000839515
-0.0756893449634583 -0.26265726458927 0.41709594202301
-0.0737049547441193 -0.263479225931161 0.428281277715554
-0.0773102036139826 -0.261985882953534 0.43303440788726
-0.0733567162299149 -0.263623471046685 0.443520547866119
-0.0768596685246973 -0.26217250069784 0.455883073103621
-0.0706302566461491 -0.264673953047022 0.46867581336827
-0.0728069600159368 -0.263851187526514 0.469874046092992
-0.0763866454191953 -0.262368433283455 0.475031284063458
-0.069497892105756 -0.264823031666944 0.48506651536553
-0.0773419548112788 -0.261972731176992 0.49858046866002
-0.0761212021550283 -0.262478383483513 0.508903780845529
-0.0689296923987574 -0.264897836577499 0.519887374672851
-0.0745490127586406 -0.263129605654117 0.526161820776098
-0.0709093274253483 -0.264637212681936 0.538504684407464
-0.0736082178129826 -0.26351929568002 0.550159994232379
-0.0753289516250394 -0.262806544397832 0.551302500586529
-0.0719335984769417 -0.264212945720821 0.559533524230283
-0.0741768315872435 -0.26328376814297 0.574161336033875
-0.071227187116633 -0.264505550886875 0.586114101647333
-0.0742077964324161 -0.263270942084142 0.594873483741477
-0.0723212052697829 -0.264052393730358 0.602387871149318
-0.0686483007907748 -0.264934882485489 0.612472362878198
-0.0745896083434598 -0.263112790412312 0.621224345282782
-0.0739522257529436 -0.263376802925724 0.625730870918916
-0.0723743139651015 -0.264030395388477 0.635682940785387
-0.0696607531096948 -0.264801590609016 0.641087468423751
-0.0765583455846897 -0.262297312746245 0.651530472951438
-0.0736845599752291 -0.263487673721037 0.661751922006081
-0.0701284255630499 -0.264740020362478 0.682949644567801
-0.0734035061545936 -0.263604090025301 0.68776361089049
-0.0707293817842498 -0.26471174860697 0.698143527660614
-0.0735762825990978 -0.263532523678728 0.702953769163986
-0.0774610875632413 -0.261923384775406 0.716071223976712
-0.0691902984004428 -0.26486352714649 0.720129073720681
-0.0763034881716318 -0.262402878143205 0.7275112493304
-0.0759819138310316 -0.262536078596394 0.739181471472647
-0.0766199633194455 -0.262271789844827 0.742021418076954
-0.0721612352290982 -0.264118655490783 0.756434394339075
-0.0759819379211357 -0.262536068617945 0.765320160625839
-0.0722935491422694 -0.264063849273457 0.777965729828512
-0.0685625438782499 -0.264946172597209 0.786777119549964
-0.0769786353164606 -0.26212322303922 0.790750247714378
-0.0697660438588 -0.264787728818923 0.804309615816188
-0.0690039640722659 -0.264888058526181 0.807123626959099
-0.0699446739048807 -0.264764211727212 0.816716825578775
-0.069469749665971 -0.26482673668943 0.827431688380754
-0.0771620692423686 -0.262047242219309 0.839960244018711
-0.0688779053421281 -0.264904654472846 0.847017361998122
-0.0725301292115302 -0.263965854600182 0.858650309384713
-0.0758403783918259 -0.262594704494869 0.867476203687538
-0.0685105381443054 -0.264953019281971 0.879761159499684
-0.0728358636357919 -0.263839215255169 0.889593347916741
-0.0712445557723236 -0.264498356554127 0.889224671188058
-0.0739984220070475 -0.263357667810743 0.896280409407043
-0.0757854680676283 -0.262617449095865 0.907772617620447
-0.0742815871679964 -0.263240376960687 0.922748981238635
-0.0709093274253483 -0.264637212681936 0.931229743037438
-0.0728675339008945 -0.258294087891531 0.936617759305749
-0.0766957878312426 -0.254245470673995 0.938893184533972
-0.0770264302984889 -0.244891183178102 0.947408887898402
-0.0764349306311402 -0.240094469455864 0.952066830652639
-0.076701119143462 -0.236237280928589 0.955528542252473
-0.0700641735295648 -0.233749699541564 0.960366616909347
-0.0722884885558774 -0.227168232988059 0.965595890643108
-0.0749877473418711 -0.21892888355772 0.972175095325941
-0.075018216103211 -0.211585161405729 0.978948150024446
-0.0742018321169017 -0.210971881760864 0.979827163162052
-0.0732654164279596 -0.20435212700304 0.990334849327315
-0.0726284025288406 -0.204615986799475 0.998337923387544
-0.0721579229455595 -0.170784609244602 0.986301369863014
-0.0791425300855933 -0.158519783136815 0.986301369863014
-0.0744758709666316 -0.139218644948127 0.979452054794521
-0.0780796245282778 -0.118918558907857 0.979452054794521
-0.0806715186395051 -0.107838981488787 0.979452054794521
-0.0789820769643253 -0.0919780560078405 0.979452054794521
-0.0812799630826448 -0.0792401670203198 0.979452054794521
-0.0801588940613643 -0.0692295065004819 0.979452054794521
-0.0802128168376342 -0.0626362065538246 0.979452054794521
-0.0801296802580443 -0.0430341036708884 0.979452054794521
-0.0786039822041053 -0.0301476687013623 0.979452054794521
-0.0769757880421295 -0.00577902571563174 0.979452054794521
-0.0764856797061661 -0.00284888358945584 0.979452054794521
-0.084378109748085 0.00415808287677894 0.979452054794521
-0.0835175140617453 0.023758862392831 0.979452054794521
-0.079199679469253 0.040312354986003 0.979452054794521
-0.079258008931886 0.0487898065223388 0.986301369863014
-0.0851950319572643 0.0861677660047624 0.97945205479452
-0.0831977561306759 0.0891353543720897 0.979452054794521
-0.0817905402563173 0.105321662154627 0.979452054794521
-0.0864785432835014 0.122650566205555 0.979452054794521
-0.0879104749816277 0.134328432838274 0.979452054794521
-0.0791413896262118 0.157533647780259 0.979452054794521
-0.086317905898874 0.161079624530683 0.986301369863014
-0.0886559393283606 0.172264817830515 0.986301369863014
-0.0841983903431019 0.184588529947568 0.986301369863014
-0.083079784540993 0.199679421303913 1.0
-0.0681289436705993 -0.265003257147501 0.258604886082642
-0.0639431876369956 -0.265554322383616 0.265847908942917
-0.066274284962237 -0.265247427598629 0.272830590590319
-0.0651077112495613 -0.265401009941522 0.279496106465842
-0.0595537303286827 -0.266132205401308 0.296742531206298
-0.0606963005553567 -0.265981783177298 0.30283047111231
-0.0671434379541669 -0.265133001436455 0.312664164130934
-0.060664261219296 -0.265986001235912 0.316296477596916
-0.0593058347228335 -0.26616484147696 0.333652686564241
-0.0676837817707605 -0.265061863823445 0.341294617521877
-0.0628878748184553 -0.265693256951913 0.342064095202083
-0.0629607764511844 -0.265683659269886 0.357635853735726
-0.0648115638589264 -0.265439998485153 0.365483975020071
-0.0657871488999369 -0.265311560277895 0.376480449016105
-0.0672578027283688 -0.265117945028296 0.385723749069805
-0.0637240207571578 -0.265583176250735 0.393570179520717
-0.0641765002160296 -0.265523606199868 0.400534485621394
-0.0616837202139682 -0.265851786913075 0.409473895889462
-0.0615622511130169 -0.265867778623595 0.424055796833184
-0.0646145991904849 -0.26546592937569 0.428748604693621
-0.0664468941699018 -0.265224703165333 0.444372888683857
-0.0603034240527639 -0.266033506350108 0.447076541080655
-0.0652813122521586 -0.265378154935946 0.463653499986979
-0.0597643111277785 -0.266104481913164 0.467528968518526
-0.0636101237081992 -0.265598171081698 0.477165888147824
-0.0605187214581129 -0.266005161908969 0.485504231148252
-0.0609090715960716 -0.265953771338374 0.491078983898233
-0.0648253954230396 -0.265438177525192 0.506504389230091
-0.0671041310042719 -0.265138176294582 0.514423134570062
-0.0636385531198026 -0.265594428278656 0.5159802517834
-0.0652995204644973 -0.265375757779316 0.528767341591478
-0.0618479690036205 -0.265830163149691 0.53858397672437
-0.0616917385851818 -0.265850731274478 0.550518697326194
-0.0637136142307182 -0.265584546295932 0.563027926649901
-0.0634278819637873 -0.265622163662515 0.564564499234767
-0.0616755931152267 -0.265852856865922 0.571312365859428
-0.0621053311750277 -0.265796280777041 0.586790142216158
-0.0616639161876851 -0.265854394162597 0.593472774515895
-0.0623783104737755 -0.265760342370571 0.598233022112549
-0.0643958642601462 -0.265494726375579 0.607555440457749
-0.0661332402323495 -0.26526599648959 0.627460401030807
-0.060801781698965 -0.265967896321293 0.632495611787782
-0.0608453601180717 -0.265962159113577 0.645531696654896
-0.0676784740048314 -0.265062562604086 0.643777815678687
-0.0640369960353572 -0.265541972273677 0.656850508195737
-0.0627683840637032 -0.265708988208214 0.667215540194512
-0.0665637418160269 -0.265209319880883 0.681045445815198
-0.0593465820928201 -0.26615947698393 0.679957948303499
-0.0626998465606078 -0.265718011341675 0.691387784373807
-0.0656834435347885 -0.26532521334823 0.700964144920978
-0.0597198773649633 -0.266110331729016 0.71062950427255
-0.0644509191308726 -0.265487478264343 0.721637944122728
-0.0622405800941425 -0.265778474919044 0.731913269889475
-0.0617640056500692 -0.265841217134892 0.737619320719634
-0.0619648202207306 -0.265814779395113 0.753920683550289
-0.0633337857870916 -0.26563455165919 0.760036401745906
-0.0635715459764333 -0.265603249936436 0.770861585701518
-0.0657938405846771 -0.265310679300886 0.778677150052597
-0.0672290079758218 -0.265121735929386 0.786959184733636
-0.0681651186311168 -0.264998494623598 0.80101296582544
-0.064549738959324 -0.265474468387116 0.805329656742502
-0.0644389600361315 -0.265489052709035 0.816707436412638
-0.0633290808138468 -0.265635171080669 0.82910819993293
-0.0680806003450499 -0.265009621667051 0.829987315848172
-0.0671680308061167 -0.265129763726074 0.8354247010953
-0.0607701021326489 -0.265972067015322 0.852857215242954
-0.0621179338375805 -0.26579462160504 0.860419264612441
-0.0596818198246014 -0.266115342099256 0.872148203566314
-0.0664518121577697 -0.265224055699947 0.876382342624047
-0.060649642732092 -0.265987925796262 0.88747739131715
-0.0639195126418046 -0.265557439255863 0.890245609633798
-0.0620178609568134 -0.265807796449733 0.899719000089786
-0.0652685990259378 -0.265379828663931 0.916174111499172
-0.0622779257160744 -0.265773558274642 0.923563198641164
-0.0670913538809863 -0.265139858434775 0.926815438843693
-0.0640970127745601 -0.262558683910144 0.934456781476652
-0.0639107005997263 -0.254553184757988 0.942418111092535
-0.0636192889459939 -0.251962791326912 0.945024380202242
-0.0683968926847111 -0.243800005938416 0.951719385290254
-0.0635950206447925 -0.240595916824273 0.956297177166712
-0.0613542102841388 -0.234848508390314 0.96228790016864
-0.0626116896756334 -0.229156040841442 0.967462546262601
-0.0615211797561705 -0.224679414207804 0.972015730063122
-0.0648763167269202 -0.213520188980672 0.981041554517131
-0.0604798449692976 -0.214604671056524 0.98172208062638
-0.0681120645233416 -0.207131874560138 0.985705320384507
-0.0663534715970022 -0.207215148294397 0.998881987220627
-0.0617590144029563 -0.178442563735718 0.986301369863014
-0.0689477574815577 -0.168638974266234 0.986301369863014
-0.070331303690758 -0.139085994364737 0.979452054794521
-0.0656204633917618 -0.135991840187738 0.979452054794521
-0.0669636353084968 -0.109853673565839 0.97945205479452
-0.063391138559036 -0.106340784016302 0.979452054794521
-0.0639571118482323 -0.0941152338207354 0.979452054794521
-0.070095916906261 -0.0649863741769331 0.979452054794521
-0.0721825638314987 -0.0675203053224958 0.979452054794521
-0.0661196627408921 -0.0339113283223104 0.979452054794521
-0.0660573302067254 -0.036553372103239 0.979452054794521
-0.0718714104559629 -0.00351394273788727 0.979452054794521
-0.0747770958482964 -0.00238113234241956 0.979452054794521
-0.0706617183650001 0.0168651462981694 0.979452054794521
-0.0669921833691759 0.0357548320371839 0.979452054794521
-0.0692735095645722 0.0526981155400602 0.979452054794521
-0.0682176748835247 0.0618846211308541 0.979452054794521
-0.0669018148293718 0.0779679807816601 0.979452054794521
-0.0734621054520007 0.096677728460444 0.979452054794521
-0.0678464114271081 0.106628147224209 0.979452054794521
-0.0727775197680586 0.121521101238124 0.979452054794521
-0.0731124348958831 0.141007749843193 0.97945205479452
-0.0706376551177258 0.153322689367915 0.979452054794521
-0.075282676311129 0.163957771806263 0.982962505965724
-0.0714755571011205 0.176448237008339 0.986301369863014
-0.0702266415290858 0.198106883773146 0.986301369863014
-0.0715393187988807 0.197653454843502 0.997377122053404
-0.0545559746212985 -0.266790172422517 0.25051654557458
-0.0567307427184524 -0.266503858770854 0.265999487579219
-0.0590305917917796 -0.266201077896276 0.276442579399259
-0.052993193176731 -0.266995916502878 0.290719923359217
-0.0518726971880488 -0.267143432598325 0.292908651695889
-0.0520518021428785 -0.267119852983691 0.310404842709274
-0.057476611038175 -0.266405663343691 0.309889302835248
-0.0591548514575327 -0.26618471880093 0.327559850527757
-0.0502134825933484 -0.267361872343751 0.334316096256362
-0.0544969171360182 -0.266797947487956 0.339160414175734
-0.0576263651444216 -0.26638594784158 0.351607863652026
-0.0580815583547111 -0.26632602051856 0.362612925946619
-0.0586249642952592 -0.266254479769282 0.368585743987698
-0.0526481396269871 -0.267041343664503 0.368763111452186
-0.056485996665138 -0.266536080200047 0.385123666723367
-0.0538692003123865 -0.266880587975564 0.394476494638202
-0.052667473097398 -0.267038798364837 0.404695902607271
-0.0514201009720312 -0.267203018020562 0.411896236868472
-0.0506969398733337 -0.267298223985363 0.414719190289605
-0.0510045233276627 -0.267257729855384 0.434656258498495
-0.0575716591907537 -0.266393150017013 0.440307957644136
-0.0565927919492483 -0.266522020334163 0.448927219916779
-0.0500922219481609 -0.267377836610548 0.460358421109221
-0.0527294246765902 -0.267030642284706 0.469028480882201
-0.0581773331964471 -0.266313411521439 0.476240266987532
-0.053741471421551 -0.266897403803057 0.491040064617986
-0.0555953875730857 -0.26665333111139 0.495677886205646
-0.0543587003539267 -0.266816144072527 0.505201149698414
-0.0515854752503625 -0.267181246083783 0.511425099486685
-0.0565009494060013 -0.266534111634367 0.516734347334318
-0.0591757850284815 -0.266181962844032 0.527587765001949
-0.0576866376163094 -0.26637801282012 0.543117960693034
-0.0527055805316658 -0.267033781425938 0.551919659591656
-0.0535076402129193 -0.266928188265687 0.563324274491408
-0.0546953551094157 -0.266771822633142 0.569207053546801
-0.0573359544523554 -0.266424181134516 0.573307944849259
-0.0532343015362317 -0.26696417398516 0.583157939806954
-0.057078119292133 -0.266458125777326 0.598552634956418
-0.0589057287666027 -0.266217516425397 0.60428484115849
-0.0567979209822653 -0.266495014584639 0.616695806601691
-0.054226290221952 -0.266833576197107 0.619767375842058
-0.0544548617227816 -0.266803484188145 0.624611342806045
-0.0510294751733653 -0.267254444882579 0.63850399063576
-0.0509472035743967 -0.267265276144063 0.650208049247494
-0.0511606030916672 -0.267237181564631 0.659672426426156
-0.0541467234572936 -0.266844051360399 0.666750976484239
-0.0511209593136064 -0.267242400767026 0.676527532884981
-0.0501910800545055 -0.267364821693941 0.680719857872504
-0.0536524728428608 -0.266909120688223 0.6973621506468
-0.0531242644846344 -0.266978660637831 0.704436752007998
-0.0525144366142882 -0.26705894600006 0.708479896421111
-0.0591381799152099 -0.266186913651115 0.722404127638288
-0.0505316757389953 -0.267319981421411 0.728069227335381
-0.0552450260398456 -0.266699457082299 0.740766424996297
-0.057362355724643 -0.26642070534108 0.749653165941743
-0.0533952104816458 -0.266942989920613 0.762135386062336
-0.0521674023741486 -0.267104633924523 0.77531766405388
-0.052567322021366 -0.267051983504132 0.769989730189082
-0.0564371743210259 -0.266542507783587 0.788609535871381
-0.0551222794633811 -0.266715616975662 0.791857474794151
-0.0548687079260166 -0.266749000301873 0.804429491712616
-0.0529253256211021 -0.267004851436081 0.818374149140544
-0.0583479834205854 -0.266290944993218 0.826100015355738
-0.0527073430462652 -0.267033549386489 0.83020203702523
-0.0543037224667881 -0.26682338204868 0.839585314063023
-0.0564965791527347 -0.266534686989124 0.848547752650959
-0.0528375579454884 -0.267016406269783 0.860765803458231
-0.0570726424713228 -0.266458846814464 0.86992164228733
-0.0540574050248635 -0.266855810355109 0.870860457614695
-0.0565893043376026 -0.266522479486947 0.882596985814928
-0.0552669677932575 -0.266696568395661 0.899457176877732
-0.0575923989982856 -0.266390419569551 0.899743880060758
-0.0584685039795184 -0.266275078160625 0.913364539868672
-0.0549435391474977 -0.266739148584667 0.926609758562775
-0.0528156312022618 -0.267019292980294 0.931155509137828
-0.0592023917690497 -0.258650714028169 0.938970194376749
-0.0579828201752977 -0.253923279267925 0.943816371313545
-0.0579197457365873 -0.249653901375207 0.948057456952855
-0.0581150280109712 -0.244689900216964 0.952953500941366
-0.0565976289801351 -0.241653524275071 0.956161960583727
-0.0585945262645535 -0.235592908508295 0.961910079543669
-0.0546466415856568 -0.227659188401126 0.97029122792996
-0.0586123200809061 -0.224783613622598 0.972624576854074
-0.0509438122953986 -0.216834592151563 0.981506534465733
-0.0543181726792025 -0.211554139336363 0.988561172863161
-0.0596616460231335 -0.209986993204128 0.990828219793787
-0.05193472668773 -0.184202166898908 0.986301369863014
-0.0584150328882471 -0.175471246861627 0.986301369863014
-0.0562901293544632 -0.165230856202154 0.986301369863014
-0.0616207358220859 -0.130344529232606 0.979452054794521
-0.0598609139556101 -0.120174566718699 0.979452054794521
-0.0623310872761363 -0.105838972761122 0.979452054794521
-0.0575136656177367 -0.101237563993823 0.979452054794521
-0.0598253371690059 -0.0858057968132888 0.979452054794521
-0.0585390534586003 -0.0634260938827126 0.979452054794521
-0.0543935857235234 -0.058786931058578 0.979452054794521
-0.0617358337157249 -0.0410692089536958 0.979452054794521
-0.0553041506163481 -0.0349387592221473 0.979452054794521
-0.0623395489489762 -0.0144390077726232 0.979452054794521
-0.064890166943568 -0.00369793459909943 0.979452054794521
-0.0592844414962991 0.0173332693348783 0.979452054794521
-0.062145025305496 0.0322942708347689 0.979452054794521
-0.0574956697210693 0.0408322371568779 0.979452054794521
-0.0637292420691715 0.0637956528489468 0.979452054794521
-0.0599683060395385 0.079988478771079 0.979452054794521
-0.0577451809177018 0.0848003895581077 0.979452054794521
-0.0666089152575537 0.0998436434892345 0.979452054794521
-0.0620292037408479 0.129809228296247 0.979452054794521
-0.0609766189059639 0.145435578169031 0.979452054794521
-0.0600344837297119 0.170206287124147 0.979452054794521
-0.0661080223762811 0.165294535525509 0.979452054794521
-0.0653034522652844 0.175622503094845 0.984742767407204
-0.0636491450263993 0.19744846508878 0.986301369863014
-0.0653402616918799 0.200221188371147 0.99650326048604
-0.0604167202693366 0.202260586003271 0.999679486362887
-0.0451937685447137 -0.268022730235427 0.260101378455173
-0.0482857470620611 -0.267615663541133 0.266430296320441
-0.0439135105373519 -0.268191279399653 0.281220939819955
-0.0498707018179081 -0.267407000288962 0.277306003845901
-0.0476509112100426 -0.267699241266608 0.290393007696607
-0.0452595839556738 -0.268014065472195 0.307462093799733
-0.0409204240859126 -0.26858532670648 0.31273266263187
-0.0466709106767442 -0.267828260784454 0.328474125339908
-0.0485394523669766 -0.267582262604089 0.330162410253418
-0.0452761962240103 -0.268011878425578 0.345442266394192
-0.0410351012845635 -0.268570229166861 0.352337907478746
-0.0432911201232794 -0.26827321865214 0.352008943252764
-0.0498940471077538 -0.267403926823247 0.373807386098661
-0.0427022645542318 -0.268350742958523 0.374776549516403
-0.0487730794580705 -0.267551505014042 0.39216238869656
-0.0447143704165136 -0.268085844196344 0.394432655996502
-0.0418008694025888 -0.26846941388155 0.405814837600972
-0.0492465234571235 -0.267489174929099 0.414305928312511
-0.0430610368364969 -0.268303509691498 0.426985343682506
-0.0492042926980839 -0.267494734714002 0.433043092830211
-0.0480291922592421 -0.267649439621691 0.441553895297311
-0.0493240222567018 -0.267478972018575 0.453676471753066
-0.0470816248075713 -0.267774189243336 0.454358900559565
-0.0474309129668467 -0.26772820458479 0.464713722336581
-0.0484539945560615 -0.267593513338334 0.475897327561803
-0.0478086186751329 -0.267678478684941 0.490995934582758
-0.0437430194421982 -0.268213724978146 0.492680077923005
-0.0427658774872961 -0.268342368157007 0.50564428572427
-0.046654291578482 -0.267830448730247 0.512734604480753
-0.045633983981418 -0.267964774773709 0.521247121767494
-0.0422648074095258 -0.268408335284212 0.532884444637759
-0.0476970895607717 -0.267693161771401 0.535549334976845
-0.0450126748880819 -0.26804657166762 0.554969392109538
-0.0494729822376888 -0.267459361065037 0.558812163525191
-0.0420949609341952 -0.268430695996895 0.566581565014162
-0.0415987167515538 -0.268496027782953 0.584512616705602
-0.0428125751325943 -0.268336220295372 0.589724769497715
-0.0474640148653655 -0.267723846637175 0.593419906425607
-0.0414397146206447 -0.268516960810609 0.602240870512355
-0.0431622888266053 -0.268290179614115 0.613861728962081
-0.0425582682113497 -0.268369700436707 0.621354790788424
-0.0499460640291739 -0.267397078665625 0.633728360637879
-0.0452867157314235 -0.268010493506153 0.636501247463384
-0.0457524093991761 -0.267949183771683 0.649163343579181
-0.0422529117004493 -0.268409901384022 0.660595157590735
-0.0450227903823122 -0.268045239937541 0.670968146717881
-0.0457319553517397 -0.267951876598114 0.682921165331063
-0.0463634035736559 -0.267868744862601 0.688155365998502
-0.0424537052941554 -0.268383466405911 0.695581871275056
-0.0409006025930277 -0.268587936255524 0.705730911284888
-0.0432219639355776 -0.268282323236975 0.708900858504781
-0.0449168112710376 -0.268059192352232 0.727762841016349
-0.0414090157866953 -0.268521002388772 0.727785687669529
-0.0443769517358858 -0.268130266208381 0.739822952984846
-0.0458038283097202 -0.267942414343687 0.757390283149585
-0.0443641398195493 -0.268131952929166 0.757413426805081
-0.0429510353594054 -0.268317991660695 0.766664303125376
-0.0445366919266208 -0.268109236013306 0.782376154313898
-0.0448310269883832 -0.268070486067297 0.793761288026583
-0.0481964525870432 -0.267627419381789 0.801527295362753
-0.0496916210239772 -0.267430576722753 0.804177938445728
-0.0501602598649016 -0.267368879248879 0.813368958467495
-0.0417970183242145 -0.268469920885637 0.823470104406323
-0.045740641659521 -0.267950733023999 0.834819196030438
-0.0477757220956645 -0.26768280960179 0.842964492003916
-0.0418986257558188 -0.268456544013493 0.849551247425933
-0.0451623049610376 -0.268026872494802 0.864418081137683
-0.0498841336877777 -0.267405231949746 0.866916584276035
-0.0455905758561109 -0.267970489561821 0.883766982965372
-0.0443430582167825 -0.268134728374823 0.89139317200286
-0.0441293237375361 -0.268162867052836 0.894901549385849
-0.046283443240024 -0.267879271840232 0.904771995960547
-0.0497932692904062 -0.267417194474602 0.915635143394263
-0.0475611868051849 -0.267711053708603 0.928048314022453
-0.046072754136681 -0.263905761042554 0.935473866623441
-0.044890105019177 -0.263442407336575 0.936087622960273
-0.046868984101645 -0.257298553967383 0.941920619260694
-0.043129385853086 -0.253738750343271 0.945938083791138
-0.048636923856745 -0.247539414668262 0.951365505325931
-0.049232251419052 -0.240211017529548 0.958553501171385
-0.0437455618122696 -0.235162361312297 0.964275122137087
-0.0484525518284616 -0.233137286914323 0.965668486259226
-0.0422212723686247 -0.225930220231751 0.973627240667793
-0.0486346763409477 -0.218562063822091 0.980095244278272
-0.0506391785937629 -0.213563649179512 0.984789256744317
-0.0434384624911586 -0.212986480355646 0.995051485936604
-0.0507899563074989 -0.181528477851577 0.986301369863014
-0.0507680594582294 -0.184469012576368 0.986301369863014
-0.0434221232625769 -0.169801173928813 0.986301369863014
-0.0469597165199916 -0.137499194793078 0.979452054794521
-0.0527534826746985 -0.122123821213433 0.979452054794521
-0.0476860130079297 -0.111479194132555 0.979452054794521
-0.0525701462178114 -0.0896109259694527 0.979452054794521
-0.0442134033578599 -0.0929933202146841 0.979452054794521
-0.0512442620950671 -0.0629345994408817 0.979452054794521
-0.0471682978730827 -0.0594873457334042 0.979452054794521
-0.0522464778735775 -0.0410330979492436 0.979452054794521
-0.05388638402568 -0.0229465431868635 0.979452054794521
-0.0539066744455895 -0.00800234668042747 0.979452054794521
-0.0492929128656362 0.00196999754725819 0.979452054794521
-0.0525611750385167 0.0137878805538662 0.979452054794521
-0.0498106511014083 0.0366019254900135 0.979452054794521
-0.0480802266482891 0.0474857806686158 0.979452054794521
-0.049979875510827 0.0614379750625381 0.979452054794521
-0.0464190010804215 0.0784729042814581 0.986301369863014
-0.0467327577681828 0.0883975992006574 0.986301369863014
-0.0531898569881277 0.108845699194519 0.98083422972892
-0.0521394560315106 0.118707442408969 0.986301369863014
-0.0503603638180414 0.131497506669414 0.986301369863014
-0.0561558906934954 0.154048899516238 0.97945205479452
-0.0554498328375228 0.170333166433329 0.979452054794521
-0.0511314718877149 0.183189190173685 0.979452054794521
-0.0503608580838539 0.199941368074223 0.986301369863014
-0.0513846708678669 0.205031924638283 0.996301016189466
-0.0578745483064152 0.209106876737343 1.0
-0.0391080409680625 -0.26882393147053 0.259302805338178
-0.0388502713824269 -0.268857867480282 0.26365292339531
-0.0361603427484987 -0.26921200330327 0.278016136306323
-0.0383861131440778 -0.268918975071635 0.28255592602432
-0.0368311356461781 -0.269123691742927 0.299305166849562
-0.032008836812462 -0.269758559428498 0.298587355875905
-0.0333521640885461 -0.269581707037524 0.315118932851076
-0.0344985603760321 -0.269430781103052 0.323101168081972
-0.035352656521266 -0.269318337212352 0.329737906634728
-0.0408855451835133 -0.268589918601094 0.343619978678918
-0.0384222219562446 -0.268914221256329 0.348605814257602
-0.0356672510516135 -0.269276920056704 0.362780272035093
-0.033639136348856 -0.269543926422716 0.369019788626922
-0.0380151387980565 -0.268967814770831 0.37475270607653
-0.0327415324120088 -0.269662098222846 0.384956411173443
-0.0328840494463009 -0.269643335499333 0.395640014855968
-0.0348186752156658 -0.269388637184899 0.403798793118712
-0.0338720095330782 -0.269513268086391 0.416170815464128
-0.0366832768345357 -0.269143157724769 0.420753827128116
-0.0405285750957205 -0.268636914604716 0.438534962766694
-0.039901696137776 -0.268719444785214 0.4417047205803
-0.0370891991126672 -0.269089717043027 0.453963888420698
-0.0329420424638833 -0.269635700573725 0.46937285316393
-0.0408721854348635 -0.268591677445371 0.465166550858886
-0.0392845401137119 -0.268800694917184 0.478430321868619
-0.0360126466566381 -0.269231447862647 0.488890282171774
-0.0345765359746133 -0.269420515420748 0.502208685930935
-0.0355280099789373 -0.269295251491689 0.504589372949543
-0.0390594711534319 -0.268830325807934 0.513799322379292
-0.0325593422966846 -0.269686084006565 0.52605183817955
-0.035804395317827 -0.269258864671527 0.534883529692777
-0.0389182101518529 -0.268848923171603 0.541523981471173
-0.033858747262024 -0.269515014097501 0.550291076416844
-0.0339061736649309 -0.269508770293106 0.561341863386349
-0.0369630644061479 -0.269106322992173 0.564337969546559
-0.0328341989468084 -0.269649898442097 0.581406096273748
-0.036463324137641 -0.269172115046667 0.585989279806304
-0.0378559520428897 -0.268988772104731 0.591079110650067
-0.0365834965589498 -0.26915629404726 0.611177100844708
-0.0333046703424631 -0.269587959707815 0.616339460183628
-0.0368346183784694 -0.269123233232522 0.631069957720093
-0.0379843454924742 -0.268971868786419 0.636969581768275
-0.0347757885780013 -0.269394283317861 0.645590972290381
-0.0355469871209994 -0.269292753103539 0.649501097451162
-0.0358457556837063 -0.269253419476058 0.660346148811462
-0.035148311373165 -0.269345239761469 0.663269172334202
-0.0331880289252074 -0.26960331584172 0.677176686665212
-0.038472688768394 -0.268907577174464 0.688170806344106
-0.0354112719695396 -0.269310620342189 0.699431859610233
-0.0370179379846159 -0.269099098748515 0.700724037977934
-0.0343968550640082 -0.269444170861397 0.718728185170541
-0.0399717266972697 -0.268710225087149 0.726075002679347
-0.0362889207551831 -0.269195075687555 0.72903977059593
-0.0349748860479995 -0.269368071638672 0.749183403346214
-0.0377044366924487 -0.269008719479039 0.752016146055283
-0.0367762778472506 -0.269130913909167 0.753399631035126
-0.0371890922463364 -0.269076565862487 0.767102213267941
-0.0333243548660685 -0.269585368191119 0.777758132697283
-0.0401648137490243 -0.268684804694534 0.788286696745744
-0.0320506674088386 -0.269753052326009 0.801208483161925
-0.031813776113244 -0.269784239656731 0.811848304937667
-0.0320616122924613 -0.269751611404745 0.81134036020779
-0.0405945616276975 -0.268628227312974 0.827046001658408
-0.0389517203550938 -0.268844511469652 0.831006990509523
-0.0335474372364348 -0.269555998839893 0.842642132935337
-0.0360199369802958 -0.269230488073329 0.850948386821796
-0.0368758361189611 -0.269117806814041 0.857968366100126
-0.0331309264341645 -0.269610833527284 0.868683893195504
-0.0391187855735868 -0.268822516916377 0.878829314900351
-0.0377184584395378 -0.269006873481014 0.888366400417068
-0.0354412003897838 -0.269306680190915 0.903000639728472
-0.0342342086203754 -0.269465583671926 0.906051936094064
-0.0361024179419302 -0.269219629248727 0.912889424831478
-0.0392370285230419 -0.26880694993676 0.919745727309714
-0.040003693163673 -0.268706016622008 0.929712787867283
-0.0367043046183507 -0.260380514865781 0.940191781873115
-0.0402883243371027 -0.254547161828143 0.945507421320129
-0.0398348637139573 -0.251804325085284 0.948285981202885
-0.0405045108687398 -0.250338153362683 0.949652203129905
-0.0329742735266608 -0.240792610653753 0.960098975604473
-0.0412772382185317 -0.237474846330706 0.962304601628439
-0.0356891278536169 -0.231454342481546 0.969002994000208
-0.0362526469006592 -0.224787474292187 0.97553927221255
-0.0333967624415149 -0.21931217849037 0.981340493823636
-0.0388095642978259 -0.21620256684379 0.98371698989596
-0.0361949881274801 -0.213940101846835 0.996182724090784
-0.0340182085755564 -0.211797881526334 1.0
-0.0331818437857113 -0.185342775985076 0.986301369863014
-0.0400927375622373 -0.168646223583113 0.986366860317174
-0.0335493436662461 -0.14808241068868 0.979452054794521
-0.0335219271080249 -0.13194857099786 0.979452054794521
-0.0364391199086294 -0.10900802835417 0.979452054794521
-0.0351350089403834 -0.0983431735967733 0.979452054794521
-0.0400483062702397 -0.0806882064375629 0.97945205479452
-0.0423065357721185 -0.0683932374371295 0.979452054794521
-0.0439483855971956 -0.0611801862788196 0.979452054794521
-0.0435184015547241 -0.0520206726140067 0.979452054794521
-0.0422499324810727 -0.0255048000335067 0.97945205479452
-0.0439795652214346 -0.0072678912285253 0.979452054794521
-0.0418329596728046 -0.00853043291606878 0.979452054794521
-0.0353415270759548 0.0181578214211949 0.986301369863014
-0.0397416112104775 0.0275669462288469 0.986301369863013
-0.0398859970670262 0.0392123870565461 0.986301369863014
-0.0362820771601619 0.0435350955110707 0.986301369863014
-0.0403054656520506 0.0644303630643795 0.986301369863014
-0.0370743603157652 0.0829137967271797 0.986301369863014
-0.0446504649851782 0.100638884660765 0.986301369863014
-0.0466449928163951 0.11379624970725 0.986301369863014
-0.0405039327965102 0.131698688179832 0.986301369863014
-0.0412087177459946 0.14664836476852 0.986301369863014
-0.0455449188781732 0.172455286729792 0.979452054794521
-0.037563425519386 0.191736267914002 0.979452054794521
-0.0462519944878215 0.200761158030027 0.986301369863014
-0.046416157459878 0.205686041837741 0.987804295633932
-0.0481944896748875 0.205451919960095 0.999186275676549
-0.0226595959902974 -0.270989410333282 0.26240801553473
-0.0227413601582439 -0.270978645876359 0.270603842582935
-0.0274003314310683 -0.270365280672104 0.274041887735644
-0.026960652145458 -0.270423165548192 0.294311147137412
-0.0311671323511143 -0.269869371923065 0.291565776291709
-0.0271247645041628 -0.270401559746283 0.30033710447853
-0.0286635934105062 -0.270198969077403 0.317156391704525
-0.0300884898950641 -0.270011377896407 0.32454217849363
-0.0238155593849382 -0.270837224865258 0.334391419709267
-0.026844597292001 -0.270438444459506 0.34544285882172
-0.0277225834921807 -0.270322855383405 0.345966639995055
-0.0253649344888312 -0.270633245763131 0.367922758651459
-0.0257461251637747 -0.270583061058717 0.369942462045272
-0.0279903869715805 -0.27028759838648 0.381037419564763
-0.0230198314235502 -0.270941984438775 0.38898355562321
-0.0262808699698446 -0.270512660569426 0.396760439644056
-0.0255264865762337 -0.270611977027334 0.405613979124351
-0.0279372579332751 -0.270294592957067 0.410499567388048
-0.0306133342393779 -0.269942280827634 0.426386890726171
-0.0305246921630697 -0.269953950778371 0.429662707891466
-0.0303722606112823 -0.269974018772875 0.44840420972968
-0.0287162684141597 -0.270192034281612 0.451934593387456
-0.0299046918143146 -0.27003557537279 0.455187659328195
-0.0268474526393154 -0.270438068545901 0.470318809788984
-0.0242753815398903 -0.270776688130112 0.480449135102323
-0.0247411214595638 -0.270715372306461 0.489231025560026
-0.0247418432297941 -0.270715277283608 0.501674322509863
-0.0302478614445544 -0.269990396233873 0.503736159015051
-0.0244697774887678 -0.270751095417922 0.516310526611551
-0.0299546636994661 -0.270028996449301 0.524801368342128
-0.0277000229363988 -0.270325825536921 0.541008500072327
-0.0241524410286699 -0.270792873555469 0.550891313418775
-0.0241073073867668 -0.27079881551215 0.557788968357487
-0.0239400370451707 -0.270820837070394 0.567617528583076
-0.0279180144732852 -0.270297126406637 0.573147572596219
-0.0297172748562284 -0.270060249283412 0.580022069672165
-0.0232582110538646 -0.27091060116507 0.594024258397598
-0.0298028081654802 -0.270048988609622 0.594704741782577
-0.0307368701711463 -0.269926017013675 0.604622370895667
-0.0318477422203971 -0.269779767933891 0.617444072907511
-0.0308996054527373 -0.269904592507408 0.629815247631731
-0.0235196742970298 -0.27087617887608 0.635110124646497
-0.0268566429028707 -0.27043685862475 0.642726487585062
-0.025575175983161 -0.270605566945306 0.647782165760126
-0.0285878327943896 -0.270208943151734 0.663078277353839
-0.0268938352438221 -0.270431962160172 0.665357000693263
-0.0238438566899858 -0.270833499454373 0.674275447365273
-0.0262636440477154 -0.270514928405098 0.693905558222434
-0.0256431513057197 -0.270596617824317 0.702892726648166
-0.023931356720492 -0.270821979856819 0.709903481832891
-0.0264400019759484 -0.270491710443377 0.709612139235722
-0.0270534868491147 -0.270410943627592 0.722851264101158
-0.0305597383507072 -0.269949336860238 0.734035897308702
-0.0227434294533633 -0.270978373448488 0.737694011685912
-0.0248856346947714 -0.270696346778112 0.753525657731662
-0.0297425076474198 -0.270056927323431 0.760720800195456
-0.0255596152051639 -0.270607615560593 0.774956926090889
-0.0252380797259849 -0.27064994650949 0.77906877753147
-0.0273404345274745 -0.270373166249059 0.786104923736031
-0.0264801032478972 -0.270486431010768 0.794721538060376
-0.0308706817102631 -0.269908400390344 0.805640254533748
-0.0317025628229865 -0.269798881164158 0.817553718419352
-0.0308884887562606 -0.269906056048264 0.831110864435284
-0.0259235901137513 -0.270559697354818 0.833042668141653
-0.028027660021132 -0.270282691296413 0.846237155898206
-0.0307474912844167 -0.269924618717586 0.852248982653263
-0.031589229032994 -0.269813801840673 0.864283798751726
-0.0269364184010223 -0.270426355981172 0.869560784265521
-0.0287376167437305 -0.270189223720704 0.878085615780004
-0.0229112964233757 -0.270956273342623 0.888143978552663
-0.0305070992070677 -0.269956266934969 0.900901504420181
-0.0233637972006972 -0.270896700485129 0.903596620964505
-0.0270474971442593 -0.270411732187196 0.917854385922416
-0.0231739818803036 -0.270921690146139 0.93013824536602
-0.0289317546884993 -0.269596264893673 0.93206939521044
-0.0266286302833928 -0.266666221071547 0.935274990160293
-0.0301737871345563 -0.261444530627063 0.939989272494556
-0.022973552295029 -0.250955276430377 0.951328608904199
-0.029554235794584 -0.250905374658199 0.950519132200395
-0.0264176473793723 -0.242665718892183 0.959097703511499
-0.0305844739283971 -0.234824786426032 0.966327675710359
-0.0293526141851416 -0.232179768420997 0.969110855181329
-0.0244044188226169 -0.224941987750179 0.976932584734193
-0.0249220034515363 -0.221716863235144 0.98006255951115
-0.0268551589912986 -0.215169713679653 0.987812822564392
-0.026001650152853 -0.215282080249947 0.999178741968541
-0.0257091273603749 -0.214175722223516 1.0
-0.0313251851767469 -0.172453749552712 0.986301369863014
-0.0252864107760747 -0.153632128865782 0.979452054794521
-0.030224391862335 -0.142184649143742 0.979452054794521
-0.0307065559096373 -0.123595657318959 0.979452054794521
-0.0253958462328069 -0.118433283762662 0.979452054794521
-0.0253287992380912 -0.100750937259724 0.979452054794521
-0.0267591279815299 -0.0889050003795792 0.97945205479452
-0.0249862846882146 -0.0701631080754885 0.979452054794521
-0.0319902505315091 -0.0635595064508698 0.979452054794521
-0.0299467266900731 -0.0455313394095637 0.979452054794521
-0.0258688363763384 -0.0315072216915328 0.983202009080407
-0.0294094195213801 -0.0166862972781803 0.986301369863014
-0.0269544427754757 -0.020417096529781 0.986301369863014
-0.0296877400607127 0.00792572012219592 0.986301369863014
-0.0339810255197404 0.027579426119108 0.986301369863014
-0.0262850195326135 0.0362111906927107 0.986301369863014
-0.0335182012120026 0.0557822421122198 0.986301369863014
-0.0348967958751642 0.0657714093965633 0.986301369863014
-0.0286146408116589 0.085352704605569 0.986301369863014
-0.0307934429534297 0.0932863928553062 0.986301369863014
-0.0267113922176899 0.127227818972114 0.979452054794521
-0.0308148192468758 0.13437436081029 0.979452054794521
-0.0312442797240382 0.149306668582049 0.983624943895068
-0.0279677180962447 0.184757387037801 0.979452054794521
-0.0318421273494413 0.185444557141926 0.979452054794521
-0.0362433146328749 0.195646886457854 0.986301369863014
-0.0304822469526139 0.207783780952357 0.990236737087114
-0.035095796114894 0.209485214978494 1.0
-0.01754887751615 -0.271662249184869 0.260318369754853
-0.0139833076693621 -0.272131665360521 0.273057300336041
-0.0159692101206145 -0.271870216342849 0.284715165443406
-0.0158128982135566 -0.271890795195816 0.291876262278203
-0.0182147392499295 -0.27157458682457 0.290631126418164
-0.0165035794848367 -0.271799865281415 0.304717406399558
-0.0199664248771532 -0.271343973036757 0.322996022293369
-0.017906672606571 -0.271615144567591 0.326759197100759
-0.0143200503294225 -0.27208733234828 0.336842182021777
-0.017928505206212 -0.27161227025132 0.344465267443334
-0.0176979309682771 -0.271642625925623 0.35646611823748
-0.0171240460818724 -0.271718179304246 0.370209331092083
-0.0180802879506832 -0.271592287673919 0.378694674288196
-0.016621376588734 -0.271784356998478 0.386310012294636
-0.0158051669372344 -0.271891813037654 0.391235603423368
-0.0159197499361015 -0.271876727899671 0.400174239341849
-0.019650228686252 -0.271385601055017 0.409667557456579
-0.0151246275418205 -0.271981407748766 0.416861016887559
-0.0210407857423398 -0.271202530745545 0.418501507402641
-0.0158672720499239 -0.271883636744455 0.439509863185562
-0.0222975939682147 -0.271037068803621 0.443224777106723
-0.0143982698919093 -0.272077034547519 0.454776501363046
-0.0191606544982303 -0.271450054719625 0.466042694254024
-0.017674724100678 -0.271645681167703 0.478408006632716
-0.0162549990068457 -0.271832591522194 0.484741446566729
-0.0226678109902415 -0.270988328808021 0.482168626541367
-0.0199909009471795 -0.271340750701007 0.504952072993365
-0.0152799777985698 -0.271960955499464 0.508415567907083
-0.0169446678368039 -0.271741794898222 0.521847760324436
-0.0227934194179225 -0.270971792144799 0.530102958601383
-0.0220765611713872 -0.271066168323372 0.528388585848257
-0.0191966615072277 -0.27144531430696 0.546095113580944
-0.0206020370533569 -0.271260293106263 0.554611865616326
-0.0139870543808508 -0.272131172096596 0.565097093247
-0.0191018992610556 -0.271457789993345 0.573608542725753
-0.0196567357117159 -0.271384744388863 0.576353734165516
-0.0166559291296441 -0.27177980807017 0.593431965482757
-0.0214657401737037 -0.271146584433296 0.599584910048773
-0.0146245577302715 -0.272047243188425 0.609403893298086
-0.0183322968908646 -0.27155911006753 0.621413059807682
-0.0183767537954874 -0.271553257205002 0.624434709923432
-0.0218694466266286 -0.271093435470475 0.630844620427648
-0.0204260247756905 -0.271283465562224 0.649934804075588
-0.0200141282670025 -0.27133769276634 0.649731469549827
-0.0167186156743946 -0.271771555229988 0.661296119081567
-0.0193866792544865 -0.271420297995947 0.66565872128259
-0.0170728071866472 -0.271724925032776 0.682524275284924
-0.0170005264685192 -0.271734440969845 0.690712980067959
-0.0194882137349687 -0.271406930728 0.700438934628196
-0.0180647484195878 -0.271594333491999 0.709031390422994
-0.0156572401525644 -0.271911287968315 0.713697339020975
-0.0178001689282921 -0.271629166042839 0.727980142496174
-0.0158482997669653 -0.271886134492891 0.730977688131556
-0.0193770786994056 -0.271421561933002 0.742071680383138
-0.0220298032138404 -0.271072324125265 0.754320596044826
-0.0165521871783131 -0.271793465957167 0.76187919345661
-0.0227625784811587 -0.270975852431152 0.772011948311843
-0.0189873507920219 -0.271472870585389 0.774063217103871
-0.0226861861776408 -0.270985909668707 0.787952748093564
-0.017655224227309 -0.271648248374735 0.796837952401687
-0.0150457880525974 -0.27199178716443 0.806860147626389
-0.0186596705440175 -0.271516010508448 0.817598309019479
-0.013991171321745 -0.272130630091046 0.828067569768264
-0.0207777193999082 -0.271237164086558 0.832520473243005
-0.016834772514638 -0.271756262891858 0.849818187389583
-0.0174518181082923 -0.271675027298328 0.858301755941217
-0.0184276908294114 -0.271546551217265 0.865978325590658
-0.0198033358656962 -0.271365444112445 0.874839922905404
-0.0150455998075102 -0.271991811947367 0.8854335016909
-0.0168742669672926 -0.271751063348525 0.888595788030727
-0.0142629154228171 -0.272094854301434 0.902568035453924
-0.019956064171723 -0.271345337049505 0.905199295751875
-0.0179925208861246 -0.271603842427174 0.914441858663114
-0.0147020476587315 -0.272037041445806 0.928642638366787
-0.0213600901919165 -0.267190126954486 0.93544324884151
-0.0148153392094468 -0.267039508671456 0.936446839989019
-0.0197199757960755 -0.259230664574103 0.943548694804732
-0.0195627390198525 -0.254760925594259 0.948000718065659
-0.0174398841402705 -0.250552392973462 0.952450334270539
-0.0191973144485187 -0.244696106525249 0.958027128690126
-0.0229899639596879 -0.240460129616806 0.961731826129781
-0.0205588931720269 -0.232879436471669 0.96956498380711
-0.0170607343859667 -0.227870363833387 0.974987804480708
-0.0148973806537248 -0.22041666181431 0.982660113370828
-0.0213179664764909 -0.21589869890385 0.990058241049305
-0.0216821335660675 -0.215850755396968 0.995930863242623
-0.0152376237242846 -0.209790773675145 1.00018283303196
-0.0189283252835149 -0.183889598303584 0.986301369863014
-0.0237227409348904 -0.157334497792157 0.979452054794521
-0.017319384739324 -0.135480022692257 0.979452054794521
-0.0155161691391189 -0.133478522964564 0.979452054794521
-0.0162228672344754 -0.118973840839417 0.979452054794521
-0.0224066193519421 -0.0974221317253177 0.979452054794521
-0.0177245326172998 -0.0886863316470526 0.979452054794521
-0.0197642741256864 -0.0732305168898651 0.979452054794521
-0.0205106157454375 -0.0640915159678407 0.979452054794521
-0.0157824248549958 -0.0441458141430041 0.979452054794521
-0.0239182840858987 -0.0330039331054507 0.985806366745542
-0.023991966653544 -0.0176852751010972 0.986301369863014
-0.0193207745645782 -0.0154029329172896 0.986301369863014
-0.0181728725265216 0.0115228798518231 0.986301369863014
-0.0158042721966864 0.0312927923221144 0.986301369863014
-0.0231335088134792 0.0248314476714853 0.986301369863014
-0.0204026022335969 0.0490702707558983 0.986301369863014
-0.0157051026195761 0.0781357787614069 0.986301369863014
-0.0180380907321193 0.0749834329608253 0.986301369863014
-0.0225904466903438 0.100003293595432 0.986301369863014
-0.0217701112865929 0.122116099110248 0.979452054794521
-0.0246709102033992 0.149007088668686 0.979452054794521
-0.0198134083565901 0.15905516191983 0.980184129819462
-0.021844827415963 0.165770945777663 0.986301369863014
-0.016575346358526 0.192163800568147 0.979452054794521
-0.0255839015835305 0.19820430966365 0.9863171866747
-0.0237918736936664 0.207607874195503 0.986301369863014
-0.0189447566262733 0.209302720369709 0.998057577896792
-0.0119976296579732 -0.272393084830125 0.265040377414376
-0.00706391522396546 -0.273042620657745 0.276256709961569
-0.0121552393412347 -0.27237233512168 0.28057139181129
-0.0128435968091882 -0.272281711141791 0.293615915378619
-0.00910333288942591 -0.272774126228464 0.298950541181135
-0.00705279536623907 -0.273044084614787 0.312270355442058
-0.0109334111562735 -0.272533191853853 0.316111912150954
-0.0064603730716321 -0.2731220784895 0.333403450365901
-0.012296581740856 -0.272353727041755 0.332314808797282
-0.00716687190944394 -0.273029066152959 0.347631635016522
-0.0077601218854553 -0.272950963311923 0.354813599323078
-0.00916987852684298 -0.272765365329094 0.360941506301472
-0.00449172161988567 -0.27338125637 0.373084144544807
-0.0131752966227494 -0.272238042032886 0.379258561241873
-0.00642905146292525 -0.273126202057514 0.393417046925027
-0.00791195916063918 -0.272930973555419 0.404755364062308
-0.00695024767412492 -0.273057585274576 0.410848637529042
-0.00716754683146691 -0.273028977297788 0.422834079586003
-0.00972444713359295 -0.272692354986931 0.429185261317876
-0.0103864666119766 -0.272605198469151 0.43820360056186
-0.0130356047200393 -0.272256432820771 0.452506202258978
-0.00658976576414726 -0.27310504361836 0.456713131776139
-0.00838373490433424 -0.272868863100459 0.458117237237355
-0.0134245374623039 -0.272205228853858 0.47112322966192
-0.0132576815088662 -0.272227195856865 0.477944351406073
-0.00872020038550271 -0.272824566579512 0.489754239599526
-0.00575413367353863 -0.273215056670153 0.501403695707994
-0.0105828247205556 -0.272579347433735 0.505962861100938
-0.0072383379650313 -0.273019657468248 0.511092005387681
-0.00952459011979731 -0.272718666661958 0.52387149947507
-0.0110098677957453 -0.272523126146309 0.533193668644308
-0.00908583289888099 -0.272776430145926 0.539010068547018
-0.00927598170514005 -0.272751396580669 0.552992423121008
-0.0062480126321421 -0.273150036271747 0.564292849443902
-0.0125987602761584 -0.272313944482865 0.56641294857504
-0.0133203025200783 -0.272218951644338 0.585181796644389
