ply
format ascii 1.0
element vertex 889
property float x
property float y
property float z
end_header
0.305868469145295 0.125158285212475 0.304455751247373
0.303929429181784 0.129839541790366 0.315400014423705
0.305808769789472 0.12530241220697 0.322984037606053
0.307433460377088 0.121380062155685 0.335274138874842
0.304327505871712 0.128878499646679 0.341036346344511
0.306589200303981 0.123418286274351 0.348674134622444
0.305434587933161 0.126205767119267 0.355292041737292
0.30633062681478 0.124042537898851 0.371633362997335
0.304980622564083 0.127301736470142 0.373876759603273
0.305697512943661 0.125571009993033 0.383409566543775
0.306968145553541 0.122503431513466 0.398818163105654
0.30738985189018 0.121485342356213 0.403676321630695
0.305844591971615 0.125215929809005 0.412893040661233
0.303791627967876 0.130172223349895 0.421438499033641
0.306827847650819 0.122842140612989 0.43081638711071
0.306027046058529 0.124775446677868 0.437336573424693
0.305583748153176 0.125845662493142 0.4468000038831
0.30659693721424 0.123399607720674 0.454427114851709
0.30561359692137 0.125773601192147 0.461182668230749
0.30472163980416 0.127926976161573 0.47534228830359
0.306343623079286 0.124011162140821 0.481378988285746
0.305094522755908 0.127026757082284 0.487651406800988
0.305755672468169 0.125430600480184 0.502769243778238
0.30697819796553 0.122479162844108 0.51439811884129
0.304514156098972 0.128427886136608 0.51703734142677
0.305267845284302 0.12660831948357 0.531098472409972
0.304040859658935 0.129570524821168 0.536725392908348
0.306719769835592 0.123103063540302 0.548768491428749
0.30725505041166 0.121810781913883 0.557300935683098
0.306552639947961 0.123506550781699 0.559507497327007
0.305580939185015 0.125852443942173 0.575080423687092
0.306404458323595 0.12386429286894 0.583409398297065
0.305893431258481 0.125098021340276 0.591062261356053
0.30664922914009 0.123273363844084 0.606041106183161
0.304085020431529 0.129463911285045 0.611654865400345
0.306295943880816 0.12412626990841 0.619378431177904
0.304740208592838 0.127882147140108 0.621768444148428
0.305249685418164 0.126652161278689 0.639429440921774
0.30490060740641 0.127494910148994 0.645395744818192
0.304225398118702 0.129125009568819 0.657129805105541
0.306670777413789 0.123221341709473 0.665383218250647
0.304596678015228 0.128228660607188 0.675495441347226
0.305076241434195 0.127070892097101 0.67967151149536
0.306803938386441 0.122899862683318 0.687607045073591
0.307545440695696 0.121109717751783 0.708652437544752
0.304604018589517 0.128210938893185 0.709459647225207
0.307368398107216 0.12153713637001 0.716509844338021
0.305690850785403 0.125587093865853 0.721750949757974
0.306055677609293 0.124706323999701 0.73833126610772
0.306839430261941 0.122814177716131 0.743610245927334
0.306142187693193 0.124497470181867 0.75888784502356
0.305456028885068 0.126154004082384 0.762965330463533
0.304917871382922 0.127453231222758 0.76696715061264
0.304481660340024 0.12850633783858 0.785624965796106
0.305359306049238 0.126387513664437 0.785911995937131
0.30704033033853 0.122329162026549 0.79623233721594
0.305374438336087 0.126350981092295 0.810215912574836
0.304204767209927 0.129174816988587 0.812978221298539
0.306750085867846 0.123029874164078 0.821415723521498
0.306151317078232 0.124475429896691 0.830636700869547
0.304086988795201 0.129459159234775 0.84564034321037
0.302698641842104 0.130417505895959 0.852771476195932
0.300730809717453 0.125324528250863 0.864170107031583
0.30040680874822 0.125949994434977 0.86435160674022
0.299034093537964 0.125583045013877 0.8686140191211
0.295122649805106 0.121644686592041 0.88410912386857
0.290687443981612 0.130159933224484 0.886647697943885
0.288484034661726 0.128852545598744 0.894321348154517
0.287538053333625 0.125408046453069 0.900954472078258
0.28486225759389 0.123824511753057 0.910268470863201
0.283282416626172 0.124232912582032 0.914212092604945
0.278519114441535 0.128597072130344 0.922474657513793
0.276454987067466 0.128063972663147 0.928862345169079
0.27647054782327 0.122906466824836 0.93479101306333
0.272113906723054 0.128307401364276 0.940716193933428
0.269281319182809 0.123851116681816 0.953795033126873
0.264222940600384 0.128563163758581 0.962479661600966
0.265135659890921 0.123222612167213 0.966112232575982
0.260204793127008 0.128826974193216 0.973407132610214
0.261251069892787 0.124925454140027 0.981125528401808
0.261738496321121 0.123748702646084 0.991219528685425
0.253433539860371 0.131630084745241 0.999999999999999
0.248148112701708 0.132361578919921 0.999999999999999
0.188301537088936 0.128495434600493 0.962499999999999
0.167663408707592 0.130284872808882 0.962499999999999
0.157557929869819 0.130155745810899 0.962499999999999
0.146200639914758 0.132010654377917 0.9625
0.125080705347131 0.135916491158545 0.962499999999999
0.120621123708961 0.129919358655003 0.9625
0.107280800036644 0.137988618782011 0.9625
0.0872192952664182 0.133017061413902 0.9625
0.0734185043540676 0.141139492870814 0.9625
0.0618246601627379 0.138663383302133 0.9625
0.0402106139950455 0.134608123536378 0.9625
0.0263386152032474 0.137113768581481 0.9625
0.0281400909398274 0.135452804354264 0.9625
-0.000634256458147635 0.139196588458436 0.9625
-0.0112591081698304 0.138810682294391 0.9625
-0.0277730926736736 0.143367607276041 0.9625
-0.0466891159296068 0.144143694762147 0.9625
-0.0530471455565374 0.144733758538901 0.9625
-0.0641922728834679 0.138335090169204 0.9625
-0.0953915181156558 0.139972032536036 0.9625
-0.10099639009689 0.146699226947961 0.9625
-0.108462540915956 0.150411473274858 0.9625
-0.138331163221588 0.149696080185511 0.962499999999999
-0.151004238382783 0.150582404902895 0.962499999999999
-0.15771857299971 0.143137610902789 0.962499999999999
-0.195615149224099 0.149218140059936 0.962499999999999
-0.202504313363849 0.145900903631579 0.962499999999999
-0.204238727740892 0.148369049877777 0.962499999999999
-0.233970722086977 0.153134559650286 0.96402647367987
-0.234199347275014 0.152836609504365 0.972920295887399
-0.23390877653611 0.153215288663911 0.979745674846359
-0.234861795549069 0.151973290105422 0.992114362222066
-0.248195719969479 0.14990509338117 0.999999999999999
0.301644047145453 0.135356942097682 0.293019872459616
0.300096094333479 0.139094030770261 0.296881518766578
0.303058268896883 0.131942708765176 0.312763612629004
0.302370072736297 0.133604161269635 0.313578573280656
0.300271064885964 0.138671614489436 0.326586890679994
0.30001505549534 0.139289675832376 0.336079930893579
0.301575011506417 0.135523608873729 0.350516178583172
0.302736288597059 0.132720037971829 0.361486140435544
0.300650293881241 0.137756074705795 0.365537222703493
0.302406676775966 0.13351579130063 0.373973489277279
0.300855845449975 0.13725982932079 0.388618239394245
0.302352254531564 0.133647178221158 0.398616323030287
0.302454221640692 0.133401007843385 0.402555384962414
0.30218536113316 0.134050094527056 0.411671891319805
0.30364023051052 0.130537729144752 0.422929454409323
0.301743065018081 0.135117891806667 0.43206621450493
0.302685456725795 0.132842756964835 0.431672193924922
0.302486829470266 0.133322285578991 0.447018180230705
0.303766794193779 0.130232177384124 0.464120791140328
0.301916184363986 0.134699944733871 0.464741785983129
0.302789116321975 0.132592500561866 0.472375127982852
0.301810805366338 0.134954352139183 0.475352125189914
0.300733718118955 0.137554670779674 0.483152889258836
0.303501788192337 0.130871958466917 0.500821673748286
0.302757423752381 0.132669013193205 0.506471725558176
0.302401946132799 0.133527212083522 0.512312386687687
0.303161465479681 0.131693570175395 0.529595942082191
0.299947705317524 0.139452273545088 0.534579685026944
0.300289970721291 0.138625971765382 0.545461921753081
0.30010028302333 0.139083918378415 0.549779832919968
0.301505883090241 0.135690499633607 0.556999111789513
0.30038941624387 0.138385889036055 0.570986643252823
0.300074431091259 0.139146330463434 0.583515081408367
0.301791874662654 0.13500005490076 0.587547699310384
0.303610276240525 0.130610045149627 0.599026213250136
0.303690793247371 0.130415659899695 0.615736880028086
0.301648416818877 0.135346392772839 0.614025975082604
0.300542691141099 0.138015850700394 0.620383062231488
0.303690279611342 0.130416899926763 0.633491759639345
0.302248487590658 0.133897693777223 0.647638350419712
0.300064993819801 0.139169114052181 0.653726263162721
0.30011370544305 0.139051513790687 0.657889191267726
0.303763950774215 0.130239042006202 0.674471868624618
0.300609267861929 0.137855120278028 0.677554461013361
0.303602345774831 0.13062919098746 0.691731230543815
0.303553698404502 0.130746636128683 0.694506633281937
0.303234138223392 0.131518122651914 0.706956205800437
0.303131699889555 0.131765430666769 0.710230188233777
0.302317297242815 0.133731572581761 0.727525368201321
0.302925406720036 0.132263466434446 0.735110815054098
0.303172792012947 0.131666225505168 0.740172828042917
0.302492502339306 0.133308590061616 0.75717987542711
0.302321162075421 0.133722242050468 0.761747426017386
0.300369224181384 0.138434636987161 0.765128181739336
0.300194292151514 0.138856960266168 0.778514625846526
0.302461983247051 0.13338226966805 0.793991312027156
0.300729830665776 0.137564055921863 0.796298929739732
0.301704278869888 0.135211529851664 0.804918607026622
0.30355919457163 0.13073336720746 0.811291150236047
0.302783830783464 0.132605260980623 0.818020296599862
0.302291163202473 0.133794665736395 0.828076047991781
0.300236698398956 0.138754582528463 0.846667156560897
0.302697711543977 0.131286624870389 0.851767674688273
0.299833300510512 0.138183240862405 0.851789309921659
0.295062120404152 0.13830144398924 0.864990532010356
0.295074943389296 0.131510795911646 0.872817961618129
0.291872287614083 0.136386105835129 0.876125763678411
0.291085646814668 0.131427374367072 0.88406685797816
0.285128444870839 0.138426393897117 0.892615981303316
0.285712698375972 0.131732743629026 0.89873362621698
0.282464874145101 0.138736126131872 0.899703483110375
0.278389831852498 0.136226923182274 0.914001036356932
0.275359721720003 0.138939835272508 0.919330440817707
0.27366394629405 0.139387984497087 0.923552136784842
0.270761569816454 0.136086368462017 0.935489018401675
0.26803140454797 0.13720703035242 0.941823667421746
0.266236629357065 0.132338770905122 0.952478294128043
0.263145069648801 0.134801046260037 0.958269710761447
0.258152093986169 0.14074021129224 0.96535055222514
0.257170298673318 0.135101908542072 0.974624125864606
0.256070070012993 0.137433494316479 0.980523601230486
0.254570231755281 0.141054424179613 0.988599457737225
0.254804647504262 0.14048849449919 0.997437510719266
0.190279344817359 0.143000737959399 0.962499999999999
0.182271125697528 0.142317350714512 0.962499999999999
0.177323765759511 0.143859046737999 0.962499999999999
0.154919426658878 0.143651671438033 0.962499999999999
0.145802662210684 0.138895761406876 0.962499999999999
0.131121793766171 0.144038209384004 0.962499999999999
0.120008979097868 0.146614284759287 0.962499999999999
0.106885133331544 0.14064520897042 0.9625
0.0915438095765816 0.145082702210133 0.9625
0.0739456504754691 0.147053165533475 0.9625
0.0650491527264809 0.147862231642552 0.962499999999999
0.0496642314460529 0.142736758059867 0.9625
0.0360756927259342 0.151298703150838 0.962499999999999
0.0128706416138474 0.144642092121203 0.9625
0.0104368718011361 0.14742535628511 0.9625
-0.0188617617872857 0.155512186186519 0.9625
-0.026035602911093 0.147280706210869 0.962499999999999
-0.0381549402761807 0.153605624681819 0.9625
-0.0590206115601238 0.151441560738137 0.9625
-0.0653648622018154 0.149655898964771 0.9625
-0.0912190154432057 0.1502263147435 0.9625
-0.106645067859673 0.155776742286067 0.9625
-0.120681863063076 0.152528269530605 0.962499999999999
-0.143893939843424 0.151906486861629 0.962499999999999
-0.148801021371028 0.154890827017539 0.962499999999999
-0.175493711149278 0.15608481147506 0.962499999999999
-0.191517841034654 0.157443131307848 0.962499999999999
-0.206375930243441 0.157114653516959 0.962499999999999
-0.229181261688574 0.159376305963702 0.955182824865413
-0.226369350353257 0.163040860162067 0.973244754861726
-0.23099903091289 0.157007342988605 0.972439110661708
-0.229584287220195 0.158851072864991 0.987477156662375
-0.228338029696082 0.16047522729151 0.994112440634938
0.29799599244509 0.144164125231578 0.29320905403515
0.298045379552748 0.144044894206463 0.297250778371797
0.297023578932324 0.146511739122331 0.308176063601539
0.297639324149612 0.145025198667788 0.322101789773012
0.298377885958953 0.143242152731024 0.327515432808177
0.299458909417576 0.140632331235975 0.333761021275881
0.296545285395662 0.147666441865336 0.346940948898367
0.298238402038684 0.143578896703072 0.358439255436172
0.297100123343924 0.146326944565723 0.354133578041501
0.299837599967421 0.139718091374597 0.366664991507118
0.299272080979587 0.141083374984805 0.380169655450194
0.297081349748225 0.146372268035074 0.38578262043647
0.296470981440045 0.147845827482725 0.397093272765194
0.298794511643074 0.14223632935399 0.399912215206163
0.299015490136009 0.141702840079351 0.416752509212697
0.296672767203225 0.14735867355656 0.42251400211563
0.296484730540526 0.147812634217873 0.439450343515645
0.296697720388046 0.147298431239342 0.442819245395128
0.297490894371507 0.145383539851147 0.451033632192618
0.298346456465623 0.143318030240083 0.463632006989546
0.297450181292713 0.14548182991814 0.470181362362093
0.298233444939475 0.143590864199213 0.472863489051298
0.299005732608606 0.141726396834342 0.489692056557158
0.297407472483698 0.145584938104096 0.497240812130132
0.299940091730703 0.13947065436965 0.508255279898403
0.299350602595863 0.140893807033851 0.509821554833912
0.296918139060204 0.146766293491618 0.523371914496435
0.296551183463299 0.147652202670456 0.53000658142613
0.299297755485554 0.141021391244293 0.534648986165307
0.296737367150334 0.147202715488123 0.550825345514383
0.29618248080958 0.148542329617548 0.560194558792427
0.299504751001539 0.140521659862252 0.57195871776099
0.298556999286015 0.142809734907631 0.580233727332045
0.299884979923919 0.139603706041033 0.590412822875348
0.297073272946503 0.146391767159332 0.597838610423595
0.297868623926283 0.1444716200371 0.602434700905093
0.297402233583275 0.14559758592855 0.608880930135042
0.297037739788695 0.146477551790825 0.625625089214022
0.297383494929875 0.145642825039728 0.634263929770543
0.297527510280589 0.145295141226844 0.640740713234561
0.299715612344729 0.140012595547743 0.650806696071442
0.296376767647963 0.14807327969733 0.654510386095878
0.297560329471439 0.145215908691189 0.670061569618261
0.297279789843228 0.145893191266399 0.682125453712558
0.299642771518544 0.140188448858213 0.69163618322594
0.297014162312141 0.146534472854488 0.688352882863049
0.297635382609467 0.145034714387463 0.703818755719005
0.297258769215269 0.145943939551507 0.705686013537272
0.299008056274876 0.141720787007719 0.715806934426202
0.298600351392918 0.142705073663187 0.731406082892337
0.296298560119825 0.148262089372441 0.742816278107831
0.298382771464494 0.14323035807729 0.748628196593247
0.298647929399112 0.142590210195365 0.756431310565252
0.298360137301081 0.143285001781574 0.76551088919905
0.297625111607939 0.145059510778652 0.774484025378147
0.299953254936105 0.139438875580644 0.783040371919759
0.297987494313207 0.144184641536823 0.799452633252514
0.298354410743022 0.143298826915707 0.798825838536631
0.296825387793209 0.146990214858324 0.810858349576735
0.29946440217 0.140619070558579 0.823263549500987
0.299016114577252 0.141701332544834 0.833650173772809
0.298860755317682 0.14207640297633 0.838860047900092
0.29743454974925 0.14551956780237 0.849783824254865
0.298814021485299 0.139983389599467 0.852554266022686
0.294597940324311 0.141085664487025 0.86306416593739
0.292324123850354 0.146758603002909 0.86285172724933
0.288291047825613 0.141893937257037 0.879759485597636
0.28449277997782 0.144052986049269 0.887877666927653
0.285215991257623 0.143712100937898 0.886250620274092
0.280824221631133 0.147734123293995 0.893870725578734
0.277604248223082 0.145145423403143 0.905869940787824
0.275570350075611 0.143854523115315 0.913050621575337
0.274396274169968 0.145353035095983 0.914597603189405
0.270843942084407 0.141159459224189 0.929384322366899
0.266014309026022 0.148596027743662 0.934274602086212
0.266531612927707 0.143732661490053 0.938460018515751
0.265325312554952 0.142908770857881 0.942786327245056
0.261058946507684 0.143171164795645 0.954409347161304
0.257595402391199 0.141764449420559 0.965720790690565
0.255104792148612 0.142193308733448 0.972186827953908
0.252756910582797 0.146818845819049 0.972785741376294
0.248444391877904 0.151236963021217 0.980142312345236
0.253538170322316 0.143546040888281 0.993111401832513
0.250733775737512 0.148253379887203 0.998667372779158
0.182467757533755 0.147416654108104 0.962499999999999
0.174792819090043 0.14971763557232 0.962499999999999
0.162156091446151 0.152795219179484 0.962499999999999
0.141332338041641 0.151822992638507 0.962499999999999
0.133580201062155 0.152865063492777 0.9625
0.110798256025093 0.152569411552064 0.9625
0.105063032630461 0.154842619694661 0.9625
0.0886848134364185 0.154972541135347 0.9625
0.0774762323119348 0.15317646162169 0.9625
0.0646651825047073 0.152269063436539 0.9625
0.0445542586272536 0.155663379004578 0.962499999999999
0.0302749785760268 0.159483379599241 0.9625
0.0161368483955678 0.161337712030124 0.9625
0.00349722949882035 0.160049703198073 0.9625
-0.00499158258257149 0.164394078025599 0.9625
-0.0307025127454872 0.158545537871947 0.9625
-0.0398185383684344 0.164484269351294 0.9625
-0.0644711141163674 0.165616824006839 0.9625
-0.0626755215297162 0.164133092923233 0.9625
-0.0807163845765804 0.161320791918397 0.9625
-0.0981851737574165 0.16081974547215 0.9625
-0.12629748911559 0.165400736394116 0.962499999999999
-0.128122181312232 0.169682334362058 0.962499999999999
-0.145675853593225 0.171913063276519 0.962499999999999
-0.165981756551378 0.166815029450541 0.962499999999999
-0.180485419862469 0.166910974588251 0.962499999999999
-0.200339451701328 0.165948668313493 0.962499999999999
-0.218921379359528 0.17274724493728 0.96367539614074
-0.223284848487065 0.167060661256664 0.968708413795233
-0.219359606153906 0.172176136659788 0.989079998997082
-0.223532267707972 0.16673821825025 0.994073008649702
-0.220540023912805 0.172313622623958 0.999999999999999
0.294292995592331 0.153103950454932 0.281696030970375
0.292793779509829 0.156723378254237 0.284975690657323
0.293731349826234 0.154459883280691 0.301589500716038
0.29559675000838 0.149956408861704 0.306935155292842
0.292436077086965 0.157586948294809 0.31727863836647
0.29265444005328 0.15705977346001 0.327914343457475
0.293969650321525 0.153884574993042 0.344423111385434
0.294729337666406 0.152050527501865 0.350157883124221
0.293013371408779 0.156193236513604 0.355579029314601
0.295864686648783 0.149309552590586 0.367785086645631
0.29345069125274 0.155137453015218 0.36827578629392
0.296038359212364 0.148890269932176 0.389881800132441
0.294945594874725 0.151528436416583 0.395039868351472
0.294555764298049 0.152469570681822 0.40163915386595
0.294144656838939 0.153462071885198 0.414105487470565
0.293466560435617 0.155099141418693 0.423263038813266
0.292398495493201 0.157677678288169 0.431965740415203
0.292814400123059 0.156673595690112 0.435618572197095
0.293014179590269 0.156191285390889 0.44372422692935
0.295947865546406 0.14910874096784 0.454790925360096
0.295671755692863 0.14977532912097 0.466943202593158
0.295335023043684 0.150588273649511 0.476081292341733
0.294535942058416 0.15251742580158 0.48622395586846
0.293469671363846 0.155091630973571 0.487653456287489
0.295256367170647 0.150778165724955 0.500320779231432
0.292748108157883 0.156833638651515 0.515058260050674
0.294874488967223 0.151700101262839 0.522597535854873
0.295403671410759 0.150422541830682 0.523294021611609
0.29433817407666 0.152994879945339 0.533177065123603
0.295244895112187 0.15080586172408 0.549987154650016
0.29358373311424 0.154816261548821 0.5572954135143
0.293089147056783 0.156010297916496 0.564587428224216
0.295359143331953 0.150530042122443 0.571398045490243
0.292727679068558 0.156882958836031 0.579753851549532
0.295652939567257 0.149820755266598 0.592463382055586
0.295527310703444 0.150124050173441 0.607038068612405
0.293003763107446 0.156216433004993 0.611355351814379
0.292601676536241 0.157187155858445 0.617121366607386
0.295619622615493 0.149901189503404 0.62738833921837
0.293717624514147 0.154493019115279 0.637851213340085
0.29244719250779 0.157560113295101 0.63872709975225
0.292560915946522 0.157285560626954 0.653910828879319
0.294259420340294 0.153185008283759 0.663154538884395
0.293219940058565 0.15569453567773 0.671297127093769
0.293613674178029 0.154743977426551 0.68660403245904
0.29562478734188 0.149888720750916 0.68918892424723
0.292668147179318 0.157026681530427 0.698558386463156
0.294795367593734 0.151891117155787 0.710123957311722
0.29374709731505 0.154421865479621 0.712210418416236
0.294342803808276 0.152983702784482 0.725218212286564
0.29606728534197 0.148820436077773 0.741705485435137
0.293340399833136 0.15540372005624 0.748254518646106
0.294997848682231 0.151402284565814 0.749899272100881
0.295810790324814 0.149439669826874 0.765871948172732
0.292622203715274 0.157137598864425 0.769198774531821
0.29347583805698 0.155076743259371 0.784727876150854
0.292559418094299 0.157289176762104 0.793888823585869
0.294333216182868 0.153006849359772 0.806517869960321
0.294029599738832 0.153739844296721 0.809995035484767
0.292532724643978 0.157353620451897 0.8120874485619
0.292964880095472 0.156310304899848 0.826843802772261
0.294135013184951 0.153485353725444 0.837363554506107
0.295320957879204 0.150622229960355 0.84612981450631
0.293152547659363 0.153267252644147 0.852999087996206
0.288644064991683 0.156599941965446 0.861743688881622
0.289059696362495 0.151705517869945 0.866249300097431
0.284367474518472 0.156263045159214 0.874089244521419
0.284156493232312 0.15045143435272 0.881408648425557
0.281705832311699 0.152104987142329 0.886344863051638
0.277692685636665 0.153557300218292 0.895882119365268
0.278002037379651 0.150839135508848 0.898164826815101
0.272614572675036 0.155499347475834 0.907829456446303
0.269004327909313 0.154733034023599 0.918809451955731
0.266150403877858 0.152930289287114 0.928875253917212
0.266558868797854 0.151738335085554 0.929113599231644
0.260212585102954 0.157397489912575 0.935401348371562
0.257436425476395 0.157862591173059 0.941209053508949
0.256318645680114 0.153599366314342 0.951745437309791
0.254342967004171 0.152675695775956 0.958189687585587
0.251966686743977 0.153275997785968 0.962788397705488
0.246236818991986 0.157020212500436 0.969646498368495
0.245819754080195 0.154657457593711 0.979697473891172
0.241740200909163 0.159974034796053 0.987697499818579
0.242494476474204 0.158991043741577 0.994316388492637
0.17632495690803 0.160519268842788 0.9625
0.178103832232318 0.155598543481627 0.962499999999999
0.152635692462782 0.157919220007138 0.962499999999999
0.135068056323016 0.165494428281767 0.962499999999999
0.137398860094518 0.163451448003088 0.962499999999999
0.123011008692886 0.162323089229167 0.962499999999999
0.105838496904001 0.160546037888232 0.9625
0.092338063527368 0.165675540918352 0.9625
0.0786878598693469 0.169111337720837 0.9625
0.0629414561517259 0.162639219832712 0.9625
0.0437793095757082 0.165024006103436 0.9625
0.0371952022773863 0.163699491101333 0.962499999999999
0.0190573935437691 0.17312256964362 0.9625
0.00339401516629648 0.170030467080424 0.962499999999999
-0.00607219108293163 0.165622218667845 0.9625
-0.0313601024502457 0.175437899670973 0.9625
-0.0409880271635236 0.176889134469587 0.9625
-0.0502260853249696 0.176464485795762 0.9625
-0.0755537653916412 0.170749147465529 0.9625
-0.0819080222187148 0.175882144970274 0.9625
-0.0975054724854798 0.174137452610104 0.9625
-0.110109472676015 0.173263562313442 0.962499999999999
-0.139270231494692 0.177902677333312 0.962499999999999
-0.152862845930967 0.177525554058603 0.962499999999999
-0.173200893673767 0.18114232413245 0.962499999999999
-0.18290917157487 0.181466458043381 0.962499999999999
-0.209480357362963 0.185051024348756 0.960754037246138
-0.213765567871095 0.179466429286593 0.964930387821713
-0.210429496759333 0.183814081805043 0.976635776111376
-0.210102552651833 0.184240163661438 0.986011480027515
-0.218771182933826 0.177614755099646 0.999999999999999
0.29074307539561 0.161674215939196 0.285483183442667
0.290248083527068 0.162869232021498 0.290980088910351
0.289374471937031 0.164978316970411 0.29771954624196
0.290203304392963 0.162977338414362 0.310407148010023
0.290886401031274 0.161328197245742 0.319520567213582
0.289942144353186 0.163607834524344 0.317459708917238
0.289563748187173 0.164521363680281 0.333986821544934
0.289020348341995 0.165833246956303 0.342723411247814
0.290853970383523 0.161406491755379 0.360689868450795
0.291607816453283 0.159586546349823 0.35995083011758
0.290653651583858 0.161890104118328 0.373772524658923
0.289361984655434 0.165008463934998 0.380227935069513
0.291290942318684 0.160351548183138 0.386974976119867
0.291259203398595 0.160428172714472 0.397921743115085
0.292198041605151 0.158161616783329 0.405134092657833
0.291663374918079 0.159452416350608 0.417860715665903
0.289837433189393 0.163860629636105 0.428974458303701
0.288640108138815 0.166712314032843 0.433637278549061
0.291627432868722 0.159539188133625 0.443274663311729
0.291857143132813 0.15898461849864 0.45054253422638
0.290733769095379 0.16169668333543 0.463307036842865
0.291439319440273 0.159993334123851 0.467698001757338
0.289714122511537 0.164158327946969 0.478376202910833
0.291935318562851 0.158795886315199 0.491786567203596
0.290005693560208 0.163454413166876 0.500989715310197
0.289147886450829 0.165525342724237 0.500828663192245
0.290417125150685 0.162461129441156 0.513539768503369
0.289794017884867 0.163965443453104 0.528239208738255
0.288826794801965 0.166300526537687 0.533504547374487
0.29003896725676 0.16337408335739 0.543469201746752
0.29202775543467 0.158572723965589 0.555644390661316
0.289960397277174 0.163563768067698 0.560493640397726
0.290294953696662 0.162756077422392 0.569320923113677
0.288753170706353 0.166478270827832 0.574258756092588
0.288702568370464 0.166600435673424 0.579185302410572
0.290426031143986 0.162439628471343 0.598663909579115
0.290017221518824 0.163426582212836 0.60791358745901
0.289630588073692 0.164359997919741 0.610315577512199
0.29006730371632 0.163305673092408 0.623891289485143
0.288360939863118 0.167076133213024 0.626715766152342
0.29073682338459 0.161689309628996 0.649372874203818
0.290026539372243 0.163404086924739 0.654345541776435
0.291613821487478 0.159572048914826 0.657335128470075
0.290696983631125 0.161785491302131 0.670137183950724
0.289130774478067 0.165566654680957 0.681708371487666
0.290020194983749 0.163419403633487 0.686928980313294
0.28857764995369 0.166793711124441 0.695113328008658
0.291217867584082 0.160527966198481 0.701189398435671
0.29124266312124 0.160468104476388 0.713625532900969
0.290219175282419 0.162939022697792 0.71727302900471
0.291602041689122 0.159600487863781 0.738022161697267
0.28957798397721 0.164486995442903 0.738936754441102
0.290113096401969 0.163195119769657 0.751708647266152
0.290404071234525 0.16249264438259 0.755474048033423
0.290659040405144 0.161877094352896 0.764004912439583
0.288700139371678 0.166606299795236 0.775362113747914
0.289467757427834 0.164753105873341 0.78646446384389
0.291452206229675 0.1599622226621 0.79723608081294
0.290048760651675 0.163350440010561 0.804748501243585
0.291001460953364 0.161050418021347 0.811564179608488
0.289328324023668 0.165089727888727 0.820232407773187
0.291794514280564 0.159135817923135 0.83469567126765
0.292203611455477 0.158148169975132 0.840374558398319
0.289397158557689 0.164923546623134 0.848853409093479
0.284779405248303 0.165166526970865 0.862115400152375
0.285174556902531 0.16706736263206 0.857665378646838
0.2812495245154 0.161905961344922 0.876271392066379
0.282535613769373 0.158628654137251 0.876471038970578
0.274445771772448 0.167647410732763 0.882352399359926
0.275603868200126 0.160957292084177 0.891895763723439
0.272638119384153 0.161605971296758 0.897820437665923
0.266172833675428 0.166062330952512 0.905132179049277
0.261890532080571 0.165215199716875 0.916972713753012
0.264010322043928 0.160024080489208 0.921446217329383
0.260909247068326 0.160980419227829 0.927129032762953
0.25334863961235 0.167628693163606 0.933032599913041
0.25116509893967 0.166480969531437 0.940388558654077
0.247746359913567 0.165166522122586 0.951016843833883
0.246650013770344 0.164609686990523 0.954674443986907
0.246038488214932 0.164634775853423 0.956096255915137
0.24200985291938 0.163550270237546 0.967765093812045
0.235589936251259 0.16870950432951 0.973673197300299
0.240280916598536 0.161875811135852 0.979634084289233
0.236459344692862 0.166856180607463 0.988185207601869
0.236646519761474 0.166612249308885 0.997495967869417
0.16798218710162 0.170749041716008 0.962499999999999
0.152744117611052 0.173872794455954 0.9625
0.146157742454711 0.175596542874024 0.962499999999999
0.128864494341594 0.172619785954435 0.962499999999999
0.111816256564346 0.174316508196264 0.962499999999999
0.104319997762725 0.177455929136265 0.962499999999999
0.0866245574387846 0.171093417496872 0.9625
0.0794379786535014 0.172100983295683 0.9625
0.0572475185879654 0.176360191203864 0.9625
0.0359714771444336 0.174802073696067 0.9625
0.0273132508995216 0.179488346219894 0.962499999999999
0.00799286834886502 0.182184155451997 0.9625
0.00155536754053722 0.179376373552722 0.962499999999999
-0.0216813533487265 0.183851577922781 0.9625
-0.0217421807117351 0.183842522829333 0.962499999999999
-0.0411529626716923 0.185773010658289 0.962499999999999
-0.0557274662822515 0.180346340819692 0.9625
-0.0735257351010977 0.187374335860329 0.9625
-0.0878915650629367 0.18223106099338 0.9625
-0.0985222334551426 0.186770355722044 0.962499999999999
-0.1079543098995 0.188247721355367 0.962499999999999
-0.129105484316655 0.18882688082354 0.962499999999999
-0.158621867782129 0.184345120364022 0.962499999999999
-0.171882124723487 0.187073530127509 0.962499999999999
-0.184972240851301 0.186718899853118 0.962499999999999
-0.206103183429218 0.18945224310771 0.959569987958945
-0.206587154505048 0.188821519721967 0.965962917560855
-0.201673048618048 0.195225707198735 0.981746025369227
-0.201955578384136 0.194857507238985 0.992783889632679
-0.216868846969749 0.191491697641101 0.999999999999999
0.287515086214794 0.16817847114923 0.283473993878697
0.281194028986111 0.176416233312832 0.284953446894432
0.284421025285442 0.172210729857479 0.292085787295668
0.280945413651523 0.176740235124944 0.296708900642035
0.281379922699037 0.176173971909494 0.30388082514793
0.284570715466302 0.172015649815718 0.325586908969844
0.282621706454228 0.174555647812148 0.320677370588847
0.283730215056037 0.173111011276258 0.341108397288342
0.288106607115969 0.167407586102255 0.349177635494334
0.287854027295952 0.167736754532368 0.361897490425016
0.285716544086037 0.170522376885552 0.366807066727803
0.286440363390363 0.1695790772028 0.376421622600022
0.286657505970995 0.169296091482198 0.38527345488327
0.284374514301419 0.172271344151974 0.393596235985696
0.281803579794376 0.175621851233465 0.40381161809763
0.28593583072125 0.170236596978617 0.418630957432695
0.283778137913993 0.17304855699183 0.420867081457572
0.284177572261102 0.172528004015894 0.429838436203956
0.282415667874444 0.174824162517108 0.441116840959217
0.285290004368437 0.171078254268052 0.446207256174037
0.284214042170819 0.172480475504206 0.462948714667915
0.282145679171044 0.175176018645758 0.462831876468215
0.284714437179131 0.171828348032931 0.471114449753187
0.28772807633138 0.167900897025132 0.483052005140744
0.283579928036335 0.173306869133542 0.495703353333812
0.281634696181798 0.175841944642434 0.491525596380333
0.282380625252276 0.174869830951448 0.506045886067544
0.28483622019252 0.171669637319901 0.526392183119835
0.282260894677037 0.175025866875004 0.528876055016952
0.285245730872508 0.171135952611291 0.544682762329531
0.287456383394586 0.168254974153984 0.547427908285413
0.283711993867935 0.173134757590917 0.558594787862583
0.287316762348905 0.168436931843297 0.56928588197045
0.287804534513785 0.167801254781861 0.579286217584563
0.28499088358691 0.171468076060082 0.580045363771818
0.287448489680642 0.168265261442281 0.597197782323335
0.281687151176884 0.175773583961906 0.604175262777344
0.282241654743075 0.175050940845115 0.60429003865773
0.282686507551847 0.174471197377544 0.618257672728779
0.284634403129349 0.171932650437297 0.62941864897508
0.285254649327159 0.171124329854904 0.639185464540152
0.285067648794898 0.171368033693281 0.647585743771297
0.282673524478113 0.17448811724865 0.650430753278097
0.286423953900165 0.169600462466782 0.663703037983741
0.285516814764208 0.170782669205459 0.670465214209439
0.286721654293592 0.169212491760564 0.679295112258317
0.283777308180995 0.173049638320927 0.69488698177952
0.287755036324809 0.167865762077643 0.703264193106216
0.283615703385517 0.173260245790767 0.709729037614472
0.284636059412575 0.171930491926972 0.715733178651771
0.283623178568787 0.173250503942262 0.729005898681197
0.282485956927057 0.17473256004031 0.728317678072197
0.286238178734134 0.169842569376797 0.744547537625218
0.285906014481503 0.170275454258778 0.751730399950743
0.284487184822812 0.172124509069723 0.765744808760791
0.285488528173 0.170819533008832 0.779180369431356
0.286344673617523 0.169703782542687 0.777054146776361
0.280853404230549 0.176860144136899 0.784680828160083
0.286108131118267 0.170012050729473 0.795361275032743
0.287584438991383 0.168088088851104 0.815722098161228
0.281308642519702 0.176266866047786 0.815900430952906
0.285844731229493 0.170355320147727 0.832161468660689
0.28145134319719 0.176080894904161 0.830250440058441
0.282369804372875 0.174883932996038 0.849788096803928
0.280640307782306 0.176201018773723 0.851725696201229
0.278846894118384 0.174047521631923 0.859997795310453
0.276935406713286 0.173462043662447 0.865664982854847
0.275226572134873 0.173994161462865 0.868787022824197
0.271910414765429 0.173694096004811 0.877300515341943
0.270434184488948 0.169857673924 0.887911205292633
0.261593687738972 0.177685792409057 0.894713946782157
0.26201953959123 0.170823473280078 0.906332336344916
0.261064944565498 0.171968544877692 0.906514663368507
0.25350422805089 0.176011868427382 0.917216923527196
0.251919211944881 0.177174195703166 0.918880852092947
0.249486315445979 0.173861154540875 0.930824022278442
0.246173030417404 0.175791757986882 0.935221630926397
0.243514900883906 0.175187586381711 0.942715640156401
0.239036943931855 0.176765487144233 0.950558850858924
0.236500039943804 0.179556224521598 0.951508277270748
0.2371662949449 0.171854424384349 0.964095915945244
0.234051942326994 0.171875587484075 0.97153323960041
0.229078890734666 0.177193754218064 0.973675241659533
0.228849187472331 0.176773930588571 0.980277580199661
0.228542661018701 0.177173403640388 0.99202517954675
0.222914917285221 0.172096922482146 0.999999999999999
0.147667055608884 0.183970781396914 0.962499999999999
0.144905539712299 0.181028727166263 0.962499999999999
0.122318620531009 0.178737174137733 0.962499999999999
0.109706745658732 0.179263282927634 0.962499999999999
0.1026329081309 0.187338519226524 0.962499999999999
0.0903231311150245 0.187357158561491 0.9625
0.0748469034276145 0.18706876909789 0.9625
0.0539146379008342 0.190288828522627 0.9625
0.0539774814419654 0.182720552072092 0.962499999999999
0.0272590635680558 0.186324414003274 0.962499999999999
0.0162369615116989 0.188086976377279 0.962499999999999
0.00869230616774541 0.186271340549953 0.9625
-0.0063254066275747 0.188979983335379 0.9625
-0.0307082733785313 0.192079766151943 0.9625
-0.0405751550734767 0.194956293572282 0.9625
-0.0624316759203145 0.190230781267304 0.9625
-0.0774947181940684 0.196066358160221 0.9625
-0.0778765116145315 0.193802839546647 0.9625
-0.0980395836276284 0.195639429810917 0.962499999999999
-0.110279942687006 0.196803643143263 0.962499999999999
-0.140245313146924 0.196233218199457 0.962499999999999
-0.155088634846274 0.200681776203858 0.962499999999999
-0.171560471093231 0.204731806654901 0.962499999999999
-0.192247292415823 0.203958466662371 0.958978490199626
-0.197757518046091 0.199730321826414 0.964978638055652
-0.195993948001423 0.201083556716879 0.972993059597306
-0.191585202327151 0.204466506255883 0.982693392518171
-0.192377207970905 0.206114064458716 0.999999999999999
0.280545897470989 0.177260894748277 0.275120887733098
0.278880570359385 0.1794311912942 0.275387001711233
0.280570795906619 0.177228446475221 0.289626952117985
0.278326615500999 0.180153119321057 0.288875813190382
0.27459029204452 0.185022390850682 0.303617791429271
0.278237025225599 0.180269875641119 0.320576495585679
0.27838720523974 0.180074157236196 0.317269550140767
0.274733476148545 0.18483578969333 0.336677788120364
0.276460656533964 0.182584884391577 0.334180607810658
0.27341508808442 0.186553946469748 0.346372701713367
0.280189932589292 0.177724797213945 0.360706624065408
0.27997705221488 0.178002228319259 0.37597360768622
0.278223681328242 0.180287265746726 0.374935089894331
0.279845493728434 0.178173678676808 0.388858047069881
0.278512299539699 0.179911131170491 0.399809922022348
0.278709861926711 0.179653662855019 0.407068393742483
0.277507216711134 0.181220980614485 0.407082699387938
0.278042139119114 0.180523856159904 0.429414226633634
0.28062659996302 0.177155721213011 0.440858619836346
0.277033703543947 0.181838074988337 0.443868944063923
0.276078881721662 0.183082423013681 0.45276633901915
0.274252181017995 0.185463025719287 0.461536594875504
0.280811136295401 0.176915228782442 0.471778318025284
0.279859498540356 0.178155427250569 0.480281466118149
0.280055118778067 0.177900489993343 0.496020209100377
0.275831403599428 0.183404942781799 0.493967285595244
0.278167603127014 0.18036034828143 0.511660556389477
0.275288851290333 0.184112010717106 0.508450979293339
0.277995500850785 0.180584636334536 0.518823158631284
0.275169577588408 0.184267451231768 0.527376209142934
0.280250827516781 0.177645437399364 0.537061193436726
0.274359837800813 0.18532272466836 0.543269044126719
0.275677599597101 0.183605384060076 0.555946595522618
0.278554696431476 0.179855878465399 0.569160685870639
0.280126767645612 0.177807115371224 0.579134320520388
0.277806230000674 0.180831298908739 0.580835065014816
0.275957319692633 0.183240845734286 0.587291440450868
0.277372629152107 0.181396378536277 0.601045672365107
0.275991321432057 0.183196533804748 0.614660910726504
0.27539379623277 0.183975243805371 0.617329228280081
0.276088132620335 0.183070367007809 0.627939609511921
0.273996887704935 0.185795730442383 0.638247353784849
0.279824075745248 0.178201591135931 0.651841921833236
0.273558332873252 0.186367266226415 0.656124043455436
0.276608290523449 0.182392484030587 0.668654449250416
0.276351722696125 0.182726849733011 0.669597382151586
0.275798506421005 0.183447815219415 0.684798622116304
0.276337415011883 0.182745495870142 0.697646058973594
0.273714201567392 0.18616413418938 0.698749124593835
0.274830397507531 0.184709479319128 0.706845332658865
0.274496435071434 0.185144707639427 0.714542585488849
0.279918523635963 0.17807850424834 0.733309718344186
0.277697044140235 0.180973592692419 0.738982018073671
0.273804480934964 0.186046479826916 0.745693614847321
0.278517718596246 0.179904068918503 0.761638076087386
0.275303915606314 0.184092378518295 0.772437828708496
0.274324840921896 0.185368333488935 0.77678691383178
0.276646233355435 0.182343035969225 0.784702678937481
0.276690360533904 0.182285528310612 0.800600110648851
0.275521607165127 0.183808677355397 0.804463233573284
0.273982872155398 0.185813995862154 0.806597012489772
0.279946459743313 0.178042097204423 0.829884651227433
0.274469809275666 0.185179407052043 0.826194760139517
0.280905335321446 0.176792466221601 0.845209414205763
0.278322838098379 0.177515131576319 0.854868355468454
0.273423084125654 0.184275603395027 0.8541776111422
0.266633947102764 0.186567594495864 0.866253649596181
0.267564290376274 0.183668022338671 0.869361407131521
0.267852823265984 0.179633733479767 0.876100090256651
0.262698781364978 0.181238100927176 0.885517555996235
0.262020322522287 0.17986963626299 0.889667033633497
0.254685392434461 0.186038016630628 0.895912824960246
0.255270072085431 0.180402640905618 0.904889850130815
0.24986250445786 0.184370670698533 0.910561960883913
0.252179197860444 0.178712363009359 0.915423359902215
0.24379042701457 0.185071232520035 0.923848109446395
0.243200093927349 0.180596179759682 0.933508502165025
0.24061502302239 0.182449084512916 0.936301086184264
0.234417416261934 0.184901636489698 0.946661338516518
0.232092103713101 0.184557721186603 0.952876984779572
0.229196847063103 0.184286638162176 0.960326677201787
0.228386442459341 0.182723563850568 0.965151382880588
0.221730420066594 0.1893811123278 0.968866321314815
0.225314230807981 0.181380775805445 0.982741554076709
0.220771796632697 0.187300591277136 0.98599936271855
0.218736823403753 0.189952620022148 0.992737645669279
0.157408378483692 0.188006089217209 0.962499999999999
0.146300845685136 0.186817104904407 0.962499999999999
0.128343610474586 0.190048806311051 0.962499999999999
0.12300030468131 0.194549821234685 0.962499999999999
0.111107425716617 0.191372949620384 0.962499999999999
0.086925257062831 0.197278910903259 0.962499999999999
0.0697798265858153 0.197421776031757 0.9625
0.066392432922642 0.192007722350345 0.9625
0.0544101826221449 0.198216675467752 0.9625
0.0272386871714601 0.19718912495439 0.9625
0.016062507115883 0.202893982359103 0.962499999999999
0.00821972515817447 0.19828452325509 0.9625
-0.00966592705410074 0.200709882465273 0.9625
-0.0331041406712126 0.201178855919462 0.9625
-0.0448051756179422 0.20302445930797 0.9625
-0.0551056290341696 0.205186379304381 0.9625
-0.0706249542945361 0.203598079776759 0.9625
-0.0911141927755982 0.20256245201798 0.962499999999999
-0.110200640591182 0.21027191399567 0.962499999999999
-0.118304437759243 0.20568479761478 0.962499999999999
-0.132393191500373 0.20417490079032 0.962499999999999
-0.150902552008244 0.214794644857821 0.962499999999999
-0.156824503390285 0.205585799154128 0.962499999999999
-0.180282352339608 0.213139488092402 0.962460320378208
-0.182689012412142 0.211292792867855 0.974567113883124
-0.187902046835774 0.20729269086534 0.978002952949447
-0.183119995194272 0.216267162094623 0.999999999999999
-0.193339456700321 0.214301407774902 0.999999999999999
0.272450485087376 0.187811041570214 0.266645771770747
0.271422574001822 0.189150641377934 0.267889119068472
0.271362763698808 0.189228587682377 0.28291983439534
0.267238382691493 0.194603585658375 0.285515350632904
0.268344688253991 0.193161820179212 0.290851645471574
0.272968419054423 0.187136056882902 0.310684491304112
0.272093209177115 0.188276652601571 0.324618315342917
0.267777220839425 0.193901358112136 0.315467639389661
0.266410236863545 0.19568284631377 0.332595278161211
0.26856658059279 0.192872644453251 0.338845973373962
0.266774326194655 0.195208355859487 0.34629189227963
0.269606272900052 0.19151769105848 0.362927488661635
0.272130739183421 0.188227742545111 0.368170811532742
0.268235628860979 0.193303949147333 0.378064968175792
0.270842627670668 0.18990644215158 0.385756213630754
0.268883653572434 0.192459426901136 0.392999514599527
0.273267877454227 0.186745795098168 0.410511893987382
0.267088712260229 0.194798639961963 0.414571032767729
0.26676137397183 0.195225235524907 0.420947898166282
0.266404931304046 0.195689760653526 0.428996217052411
0.267671847350748 0.194038683516204 0.44066802905768
0.267677666500112 0.194031099853105 0.450676075761747
0.273063261183945 0.187012456213295 0.459523038365644
0.267567135261374 0.19417514696792 0.466028634270777
0.268844594856127 0.192510329211259 0.478071363946935
0.271822316317423 0.188629687049644 0.490174577072306
0.268272189194314 0.193256302793291 0.4968340050607
0.273309105189284 0.186692066067777 0.514544735200348
0.2693849411539 0.19180613620588 0.521557223147935
0.268865915568273 0.192482543518222 0.525077168178057
0.271478372018329 0.189077923987066 0.542310073836791
0.26871820180025 0.192675047848628 0.5396405292864
0.269273880832078 0.191950872835195 0.554725871377747
0.2698929494443 0.191144086912217 0.563752661284454
0.267985187552735 0.193630330614643 0.57119520590481
0.271759949065753 0.188710965634455 0.583583891096698
0.267574678797809 0.194165316039838 0.581929987000613
0.269215332355425 0.192027174695509 0.601308223772224
0.27199465614653 0.188405089411601 0.606118301545626
0.270731550264918 0.190051201045103 0.624949883525018
0.266888393162123 0.19505970089328 0.62236156721361
0.268892065005842 0.192448464907698 0.630799628321396
0.268667438368548 0.192741204040835 0.643454380058942
0.272630205849251 0.187576824913312 0.647892962010516
0.268646537513965 0.192768442564841 0.65788495152223
0.269336457178336 0.191869321753011 0.674464724051395
0.268901037478119 0.192436771754169 0.676281412316908
0.267210863742439 0.194639449051016 0.689919066041035
0.271588431486024 0.188934491696245 0.69694127511534
0.267507832071147 0.194252432390114 0.704465081270176
0.266954375159427 0.194973711480242 0.72086425470785
0.272949719641285 0.187160426432561 0.727959950027031
0.268251712169897 0.193282988971071 0.72680898521471
0.271580794542778 0.188944444354455 0.742527685137078
0.272415123177231 0.187857126108747 0.752210786145977
0.272604460008866 0.187610377545747 0.765977458351276
0.266634635464426 0.195390404363473 0.770350431676293
0.273318035428784 0.186680427953075 0.781760077439239
0.267361179085195 0.19444355428241 0.786782591224202
0.268242944295891 0.193294415486942 0.79886014380441
0.272886293753852 0.187243084658359 0.810765701673231
0.267360214823207 0.194444810933098 0.809069855176757
0.26921879521243 0.192022661812398 0.821762285187836
0.272937570190721 0.187176259904802 0.839276839371035
0.266715123363081 0.195285510491738 0.839780317564002
0.269346306506152 0.191856485859096 0.849189681809377
0.264061106733111 0.192669958211492 0.861189185943901
0.264488255080744 0.187632192168561 0.869443557497547
0.260493398510289 0.191575690978981 0.871769504798233
0.255537171987829 0.196209386494679 0.875131942205692
0.253818763886305 0.192894185786208 0.885363891333092
0.250923803780809 0.193721367148824 0.89078982140105
0.248179519666343 0.192155542030647 0.900262060435406
0.244879455523877 0.189971513558271 0.912207260894572
0.244224773119091 0.189687881198755 0.914301352881291
0.237047853932137 0.193693270822427 0.92415214607946
0.240160093009189 0.189138433329192 0.925071120373095
0.230229180150063 0.195352666598025 0.93746435833388
0.231740315321233 0.19242756195801 0.939224900248948
0.2311851948929 0.189326089303035 0.946270567624731
0.226002765107184 0.19142947004979 0.954836977182563
0.217948206068879 0.198455911504762 0.961229722333442
0.21732661090211 0.198234635620168 0.963129521858467
