ply
format ascii 1.0
element vertex 865
property float x
property float y
property float z
end_header
-0.0351605929987403 -0.255787686781728 0.636030648485113
-0.0297235741593497 -0.256503483891364 0.642456730652866
-0.0281075678687785 -0.256716235155635 0.648760522668044
-0.0341027215991337 -0.255926958193613 0.663875421778032
-0.0389646475253213 -0.255286873502346 0.671225556560906
-0.0371672008167423 -0.25552351185081 0.677879449439875
-0.0258453279188437 -0.257014064695186 0.680118206937334
-0.0362654364726443 -0.255642231378946 0.699846019792985
-0.0273697053010411 -0.256813376605554 0.7069356335764
-0.0304168222731087 -0.25641221604574 0.709595792605201
-0.0300578650802791 -0.256459473656704 0.727102460471284
-0.0341230353376332 -0.255924283839204 0.734406949257832
-0.0361887201584958 -0.25565233127331 0.745903807121667
-0.028256171647336 -0.256696671097037 0.752813618432464
-0.0319149402494984 -0.256214985072468 0.767871612022892
-0.0303223569862131 -0.256424652636695 0.763872340215637
-0.0282737757880425 -0.256694353467945 0.776605232810119
-0.0316098558797576 -0.256255150191719 0.78542079153865
-0.0279859148367964 -0.256732251081134 0.794331878434925
-0.0275583054188949 -0.256788546928993 0.803756750178301
-0.0313850866822897 -0.256284741617946 0.820038761316849
-0.0303789292531066 -0.256417204756464 0.829183678348502
-0.0380627071465755 -0.255405616205882 0.843458767184741
-0.0381575990741463 -0.255393123446616 0.846641326883015
-0.0316239963846338 -0.256253288558935 0.855859664570591
-0.0356009592764319 -0.255729711461417 0.867647068200186
-0.031912492517587 -0.256215307322487 0.878609191709494
-0.0274608004835215 -0.256801383697262 0.876901481835403
-0.0359765871327598 -0.255680259115968 0.90012381359499
-0.0377830889052868 -0.255442428645719 0.902312494787263
-0.0274330824020533 -0.256805032851915 0.910648061067932
-0.0353445565211388 -0.25576346752454 0.926446166693523
-0.0292934663978854 -0.256560108652393 0.929368562921649
-0.0330551033051887 -0.255206192027799 0.940385190775255
-0.024419016852009 -0.254887401959798 0.9452765189029
-0.0211101204784275 -0.253599028481525 0.951069152015282
-0.0246771360429455 -0.250141472931851 0.961108660795299
-0.0176761808296397 -0.250396603612958 0.963348310990924
-0.0275039197539059 -0.244411213539366 0.979111897818139
-0.0160597292193316 -0.244930814827361 0.982428402546731
-0.027703817862186 -0.248457016007921 1.0
-0.00885922139265792 -0.24086092740178 1.0
0.0092333006554878 -0.226800810249902 0.989349028690013
0.01212847010392 -0.21546255633007 0.984375
0.0325052354156539 -0.20060381855538 0.984375
0.0399775919040219 -0.187804503061018 0.984375
0.0514703495532901 -0.178189108579512 0.984375
0.0577246600567608 -0.178222411531161 0.984375
0.0703286697996291 -0.165230388469962 0.984375
0.0808478291066065 -0.154357678825591 0.984375
0.102859064926598 -0.139316570389516 0.984375
0.107749711820897 -0.137207865627122 0.984375
0.11429661905401 -0.123713081701917 0.984375
0.131283296544051 -0.114938200301637 0.984375
0.133102043953241 -0.103580611480033 0.984375000000001
0.1567239255626 -0.0872594933319574 0.984375000000001
0.159620244133125 -0.0781609167647491 0.984375
0.178411038281798 -0.0646309880324822 0.984375
0.184132459369103 -0.0571399681909687 0.984375
0.1951909547134 -0.0537278840599907 0.984375
0.210575390610034 -0.0351730947643714 0.984375
0.217501305449576 -0.0290702645679337 0.984375
0.224635825940952 -0.0261805964402979 0.989413655599955
0.231262539731719 -0.0211917243969197 0.995244396279092
0.235727864805166 -0.0236354608441972 0.999919845695814
0.246603531533555 -0.00387843283551883 1.0
-0.0487796937629396 -0.253994698151227 0.207496114357936
-0.0494854855364759 -0.253901778901465 0.212901230252712
-0.0433811730863652 -0.254705426881576 0.215208643555595
-0.0466013420049656 -0.254281483600789 0.224566059068089
-0.0397977295180404 -0.255177196177309 0.242386894961806
-0.0431935419820327 -0.254730128985086 0.245546742452779
-0.0458511478617031 -0.254380248533424 0.255827875313424
-0.0443727669397121 -0.25457488107419 0.267405190659207
-0.045038574638899 -0.254487225827679 0.269228145300246
-0.0450571101594016 -0.254484785580111 0.285297211034474
-0.04552881461813 -0.254422684509996 0.293626279874533
-0.0423055408026136 -0.254847036558217 0.298796695421872
-0.0429762699937793 -0.254758733384996 0.319333143375679
-0.0455120804951955 -0.254424887599076 0.332445134189024
-0.0488485702842707 -0.253985630385169 0.335320233271686
-0.0443948220659594 -0.254571977461735 0.339822624173241
-0.0491237541034217 -0.253949401748082 0.356820500265848
-0.0503562629660365 -0.25378713887802 0.365519681162534
-0.0448220609579523 -0.254515730394538 0.369557275455561
-0.0471773901300084 -0.254205645426396 0.383885806554555
-0.0438055260687737 -0.254649559751583 0.387609700560537
-0.044315205269076 -0.254582459211895 0.399946005490741
-0.0436430624827824 -0.254670948488446 0.404509583085049
-0.0425156169418284 -0.254819379509806 0.408785675501336
-0.0486820058200237 -0.254007559012896 0.424476618594443
-0.046462000056455 -0.254299828316328 0.433726612464003
-0.0507294424390708 -0.253738008868347 0.443865806485326
-0.0441998572868649 -0.254597645061845 0.459830309048232
-0.0473461100366459 -0.254183433029295 0.46295753991966
-0.0502842267222736 -0.253796622629428 0.472136292604675
-0.0493874917733757 -0.253914680025125 0.481652122770453
-0.0478058365838257 -0.254122908881151 0.488302199143777
-0.0377026960394678 -0.255453012567292 0.491700921053995
-0.0463845903109984 -0.254310019502656 0.509334891607522
-0.0492893824707594 -0.253927596359851 0.523513957756724
-0.0460799336039779 -0.254350128319042 0.526893063979145
-0.0481930482516704 -0.254071931497984 0.532829719791337
-0.0512324838066921 -0.25367178221591 0.549827713021473
-0.0368146955546683 -0.255569920048975 0.551373642131506
-0.0416270625111752 -0.254936359919844 0.564995354550309
-0.0429115670418626 -0.254767251690217 0.567869833628256
-0.04251506589582 -0.25481945205639 0.580814094221704
-0.0437336598808406 -0.254659021114717 0.591979724690354
-0.0472304376735885 -0.254198661584793 0.603738333106752
-0.043770483101311 -0.254654173245772 0.613825966968178
-0.0372786864793303 -0.255508834484885 0.618111365781472
-0.0468889053773657 -0.254243625164597 0.625692531429245
-0.0467082160075248 -0.254267413371425 0.64032272019313
-0.0422110215862777 -0.254859480249118 0.649974712140632
-0.0447164113799518 -0.254529639425351 0.659498081026939
-0.0431306978596957 -0.25473840257075 0.665759420912117
-0.0389543902437023 -0.255288223899089 0.670504356987756
-0.0425835746171161 -0.254810432712124 0.68290595826248
-0.0495941709504984 -0.253887470195257 0.702993133976228
-0.045816587041739 -0.254384798551692 0.711571838751893
-0.0500897643374118 -0.253822224088083 0.711357799417126
-0.0516584944408045 -0.25361569685193 0.728507710596048
-0.0436967785860818 -0.254663876629285 0.737997040525576
-0.0464128980577342 -0.254306292717097 0.742405379011536
-0.0375246291871223 -0.255476455513141 0.748048766840223
-0.0461153839035431 -0.254345461198563 0.755229555590042
-0.0430020251069153 -0.254755342660026 0.769390429903523
-0.0397559202224549 -0.255182700475496 0.776409759580093
-0.0389384641325896 -0.255290320611394 0.788430047833699
-0.0413377223117254 -0.254974452279754 0.794517918579667
-0.0499830193953889 -0.253836277326305 0.810862469858673
-0.0417235799448876 -0.254923653158635 0.820490034663049
-0.0380814944510574 -0.255403142810325 0.823200391935525
-0.0401507611437302 -0.25513071868206 0.831772339637292
-0.0439295892148464 -0.254633226528544 0.842895978694932
-0.0418458795337802 -0.254907552112303 0.851603707379677
-0.0422100532073558 -0.254859607738621 0.862915592510416
-0.0491007170722084 -0.253952434630779 0.869250644119377
-0.048368552172923 -0.254048825968415 0.887120631117027
-0.0437103832161816 -0.254662085545754 0.892804705008283
-0.0388050300587921 -0.255307887540472 0.900488349154462
-0.0412149769544854 -0.254990612012602 0.909116970089185
-0.0403799033699864 -0.25510055153567 0.922585497790217
-0.0475531504826237 -0.25415617563748 0.925429274056986
-0.0480195886022925 -0.253679117069177 0.938896586771592
-0.0476221473457203 -0.252790029936658 0.942059728627337
-0.0378704934962514 -0.250441502632202 0.954264447775539
-0.0442791426121548 -0.24858764634136 0.957658523647544
-0.0358622712373891 -0.24744095096324 0.965234643302917
-0.0309609494774567 -0.246692620732644 0.969917144281668
-0.0361495405588337 -0.241720954572152 0.984326756905512
-0.0346946469310107 -0.247711008911953 0.99231210484582
-0.0317410225857608 -0.243581511529561 1.0
-0.0259670216368329 -0.238332259162277 1.0
-0.00209553877361571 -0.213656359734449 0.984375
0.0203202381130456 -0.198080762005714 0.984375
0.0324648479491015 -0.193008953421852 0.984375
0.032549646685547 -0.187603191304228 0.984375
0.0420753053494617 -0.170627650644812 0.984375
0.0562409401418244 -0.165689590338149 0.984375
0.0585758533374971 -0.160928935770092 0.984375
0.0710528905677176 -0.155407431054107 0.984375
0.0778686830264033 -0.135918342431718 0.984375
0.104951624059171 -0.125891294989537 0.984375
0.106927782383836 -0.11184150124047 0.984375
0.124759744672283 -0.105909528377244 0.984375
0.137493598673027 -0.0896290234057637 0.984375000000001
0.141087015286543 -0.0937687256537007 0.984375
0.152457480208463 -0.0766847171981085 0.984375000000001
0.169862375803016 -0.0673486049816755 0.984375
0.166771301507297 -0.0631830366028297 0.984375
0.183723579009057 -0.0498252394207122 0.984375
0.200859741776668 -0.0364395694121807 0.984375
0.219658361698368 -0.0242923528319733 0.984375
0.218109983696247 -0.011112971020253 0.984375
0.232546827916613 -0.0142685908744031 0.995608544680398
0.235194126307076 -0.00364066341001987 0.996827553011216
0.246214602652232 0.00378587792409072 1.0
-0.0545193153625683 -0.25323906263243 0.207010751238711
-0.0574940857956614 -0.252847426675164 0.217153964752812
-0.0624153589833109 -0.2521995287687 0.226305546001559
-0.0577022745140373 -0.25282001811042 0.241311711649049
-0.0535961948737243 -0.25336059375036 0.249612125220251
-0.0570362092069763 -0.252907707271651 0.252538937978696
-0.0566908005392798 -0.252953181185442 0.265087937002923
-0.0524425268446166 -0.253512477027779 0.275590781841311
-0.0558293581024878 -0.253066592233773 0.288106213010021
-0.0586367267943546 -0.25269699513384 0.294762381493415
-0.0571584699353858 -0.252891611341399 0.294361233452609
-0.0537759487109513 -0.253336928708739 0.306036434291052
-0.0575806761096983 -0.252836026844055 0.31476718460055
-0.0613556106233345 -0.252339047287105 0.332443268647223
-0.0529789659893425 -0.253441853474572 0.339796694029494
-0.051165024231251 -0.253680663437503 0.346686109117475
-0.062691567979923 -0.25216316516444 0.359660289417649
-0.0573997073536469 -0.252859851832774 0.368143131131866
-0.0601512734961954 -0.25249760127783 0.376200799523964
-0.0495371142015221 -0.253894981858764 0.385699008763551
-0.058133871394055 -0.252763197303215 0.391861938821427
-0.0511943992976902 -0.253676796136639 0.405002092782202
-0.0536034711458367 -0.253359635810963 0.417124234941448
-0.060939665343882 -0.252393807522005 0.428641659387288
-0.0513575640252858 -0.253655315092733 0.428087246105663
-0.0567543290980125 -0.252944817492017 0.447417668502802
-0.0554455695746802 -0.253117118952004 0.450316311595775
-0.0518233560301972 -0.25359399241193 0.459293645609773
-0.063588545800538 -0.252045075794075 0.475843541020401
-0.0492001909822107 -0.253939338642082 0.476254736289368
-0.0573372656654654 -0.252868072436976 0.489206422233915
-0.054645316721691 -0.253222474238802 0.495844612807242
-0.0533193391313335 -0.253397042500317 0.509260601615355
-0.0535840646516323 -0.253362190724395 0.513610765408765
-0.0562427352355424 -0.253012170101761 0.521944459083676
-0.0509192230059164 -0.253713023782728 0.528788508979141
-0.0583774959627203 -0.252731123520276 0.543386706338473
-0.0580887803101806 -0.252769133657026 0.555867304568341
-0.0622999044731265 -0.252214728643324 0.56350602488504
-0.0508654261905458 -0.253720106267833 0.566354040696172
-0.0514286460959113 -0.253645956960602 0.575949070438662
-0.0582389628874495 -0.252749361745635 0.591408234622535
-0.0592044555531594 -0.252622252224791 0.599357887093702
-0.0562912640365167 -0.253005781163908 0.610624361533937
-0.0551235669791956 -0.25315951139793 0.616395064075604
-0.0635991391406345 -0.252043681154394 0.627353748376644
-0.0565202305745235 -0.252975637147315 0.634616307267803
-0.0615254542195923 -0.252316686953458 0.647077535729423
-0.0545215036283061 -0.25323877454178 0.654211620839321
-0.0598412832522812 -0.252538412267669 0.65906465354377
-0.0554895936044672 -0.253111323078529 0.675719944359854
-0.0541002020233351 -0.253294239950312 0.689226658434112
-0.0619663924944156 -0.252258636328296 0.696210673502515
-0.0564642172293754 -0.252983011444102 0.704599130597308
-0.0572033429569127 -0.252885703696041 0.707327281942131
-0.0558099734947915 -0.253069144265792 0.722648038872183
-0.0603814980412297 -0.252467291641471 0.7297859418608
-0.057379007907825 -0.252862576966514 0.730979109554995
-0.0501423320541783 -0.253815303416878 0.74489807418708
-0.0530737473363077 -0.25342937527352 0.75882277665094
-0.0516536919376206 -0.253616329113469 0.764752432795183
-0.0564824263049448 -0.252980614173825 0.776767242672606
-0.059649039889446 -0.252563721586531 0.785713484667594
-0.0563852810308976 -0.252993403591782 0.794650187287525
-0.0572704813102468 -0.25287686476414 0.809818156941213
-0.0563562756212643 -0.252997222226404 0.806166470945753
-0.0513981132166604 -0.253649976690414 0.817073508937839
-0.0636962221400954 -0.252030899935042 0.83651225058563
-0.0536809830624545 -0.253349431173548 0.835386694788549
-0.0561761381868926 -0.253020937769547 0.856289210912847
-0.0568751262966674 -0.252928914239112 0.864745205277991
-0.052020778517528 -0.253568001248394 0.863645298830775
-0.0499969369355841 -0.253834445047378 0.870149632552924
-0.0577212138079374 -0.252817524705076 0.887709028653942
-0.0572833005362005 -0.252875177081026 0.893410660406245
-0.0496465473260562 -0.253880574714601 0.902290705158597
-0.049553524723253 -0.253892821372591 0.911017424820674
-0.0571999330545884 -0.252886152618198 0.930895153051664
-0.0547175360278921 -0.253212966386766 0.933415996148498
-0.0503056160349662 -0.252214135176348 0.942807696228722
-0.0520713170872932 -0.248728844692875 0.953737210169324
-0.0478528906632288 -0.250167714361132 0.950768639102692
-0.0528303450987916 -0.244211624598528 0.96857931182993
-0.0403828555867478 -0.24558580053045 0.969468257457394
-0.0418190707677724 -0.242111572721316 0.980506349675485
-0.0399290501522466 -0.242133338735492 0.981269271007861
-0.0517800859753203 -0.245461668189393 0.997830047683358
-0.0184378213164407 -0.218806593958934 0.984375
-0.0113882199434124 -0.206185562804845 0.984375
-0.00651484383836835 -0.200676890139819 0.984375
-0.00144584122024631 -0.200801834584778 0.984375
0.00870198114979202 -0.191616187375606 0.984375
0.0246291322930008 -0.175105497283668 0.984375
0.0360383528373299 -0.176086188399993 0.984375
0.0513679467443461 -0.158794123092766 0.984375
0.0618965594747856 -0.149045648866852 0.984375
0.0740875678676774 -0.141618438345249 0.984375
0.0815985899795906 -0.134649253499044 0.984375
0.0873292076691569 -0.120145195556783 0.984375
0.0944317267143145 -0.115954057589474 0.984375
0.118848358635759 -0.0967417916614769 0.984375
0.124256923871232 -0.0985420147125673 0.984375
0.140903714565873 -0.0780697624083384 0.984375
0.138945134583916 -0.071314787234832 0.984375000000001
0.165518102323572 -0.0548830234324244 0.984375000000001
0.165164871421695 -0.0518387426076778 0.984375
0.183063827130476 -0.0364913465003194 0.984375
0.196495607790194 -0.0267569691429638 0.984375
0.212524215547129 -0.00780562159639738 0.984375
0.218196879043585 -0.00709658908081601 0.984375
0.223011151715322 0.00379610743463478 0.984948585546684
0.230818541247629 0.00698128646644073 0.992983523578423
0.233564345998165 0.0080852709642614 0.995807269824081
0.244608083067439 0.0178138395606288 1.0
-0.0676941352116948 -0.251421677605059 0.211405622969688
-0.0699877858635408 -0.250471616397718 0.221074553707318
-0.0696415854241947 -0.250615017314995 0.228920017464504
-0.0669327758513479 -0.25160479955538 0.247104930270251
-0.0720316876841585 -0.249625004543459 0.253528483394338
-0.0687603172842016 -0.250980050530667 0.25799613086347
-0.0676781172924142 -0.251428312444466 0.268753601151097
-0.0648610257759024 -0.251877550627188 0.27430801438653
-0.0684700543188186 -0.251100281387584 0.289406325524153
-0.0664688173093628 -0.251665880856209 0.306727627023058
-0.0700907969489864 -0.250428947809052 0.31538142584046
-0.0630433361380181 -0.252116854007855 0.315485457262076
-0.0673619098636826 -0.251548302990856 0.322313107529222
-0.0673230724036751 -0.251553416039466 0.337113465921635
-0.0675968484830965 -0.251461975087483 0.353052865560587
-0.0697254975959016 -0.250580259755426 0.357032017598207
-0.0641649613586307 -0.251969189246204 0.360384306828917
-0.0700944108558 -0.250427450879837 0.370826831401014
-0.0694691357748507 -0.250686448298579 0.390392072857082
-0.0645824344392459 -0.251914227872466 0.385411451560808
-0.0625864545029415 -0.252177003616215 0.399043717459541
-0.0683369200171456 -0.251155427420954 0.406375304637764
-0.0680742809646641 -0.2512642160785 0.414728145249338
-0.0692806249071605 -0.250764532056632 0.427811852636314
-0.06281147554033 -0.252147379034633 0.43735993868091
-0.0730451168009361 -0.249205228458786 0.447243195545259
-0.0676193605206008 -0.251452650296232 0.458880713382184
-0.0700497613924248 -0.250445945293119 0.465119758205851
-0.0685892778796034 -0.251050897371752 0.47250842605625
-0.0657101482625305 -0.251765761531067 0.48766238580908
-0.0685308481786204 -0.251075099746345 0.487347871931147
-0.073914474839012 -0.248845128568857 0.505380815366596
-0.0725576465396245 -0.249407145252275 0.509577027528019
-0.0687274719914655 -0.250993655496379 0.5270217429654
-0.0665909653624053 -0.25164979975995 0.535100912717425
-0.0672802474908948 -0.251559054046192 0.539065084449404
-0.0688654814050747 -0.250936490125526 0.550446934195677
-0.0665470511651421 -0.2516555811737 0.556499540363546
-0.0671714467225606 -0.251573377939083 0.565442841116812
-0.0709508879215607 -0.250072686463337 0.579145004802121
-0.0672870453338047 -0.251558159093195 0.588522080841381
-0.0615176948652851 -0.252317708491832 0.59059892820616
-0.064524625751325 -0.251921838530613 0.599191617170154
-0.0654964793302473 -0.251793891579658 0.613586419363312
-0.071920605547185 -0.249671016271131 0.626264701391777
-0.0605342535994904 -0.252447180990705 0.625550055331713
-0.0647883313672045 -0.251887121027654 0.639476459251069
-0.0657853974246863 -0.251755854790927 0.649757158035527
-0.0653495559939033 -0.251813234403842 0.662069129073763
-0.0708242659452577 -0.250125135003216 0.677188979951084
-0.0718099255890651 -0.249716861410867 0.685312868254538
-0.0676111481974237 -0.25145605195187 0.686759919481492
-0.0693778256407252 -0.250724270194517 0.697448801785826
-0.070201735142874 -0.250382995704559 0.702238589444895
-0.0693387623668366 -0.250740450732352 0.714594134512196
-0.0606035016117105 -0.252438064316943 0.719176170146289
-0.0622859591297002 -0.252216564582615 0.735163176594439
-0.0642166178153579 -0.251962388544659 0.743555359562189
-0.0667692806269753 -0.251626324110012 0.755741077065939
-0.0704974412349639 -0.250260510230738 0.762272258658864
-0.0691027222477015 -0.250838221750962 0.771010631686967
-0.0666532246561503 -0.251641603168431 0.776732371610453
-0.0653375785158956 -0.251814811268736 0.785499719348759
-0.0691259026268506 -0.250828620123538 0.804107400407072
-0.0656186295447392 -0.25177781019884 0.803130785491555
-0.0716136955483938 -0.249798142555059 0.824342340330147
-0.0630522458708646 -0.252115681019273 0.82067294591704
-0.0685037292703544 -0.251086332765945 0.840264975134827
-0.072945121009523 -0.24924664807177 0.848122944404874
-0.0713098995529981 -0.249923978976546 0.853978428783709
-0.0660542109700198 -0.251720464816299 0.858050857408684
-0.0682524394204655 -0.251190420429856 0.875805585906317
-0.0634821550019085 -0.252059082408436 0.876410874856757
-0.0637035049301987 -0.252029941137535 0.890041408657593
-0.0676421913361106 -0.251443193462808 0.897261303919268
-0.0626401656707206 -0.252169932406829 0.904985424724443
-0.0695861272100434 -0.250637988859442 0.922101250077403
-0.0643681646667619 -0.251942437023171 0.928899507280728
-0.0636625951643637 -0.252035327010383 0.937310297552412
-0.0657037101247008 -0.251002469112765 0.94006751045116
-0.0602256953278693 -0.249134553847164 0.948766918691791
-0.0637961971685232 -0.246447387889872 0.956216376278815
-0.0569076473273334 -0.244554100131878 0.965624989644603
-0.0543916106695574 -0.243120308478535 0.971555504433494
-0.0506068500323489 -0.241689089925162 0.978038596693442
-0.0547824641701838 -0.239841606380886 0.982399048500715
-0.0603963114730291 -0.240345220190328 1.0
-0.0533226940948384 -0.232191556830186 1.0
-0.0223482390834217 -0.207019677588665 0.984375
-0.00448314250943135 -0.192029823460104 0.984375
0.00775347906725694 -0.181691685334515 0.984375
0.0162013768180217 -0.177633345553099 0.984375
0.0185368012672562 -0.175188895734139 0.984375
0.0345427882699789 -0.1537009309622 0.984375
0.0472207643401111 -0.146416342939572 0.984375
0.0462128378319878 -0.141285117999835 0.984375
0.0655034062757517 -0.130163924235584 0.984375
0.0757757900808624 -0.118062139966442 0.984375
0.085702309992273 -0.11532102351179 0.984375
0.0947348542154797 -0.103937312857306 0.984375
0.111971324431053 -0.0884246114874786 0.984375
0.121765630644164 -0.0818419579354114 0.984375
0.119099695404201 -0.0771367763287909 0.984375
0.148686306095765 -0.054083458958435 0.984375
0.146835641708183 -0.0567552205465739 0.984375
0.162713862156854 -0.0420130018298393 0.984375
0.16549297768482 -0.0362835155939417 0.984375000000001
0.183057957004922 -0.027150059398263 0.984375
0.198399064729234 -0.00731085566670719 0.984375
0.210226688462102 -0.00562805752951991 0.984375
0.211787691734029 0.00649915549293237 0.984375
0.228277630333506 0.0180929404147469 0.991930621680881
0.233084582357075 0.0198301142784777 0.996848881604219
0.233981692782799 0.024359952822955 0.998307539458947
-0.0743710766365327 -0.24865599791172 0.223857332465659
-0.0810785017644605 -0.24587769145513 0.225562049973181
-0.0766085744888428 -0.247729195955513 0.244193730392394
-0.079786228713418 -0.246412968479162 0.254957678131878
-0.0765759256697474 -0.247742719539178 0.257951239081586
-0.0768249003291683 -0.247639590858558 0.265953543919799
-0.077703935751728 -0.247275482464727 0.270167325072293
-0.0832010422792175 -0.244998506387232 0.291328615788379
-0.0789354418671945 -0.246765375929556 0.297974956161448
-0.0808764494990398 -0.245961384243776 0.301647065669956
-0.080708996475483 -0.246030745557194 0.315757460764851
-0.0798879602970709 -0.246370829877491 0.323846964572003
-0.0805662939785374 -0.246089854866812 0.326993579301116
-0.0817410186627589 -0.245603267970554 0.344625610675498
-0.0733363699548834 -0.249084587452337 0.343738169544424
-0.0781441529952255 -0.24709313851208 0.362132546730805
-0.0814364394428778 -0.245729428814246 0.370977475283402
-0.0761659352716358 -0.247912543122518 0.373340055959339
-0.0761164212054818 -0.247933052520248 0.381252571351523
-0.0742392991398551 -0.24871058193806 0.391581016673869
-0.0761066485403221 -0.247937100490697 0.403648242160616
-0.0786247792432958 -0.246894056601697 0.411145531821487
-0.0742537097463703 -0.248704612869399 0.422068958495064
-0.0774046065123901 -0.247399468695276 0.430928989067701
-0.0766631605732952 -0.247706585659016 0.443760784483746
-0.0766108081339746 -0.247728270749405 0.455175819875606
-0.0750085862455637 -0.248391932785517 0.458094443030532
-0.0729720942431139 -0.249235475392596 0.467066773152884
-0.077780675991071 -0.247243695616812 0.478596840445704
-0.0724256049796742 -0.249461838657203 0.482535418760927
-0.074016855006441 -0.24880272131499 0.493177009762339
-0.0781817602865792 -0.247077561061957 0.506274096200483
-0.0806221040181783 -0.246066737591477 0.516268807457566
-0.0801385532610051 -0.246267030873194 0.531661885122953
-0.0796116041220861 -0.246485300353215 0.538196398923897
-0.0799372005036535 -0.24635043391611 0.539787915574471
-0.080685010066292 -0.246040681053193 0.553633084437736
-0.0766026907732556 -0.247731633070306 0.555425696517187
-0.0733844579253244 -0.249064668762794 0.569461884458188
-0.0752287657445202 -0.248300731450892 0.573395174723789
-0.0763177683533614 -0.24784965180085 0.593707532033643
-0.0813909762115005 -0.245748260301271 0.604562234290156
-0.0768023590276166 -0.247648927771374 0.606338804800529
-0.0816621592698376 -0.245635932600622 0.613911153406927
-0.0714269583089109 -0.249875491652252 0.626448933949657
-0.0730337775406834 -0.24920992533417 0.632962242786719
-0.0716263984975786 -0.249792880821224 0.644630212141771
-0.0746072010598303 -0.248558191973183 0.660195443595662
-0.0742982303580268 -0.248686171828246 0.665899541273361
-0.0828030911210005 -0.245163343154127 0.673958047235349
-0.0794976735967215 -0.246532491921989 0.688644332854848
-0.0787133101401837 -0.246857385903517 0.697653757222861
-0.0764263508433759 -0.24780467546085 0.699572279640286
-0.0729433453146213 -0.249247383588681 0.710319144598452
-0.0811658907472891 -0.24584149375324 0.721372410310684
-0.0794799885217659 -0.246539817319887 0.726994197097578
-0.0785304817827149 -0.246933115888767 0.735461832283112
-0.0728170958195218 -0.249299677841794 0.743532283447224
-0.0795536139696631 -0.246509320660833 0.756558830834692
-0.0779709744600241 -0.247164871410073 0.766617265141255
-0.0768558878211074 -0.247626755419133 0.775943312382792
-0.0789118685751976 -0.246775140306811 0.784543045378932
-0.0793955839844374 -0.246574778823975 0.785939852046019
-0.073219640704856 -0.249132938290824 0.801406263601959
-0.0763128473043392 -0.247851690166097 0.808235639977301
-0.0713420905633263 -0.249910645023481 0.822075534428323
-0.07794750142176 -0.247174594260871 0.824672473406965
-0.0791629046216839 -0.246671157771711 0.842482420880648
-0.0763320411971147 -0.247843739795394 0.844089582487274
-0.0774703396475051 -0.247372241139214 0.852818387912574
-0.079960514964339 -0.246340776750295 0.867535599646399
-0.0785304535603626 -0.246933127578848 0.882585789403126
-0.0731762514296528 -0.249150910717075 0.885167792287114
-0.0790217939834597 -0.246729607711859 0.892948108504385
-0.0759951975328348 -0.247983265009538 0.898755321487389
-0.0760224619750056 -0.24797197170782 0.912254613454579
-0.0746088781669416 -0.248557497292672 0.924624116119594
-0.0746620919794647 -0.248535455409819 0.928430310087261
-0.0763513056922521 -0.247835760180235 0.936928228334906
-0.0711383954389885 -0.247206137589437 0.946232045633154
-0.0743879211996834 -0.243143054031117 0.954739300199589
-0.0732272422085295 -0.241309420892433 0.961985743113768
-0.0740309013975691 -0.238897833625282 0.968494199905709
-0.0685064988503635 -0.237977925981076 0.978539112264077
-0.0652987820694669 -0.238238863110419 0.981882237562629
-0.0695721252359277 -0.241910616588806 0.997705769201191
-0.0643201409032679 -0.230839435690157 1.0
-0.0357927089423388 -0.206562097111816 0.984375
-0.0363993376032026 -0.20842675396149 0.984375
-0.0169237028194258 -0.188196984460941 0.984375
-0.00392608428346519 -0.181656317513159 0.984375
0.00170058747499405 -0.166776181380412 0.984375
0.0189760672106097 -0.15857086882924 0.984375
0.0239614944234339 -0.156443150869373 0.984375
0.0288626901655689 -0.152714693893501 0.984375
0.0426958414535147 -0.135509955643786 0.984375
0.0535200984492252 -0.127467941686332 0.984375
0.0698021286830801 -0.114301545722535 0.984375
0.0782570633197854 -0.101203146957127 0.984375
0.0904823379951298 -0.0925701159586516 0.984375
0.095691112725857 -0.0921181639769252 0.984375
0.106664937052955 -0.0766791141211394 0.984375
0.114852153773611 -0.0703903606561883 0.984375
0.127195297257972 -0.0522829913512977 0.984375
0.13574067134661 -0.043989866335402 0.984375
0.156302144739024 -0.0344278255585915 0.984375
0.162264459981199 -0.0341142907979367 0.984375000000001
0.172332154463607 -0.0163321625947554 0.984375000000001
0.197897778660512 0.00294286259311732 0.984375
0.208554014446379 0.0123122507684397 0.984375
0.221992437007589 0.022135516908509 0.98631176184841
0.224548558748756 0.0253691202842789 0.989224080566752
0.227955395485448 0.0397982826715705 0.99440684368785
0.229569704951411 0.0401813697540398 0.996032777634234
-0.0901013728245096 -0.242140295890515 0.23312104895154
-0.0859183506982869 -0.243872960386902 0.228654218663232
-0.0910879162965879 -0.241731656204509 0.246710213347941
-0.088635362034693 -0.242747537442241 0.24915398673406
-0.0896893955486701 -0.242310942465557 0.257339798286933
-0.0886461759968015 -0.242743058152473 0.272202793704944
-0.0837695266102026 -0.244763032467341 0.280390369129902
-0.0851256100064705 -0.244201324332898 0.290238272081858
-0.0881755855799085 -0.242937983085473 0.300375758035585
-0.0897105839183553 -0.242302165955468 0.312721837987462
-0.0842461914504776 -0.244565591425793 0.319502728471981
-0.0878652705369068 -0.243066519784893 0.322671123444059
-0.086006086476053 -0.243836619037846 0.332170835497423
-0.0832576711732227 -0.244975049931313 0.344912084508105
-0.0882777653372275 -0.242895658844191 0.352710033446471
-0.0837068451897318 -0.244788995961808 0.357225935422871
-0.0889284906477982 -0.242626119595174 0.372908272533045
-0.0871667063219053 -0.243355874556935 0.377281118265917
-0.0818731872147054 -0.245548521963818 0.391695900833734
-0.08655455881903 -0.243609434354799 0.399357449730222
-0.0891476007743152 -0.242535361209117 0.407740222504843
-0.0858969980183875 -0.24388180495651 0.421074085091329
-0.0882209798334045 -0.242919180170022 0.421867925676061
-0.0853531255513187 -0.244107084308571 0.439582967487332
-0.0847823383074455 -0.244343512126213 0.445725189297516
-0.0828519122373928 -0.245143120785588 0.450278955570717
-0.0910253717596165 -0.241757562999975 0.464184575251999
-0.0864038480180561 -0.243671860812558 0.470696112061051
-0.0928635975203128 -0.240996144959191 0.483855774237991
-0.0885909148153344 -0.24276594808331 0.498517465142543
-0.0892494254067167 -0.242493184065393 0.501357485662503
-0.0872580083800875 -0.243318056006164 0.506703752723758
-0.0888257778837729 -0.242668664615062 0.519886013329069
-0.082497517251986 -0.24528991599498 0.529234537913887
-0.0888529713836586 -0.242657400698601 0.543694869483635
-0.0903930362586695 -0.242019484940437 0.544719551517372
-0.0850706448771496 -0.24422409163492 0.556042689304368
-0.0887131472032454 -0.242715317770476 0.566369910568578
-0.0824930390791345 -0.245291770914909 0.572288687889717
-0.0901430008614677 -0.242123052993032 0.589048474874906
-0.0850608507705704 -0.244228148486696 0.597504865708631
-0.0892085776543507 -0.242510103758416 0.59656130344027
-0.0897454737258695 -0.242287714124008 0.61205974343865
-0.0882514707371675 -0.242906550424154 0.619847868748351
-0.0902439354947543 -0.24208124449901 0.627281902459482
-0.0864076230915349 -0.243670297125925 0.642564601083277
-0.0879930239681873 -0.243013602581017 0.645623642885734
-0.084640660967682 -0.244402196801824 0.657181200581522
-0.087703380115575 -0.243133576993027 0.6599845643496
-0.081917103763716 -0.245530331133605 0.673513000045934
-0.0882247212053478 -0.24291763044302 0.684705089490529
-0.0901001124979309 -0.242140817934876 0.688728704794071
-0.0878316944363834 -0.243080427461101 0.713215172518663
-0.0899890971263665 -0.24218680200741 0.713115820540242
-0.0872210929413085 -0.243333346881567 0.721486583823801
-0.087226648582587 -0.243331045659601 0.734275368419808
-0.0819306300317776 -0.245524728369926 0.743014198091853
-0.0862759376352335 -0.243724843027892 0.745794390859107
-0.0888921682705663 -0.242641164816441 0.765629696841824
-0.0889086035122415 -0.242634357116438 0.766214105749236
-0.090618069055107 -0.241926273304174 0.780945459775875
-0.0854977643168574 -0.24404717297024 0.782330135109713
-0.0852328878742352 -0.244156888385127 0.790819515940756
-0.0868568660209969 -0.243484214611742 0.813501397270401
-0.089926096419575 -0.242212897754602 0.815942830696976
-0.0829176593119637 -0.245115887455614 0.822880631719346
-0.0891696884449372 -0.242526212196385 0.835588106928646
-0.0863686248152679 -0.243686450740863 0.83916517601949
-0.0860893015181391 -0.243802150238821 0.858916013790249
-0.0905768721456202 -0.241943337622811 0.856847055107291
-0.0880285968231536 -0.242998867822038 0.875418404619559
-0.0871892844957419 -0.243346522371118 0.875302406198815
-0.0860851184601823 -0.243803882918159 0.891939771334022
-0.0849553109443284 -0.244271864514096 0.903780104883473
-0.0875231775859648 -0.243208219324765 0.908585901196135
-0.0881680627389718 -0.242941099148216 0.916078415113758
-0.0871116269918714 -0.243378689162441 0.92963317659143
-0.0883397061250593 -0.242870002129808 0.936035640088992
-0.0868913143574388 -0.242719369806834 0.939850069121776
-0.0827226559059663 -0.240385923007057 0.95256252280932
-0.0828596972622756 -0.240516757088376 0.951975147957419
-0.0810605786056224 -0.23778647227673 0.962857026387334
-0.0789102063058736 -0.234789794959213 0.975028530415789
-0.0742332996922995 -0.233932855799787 0.983777159791351
-0.0737908670961902 -0.233768713425436 0.984864889065366
-0.073450432066914 -0.230230968963635 1.0
-0.0691553023484115 -0.235876850937517 1.0
-0.0383482485948064 -0.202221158050295 0.984375
-0.0290338911443164 -0.195307440535741 0.984375
-0.0204527432747344 -0.184878004758761 0.984375
-0.0130479676109847 -0.173178487526111 0.984375
-0.000618747685698577 -0.160912736215091 0.984375
0.0079678097046309 -0.160786077014679 0.984375
0.0148884130764939 -0.147745096408342 0.984375
0.019727942326269 -0.140056492582257 0.984375
0.0407970693681856 -0.126048023889685 0.984375
0.0574658984841939 -0.11272500870192 0.984375
0.0596700662737528 -0.111261693909774 0.984375
0.0751294547047865 -0.0952757268872911 0.984375
0.0755316674596545 -0.091764182728023 0.984375
0.0988569925393772 -0.0757662372035272 0.984375
0.102506850577869 -0.0671653125737291 0.984375
0.105682021365922 -0.0625564457058114 0.984375
0.124418354083468 -0.045203310128504 0.984375
0.131661864166974 -0.0347087444738247 0.984375
0.146957282322465 -0.0297200671147972 0.984375
0.158709647835634 -0.0160531787966663 0.984375
0.172083565444618 -0.00620543427938906 0.984375
0.175676529445791 -0.00385223823228927 0.984375
0.200949558259769 0.0122171780247343 0.984375
0.205896188140703 0.0321076848830242 0.984375
0.218102125093281 0.0383338967218146 0.98459498533193
0.222432672759016 0.0514340380702205 0.99050903514791
0.227097212530375 0.0473346180009369 0.994537714312499
0.235537935192464 0.0546592852471939 1.0
-0.0934378405929869 -0.24075828569039 0.222014740609763
-0.0954377414563553 -0.239929899629382 0.232081834123106
-0.0975939348777263 -0.23903677507115 0.248731571461923
-0.100320025021653 -0.237907591561284 0.258786195839988
-0.100400846488513 -0.237874114213579 0.267290822325303
-0.100208653431414 -0.237953723184424 0.283254287782357
-0.0959582629649136 -0.23971429256103 0.276151524732852
-0.0943891261351007 -0.240364250317157 0.293050328966325
-0.0916708370932621 -0.241490202504737 0.305077025636345
-0.0942294881364039 -0.240430374541287 0.314437813990097
-0.0953880410726082 -0.239950486202384 0.318429936817554
-0.0933246546192357 -0.240805168855789 0.328835484374272
-0.0969526606757272 -0.239302399542818 0.33732335526223
-0.0994157669436914 -0.238282147521061 0.346286755262013
-0.0960790510836042 -0.239664260484095 0.355190244904332
-0.0971435313653009 -0.239223338314537 0.373034786837879
-0.0961382969386589 -0.239639720047417 0.376650939503399
-0.0977379483903295 -0.238977122721065 0.389386661684777
-0.101674019350867 -0.237346748746747 0.395125720506687
-0.0944022078041405 -0.240358831712423 0.398790021775645
-0.0923300571033796 -0.241217144635958 0.413565706284036
-0.0963167549656547 -0.239565800312321 0.413611144721658
-0.0933399531849686 -0.240798831982377 0.43089467067722
-0.0931044869106466 -0.240896365306682 0.440790132165021
-0.0923151727631496 -0.241223309931549 0.446271105715392
-0.0959188481560834 -0.239730618709405 0.452602646485255
-0.0958261246119837 -0.239769026058923 0.471915508794378
-0.0968700119595522 -0.23933663376197 0.484397119616233
-0.100561254692728 -0.237807670959878 0.491760912914132
-0.0974577297096235 -0.239093193099044 0.502561940781139
-0.0947759474127262 -0.240204023697751 0.510257092408976
-0.0942420314972243 -0.240425178911118 0.510174101501833
-0.0940168182262653 -0.240518465302375 0.516615638384721
-0.0956866875150127 -0.239826782795586 0.524759372818044
-0.0964784829940072 -0.239498810369561 0.544840420510325
-0.0971928263422501 -0.239202919666527 0.553369220355398
-0.0936151652259292 -0.240684835422483 0.564992867767409
-0.0950673261959078 -0.240083330653969 0.572635611289425
-0.0957782274544019 -0.239788865711193 0.579824354357256
-0.0978582200022681 -0.238927304588232 0.592050520501849
-0.102502497137853 -0.237003582011252 0.596942284609287
-0.0903428237630769 -0.242040283637112 0.606488831445103
-0.0963810509699283 -0.239539168035344 0.611002609800532
-0.0925787402592326 -0.241114136700071 0.627357262853596
-0.0999014965890824 -0.238080951714294 0.635230804689005
-0.0929342757950506 -0.240966869059229 0.642811069593641
-0.0951434064371211 -0.240051817186229 0.656165191933599
-0.0989561650627886 -0.238472520853423 0.662284965501782
-0.0954791545048704 -0.239912745783027 0.66165241518609
-0.0975435779512395 -0.23905763359306 0.676260604324784
-0.0972604989335329 -0.239174888761418 0.694970071334526
-0.0955014825959719 -0.239903497184871 0.693088330117254
-0.0953558922922345 -0.239963802663229 0.7112493502101
-0.0956911997481749 -0.239824913767414 0.711827408449705
-0.0968820597257145 -0.23933164341383 0.732688055435901
-0.0950757460370715 -0.240079843041565 0.737294972473009
-0.0935996145990019 -0.240691276703059 0.742344632751187
-0.0970342834867029 -0.239268590267512 0.755587213630651
-0.0965405680374383 -0.239473093902551 0.759683259935327
-0.0993214902521865 -0.238321198205298 0.772267394126416
-0.0998589182913609 -0.238098588222672 0.782751171186122
-0.0957659337472403 -0.239793957931431 0.781522461109661
-0.0999340635276433 -0.238067462046656 0.800917296473694
-0.0969741327672453 -0.239293505511299 0.810435283574878
-0.100235274035797 -0.23794269656905 0.822525938544428
-0.0932196851627263 -0.240848648628309 0.827367225719481
-0.0962502532779462 -0.23959334621329 0.838449700259406
-0.0979652997452049 -0.238882950706451 0.849165345457074
-0.0978801448769086 -0.238918223007801 0.853619545025739
-0.0982067687095819 -0.238782930986514 0.864116909232988
-0.102373772811775 -0.237056901372921 0.873818934776632
-0.0975636175270006 -0.239049332928996 0.884647400907618
-0.0948981015514467 -0.240153425796792 0.883684826351568
-0.0995008733633074 -0.238246895287811 0.906990886394666
-0.0931690812081636 -0.240869609472599 0.905356787186862
-0.0971162406935284 -0.239234642480912 0.922636588387461
-0.0973161668961848 -0.239151830336297 0.927312144541846
-0.0959159895008183 -0.239731802803187 0.93431177298504
-0.0978241855343255 -0.237584486076075 0.941748533398853
-0.0939221855535459 -0.234853041909849 0.955361292957115
-0.0925666814235152 -0.232388683037368 0.964835222718498
-0.0924828954690384 -0.230274548282587 0.97156328717649
-0.0882716915923256 -0.232869152746687 0.968901083799353
-0.08404918439672 -0.230834756621544 0.980747040439716
-0.0942091805303482 -0.231705614148921 0.996672745765801
-0.077899749021302 -0.22874756012969 1.0
-0.0601556650831317 -0.206659423712973 0.984375
-0.0474162764536969 -0.194305678920367 0.984375
-0.0403573804007681 -0.188005744023303 0.984375
-0.0314624603099841 -0.175064078304323 0.984375
-0.0198441375329498 -0.168545854711657 0.984375
-0.00411117815034608 -0.155037838714851 0.984375
-0.00218633765635811 -0.155130577532581 0.984375
0.0124740090669859 -0.133010909339452 0.984375
0.0189211609098173 -0.13286208561614 0.984375
0.0263382884369857 -0.123956129106597 0.984375
0.0354346980963128 -0.111595790928763 0.984375
0.0543510016830346 -0.100018536760317 0.984375
0.0542475093055214 -0.0927879936391414 0.984375
0.0758996817868394 -0.0879379599720328 0.984375
0.0799905117613109 -0.0745565694144399 0.984375
0.0905228524276275 -0.0638613498856217 0.984375
0.102503870588563 -0.0536366652388146 0.984375
0.117855602027077 -0.0449978001296963 0.984375
0.135795440960047 -0.0239813529291121 0.984375
0.141043876360597 -0.0123588465827601 0.984375
0.161789209367783 -0.00293242343491109 0.984375
0.155189724557661 0.000105414740865817 0.984375
0.181250284502996 0.0181253334272845 0.984375
0.189356451927777 0.0269095733614035 0.984375
0.193675031924156 0.0301940555925867 0.984375
0.217459352992958 0.053224830675933 0.985881923574454
0.218951543770913 0.0522007980561184 0.987207653662912
0.225511413562628 0.063838482237909 0.995958779092924
0.22989141908725 0.0623802491299427 0.999395407622006
0.235501472055371 0.0709451329724551 1.0
-0.103054538547054 -0.23677491897257 0.232913058674032
-0.107048268324609 -0.235120661934254 0.238942932840429
-0.100953675804399 -0.237645124813262 0.252901341091392
-0.103473371188281 -0.23660143281221 0.25388907075716
-0.103893938728455 -0.236427228033176 0.264211866470534
-0.107289896458395 -0.235020576284188 0.277306917661484
-0.108300743999859 -0.234601869523023 0.288536101771529
-0.107557850437521 -0.234909586111943 0.295554354872091
-0.106041141786074 -0.235537827405541 0.307099540459806
-0.107087200275942 -0.235104535792001 0.319627543254609
-0.103412500894887 -0.236626646113279 0.323045713461743
-0.10288103107012 -0.23684678812269 0.329987131050964
-0.107678200045689 -0.234859735672013 0.349602052435499
-0.103548155148594 -0.2365704562816 0.354251705618206
-0.10267076960733 -0.236933881272221 0.353367454867603
-0.109584450217238 -0.234070140997682 0.371943274563132
-0.104546744366824 -0.23615682708417 0.3762917648095
-0.103756423906807 -0.236484188537329 0.387161828755708
-0.103681115420841 -0.236515382333578 0.399644361005785
-0.108727180359992 -0.234425233799166 0.407161709933649
-0.107967244784409 -0.234740009421103 0.416675017691958
-0.104239183703001 -0.236284222882378 0.431342052123959
-0.104120749515339 -0.236333279929155 0.431575880792777
-0.103704545938254 -0.236505677095492 0.444035507563988
-0.106543423725478 -0.235329775414104 0.452848075976462
-0.100844766886226 -0.237690236364233 0.465969759924192
-0.101022885247429 -0.237616457323314 0.46872081372448
-0.105233231162893 -0.235872474942847 0.488286092300152
-0.104403550854191 -0.236216139779146 0.488383979622049
-0.110091084969372 -0.233860286012178 0.498436628412112
-0.105022835524062 -0.235959623669915 0.507449166650401
-0.106311877938355 -0.235425684819441 0.514134702273008
-0.101740153064884 -0.237319355265471 0.522218291583803
-0.104992163376833 -0.235972328489284 0.533342052541081
-0.106761675406938 -0.235239372607633 0.55072777445731
-0.104498400857691 -0.236176851621305 0.557360930495585
-0.104434138940492 -0.236203469778953 0.560008132261014
-0.110387483592743 -0.233737513682509 0.5695609317538
-0.107855177489204 -0.234786429214675 0.589908619678438
-0.10246725236353 -0.23701818087478 0.587201963953291
-0.10787731680597 -0.234777258809409 0.605525168484517
-0.101784063128963 -0.237301167121405 0.609797837151266
-0.108280720076215 -0.234610163703768 0.62085186934563
-0.105147997882464 -0.235907779723566 0.635836040164253
-0.103546027644979 -0.236571337522452 0.633973163457349
-0.107438698531329 -0.23495894044747 0.645351425724973
-0.101985399891841 -0.237217770703617 0.653691406553881
-0.103536748541637 -0.236575181052902 0.656156297486647
-0.101199592226939 -0.237543262895836 0.67626242377935
-0.110440985133073 -0.233715352618897 0.682544853927024
-0.106989554516475 -0.235144981989881 0.693945720321469
-0.109219775772395 -0.234221194098586 0.698762848133363
-0.103020070245095 -0.236789196210714 0.71394421401246
-0.104815515375322 -0.236045498487277 0.716620394470921
-0.10918530716442 -0.234235471463487 0.733139556884705
-0.110876171848196 -0.233535092379328 0.742191561056491
-0.10769567455525 -0.234852497493157 0.746446789473206
-0.10023080266942 -0.237944548669646 0.754864459815143
-0.100991352109844 -0.237629518776567 0.76075226913392
-0.102032854170017 -0.237198114498003 0.775123889195256
-0.105760237115063 -0.235654181930007 0.788809749703801
-0.108711370578797 -0.234431782424956 0.794747339181415
-0.105564832990998 -0.235735120968339 0.798176127189566
-0.104145074598629 -0.236323204149751 0.816473157618445
-0.106674365879291 -0.235275537398108 0.827871332672183
-0.108982467327976 -0.234319490474731 0.83356612662216
-0.103254648516859 -0.236692030709111 0.832165099219168
-0.102862807534328 -0.236854336558368 0.84542495126565
-0.104639493658878 -0.2361184090695 0.851962395530245
-0.107914056892249 -0.234762040567389 0.862848549211625
-0.108505465213122 -0.234517071219983 0.872843035650063
-0.107153653502516 -0.235077009964291 0.88502442652839
-0.106584798938083 -0.235312637239898 0.889347177817399
-0.103586267870569 -0.236554669475258 0.898297948095581
-0.101696287654966 -0.237337524913178 0.913151431437331
-0.102779289590293 -0.236888930823489 0.923783784165269
-0.108535985325907 -0.234504429375343 0.93140545217214
-0.105194815289124 -0.234653078768481 0.941367777695152
-0.104904836721176 -0.232192552148455 0.949447816139326
-0.103393293721671 -0.229825835656938 0.958818394119954
-0.0971851914340275 -0.231708595905949 0.960974791017974
-0.10216912061276 -0.226004106110332 0.972371955993402
-0.0945035833368831 -0.22901477524893 0.972887010178338
-0.0960815659466411 -0.226062352845698 0.980084604418123
-0.103055097981547 -0.227257227333154 1.0
-0.0914632780577659 -0.222586829869385 1.0
-0.0649676559153806 -0.20188963495102 0.984375
-0.0562785271946608 -0.186510823607591 0.984375
-0.0445610613413413 -0.175154550012371 0.984375
-0.0411698996804418 -0.169236931778677 0.984375
-0.0284558932885196 -0.15897146798614 0.984375
-0.0145243518029288 -0.156416265757661 0.984375
-0.00719633302955261 -0.143566716902628 0.984375
0.00407411880006651 -0.14149836355157 0.984375
0.0166609297465156 -0.128539616207945 0.984375
0.0256102734649726 -0.109710004327971 0.984375
0.0383942724058744 -0.0956434068392657 0.984375
0.0432720629140262 -0.0911512170506459 0.984375
0.0596591175000133 -0.0814892909507621 0.984375
0.061644479553687 -0.0737714357187088 0.984375
0.0722316865349253 -0.0691959620584762 0.984375
0.0953861805212835 -0.0531339022894263 0.984375
0.100776827911663 -0.0461510681971399 0.984375
0.104376745628616 -0.0428721134602671 0.984375
0.121213218610574 -0.015947576231609 0.984375
0.122959500612075 -0.0160491015037112 0.984375
0.148084716778173 -0.00199243946498931 0.984375
0.15124301245277 0.00800242436706672 0.984375
0.163631451813246 0.0127837653476753 0.984375
0.184807539482248 0.0323616129786357 0.984375
0.189000915692245 0.0417301070789046 0.984375
0.211477786719271 0.0509474751222097 0.984375
0.216204292691039 0.0565251041778109 0.985080482355583
