ply
format ascii 1.0
element vertex 849
property float x
property float y
property float z
end_header
-0.0933085247905762 0.330045103253304 0.647493852947697
-0.098731816383527 0.3277987023228 0.652555207255161
-0.0991116952032983 0.327641351363593 0.664220631143617
-0.0945229785565554 0.329542060032561 0.674975727537396
-0.104750277842098 0.325305773962041 0.673820249023106
-0.0900080931374136 0.33141218680573 0.702801947269474
-0.108273935954659 0.323846226982652 0.691305218629432
-0.0989855761821817 0.327693591572613 0.705898637340644
-0.0981303762021689 0.328047827002875 0.717410212655776
-0.103719030339494 0.325732930663783 0.729288367043091
-0.0972639671509257 0.328406705382463 0.744541686607658
-0.0999263633115115 0.327303904784338 0.751187360323082
-0.113698245385274 0.321599404449983 0.743966970162073
-0.088021763601376 0.331980536109314 0.777345194884421
-0.102357297138064 0.326296979024149 0.782840544644805
-0.11870353985834 0.319526143595568 0.76918458035816
-0.0880874535187882 0.33197188786762 0.80582839745931
-0.106237320285021 0.324689820814357 0.802598257171364
-0.101046918893605 0.326839755464842 0.81573599603393
-0.100308971769995 0.327145423171755 0.81982842394805
-0.107403967490278 0.324206579719435 0.827658328442001
-0.0897176565336809 0.331532489586005 0.848749980795877
-0.104957836278713 0.32521980044261 0.845193316256513
-0.111378243917801 0.322560380522535 0.851355644309664
-0.094497576305295 0.329552581989548 0.874504518506121
-0.116861883318991 0.320288982711399 0.86487133024652
-0.120028175659868 0.31897746148137 0.874604041206746
-0.112233737972727 0.322206023282456 0.895993423932644
-0.109175407477617 0.318531230367098 0.901868155464892
-0.122180497120837 0.310441888731134 0.901868155464892
-0.123847096380364 0.311934633166771 0.901868155464892
-0.134703096319526 0.301495437914936 0.901868155464892
-0.15423084344992 0.287532738303156 0.901868155464891
-0.15625332835788 0.282779018561166 0.901868155464892
-0.15168398432456 0.280739257627462 0.913187734236933
-0.171631036771204 0.271798962720354 0.901868155464892
-0.188031050728362 0.258404544559025 0.901868155464892
-0.171779818086522 0.26450137111143 0.923341206785484
-0.210455666041666 0.245155006618542 0.901868155464892
-0.222882693660468 0.231407049010161 0.901868155464891
-0.235585815642699 0.220390206278606 0.901868155464892
-0.218469123156387 0.230885660086623 0.923341206785484
-0.26511610100176 0.196705502919976 0.901868155464892
-0.268073830255052 0.187281789095577 0.901868155464892
-0.276449695171507 0.190695016642065 0.901868155464892
-0.285384469666819 0.170653535043943 0.901868155464892
-0.0806342506208351 0.332953120644161 0.16938014657877
-0.0781859512584789 0.333275445370057 0.172461043114944
-0.0767411695596734 0.333465654489173 0.19068030954719
-0.0799039883499417 0.333049261496018 0.199377366409832
-0.0774984883207111 0.333365951582813 0.20862802345714
-0.0917466128440214 0.3306920683648 0.210085710447542
-0.0790879760477005 0.33315669155367 0.22896542975167
-0.0882486423186358 0.331950666959537 0.229515509017171
-0.0774703481726073 0.333369656303593 0.243188353078015
-0.0816755162773389 0.332816035419831 0.251797119847578
-0.0845392094995208 0.332439023054806 0.262348430196167
-0.0810506348698968 0.332898302617816 0.266709399722326
-0.0798250578559926 0.333059652892682 0.281476887965599
-0.0827443045322521 0.332675326776679 0.296540817164468
-0.0804193581678126 0.332981411772314 0.304060690752784
-0.0798466686820392 0.333056807773459 0.308386520168025
-0.0811917719053241 0.3328797215746 0.319433964077624
-0.0686796022860118 0.33452697995522 0.33710271279535
-0.08367032506026 0.33255341386135 0.33684547022878
-0.078953791739517 0.33317435725298 0.347435892759734
-0.0748465888954069 0.333715080765505 0.35673981766986
-0.0811512409840603 0.332885057571614 0.367591819924849
-0.0690361196240364 0.334480043557235 0.38261356446254
-0.0905719696554042 0.331178621504475 0.372548407974057
-0.0845283225796289 0.332440456345001 0.392882902039478
-0.0817519041758252 0.332805978762209 0.405013451333972
-0.0720503922737526 0.334083207034491 0.421739367573312
-0.0790108928701455 0.333166839746517 0.431983061750363
-0.0755175811608261 0.3336267429579 0.436164075029519
-0.0739650854528368 0.333831132895351 0.446962711271679
-0.0769272434495441 0.333441157396836 0.449878329613398
-0.0749460330606444 0.333701988692781 0.462421848482982
-0.0773856297281025 0.333380809698404 0.471663330537102
-0.0802424625658444 0.333004700520126 0.47557605549474
-0.0810138646907467 0.332903143503738 0.492518078573169
-0.0731891442136413 0.333933287497472 0.503797469190029
-0.0748830141951928 0.333710285283812 0.506989206629502
-0.0895692386960922 0.331593966267233 0.508064249520063
-0.0778939335745212 0.33331389022749 0.534107288987165
-0.0872845412069997 0.332077593278811 0.530891425045965
-0.0838956454996404 0.332523749862748 0.539751576798886
-0.0799984416514089 0.333036826482974 0.557286894784011
-0.0788039054749788 0.33319409015406 0.564746233755722
-0.08554029298902 0.33230722791312 0.568087457917678
-0.0736533684994142 0.33387217121081 0.584750039581519
-0.0783025162520679 0.33326009929752 0.597116006928337
-0.0799549849002934 0.333042547672796 0.60069169720725
-0.0785966373866415 0.33322137751556 0.614859047759665
-0.0838986925528996 0.332523348710576 0.61523789874528
-0.0753306732350697 0.333651349853145 0.636964691456631
-0.0791689703225407 0.333146028455097 0.632574814764048
-0.0802531361217569 0.333003295319832 0.654041592470857
-0.0861898422299915 0.33222171313324 0.65699221677746
-0.0772686536305834 0.3333962098938 0.678661182569319
-0.0889027386452055 0.331870039627633 0.671971009509755
-0.0880752288725179 0.331973497272834 0.68733051642756
-0.0756080799746387 0.333614828563034 0.696872697759973
-0.071634561229305 0.334137952230067 0.711832020413979
-0.0832270850616311 0.3326117675142 0.716554513632832
-0.076341122111615 0.333518321734864 0.722705463252705
-0.0761412134026294 0.333544640215691 0.735601556363333
-0.0805012592847358 0.332970629285716 0.748093139797907
-0.0778034741941893 0.333325799430841 0.752388183819572
-0.0776556447611359 0.333345261544919 0.756594799062158
-0.0702079403827441 0.334325770427627 0.774401108679775
-0.0721938565711294 0.334064319601427 0.784662688976808
-0.0902568290646558 0.331309157011217 0.787671306534933
-0.0816785477985702 0.332815636312489 0.801875178308389
-0.0771467980444474 0.33341225248606 0.81443350298609
-0.0759288712195152 0.333572595594441 0.820102924659903
-0.0719431431988487 0.334097326643066 0.831535841116818
-0.078212225954722 0.333271986240673 0.837704328505213
-0.087497681206222 0.332049532865577 0.836552268735885
-0.0874727821195628 0.332052810892524 0.847793488064579
-0.080832434180292 0.332927029283578 0.867796556905338
-0.0714876543916615 0.334157292882155 0.878764633983525
-0.0757523171097448 0.333595839383952 0.892064737512959
-0.088397860739556 0.331931021981736 0.884854938389933
-0.0839864947794029 0.329427034523222 0.901868155464892
-0.0963343222259383 0.316443615699476 0.901868155464892
-0.106374501821566 0.30988415547905 0.901868155464892
-0.106769162555267 0.306880392035352 0.901868155464892
-0.119220147072079 0.297281066987201 0.901868155464892
-0.130605811365535 0.289481186521095 0.901868155464892
-0.126614151197321 0.291123522515195 0.916278429571412
-0.131123950025896 0.289255502676825 0.918490366360271
-0.137953960139331 0.285170321799254 0.923341206785484
-0.144513629954818 0.275235577441367 0.923341206785484
-0.164218956668183 0.271291787291926 0.923341206785484
-0.173816888941785 0.25598317002986 0.923341206785484
-0.188623766014358 0.249592754511013 0.923341206785485
-0.19121023750976 0.236258998564348 0.923341206785484
-0.205555636440613 0.230872766608508 0.923341206785484
-0.214459150955758 0.228895880386073 0.923341206785484
-0.226531336269175 0.217827976844524 0.923341206785484
-0.246339309909249 0.198702628283668 0.923341206785484
-0.280188756878893 0.174670633435875 0.901868155464892
-0.255017009805315 0.181317166545494 0.923341206785485
-0.299642937747878 0.157775056620869 0.901868155464892
-0.0562034641758282 0.336169494697671 0.192183577876395
-0.0613510058053581 0.335491807985708 0.190525980599179
-0.0594251963715199 0.33574534560755 0.203381142603528
-0.0620874764133133 0.335394849790771 0.215841008666017
-0.0648023034819483 0.335037436026667 0.221212292294615
-0.0623139608233894 0.33536503255252 0.237477463983179
-0.0613767594584515 0.335488417452956 0.244333590041246
-0.0678130176405831 0.334641067988161 0.243839627422122
-0.0673780352992485 0.334698334499804 0.25441919735074
-0.0611488558581072 0.335518421531151 0.273685604955539
-0.0693867201198402 0.334433886126308 0.271470213933871
-0.0585281736101389 0.335863440894479 0.288845373311815
-0.0637079547240642 0.335181509773874 0.294395997286074
-0.0647485670527108 0.335044510561788 0.301231603805361
-0.0663196556955991 0.334837672818021 0.308425901276049
-0.0623457818711915 0.3353608432321 0.327905227168135
-0.0626731626275362 0.335317742737866 0.324478475112222
-0.0570717139832135 0.336055187441998 0.342390825353438
-0.0592533818350682 0.335767965420396 0.357180912296931
-0.0567797979333656 0.336093618919047 0.367830060366539
-0.0609333510524549 0.335546793277057 0.369227106464391
-0.0529995302064427 0.336591300606845 0.388288885590224
-0.0620868756648807 0.335394928880802 0.391641713761018
-0.0620179844596632 0.335403998580031 0.391029981285753
-0.0643291506384115 0.335099727780259 0.408358840999077
-0.0621389451197685 0.335388073807018 0.42264678979543
-0.0658165513905759 0.334903907756324 0.421784470943654
-0.0559074495779886 0.336208465758798 0.441282970152296
-0.05936295813709 0.335753539426558 0.449916150097297
-0.0581361976081777 0.335915045514131 0.460717517073756
-0.0590341564741875 0.33579682698669 0.464692135111441
-0.070648250829288 0.334267802457626 0.471790301950762
-0.0575621941449986 0.335990614503682 0.489395333715367
-0.0640297567105081 0.33513914373863 0.488188601137866
-0.0558066890391766 0.336221731135391 0.506919812702899
-0.0558301570863234 0.336218641508371 0.517452644788001
-0.0638888964783733 0.335157688340002 0.518450132872841
-0.0649953131901188 0.335012025816528 0.526840073297661
-0.0640826496037251 0.335132180257134 0.541349567355795
-0.0667231662805137 0.334784549641714 0.547623269938791
-0.070017047092907 0.334350902006007 0.548188344394447
-0.0490400659331879 0.337112573967527 0.580071188134926
-0.0599536042173044 0.335675779394908 0.585700739038981
-0.0707469894594826 0.334254803270352 0.584430536654217
-0.058998684726103 0.335801496930919 0.601700512853343
-0.0602194809545356 0.335640776058401 0.606204572416969
-0.0567537518934301 0.336097047945256 0.621488519716798
-0.0664253285689451 0.334823760720317 0.622288318501121
-0.0617141413676281 0.335444000281972 0.636404358774793
-0.0670909327864239 0.334736132262681 0.637248920633028
-0.0689446334403707 0.33449208794181 0.648603402053345
-0.0511515468490564 0.336834592231345 0.665029162433242
-0.0582103673672453 0.335905280880104 0.677178437290123
-0.0602010599857145 0.335643201224954 0.685855699632336
-0.0692194298506129 0.334455910308073 0.682352160371658
-0.0680589989618871 0.334608683932852 0.690188194575727
-0.0607701022931329 0.33556828538395 0.704841109587253
-0.0692756830419388 0.334448504434938 0.710879197482763
-0.0651143830197559 0.334996349976069 0.719056303075635
-0.0669712486191382 0.334751888982226 0.730229780352417
-0.0561682729239506 0.336174127713873 0.754953458964721
-0.0666220358009886 0.334797863721925 0.748613152486059
-0.0643860218008568 0.335092240549683 0.76457113833777
-0.0637003961835072 0.335182504874617 0.769724244159489
-0.0552057890006144 0.336300841126268 0.788900029614471
-0.0541104503197424 0.336445045199309 0.797726432146409
-0.058066315835869 0.335924245623992 0.805010554409447
-0.0695541432119234 0.334411844458081 0.806446029559925
-0.0528939586367934 0.336605199367664 0.829727750614932
-0.0625604983425846 0.335332575272369 0.828717491207033
-0.0634018735623608 0.335221806123277 0.838968968313426
-0.063153010438426 0.335254569575101 0.848064581544398
-0.0668770912238435 0.334764285038483 0.84798495807669
-0.0624058198535766 0.33535293908177 0.870598698237673
-0.0662134302267948 0.334851657666296 0.879303015388611
-0.0588033879310031 0.335827208241765 0.88729657151544
-0.0586051418485752 0.335853307833654 0.901945130355032
-0.0619729191447549 0.335409931541294 0.897875433416974
-0.0720349246967613 0.326081236923635 0.901868155464892
-0.0755211463985617 0.324611941883539 0.901868155464892
-0.0965034328210451 0.311919898165383 0.901868155464892
-0.110710792437677 0.300464126909204 0.901868155464892
-0.0940448677062026 0.30461416145399 0.921673457916428
-0.105735456464174 0.295924373951404 0.923341206785484
-0.107947464258239 0.292867764618081 0.923341206785485
-0.114359493031989 0.289952089109086 0.923341206785484
-0.132456243109293 0.277555931343947 0.923341206785484
-0.139183959495509 0.267237263305447 0.923341206785484
-0.149895509938414 0.26237999039152 0.923341206785484
-0.169157821494243 0.250933383739566 0.923341206785484
-0.179862299060818 0.238270733512737 0.923341206785484
-0.185633915660566 0.230630205126337 0.923341206785484
-0.200266341061147 0.221412004795319 0.923341206785485
-0.205637195286422 0.214871859848846 0.923341206785484
-0.213024969147133 0.206527815167026 0.923341206785484
-0.234427787202843 0.198741671853872 0.923341206785484
-0.236858858034457 0.193666824460769 0.923341206785484
-0.262948079778096 0.17457976083328 0.923341206785484
-0.257207612180493 0.176059266486325 0.923341206785484
-0.302570284272765 0.146867119986997 0.901868155464892
-0.311069243008393 0.134003491160496 0.901868155464892
-0.0527273060325072 0.336627139599248 0.194966831654653
-0.0465330243274053 0.337442632256484 0.205544642257654
-0.0362041828910204 0.338802450028768 0.225396684169745
-0.0450124118007837 0.337642824693477 0.225515753368618
-0.0450074058861359 0.337643483734643 0.233792473656904
-0.0346605984103108 0.339005666780891 0.2588733076751
-0.0385874905886552 0.338488681617856 0.260416631134896
-0.0434312811383653 0.337850984494196 0.264104470360676
-0.0405961644873613 0.338224234682252 0.280209427184986
-0.0394274589219462 0.338378097688883 0.286046646979167
-0.042186224954756 0.338014899250405 0.292571786202048
-0.044158135451635 0.337755292308472 0.300775743762034
-0.0454667402344187 0.337583011220464 0.317495563251845
-0.0476293064259967 0.337298303980144 0.314244412222614
-0.0533038906757713 0.336551230790892 0.32425634984247
-0.0529485615821843 0.336598010753527 0.326920630348173
-0.045972471311809 0.337516430461018 0.344488942384949
-0.0535034591639772 0.336524957100979 0.350959993462376
-0.0427839123426592 0.337936212213011 0.366545774371085
-0.04364855380333 0.337822380005196 0.373326133107447
-0.0374351426010612 0.338640391108512 0.388347768051179
-0.0412026614420722 0.338144387843385 0.404140297996069
-0.0490032659376023 0.337117418778857 0.402461086288577
-0.0431133047714802 0.33789284687707 0.415768901965474
-0.0359982118160434 0.33882956663522 0.429982942600661
-0.0465501528563133 0.337440377242873 0.430193550440775
-0.0492844084604838 0.337080405663542 0.442200661265522
-0.0377108223486114 0.338604097181213 0.454584675378457
-0.0468802732813168 0.337396916064417 0.457156641507865
-0.0462018231229849 0.33748623572225 0.46544205733114
-0.0477280979611936 0.337285297827795 0.474713059889303
-0.0455754329443942 0.337568701553725 0.490948586041215
-0.0383933457064766 0.338514241276488 0.506577468066129
-0.047790897484397 0.337277030113718 0.496940337966592
-0.0428511501565092 0.337927360186885 0.520924054014082
-0.045074213310335 0.33763468837039 0.523828843723278
-0.0434667362638798 0.33784631673837 0.526673334567213
-0.0354183051187755 0.338905912800283 0.550935142207736
-0.0399388066408906 0.338310777484549 0.562949253324225
-0.0447553581243871 0.337676666451988 0.553225808776624
-0.0388196523481233 0.338458116942377 0.571781848711814
-0.0495519114833122 0.337045188222474 0.582080243914328
-0.0424851481049705 0.337975545271093 0.58374037324737
-0.0439143658602734 0.337787385184011 0.593521607875628
-0.0369506550749248 0.338704175101378 0.613099379462335
-0.0378774685719923 0.338582157789691 0.618557128779282
-0.0368188272926403 0.338721530558167 0.63261700792466
-0.0370051607785027 0.338696999289369 0.645460433145557
-0.0434991007597476 0.337842055871655 0.653064513052087
-0.0361590492563541 0.338808391984497 0.655424779124906
-0.0435688185359128 0.337832877352297 0.66198632482763
-0.0432514075573494 0.337874665300387 0.674164316234297
-0.0480980250205849 0.337236596006501 0.681849247303683
-0.0431665177224897 0.337885841259166 0.695647803000662
-0.0499648847516828 0.336990819260256 0.700083976346249
-0.0335771893655294 0.339148300287545 0.715008513460939
-0.0361577706628651 0.338808560314524 0.729501580995869
-0.0480920888958006 0.337237377512155 0.724685433437632
-0.0433537692477194 0.337861189128192 0.742504433064046
-0.0481413564049939 0.33723089132152 0.747395169120004
-0.0426984568195834 0.337947462646056 0.758071724975888
-0.047401346669544 0.33732831545143 0.762062640507908
-0.0452727794401568 0.337608546643462 0.778865020822436
-0.0497900399166406 0.33701383801948 0.782480756833922
-0.0394993745245852 0.33836862982018 0.794379201690444
-0.0527064300666965 0.336629887972286 0.794453358299096
-0.0457579094033515 0.337544678072153 0.806577720253286
-0.0376805772587178 0.338608079022837 0.830727944845317
-0.0330218752300663 0.339221408780424 0.841559076692899
-0.0463923204837014 0.337461156268928 0.831882457313447
-0.0349227770188042 0.338971150312269 0.859064865808077
-0.032479689241487 0.339292788919978 0.869876607299424
-0.0369851840037772 0.338699629281655 0.874940031890997
-0.0474721962416087 0.337318987928315 0.877430738863256
-0.0408455823802739 0.338191398193708 0.885161098152763
-0.0480452737743203 0.337243540839823 0.896043927179643
-0.05032292832985 0.334341075680035 0.901868155464892
-0.06464155588092 0.324660165424256 0.901868155464892
-0.0650493301707275 0.322549716986275 0.901868155464892
-0.0769980654722445 0.310018186115012 0.904059092714653
-0.0744061876046166 0.310359413309727 0.913511447721097
-0.0774898598912323 0.306105963379825 0.923341206785484
-0.0895165586127815 0.297826877805434 0.923341206785484
-0.0975774846912521 0.295589472320406 0.923341206785484
-0.102088795675289 0.293844832205426 0.923341206785484
-0.114399398426025 0.278432440194125 0.923341206785484
-0.12555865549706 0.264926272479853 0.923341206785484
-0.13507805506952 0.25961850437544 0.923341206785484
-0.143136338047504 0.255282853146269 0.923341206785484
-0.154378438308382 0.249901876290322 0.923341206785484
-0.162341033364648 0.23809877998363 0.923341206785484
-0.17849977586958 0.232129526595191 0.923341206785484
-0.192705396459849 0.212128059643753 0.923341206785484
-0.204770099374574 0.204014541130729 0.923341206785485
-0.212958399514671 0.203891672915154 0.923341206785484
-0.226588911491497 0.181002421052751 0.923341206785484
-0.23788885590497 0.17643415753456 0.923341206785484
-0.243867687669176 0.176222271218589 0.923341206785484
-0.262228647848155 0.157356787252066 0.923341206785484
-0.263268400673794 0.153162541129693 0.923341206785484
-0.313086440954027 0.113922771420345 0.901868155464892
-0.31953991403621 0.113460548250211 0.901868155464892
-0.320714431541733 0.107712641837697 0.901868155464892
-0.0272025297333739 0.339987540149388 0.211329729316229
-0.0193555539624801 0.341020614108134 0.229893663923622
-0.0304639407729375 0.33955816724037 0.229211444691901
-0.018638690643883 0.341114990954456 0.24360939134095
-0.0341223029544899 0.33907653472209 0.244349400944398
-0.0352426921264652 0.338929032689329 0.247648020252737
-0.0309776192801397 0.33949054018194 0.262591513964165
-0.0268284626728317 0.340036787012173 0.272076871675479
-0.0209136303023071 0.340815489466564 0.28736816031805
-0.0310505862399327 0.339480933899442 0.296280715890745
-0.0316023895492417 0.339408287615595 0.305733771317507
-0.0251579017450894 0.340256720530683 0.315469211801379
-0.0320111230140725 0.339354476834102 0.320016186802729
-0.0319184839327988 0.339366673000526 0.328437382837123
-0.0226701218697686 0.340584242964716 0.350488255075459
-0.0215385929886666 0.340733211568006 0.357507216648512
-0.0269628408498287 0.340019095789551 0.355005679271237
-0.0287040380865607 0.339789862824542 0.36765980157108
-0.0230821634808569 0.340529996657507 0.377993662779907
-0.022262083909029 0.340637962181358 0.392214708506934
-0.0285236418161156 0.339813612444102 0.396407271715526
-0.0244843476358087 0.34034539561143 0.404587989654229
-0.0242123970447385 0.340381198585965 0.412255823122833
-0.0261331196319308 0.340128330660188 0.424295472005909
-0.0283860739594931 0.339831723596014 0.4356847867552
-0.0216941590630081 0.340712730905779 0.444838471612529
-0.0280662664000978 0.339873827059956 0.454699759331958
-0.0226957107372835 0.340580874126397 0.465963867453354
-0.0226629268691335 0.34058519020452 0.476425378327747
-0.0243008339321194 0.340369555648862 0.481160402821659
-0.0205582649705655 0.340862274200044 0.494782196836273
-0.0353927443016518 0.338909277945698 0.491243736730136
-0.0222957579604006 0.340633528908391 0.512798114082968
-0.0224628702720362 0.340611528155187 0.520758434899875
-0.0264156579039711 0.34009113379101 0.521947712549681
-0.0358160246825199 0.338853552026376 0.528521674572682
-0.0266412365747404 0.340061435795601 0.546100354511018
-0.0283729057070551 0.339833457229337 0.551828555726123
-0.0317414703134364 0.339389977285622 0.554535458380753
-0.0265923566458526 0.340067870960321 0.575217943402725
-0.0246819628181431 0.340319379079114 0.589108738989212
-0.033301110652466 0.339184646739651 0.584760844720651
-0.033428923121614 0.339167819908864 0.600377876582278
-0.037000665993238 0.338697591039075 0.605639402333555
-0.0311960049089401 0.339461789168472 0.618158849614334
-0.0193916051030819 0.341015867885433 0.632725335709669
-0.0315157004896506 0.339419700446803 0.634385166127483
-0.0307157679433809 0.339525013564421 0.638646405045381
-0.025205686380471 0.340250429564088 0.657643993626857
-0.022780167974515 0.340569755120177 0.667277497975845
-0.0231938645827855 0.340515290928455 0.685762278084325
-0.0343714375379029 0.339043735531948 0.67536000968722
-0.0262198197780318 0.340116916369413 0.698575075148345
-0.0258267464216921 0.34016866545851 0.70309674569631
-0.0282085811335755 0.33985509096985 0.710723174708879
-0.0260907562773971 0.340133907901619 0.722703911183771
-0.0209288094351557 0.340813491095813 0.733666618501108
-0.026505519798836 0.340079303248113 0.740593399941867
-0.0354758668549852 0.338898334653945 0.742430565335435
-0.0230429101733708 0.340535164453476 0.756121096883307
-0.0246736767551273 0.340320469960006 0.763801160008339
-0.0284456769286023 0.339823876716268 0.77299244834227
-0.0261367900984288 0.340127847434107 0.780329136686004
-0.0289447045426147 0.339758178484518 0.799030407901857
-0.0213605957586901 0.340756645347896 0.807334104794459
-0.0218392909264418 0.340693623933478 0.81531199226914
-0.0273751225272252 0.339964817877012 0.827587034186433
-0.0312848710700739 0.339450089716407 0.828095840594201
-0.0336136462371151 0.339143500649347 0.837988285919959
-0.0282359932623959 0.339851482094627 0.852581720203919
-0.023802600786001 0.340435149286929 0.86447463996635
-0.0297084968319015 0.339657623321995 0.86744812778297
-0.0268813990264486 0.340029817809007 0.882817946775241
-0.0310196202637613 0.339485010647545 0.887740569153252
-0.0285858566854944 0.339805421701161 0.893982272533139
-0.0301229474187076 0.339603059867115 0.900818276360861
-0.036182919453956 0.3340482484255 0.901868155464892
-0.0522101084430233 0.318131978252859 0.901868155464892
-0.0554442868597686 0.31285579490179 0.903555674418396
-0.0607679704111084 0.312154918665891 0.914817412586107
-0.0645926129172787 0.309908037555665 0.923341206785484
-0.0693284919405264 0.310330819392725 0.923341206785484
-0.0765139037849162 0.300487855136362 0.923341206785484
-0.0867198695332676 0.286138600754731 0.923341206785484
-0.0994930137149356 0.279909714934321 0.923341206785484
-0.108778417251267 0.273554155567272 0.923341206785484
-0.127968731644896 0.255226881111489 0.923341206785484
-0.124176124028934 0.255187847492864 0.923341206785484
-0.140454191854645 0.243963245350887 0.923341206785484
-0.151580901021244 0.231014345325619 0.923341206785484
-0.161641069691675 0.232314801728582 0.923341206785484
-0.170320536650196 0.220757560281474 0.923341206785484
-0.186562059515829 0.213386038785696 0.923341206785484
-0.192404841763107 0.207217214281255 0.923341206785484
-0.211039860197853 0.191411805925717 0.923341206785484
-0.220008634415395 0.175504040365699 0.923341206785484
-0.224965935719112 0.171136606310262 0.923341206785484
-0.237469166527812 0.16204147034612 0.923341206785484
-0.246522726733743 0.15794105985296 0.923341206785484
-0.25955550185141 0.14323094373338 0.923341206785484
-0.269874019527681 0.133165714693098 0.923341206785484
-0.286102354565124 0.129989206167345 0.923341206785484
-0.328307393759022 0.0923281134507931 0.901868155464892
-0.0132188521393054 0.341828526230104 0.218125643135325
-0.0168429162765256 0.341351409135022 0.2302664972883
-0.00600967070231639 0.342777632971844 0.244355201722893
-0.008452940784249 0.342455970363277 0.259946891606677
-0.0126090961555775 0.341908802128281 0.261144522031603
-0.0122529650308587 0.341955687680318 0.273372212141086
-0.0156407225661427 0.341509680939578 0.273276331317662
-0.00761774984533087 0.342565925336348 0.298248483704233
-0.00601116695416622 0.342777435986551 0.301467861446514
-0.01611820561167 0.341446819104079 0.300460985081355
-0.0108305751026978 0.342142948866904 0.319760382004424
-0.00957113547948495 0.34230875723886 0.324125650879482
-0.012544621591601 0.341917290365659 0.334976415725566
-0.0171880584679132 0.341305970303503 0.335199228663206
-0.0106602302741581 0.342165375189032 0.353642570426314
-0.00740061613364104 0.342594511531803 0.365494067855489
-0.00288659158263548 0.343188794138113 0.384737055319587
-0.00639833346925942 0.342726464547857 0.380292862768242
-0.00778057321431959 0.342544489233155 0.393458307965084
-0.0073971270650699 0.342594970876395 0.396502289761553
-0.0139702775648989 0.341729599196074 0.405155115979325
-0.0112056582060274 0.342093568239548 0.421763815570387
-0.00692714791310318 0.342656844805565 0.426605346190287
-0.00602846705615732 0.342775158384916 0.437461653251423
-0.00211485323756378 0.343290395418726 0.45231794919515
-0.0076065542001706 0.342567399270996 0.452180149419133
-0.00368734689937122 0.343083372700709 0.470670573081011
-0.0132789233974011 0.341820617698943 0.474273498498119
-0.0154912275342717 0.341529362333901 0.482952503488287
-0.0166568489417769 0.341375905364361 0.491984919780655
0.0 0.343568821129483 0.506358120912535
-0.00474808161015868 0.342943724326756 0.512153789873855
-0.013536854202499 0.341786660464247 0.52009465519127
-0.00879088368576709 0.34241147933625 0.531338620339964
-0.0134895192408501 0.341792892230171 0.539321071861202
-0.00452158910673276 0.342973542630517 0.555529606638243
-0.00216551843503841 0.343283725218938 0.563936705046752
-0.00486160314283038 0.34292877893345 0.576755603187356
-0.010488493227271 0.342187984800183 0.573234244211625
-0.0111827988814989 0.342096577726715 0.583953582892027
-0.00840004176000856 0.342462934651939 0.59483031086743
-0.0145216787709953 0.341657005850119 0.597273011907743
-0.00494787259346284 0.342917421344808 0.61848724514656
-0.0161499579803942 0.341442638825432 0.617848161737443
-0.00899792572666187 0.342384221734461 0.627555574763503
-0.00407709477127421 0.343032061419944 0.649125549271918
-0.00933595074210374 0.342339719896931 0.648962777805095
-0.01525618130403 0.341560306757161 0.654318680215622
-0.00162923056033956 0.343354328857067 0.669425691988903
-0.00782958148032339 0.342538037172533 0.674901637997788
-0.00530115561527149 0.342870910752632 0.688560535435828
-0.0145307532941171 0.341655811166485 0.689056517168167
-0.00249283412534675 0.343240633290809 0.713871124564084
-0.00424239247881032 0.343010299563901 0.719319309003137
-0.00943581955044774 0.342326571918882 0.729138633865597
-0.0095634548884454 0.342309768407854 0.727847081978165
-0.0127405748255436 0.341891492633 0.74337509177215
-0.00765134704126776 0.342561502181591 0.753027684595607
-0.0142562031333183 0.341691956380867 0.754966127320628
-0.0109150530864465 0.342131827129352 0.766756168050946
-0.00194924851762599 0.343312197693718 0.788861264576063
-0.0143343327416818 0.341681670422791 0.788138249469302
-0.00695945091945673 0.342652592034099 0.797336607883726
-0.00883429731211489 0.342405763823913 0.808512127576237
-0.00251424909608463 0.343237813956426 0.819638518156806
-0.00753282368667978 0.342577106077245 0.825177192666341
-0.00990304884216503 0.342265060015681 0.829356379180882
-0.0068375014264089 0.342668646989438 0.839853498215458
-0.0203374601574807 0.340891343705166 0.849324669264025
-0.00892216455575056 0.342394195881831 0.863309248808426
-0.00506405909601223 0.342902125101562 0.875942696034064
-0.00226061806144505 0.343271205115602 0.88392468289786
-0.0171486819211106 0.341311154324236 0.88370333066476
-0.00922741152463273 0.342354009355997 0.897348938081243
-0.0157954769413877 0.336523350038354 0.901868155464891
-0.0262809267113167 0.327705205972539 0.901868155464892
-0.036009880956708 0.315414382978056 0.901965844812209
-0.0368844590978552 0.315299242581438 0.904749721525934
-0.04637697707545 0.314049528881294 0.914136643475876
-0.0455586250314639 0.310621650306351 0.923341206785484
-0.0454572676712204 0.307857702328247 0.923341206785484
-0.0572395770555445 0.302589426218208 0.923341206785484
-0.0663615408987946 0.293238892660552 0.923341206785484
-0.0791562802449714 0.278507120400167 0.923341206785484
-0.0951923241390073 0.274220482921564 0.923341206785484
-0.101395354232645 0.263112284180568 0.923341206785484
-0.117205804508751 0.258421889561544 0.923341206785484
-0.128528524439207 0.249539500924002 0.923341206785484
-0.13580960718192 0.234125106088955 0.923341206785485
-0.142548614505721 0.22307344049169 0.923341206785484
-0.157084789428096 0.222190245299576 0.923341206785484
-0.161620430016606 0.215756962566291 0.923341206785484
-0.185169521251508 0.194414195664884 0.923341206785484
-0.18575208497152 0.196036574613004 0.923341206785485
-0.197350268264525 0.187206181947698 0.923341206785484
-0.212484284583164 0.177881960734477 0.923341206785484
-0.21849355938044 0.165957872703335 0.923341206785484
-0.236620720351645 0.154142093739003 0.923341206785484
-0.236217590202496 0.146446599344871 0.923341206785484
-0.247322685127105 0.138512018255148 0.923341206785484
-0.269399651617979 0.122143098180955 0.923341206785484
-0.280909448088485 0.118681677331474 0.923341206785484
-0.290843086928279 0.108520054871288 0.923341206785484
-0.32734282338705 0.0837982463971237 0.901868155464892
0.00733640343050352 0.342602965294548 0.234446279588408
-0.000542035093763063 0.343497460855608 0.247287665942754
0.00628604079548104 0.342741248158822 0.261813139766911
0.00378410756898523 0.343070633916886 0.266756209542883
0.00425839972494439 0.343008192169968 0.267697988773831
0.00468438921210592 0.342952109590038 0.28251581680696
0.00229402288711875 0.343266807286871 0.288342378484149
0.000637042658921035 0.343484952872366 0.297614213755542
0.00880897891915645 0.342409097053581 0.320420021740046
0.00185642075617177 0.343324418700359 0.318160868495773
-0.000621967824311005 0.343486937511993 0.327991477080591
0.00980005824812602 0.342278618984615 0.344472121520768
0.00437462214680032 0.342992891197855 0.344408174394299
0.0113949380789863 0.34206864907153 0.354672457797986
0.00584626788857188 0.342799145360387 0.374580225252457
-0.00139732014958444 0.34338486044186 0.370542348174041
0.00339685501627727 0.343121616682648 0.382528493883477
0.0101223743677178 0.342236185262458 0.394553011761931
0.0023935796885537 0.34325370038531 0.397268476399123
0.00203077988843077 0.343301463885121 0.408155079334913
0.00838872101894335 0.342464425055775 0.42226424713854
0.0118448708005878 0.342009414304985 0.435987871730165
-0.000333351300905115 0.343524934598144 0.435737456970743
0.00295002833899733 0.3431804425307 0.444348253979919
0.0137033977796657 0.341764734586356 0.463346063801992
0.00577454655671365 0.342808587652857 0.473730298867304
0.0024869345271357 0.343241409987649 0.474761687666375
0.000799464255549908 0.343463569663508 0.4873459350805
0.00636807532707822 0.342730448107848 0.499592556329314
0.00250389479588533 0.343239177125908 0.497361107557024
0.00307576713084953 0.343163888704709 0.511454258510822
0.00813535158988158 0.342497781773923 0.524183603380479
0.00274939611675385 0.343206856263855 0.52784776213396
-0.00181544538017675 0.343329813210948 0.530934566307624
0.00291296210515944 0.343185322392961 0.552753785349837
0.00809731285797153 0.342502789667984 0.563206503572882
0.00748128023837251 0.34258389190095 0.568867028652387
0.00603382975490924 0.342774452372232 0.581823604996776
0.0041657909887753 0.343020384341383 0.58719900278723
0.00979327325934719 0.342279512245334 0.594669428081761
0.0113496596187273 0.342074610093911 0.607649708422679
-0.000297091717976838 0.343529708262798 0.607751525871778
0.00935685935743928 0.342336967225502 0.623049473032549
0.0130347887455197 0.341852758635611 0.638763167147483
-0.00284329718431917 0.343194493953783 0.637352248531763
0.0106238161358813 0.342170169201285 0.657720995025117
0.00765694531679097 0.342560765154637 0.660896027833117
0.0122960764817521 0.341950011950134 0.670775847984703
0.0127497167988984 0.341890289069376 0.685175679435427
0.00610525211238487 0.342765049440486 0.692236770247275
0.00632307716104438 0.342736372228794 0.693339470104701
0.00721776748334143 0.342618584013296 0.709676796814034
0.00720759923892514 0.342619922688069 0.715712733124179
0.00234256028173467 0.343260417217643 0.717065449686385
0.00594479727034569 0.342786173721191 0.737137052828719
0.00672436013974371 0.342683542322408 0.742955121721082
0.0123582407372859 0.341941827870633 0.753601020140278
0.00793485778699912 0.342524177283823 0.758161351716163
0.00800340000230891 0.342515153529988 0.774872641904829
0.00630877397419719 0.342738255279065 0.785995156979903
0.00216284366887212 0.343284077358585 0.786501269555372
0.00887842895107788 0.342399953783422 0.802663528820347
0.00596765795673231 0.342783164054732 0.814689712851721
0.0046301085693349 0.342959255772229 0.81159778391511
0.000637987151417654 0.34348482852757 0.823389130708474
0.00308942595115256 0.343162090486902 0.829410697211649
0.00480664020985466 0.342936014940851 0.841450488296265
0.00581744189814336 0.342802940374023 0.859572059175995
0.00300398919143288 0.343173338449705 0.866426952766406
0.00517717388181362 0.342887233257498 0.870992300984923
0.00343794191701753 0.343116207489547 0.880031081657425
0.0103893370574296 0.342201038957595 0.885470693204638
0.00894827451916611 0.342390758439937 0.897064023281339
-0.0042264637883391 0.335192958072139 0.901868155464891
-0.0125111444653351 0.334292713605875 0.901868155464892
-0.0196019266562073 0.317574531142016 0.902779044622397
-0.0280991891544581 0.31697014541745 0.901868155464892
-0.0179788649500364 0.317788211269372 0.915601913420846
-0.024123862612045 0.314499853777108 0.923341206785484
-0.035417131697715 0.304485933084724 0.923341206785484
-0.0461863639646688 0.29774513782728 0.923341206785484
-0.05601182757528 0.297362904402601 0.923341206785484
-0.0641565161724711 0.278581248158056 0.923341206785484
-0.0740037304621523 0.274977483049704 0.923341206785485
-0.0919189457961496 0.26833800850869 0.923341206785484
-0.0926806053740179 0.254587035540777 0.923341206785484
-0.106885169899014 0.251813528412652 0.923341206785485
-0.111462853518189 0.246355755623996 0.923341206785484
-0.130854355615451 0.235099641179747 0.923341206785484
-0.133533982172707 0.232036244372741 0.923341206785484
-0.141437911602396 0.216241452785769 0.923341206785484
-0.1587593113876 0.204746911731611 0.923341206785484
-0.161911381476994 0.194494349467038 0.923341206785484
-0.189760687303817 0.18142315742662 0.923341206785484
-0.196210179053492 0.174538388283495 0.923341206785484
-0.202214261600593 0.16871459562534 0.923341206785484
-0.207403423970334 0.165571478252499 0.923341206785484
-0.22224640040583 0.155253372349341 0.923341206785484
-0.237846126283218 0.13947019354643 0.923341206785484
-0.24632504987842 0.128004074566862 0.923341206785484
-0.257840583457906 0.117224096324793 0.923341206785484
-0.271927033833416 0.11340363697603 0.923341206785484
-0.286798857894142 0.0990321606686952 0.923341206785484
-0.297190637041949 0.0913104772974443 0.923341206785484
0.0109918336314694 0.342121718778835 0.243123496586961
0.0135525985267335 0.341784587684639 0.250739969937134
0.0180496469846023 0.341192540023389 0.267464905521411
0.0111821617672201 0.342096661604402 0.264925297345984
0.0160512203090345 0.341455637886473 0.273652711137004
0.0226999705473274 0.340580313311767 0.299851289155348
0.0216216448406287 0.340722277584266 0.304871053310967
0.0203188335376296 0.340893795946191 0.30760543284524
0.0139179633677653 0.341736486490786 0.314315005194361
0.0241912355876879 0.340383984544639 0.326135016771238
0.0136073896449641 0.341777374297078 0.338303409037278
0.0237111306469679 0.340447191559188 0.345340462381331
0.0171964464208356 0.341304866008552 0.354691459668254
0.0166004028120866 0.341383336638315 0.361275415052524
0.0188611543834423 0.341085703047521 0.369187797562692
0.0219585875577821 0.340677918234009 0.385707238930971
0.0146867782349043 0.341635270093345 0.389573496693976
0.0163030782279847 0.341422480162406 0.400163158498392
0.0146349027465585 0.341642099630949 0.409949358887374
0.0192010489102119 0.341040955084155 0.419263685620899
0.0131792453012079 0.341833740569262 0.420373045778637
0.0100366596384131 0.342247469820651 0.436126864268531
0.0196617347633625 0.340980304640985 0.443002981955738
0.0207032335362779 0.340843188726296 0.458286692404435
0.0227683505603957 0.340571310912261 0.467141904916876
0.0202189106975031 0.34090695103766 0.483997864398766
0.0233907004602427 0.340489376993573 0.483388626726764
0.0187489832814212 0.341100470653259 0.493025305025722
0.0193785411218967 0.341017587791185 0.500643603033417
0.01411485406995 0.341710565338092 0.508278855705459
0.0177606739420528 0.341230584046176 0.521325359182044
0.0205455560030244 0.340863947367363 0.531482005244886
0.0135627666737455 0.341783249022689 0.538389952593458
0.0179485907457329 0.341205844329633 0.549077500086247
0.017288138387719 0.341292794532103 0.553161642609147
0.0216588045344406 0.340717385417766 0.570438343422955
0.0117970652363437 0.342015708026916 0.571230059416595
0.0231599534254293 0.340519755417017 0.590005765780977
0.0170006136026628 0.341330647888174 0.5865734966154
0.0189521997585495 0.341073716696494 0.609852502498544
0.0127674825797891 0.34188795015995 0.61185085296201
0.0138819118157693 0.341741232767649 0.615436567757449
0.0173730323100828 0.341281618035193 0.62776128304462
0.0164544782177693 0.341402547975616 0.638661125153625
0.0172129350173059 0.341302695243645 0.646494742139745
0.0224974432047481 0.340606976542247 0.654976717617174
0.0163029299950274 0.341422499677645 0.667458144382889
0.0170125847201456 0.341329071860659 0.669436919243923
0.0105183448672683 0.342184054757221 0.676595274021212
0.0156548702764036 0.341507818358188 0.690158460480639
0.0164983109260259 0.341396777290098 0.700014674972338
0.0146411080359827 0.341641282689099 0.707007560426746
0.0228988835682453 0.34055412591576 0.725832528082107
0.0200507903044206 0.340929084507304 0.725795114037211
0.0175853865006371 0.341253661075634 0.734018349477488
0.0168895036041755 0.341345275796981 0.750543711260633
0.0181018793407041 0.341185663503253 0.757906491145441
0.0190488237539599 0.341060995906172 0.766418239073096
0.0128532667307532 0.341876656462222 0.776203809976712
0.0201709993553064 0.340913258685523 0.78065278335046
0.0214593401451269 0.340743645402799 0.793533485811345
0.0147239648242767 0.341630374385978 0.795083881311865
0.0199134626537917 0.340947164035498 0.813114590933881
0.0151106318081775 0.341579468711812 0.818526760143669
0.0157201535341304 0.341499223654257 0.826053100881911
0.0212710646689611 0.340768432339471 0.840155573588415
0.0136862293632885 0.341766994851251 0.844419060660757
0.0124520697487851 0.341929475046923 0.854341239634718
0.0149143775807897 0.341605306071011 0.862874553493658
0.0115660261092613 0.342046124905037 0.868344587149299
0.0186212530206226 0.341117286661111 0.893096610652159
0.0167053255948349 0.341369523291912 0.898992878156225
0.0115121197382276 0.334997371885482 0.901868155464891
0.0132391386593142 0.33827971505909 0.901868155464892
-0.00258227420450496 0.321434771923758 0.901868155464891
-0.00537158812881876 0.32124659872144 0.901868155464892
-0.00949182876668753 0.318905550780025 0.911763366409691
-0.011100173333803 0.318693808200782 0.922710254036235
-0.0233154206807616 0.30627807999613 0.923341206785484
-0.0306356315301496 0.303348089698348 0.923341206785484
-0.0390859116791026 0.298579924222026 0.923341206785484
-0.0507006925738481 0.278260896072187 0.923341206785484
-0.0612322426495174 0.276664153737497 0.923341206785484
-0.0600373449530929 0.276184672188768 0.923341206785485
-0.0762605445294405 0.264936117407502 0.923341206785484
-0.0867083265328822 0.254014124293911 0.923341206785484
-0.101893412145729 0.236710722906793 0.923341206785484
-0.107260290491896 0.235101108139763 0.923341206785484
-0.11933935342849 0.231948921902836 0.923341206785484
-0.134780957539401 0.211891717407437 0.923341206785484
-0.14815866365156 0.204659720014276 0.923341206785484
-0.150036048665513 0.200779878518318 0.923341206785484
-0.158902433268001 0.186198257602325 0.923341206785484
-0.172337659448703 0.174406297261458 0.923341206785484
-0.181897637683117 0.17306990612233 0.923341206785484
-0.193636768267161 0.159817290711683 0.923341206785484
-0.206657891624863 0.149622528290583 0.923341206785484
-0.219929991530821 0.133408412166601 0.923341206785484
-0.236367125111313 0.134543337049736 0.923341206785484
-0.236528761549036 0.12730022470357 0.923341206785484
-0.254234704933981 0.114576755182564 0.923341206785484
-0.265126944405516 0.0939233320423437 0.923341206785484
-0.283903317555499 0.0917953765624876 0.923341206785485
-0.293870324211417 0.0862805833084659 0.923341206785484
-0.295181371064324 0.0779238817512346 0.923341206785484
0.0296955993512537 0.339659321307536 0.255703441391863
0.0296232691388512 0.339668843760649 0.254965884904865
0.0224938635001909 0.340607447819293 0.268552677916956
0.034138456707168 0.339074408040205 0.282688263820883
0.0296841831871266 0.339660824274056 0.288236887033178
0.0261556946138478 0.340125358607436 0.29227213752739
0.0277355593377136 0.339917365470689 0.298668208763389
0.0315282448711542 0.339418048947648 0.313061817481756
0.0285738319811104 0.339807004783527 0.321918926215122
0.0347678276311017 0.33899154978616 0.33846334535065
0.0240915749707919 0.340397105113764 0.337348946670861
0.0266334763473479 0.34006245744892 0.345385400479936
0.0303008929738098 0.339579632890352 0.367424309501842
0.0328847903764714 0.339239456343782 0.369826819307675
0.031638064428432 0.339403590928649 0.389530400899625
0.0235834726369791 0.34046399805504 0.384697299093261
0.0284995384813863 0.33981678570832 0.4021527294364
0.0285505858969671 0.339810065188564 0.407446224497011
0.0338166699889511 0.339116772065348 0.420396459782199
0.0341060458899696 0.339078675005238 0.427209231662343
0.0320724154237352 0.339346407535288 0.43351261458475
0.0316850812581192 0.339397401045591 0.449891222962085
0.0295613366102317 0.339676997332724 0.451695579820954
0.0321936260009077 0.339330449860069 0.456756723458999
0.0276850019368649 0.339924021478783 0.470683378545955
0.0305768804868047 0.339543298444963 0.486654385528275
0.035358480792513 0.338913788822252 0.49097818028241
0.0298092453087904 0.339644359533385 0.495682067110587
0.0251592796302879 0.340256539128656 0.50093106256645
0.0307151906459502 0.339525089567071 0.519469468111076
0.0271592216951258 0.33999324176079 0.527756379451406
0.0315313666642941 0.339417637955785 0.536490928223512
0.0304264247445031 0.339563106319214 0.543508093416445
0.0340099942766295 0.339091320440031 0.553834682928552
0.0226771166026142 0.340583322090668 0.560200561645399
0.0308376105963425 0.339508972674847 0.56569371648995
0.0315123553964667 0.339420140836676 0.585009254404525
0.0240717434087647 0.340399715988436 0.587996697556896
0.0344864013541473 0.339028600258408 0.603978893117754
0.0262664091728032 0.340110782759231 0.60566344776052
0.0271296018896096 0.339997141282164 0.614177769351527
0.030332766774193 0.339575436624924 0.621347200008951
0.0308408780392437 0.339508542507828 0.635909048064011
0.0219420901568702 0.340680090158043 0.643785541721513
0.029456259666655 0.339690830974785 0.657299825597472
0.0302072279557601 0.339591964123915 0.668214362641683
0.0325315515001429 0.339285961124096 0.674121174103134
0.0341020087409852 0.339079206505985 0.685640684258844
0.0252552995041701 0.340243897872441 0.690525129038108
0.0377328361685163 0.338601199006841 0.700535340240864
0.0259093416616847 0.340157791588877 0.707015652482712
0.0301162008333064 0.339603948071935 0.717710268056787
0.0291872685150754 0.339726244331719 0.724433738607888
0.0216452905853886 0.340719164562912 0.732337527077001
0.0286336561674921 0.339799128779974 0.742392063642249
0.0250933410846749 0.340265220102873 0.74912813038886
0.0332531079680814 0.339190966412941 0.766902635491937
0.0294698882211128 0.339689036741552 0.777725815780503
0.027701224775254 0.339921885701591 0.780473398531535
0.022625126922437 0.340590166661912 0.784768216320203
0.0267232006240607 0.340050645023796 0.803293531041855
0.0277737143700261 0.33991234226539 0.809154148692311
0.0277453196263305 0.339916080504316 0.818960465088606
0.0298184104843888 0.339643152915127 0.822175077043623
0.0247337510675699 0.340312561026732 0.837515206053508
0.0336664490057801 0.339136549032973 0.845223072439934
0.0297504329775015 0.339652102323688 0.856860555428112
0.0334344978586263 0.339167085980814 0.866519916506727
0.0361751279202579 0.338806275188237 0.875214847730185
0.035198818498342 0.338934808762051 0.886063779298329
0.0360789775476598 0.338818933624934 0.898524449252171
0.0311031081093847 0.339474019264151 0.896118457000624
0.0293293679380811 0.331249895742728 0.901868155464892
0.0142901925831413 0.329778133603782 0.901868155464892
0.00273418532532069 0.319795211416885 0.902118786394978
0.0109876997291764 0.318708615631744 0.912125681623021
0.00774178100268648 0.318474698992135 0.923341206785484
-0.00238461916338946 0.317906129250015 0.923341206785484
-0.0070269282604692 0.304368666919577 0.923341206785484
-0.0252883593373847 0.292982328194188 0.923341206785484
-0.0280840235744301 0.286721304070837 0.923341206785484
-0.0380430311058588 0.28289302250421 0.923341206785484
-0.0409490010740223 0.271958858152876 0.924844320377926
-0.0634226746068053 0.257619926486781 0.924844320377926
