ply
format ascii 1.0
element vertex 863
property float x
property float y
property float z
end_header
-0.224402968862096 -0.131673784252848 0.406479666546376
-0.222047702909822 -0.13474322660164 0.413691582866794
-0.226099144113138 -0.128828139001537 0.422876888892133
-0.224209270418352 -0.131926216979414 0.434781474738203
-0.22275608572435 -0.133820044144063 0.445683751366587
-0.221475848925285 -0.135488481223848 0.457123513538303
-0.221806768928478 -0.135057217879307 0.464367234534133
-0.221567250436839 -0.135369364454875 0.476848395678477
-0.222196486163624 -0.134549328490231 0.483061647547196
-0.225341175091237 -0.130451090090074 0.485540735173001
-0.22426161322646 -0.131858002503802 0.496058006189416
-0.222790381368689 -0.133775349190182 0.506353808538678
-0.221720730538184 -0.135169345292576 0.516937020587631
-0.223043762317223 -0.133445136709057 0.52583731789503
-0.224693124088964 -0.13129564659913 0.539193698702817
-0.223500346444101 -0.132850104690075 0.544775961601168
-0.225364973094837 -0.130420075927958 0.549266853571069
-0.221784634065371 -0.135086064594532 0.560387715563599
-0.223862637835494 -0.132377957356447 0.570751442680761
-0.221214975516255 -0.135828458069596 0.582380597039589
-0.221452175988641 -0.135519332395533 0.587925754642883
-0.222616374390978 -0.134002119498586 0.600687713545188
-0.225479872215453 -0.130270336478655 0.603493596808736
-0.225384545069898 -0.130394569233463 0.6221738390161
-0.224933955643448 -0.130981788806746 0.622925226766805
-0.222292889181614 -0.134423693631167 0.6375187283744
-0.22477700052314 -0.131186336701929 0.648218115211915
-0.222688360982951 -0.133908304745422 0.651092691628284
-0.224924094316637 -0.130994640338057 0.664578914787862
-0.225680949550978 -0.129837749985213 0.675276756646359
-0.222928353102164 -0.133595540926382 0.677355116569144
-0.224810128325095 -0.131143163709875 0.68871268101601
-0.225787304044855 -0.129580987523678 0.7009142950777
-0.222047053420959 -0.134744073032006 0.709473040432844
-0.223250074092957 -0.133176265968204 0.723571979384726
-0.225398508714358 -0.130376371457705 0.723180309586259
-0.220952417502597 -0.136170630334838 0.737480203313796
-0.222543842948456 -0.13409664431481 0.748143182751708
-0.225758723853689 -0.129649986208805 0.759678692689721
-0.224338070141122 -0.131758361912685 0.76507022220975
-0.223894513528479 -0.132336416144573 0.771671288669472
-0.221632605227083 -0.135284192433993 0.78355482171449
-0.222704264190153 -0.133887579282287 0.795703162580876
-0.223575538803641 -0.132752112099277 0.802947770879669
-0.220354745745874 -0.136949531332829 0.806863902875305
-0.223018170326993 -0.133478488840066 0.827464469396262
-0.223104883791516 -0.133365481652933 0.828047510016492
-0.22137132043299 -0.135624705407192 0.84151304077902
-0.225234191584761 -0.130590513710188 0.843660573361762
-0.22151151506955 -0.135442000199691 0.861287811277315
-0.226602564411211 -0.127612774890355 0.860687306752453
-0.224519751269446 -0.131521590456487 0.873207719810929
-0.223374906830905 -0.13301358077675 0.88092096104308
-0.22332472703888 -0.133078976354921 0.89304021284149
-0.221438586391894 -0.135537042702821 0.902934932768813
-0.221733180269663 -0.135153120486627 0.910110807826627
-0.223470247896126 -0.132889329881481 0.917354345935183
-0.225806769921198 -0.129533992741007 0.925591896708879
-0.21984564879438 -0.135049822612826 0.942788060313668
-0.224040880293101 -0.129291065157723 0.943344094083778
-0.221898686185578 -0.128133293045573 0.95155287807663
-0.219193403541064 -0.126716376033125 0.961734369055488
-0.21554568285983 -0.12609770778541 0.972818250448979
-0.216380291966631 -0.121198077522343 0.977825450711753
-0.213228591483099 -0.123743063701894 0.98390598149184
-0.213631830407487 -0.130474728414442 1.0
-0.210806931156731 -0.119350637884999 1.0
-0.190645318164943 -0.0981506313087304 0.984375
-0.176935690243636 -0.087502769776448 0.984375
-0.176327503838904 -0.0836325354496407 0.984375
-0.160176600607203 -0.0670858598918968 0.984375
-0.162682386447227 -0.0633718362915155 0.993745833523004
-0.157914655169328 -0.0590667959190393 0.997395833333333
-0.129037235759557 -0.0313510108909712 0.984375
-0.119181051844404 -0.0236242218333895 0.984375
-0.118576256653713 -0.0212816542827245 0.984375
-0.105907147739693 -0.00456638353097976 0.984375
-0.087452094006408 0.00370935953300954 0.984375
-0.0837499091779628 0.0062586949901671 0.984375
-0.0668223818471384 0.0261412378363076 0.984375
-0.0695734651069482 0.0317652731102515 0.989956246896848
-0.0689089227433444 0.0308992246406747 0.994735581005664
-0.0606317916874404 0.044311004732074 0.997395833333333
-0.0521471406590155 0.0468543187843731 0.997395833333334
-0.0321419053230242 0.0630831204262802 0.997395833333333
-0.00530527493564531 0.0923796968633786 0.984375
-0.00137298713844542 0.103562067331083 0.984375
0.00572494944982313 0.103356902047272 0.984375
0.0280971446674908 0.130528072282196 0.984375
0.0337256390664954 0.129341430779175 0.984375
0.0406804621740417 0.144233867073607 0.984375
0.055540876320158 0.154597756551546 0.984375
0.0660324523644703 0.161519033858135 0.984375
0.0681779424822194 0.178341358045787 0.984375
0.0796687194001581 0.187025926225672 0.984375
0.0969837236425147 0.202489895612179 0.987501592247209
0.102934610310977 0.209015764326434 0.99568437313097
0.114182528228147 0.220795556292042 1.0
0.11797630828786 0.22118329225733 1.0
-0.226963223406684 -0.126742067052091 0.244950834107414
-0.228682453075713 -0.122591479468287 0.250188296022973
-0.227298138282215 -0.125933511017344 0.265901223268534
-0.227389319205907 -0.125713380794739 0.271497531275097
-0.229298502177333 -0.121104205372069 0.278179001285986
-0.228048482438472 -0.124122019978861 0.279401435534173
-0.228641278435322 -0.122690883843545 0.296839424503583
-0.227624056297107 -0.12514667532557 0.309877093020761
-0.225906726838675 -0.129292675395178 0.317075706417033
-0.228105542164982 -0.123984265613256 0.322306484518124
-0.22798750264852 -0.124269238214795 0.340535914494688
-0.226671541788622 -0.127446248770313 0.339487043589693
-0.227554138565804 -0.125315471660733 0.357286179002939
-0.226599866112724 -0.127619289159159 0.360691236754227
-0.227606632447301 -0.125188740220081 0.366618282859243
-0.22895810809163 -0.121925989390324 0.377245375285858
-0.227732092492867 -0.12488585287654 0.382250079480633
-0.226320129595997 -0.12829463285173 0.399583263905888
-0.227895524926984 -0.124491292077562 0.39958557007824
-0.229087867407408 -0.121612722690331 0.411256547242379
-0.226984780246581 -0.126690024236851 0.420424340240085
-0.227908847682025 -0.124459128101656 0.433368251092808
-0.228643924203886 -0.122684496393195 0.438593425352295
-0.227831154395293 -0.124646696288189 0.452178853989539
-0.226797213036643 -0.12714285153894 0.459268835171149
-0.228563591637564 -0.12287843636431 0.46956523190214
-0.228211305103869 -0.123728931291798 0.480635350601704
-0.229591114042349 -0.120397777839038 0.487322622069593
-0.227502042212078 -0.125441243384447 0.496190918657565
-0.226948975436247 -0.126776464695559 0.509201603852817
-0.228540696986394 -0.12293370894167 0.513072208743386
-0.228824818967058 -0.122247777802583 0.516731116579656
-0.22871460477095 -0.122513858409593 0.539151756368788
-0.227460144835505 -0.1255423925992 0.543684468248663
-0.227593483918087 -0.125220483577636 0.553014578670554
-0.227639135540303 -0.125110270812138 0.557270201917323
-0.227179120474688 -0.126220845422441 0.574289012968551
-0.226938937609886 -0.126800698152096 0.573808990780696
-0.22738890587173 -0.125714378671716 0.594940997021406
-0.230319003454506 -0.1186404973483 0.592993660232765
-0.227997895073427 -0.124244148681637 0.600433461861305
-0.230322998998595 -0.11863085125157 0.614995800900736
-0.230300323007771 -0.118685595936159 0.627431191742224
-0.229380965032102 -0.120905122429694 0.627403058984296
-0.228476590510429 -0.123088475665382 0.646574473757037
-0.227386748479367 -0.125719587077616 0.650646254398977
-0.228802713504918 -0.122301145109086 0.667042027245762
-0.229609653273758 -0.120353020175133 0.671924750617732
-0.226375419468043 -0.128161151292775 0.682115652266227
-0.22711835560172 -0.126367544802874 0.69112462053175
-0.226833202216636 -0.127055965972503 0.694460953713606
-0.22975098994762 -0.120011803260237 0.70535335799497
-0.2301178859257 -0.119126038013974 0.715705093198483
-0.229268901808954 -0.121175666982862 0.721035563354312
-0.227717433878 -0.124921241903359 0.732155934401999
-0.227946197943836 -0.124368956593033 0.736984698170958
-0.228125093084635 -0.123937065517873 0.754031902722966
-0.229622313010079 -0.120322456868009 0.759316445089252
-0.228453359655964 -0.123144559909297 0.764131450545509
-0.228607732429158 -0.122771871066592 0.781794786568497
-0.229788156809226 -0.119922074518875 0.787333685980671
-0.228759679778697 -0.122405037714567 0.797326928714499
-0.227933757163728 -0.124398991293096 0.811204944984391
-0.228298806288954 -0.123517684744043 0.815409036086686
-0.227187595953069 -0.126200383807585 0.82696776144892
-0.22800220482442 -0.12423374402234 0.836397783904201
-0.228284881090841 -0.123551303146188 0.846428906782434
-0.227464684731134 -0.125531432321598 0.860255939402501
-0.22908166805211 -0.12162768925797 0.868210568059857
-0.226773376674034 -0.127200397608828 0.873722912248562
-0.229553271109734 -0.120489138760196 0.879727069028554
-0.226171365366955 -0.128653781471081 0.890627931164815
-0.229359014118517 -0.120958116622977 0.901184854306021
-0.227470825106372 -0.125516608144423 0.91584925922585
-0.230151391661272 -0.119045148012739 0.916484191911956
-0.227702010752226 -0.124958476622775 0.926951229094251
-0.22735076388962 -0.125806461562222 0.935581686072958
-0.227750599254765 -0.119786467898398 0.944055506415749
-0.224046020797695 -0.123568895540826 0.950749147156041
-0.21977986041794 -0.123631774324533 0.964025039028739
-0.223422232453343 -0.113411315650532 0.965875725004721
-0.219746503583084 -0.117637124340205 0.971904011047437
-0.220063197081055 -0.108393371616084 0.982900766933755
-0.222344216068297 -0.116809594739365 0.994031247147458
-0.216383791402739 -0.116174754832576 1.0
-0.19058452008147 -0.0867707511769721 0.984375
-0.179870410680983 -0.0731817905431376 0.984375
-0.175859349740808 -0.0739144251205647 0.984375
-0.171812505987369 -0.0630799169485442 0.984375
-0.165369666767208 -0.06072317625198 0.99512552778782
-0.162199419399056 -0.0519550407913599 0.997395833333333
-0.13814163703808 -0.0244238994155519 0.984375
-0.128089172291633 -0.0263209056393449 0.984375
-0.123395683665861 -0.0161600233141938 0.984375
-0.117808972429601 -0.00651219413249768 0.984375
-0.101970843142633 0.00338544778607493 0.984375
-0.0902369612072148 0.0119077199488729 0.984375
-0.0822288026724675 0.0384335397083522 0.984375
-0.0738082521274346 0.037284155003927 0.991992806949331
-0.0700002564777845 0.0454848149644181 0.997395833333334
-0.0643912844761893 0.052179615551048 0.997395833333333
-0.0499540695457528 0.0652095153856282 0.997395833333334
-0.0491075055953552 0.0689514021391689 0.997395833333333
-0.0165841680103402 0.101781749792455 0.984375
-0.0136367622596891 0.103761493253172 0.984375
0.00340634916979445 0.118097603320515 0.984375
0.0153377924637886 0.137595834661885 0.984375
0.0205984215531504 0.14346063228786 0.984375
0.0342163070468231 0.151494136600841 0.984375
0.0471186255615697 0.162996185887411 0.984375
0.0599585179675305 0.173341944316862 0.984375
0.0698094955123204 0.187940416005493 0.984375
0.0837839392321808 0.204120969561263 0.984375
0.0850078680163038 0.212502836365432 0.992099901521378
0.0948823078646364 0.21485931665029 0.997967136349276
0.0949118373894924 0.216622074202251 0.999582602818789
0.106668539357171 0.226403442734616 1.0
-0.230962424240346 -0.117087142160812 0.236505631657494
-0.232575369403942 -0.113193148071495 0.246947897946303
-0.229481870769851 -0.120661514429099 0.254093856528689
-0.232898616900011 -0.112412759582481 0.258230043586933
-0.233015529697091 -0.112130507122155 0.272399553559024
-0.233136048100516 -0.111839549958091 0.280322533177354
-0.230544403373667 -0.118096333806503 0.290096553296367
-0.232489341149643 -0.11340083864977 0.295217902280865
-0.231371394518385 -0.116099800568964 0.305991801198949
-0.232448739125398 -0.113498860607361 0.318311107976386
-0.230978251389425 -0.11704893204285 0.334234766665345
-0.23215606592653 -0.114205436213412 0.339893668685792
-0.231474251697551 -0.115851481372032 0.349954611593722
-0.23123753376231 -0.116422969021749 0.356676303556089
-0.233370901181111 -0.111272564465755 0.360913493415236
-0.229590156939098 -0.120400088490686 0.375091928723224
-0.231370106053827 -0.116102911197572 0.377051235202192
-0.232070874142186 -0.114411107374578 0.385544694979705
-0.231924915377036 -0.114763483004951 0.400608516473034
-0.232423351201184 -0.113560152478321 0.413377764564152
-0.231356071853936 -0.116136792753286 0.416428101223982
-0.232203647862485 -0.114090563258305 0.435553785712281
-0.231880914404651 -0.11486971074924 0.434151629268657
-0.231356546450246 -0.116135646976438 0.450949357833619
-0.230078339030504 -0.119221512664707 0.453155581640866
-0.230638000155881 -0.117870371185487 0.463284665952408
-0.232413883246318 -0.113583010143366 0.470691400864759
-0.229688814852284 -0.120161907218637 0.483144989853602
-0.23318494374523 -0.111721505429482 0.495390983323428
-0.233172507019681 -0.111751530340973 0.506096104080962
-0.231248754378305 -0.116395880058436 0.513053057579971
-0.232446485938179 -0.113504300282503 0.520773909140541
-0.233436569685572 -0.111114026671664 0.53323959653231
-0.231778335686236 -0.11511735768245 0.541835834950852
-0.232224558971949 -0.114040079374232 0.543768654443412
-0.229705832286881 -0.120120823497238 0.558301235444747
-0.232721066048975 -0.112841405255064 0.573389077890689
-0.232696554856393 -0.112900580508625 0.569373020394951
-0.232592966719012 -0.113150664394791 0.586373118028408
-0.231692163977039 -0.115325394591486 0.592476299307718
-0.233298935319954 -0.111446305423786 0.605628974354459
-0.230446034633049 -0.118333816954219 0.610663945517191
-0.23179273457087 -0.115082595699882 0.617562908795722
-0.231977890368721 -0.114635590061558 0.630540477038795
-0.229907193349935 -0.119634694887877 0.645112536684646
-0.231457951532902 -0.115890833450597 0.649379587107039
-0.232323745814306 -0.113800621154207 0.659767027725668
-0.233075009004654 -0.111986911371156 0.661617942717862
-0.232893961435688 -0.112423998867588 0.675108155365533
-0.231096205439132 -0.116764165776312 0.685860764070637
-0.232732519447633 -0.112813754304689 0.689812437484073
-0.231171336960689 -0.116582782238007 0.708540783146746
-0.232012925242882 -0.114551008393202 0.706289170424879
-0.23025049688784 -0.118805886830656 0.72462040745073
-0.230743672646287 -0.11761525522598 0.73316739178093
-0.232630059947622 -0.113061113419208 0.733729237070276
-0.231953088159197 -0.114695467892168 0.75364213395157
-0.232037701722687 -0.114491192679629 0.760616283225039
-0.229721934956452 -0.120081948213967 0.766900662201012
-0.229874669910212 -0.11971321341715 0.781532105355104
-0.230307846885654 -0.118667431688133 0.791694897112785
-0.231010376753049 -0.116971374554294 0.795562254180946
-0.231381905515926 -0.116074424776145 0.807832912384802
-0.230889377800012 -0.117263491867749 0.811243301143545
-0.234128090769667 -0.109444547091774 0.820452853613215
-0.230996114169626 -0.11700580747663 0.836614831824933
-0.23307694399219 -0.111982239898005 0.839604336076071
-0.233570963495797 -0.11078957131232 0.852818109398786
-0.232517922318679 -0.113331837603854 0.864684116714718
-0.232769716996827 -0.112723951476936 0.874284801779517
-0.233812401710591 -0.110206687899688 0.879428477079224
-0.2294064165608 -0.120843677003928 0.888775249260305
-0.231015533016648 -0.116958926232783 0.895381705278901
-0.232132881870607 -0.114261407475653 0.910266775577856
-0.232334443341725 -0.113774795038427 0.919179988533538
-0.232449963790649 -0.113495904003903 0.918022516290946
-0.2333489059292 -0.111325665701224 0.926965395590545
-0.230995435362849 -0.116304043193418 0.938412251591832
-0.231427272144769 -0.107858799678215 0.94801289552574
-0.225973636052966 -0.111681712340278 0.960130367925999
-0.226166032141694 -0.106796542312774 0.965863605259174
-0.223187215245869 -0.105997543660207 0.976226575775301
-0.221834111589591 -0.105832376855149 0.980677379230057
-0.222595158346225 -0.10175847322939 0.983578018266108
-0.227498637784459 -0.104365719926017 0.997915108340711
-0.218031700849253 -0.104407094973433 1.0
-0.188652182294903 -0.066987038259266 0.984375
-0.186051795147682 -0.0630864309518158 0.984375
-0.173788315331857 -0.057782586449351 0.984375
-0.17216589814013 -0.054024616997462 0.991909247387261
-0.163509043799479 -0.0456567861151522 0.997395833333333
-0.141200989390674 -0.0198308638529104 0.984375
-0.134491898885946 -0.0177229988532668 0.984375
-0.120042655816102 -0.00116514591672882 0.984375
-0.119250096973733 0.0114710915451104 0.984375
-0.10327438582018 0.0154263951842847 0.984375
-0.0936591924924205 0.0342995150051862 0.984375
-0.0952040119863543 0.0282029147134939 0.984375
-0.079156288315464 0.0424494379153587 0.992967622761375
-0.0822395795306486 0.0448153304765685 0.993824521242999
-0.0782112819622984 0.0554070817015045 0.997395833333334
-0.0551208991055437 0.0699062808112889 0.997395833333333
-0.0365845649317708 0.100388395557001 0.984375
-0.0216351305729505 0.102979018865147 0.984375
-0.0108466455001833 0.119686909951938 0.984375
-0.00448738487330638 0.125892252579097 0.984375
-0.00415111683757295 0.134669179170888 0.984375
0.013661563194303 0.146565559244648 0.984375
0.0273486647050554 0.157916223535808 0.984375
0.0398676822300455 0.174490956744145 0.984375
0.0460896160304451 0.180882599224036 0.984375
0.067020494529004 0.198432987870006 0.984375
0.0661525402567588 0.207006740698195 0.984375
0.0783112075175331 0.214466600379684 0.991362622128649
0.0851979783605086 0.221104300293078 1.0
0.0888542654344621 0.226077239430236 1.0
-0.237327918124565 -0.101719480494328 0.226810491493821
-0.23600460787368 -0.104914234049242 0.247022199156565
-0.234676564285744 -0.108120414890658 0.249655056759404
-0.235803870119903 -0.10539885785689 0.255723902268053
-0.235927534941782 -0.105100304566722 0.265673800710827
-0.236710662913158 -0.103209666397152 0.277243626846303
-0.233332096844015 -0.111366246422651 0.28891529235819
-0.234804704766781 -0.107811056403452 0.30055369877851
-0.237004794892328 -0.102499568983911 0.304622124296085
-0.235847986229203 -0.105292352147499 0.310507089087886
-0.234578385403196 -0.108357439680445 0.325389623071289
-0.236252426019538 -0.10431594812051 0.335630655610682
-0.235760445136746 -0.105503695040172 0.341311273753003
-0.234911452540593 -0.107553344480161 0.351244857640144
-0.237631462245086 -0.100986660161787 0.36307631136716
-0.234064148468054 -0.109598917463538 0.373251708075737
-0.236431477857886 -0.103883678744002 0.375296736817784
-0.23468848910207 -0.108091625837355 0.388013423353755
-0.235148473622591 -0.106981124969432 0.389510871262498
-0.235234354677847 -0.106773789761082 0.411685955478244
-0.23700939517553 -0.102488462917817 0.417562928803981
-0.235509250662337 -0.106110132147084 0.429072651415044
-0.235833964056839 -0.105326204666192 0.426137371462167
-0.235020113270871 -0.107291014271426 0.445665111768315
-0.236602774661956 -0.103470131676424 0.447486140548391
-0.235653916317751 -0.105760878359775 0.453273811812673
-0.235238019306761 -0.106764942564257 0.471373636431639
-0.236270050108001 -0.104273399807115 0.482392527619137
-0.233607527224826 -0.110701298661807 0.495903626237692
-0.23637269792022 -0.104025586066711 0.496371148620093
-0.234022424481978 -0.109699648076598 0.50653112036074
-0.235125121167141 -0.107037502784096 0.514511749637864
-0.236722481689769 -0.103181133346367 0.529300817551632
-0.235554559464618 -0.106000747022123 0.536397441163923
-0.235052184088728 -0.107213588467998 0.542124335456377
-0.234679270533027 -0.108113881431767 0.554709512074633
-0.235413483858839 -0.106341333662915 0.566635218029137
-0.234413474857128 -0.108755568957342 0.578426225733655
-0.236340376165956 -0.104103617684212 0.580645368226031
-0.234902616210055 -0.107574677269186 0.587241532206343
-0.235219263720623 -0.106810222554681 0.606759173803593
-0.238192206815582 -0.0996329030146682 0.609487789916771
-0.236414201817338 -0.103925386795396 0.623620218691551
-0.235862353357757 -0.105257666830891 0.630511202706634
-0.235320819627966 -0.106565044905837 0.641760207110612
-0.23738604185895 -0.101579157386479 0.644901010902509
-0.236450697425244 -0.103837278603824 0.655672930963306
-0.234748748076104 -0.107946147804987 0.664589354558681
-0.236817048769865 -0.102952828219045 0.672101332819484
-0.236498769024195 -0.103721223497669 0.684619370016551
-0.237224065987657 -0.101970201731731 0.688666522359517
-0.235890604120973 -0.105189463455189 0.699027519997087
-0.233555637422167 -0.110826571727134 0.71477688433055
-0.236205079157753 -0.104430253556367 0.721128737792376
-0.233786834341619 -0.110268412988615 0.733122578272341
-0.234430597019544 -0.10871423240062 0.743448798119117
-0.236693617431547 -0.103250817830035 0.749439754549098
-0.236616399758882 -0.103437237782637 0.755205544231653
-0.234345014523563 -0.108920846823119 0.765526408413374
-0.237010221087335 -0.102486468990335 0.772914597120447
-0.238020641073865 -0.10004709935516 0.782220905603796
-0.236487480270089 -0.103748476960934 0.790195520814806
-0.234266635848762 -0.109110069682823 0.798408204087843
-0.235670023225771 -0.105721992843984 0.80954788159738
-0.236236729168748 -0.104353843670572 0.814083744296263
-0.234733240372018 -0.107983586714514 0.831454308374688
-0.234711796557514 -0.108035356662318 0.840653570888498
-0.23512212593873 -0.107044733905148 0.846457249140341
-0.233538645245514 -0.110867594470464 0.854742132935374
-0.233842344601414 -0.110134399366568 0.867612545924605
-0.235972630942306 -0.104991433190648 0.875308768975136
-0.234471792020247 -0.10861477887122 0.882147221308437
-0.238028416011443 -0.100028328995414 0.893537648272744
-0.235627811130556 -0.10582390185675 0.905557392785015
-0.234110969295503 -0.109485881986909 0.908851795973116
-0.234174185049019 -0.109333265657415 0.929413996892895
-0.233926272174721 -0.109931780280831 0.936059857002972
-0.233999737244475 -0.106050194938794 0.94230405230554
-0.23376635756167 -0.104426521659985 0.945140529817956
-0.233017968270853 -0.0994008168494768 0.954001647639957
-0.23003124220309 -0.099621611689388 0.963066799942866
-0.225090484760113 -0.103195852643494 0.973900943460202
-0.227702825986588 -0.0945126271066926 0.976983022624839
-0.226328539665576 -0.0917286228602803 0.984896550092565
-0.230978398340735 -0.0959648347972442 0.997515537316476
-0.222023311818854 -0.0932043328823989 1.0
-0.202677500784024 -0.0744239790186449 0.984375
-0.192433475577954 -0.0606528340102971 0.984375
-0.178468732386104 -0.0467158625804325 0.989187922067035
-0.178748485097282 -0.0461726614506329 0.992553419383204
-0.168050195674563 -0.0355563608897386 0.997395833333333
-0.162787199068547 -0.0339108164707303 0.997395833333334
-0.149862760382019 -0.0122813623338858 0.984375
-0.13715876628451 0.000662978575028436 0.984375
-0.129100991909867 0.014545344636045 0.984375
-0.107811991868949 0.031714747864621 0.984375
-0.108327850871344 0.0320337788894207 0.984375
-0.0913167848737205 0.0503540697132914 0.986014870933523
-0.0880907619068154 0.0490178072478722 0.987298436061826
-0.0861008135659917 0.0477781595587904 0.996662317056292
-0.0800731403860796 0.0655110944690809 0.997395833333333
-0.0697962419371189 0.0696911482681924 0.997395833333333
-0.0464275521667049 0.0971049331485337 0.984375
-0.0241991510731137 0.120307520406755 0.984375
-0.0253592424206434 0.118788399895281 0.984375
-0.0145332485042931 0.132102434677236 0.984375
0.00199554946891714 0.146488273128452 0.984375
0.00847682246990884 0.161789519054838 0.984375
0.0143589013581117 0.162083479557957 0.984375
0.0332818258855771 0.174300839167252 0.984375
0.0431568512342602 0.190193206108132 0.984375
0.0512012665474016 0.205769609662246 0.984375
0.0561365730425288 0.212199547875815 0.984375
0.0736360669373288 0.217796296482692 0.992630602250675
0.0726795217091304 0.223348822969395 0.99732350431084
-0.239228900420465 -0.0971301032537354 0.225253250380735
-0.239623036555552 -0.0961785744509855 0.240705892860412
-0.237705195481186 -0.100808652383196 0.250168876973847
-0.238230930681146 -0.0995394153332354 0.26143346199893
-0.239890898256939 -0.0955318990986585 0.265412961020045
-0.239420423915378 -0.0966677246348015 0.281178379358193
-0.239220957926451 -0.0971492781305011 0.274749845549783
-0.240350511473687 -0.0944222946373392 0.292052705055162
-0.240726234356049 -0.0935152193590464 0.298792291472845
-0.238540667991898 -0.098791643316846 0.305581377133995
-0.237550308829076 -0.10118258183935 0.323583487769893
-0.239640044720447 -0.0961375131086269 0.32635292451452
-0.239363430941491 -0.0968053178453213 0.344299383845327
-0.23955429087468 -0.0963445412061012 0.347363440728393
-0.240801996968877 -0.0933323122316371 0.356540543346654
-0.238635929715281 -0.0985616611722799 0.373562864394757
-0.23774222407176 -0.100719257457637 0.373600550133689
-0.241220050894088 -0.0923230407755892 0.386375965146247
-0.239436954234509 -0.0966278169141653 0.39338076791758
-0.238731585225605 -0.0983307283419381 0.41005738200802
-0.239597035851733 -0.0962413457027771 0.411301190325282
-0.239080949853727 -0.0974872875185152 0.42126054133839
-0.240409765411224 -0.0942792429777129 0.431518296623305
-0.239817194432648 -0.0957098358708599 0.439843147241275
-0.240910644883905 -0.0930700129616521 0.448799837315759
-0.238294366400686 -0.0993862679587844 0.461431290326837
-0.237870896937523 -0.100408613680003 0.468005140562908
-0.240322163179215 -0.0944907334743234 0.477263838904561
-0.241323082721025 -0.0920742999416415 0.486413032378604
-0.239504511950208 -0.0964647181606813 0.498909142334195
-0.240683797701007 -0.0936176705071899 0.502456798368205
-0.239679865712511 -0.0960413767295174 0.511741253538509
-0.240524448727918 -0.0940023729591712 0.520835323918184
-0.239150001933028 -0.0973205810521544 0.536158200775591
-0.238762976245011 -0.0982549437171535 0.542027327795205
-0.237955251921812 -0.100204962732879 0.547321598984512
-0.240728677777231 -0.0935093204184893 0.558366221395068
-0.238398077186443 -0.0991358879732435 0.57079495452715
-0.239720878549075 -0.0959423629832509 0.58078566854161
-0.23982845613071 -0.0956826477266639 0.588800652094633
-0.24017503550464 -0.0948459311016811 0.590816772469897
-0.241213560611119 -0.0923387097047551 0.605057532351806
-0.240700191015769 -0.0935780935443605 0.616522618593608
-0.240786471290498 -0.0933697945349452 0.624905101426543
-0.238375966652565 -0.0991892675240048 0.633044108933923
-0.241192314244822 -0.0923900029704229 0.638527946476657
-0.241122549596658 -0.0925584297301921 0.652127521291541
-0.238160868204303 -0.0997085611150433 0.658018762045319
-0.239140679112185 -0.0973430883326754 0.668794325339774
-0.240784340246037 -0.0933749393313816 0.676378533383434
-0.239290461839188 -0.0969814808417345 0.689245201517998
-0.238848141518327 -0.0980493365592715 0.697151146046545
-0.241345756969041 -0.0920195594645634 0.708433373404898
-0.239794739598165 -0.0957640466368071 0.715497853969893
-0.242137713133034 -0.0901076081526474 0.722347494390239
-0.238802711580463 -0.0981590141314005 0.735999083238533
-0.238054293500464 -0.0999658552104581 0.748679280310413
-0.239268993405925 -0.0970333102244813 0.755117878388028
-0.239880156193594 -0.0955578327336716 0.766763666290866
-0.239429036207911 -0.0966469327213647 0.77450305370572
-0.240102880382677 -0.0950201289757203 0.779625476191358
-0.238885141115765 -0.0979600116293321 0.792460472804427
-0.239140049780066 -0.097344607674811 0.803701404158489
-0.242056625594791 -0.0903033707872119 0.80924449755959
-0.241426008933972 -0.0918258140824199 0.814416440240336
-0.241491973217263 -0.091666562215066 0.820367303186507
-0.240897177628628 -0.0931025257919886 0.836265078261152
-0.239571965127414 -0.0963018717854461 0.849678532518296
-0.239285551742772 -0.0969933348630928 0.855685438010081
-0.239040180627621 -0.0975857131371065 0.867560041994383
-0.240647381729253 -0.0937055864400873 0.870555387720512
-0.240414662143252 -0.0942674212208403 0.883163857558801
-0.23981479363133 -0.0957156319179636 0.88965524358562
-0.240947478932534 -0.092981087701896 0.901250923873467
-0.239624418520562 -0.0961752380923161 0.916283153515217
-0.241583727908374 -0.091445046795376 0.916535860478477
-0.239087661638003 -0.0974710838378851 0.93354497209104
-0.239726673936547 -0.092937927238392 0.941378342059432
-0.237655824720156 -0.0918817438431362 0.949231992076003
-0.234839171905355 -0.0970312666290084 0.951372516955391
-0.237688068525533 -0.0860542611139189 0.956688765925439
-0.232223543686881 -0.0881633277279622 0.971063038031963
-0.231448098146206 -0.0852687879727496 0.977244936892446
-0.2321293875776 -0.082210910052755 0.979077602318047
-0.23435750107185 -0.0878069591551358 0.998815377652642
-0.231748707274678 -0.082382010766552 1.0
-0.210434536604133 -0.0584129451261319 0.984375
-0.195486326054926 -0.0456279604197203 0.984375
-0.190464901283146 -0.0424269070217746 0.984375
-0.181861721930149 -0.0401276306166863 0.988562306865481
-0.186870735854898 -0.0304015335516931 0.995348751694336
-0.172962090652397 -0.0299133230944379 0.997395833333333
-0.168585228441144 -0.0151162811879896 0.997395833333333
-0.136713135272936 0.0167291895277364 0.984375
-0.134457309643093 0.0164238987141125 0.984375
-0.124238461128518 0.0252284202806005 0.984375
-0.107897540347696 0.0395484312681532 0.984375
-0.106076570173955 0.0473705411082103 0.984375
-0.101157391576518 0.0542882734070705 0.99352587797381
-0.103709003194803 0.0578372313670614 0.997395833333333
-0.0900286941090092 0.0720327711617451 0.997395833333333
-0.0623932736662819 0.0984520649630698 0.984375
-0.053118239125642 0.10867498107977 0.984375
-0.0419572176457663 0.118063580158521 0.984375
-0.029909748886 0.127562387881124 0.984375
-0.0245724341093076 0.137179907389074 0.984375
-0.0136265628758124 0.151507238055417 0.984375
0.00857406730065473 0.165505566250161 0.984375
0.0145276640536374 0.178363886183449 0.984375
0.0247964472288247 0.187589682515255 0.984375
0.0412376444318341 0.197627111898112 0.984375
0.0467515570300947 0.209523371679028 0.984375
0.0469935065812342 0.218265096919181 0.985867639081065
0.0568176008197765 0.229225954652811 0.997836182705153
0.0671478226108001 0.238051947503686 1.0
0.0750617185860224 0.237804077622208 1.0
-0.242616803717167 -0.0889509811668268 0.22625865784316
-0.243108806573831 -0.0877631811975432 0.241082414703891
-0.243159509230051 -0.0876407741572513 0.242098800738796
-0.242910774317211 -0.0882412733572638 0.251780533778019
-0.242362599460939 -0.0895646845298261 0.257935517859519
-0.241770124292425 -0.090995046117022 0.274958212479732
-0.24143102944624 -0.0918136934936131 0.286358661260289
-0.244795857818477 -0.0836902792023004 0.28820823169394
-0.243559028824254 -0.0866762485344893 0.306165983211884
-0.24279444877448 -0.0885221080601741 0.30691035173594
-0.241752741761902 -0.0910370112579589 0.321599303102766
-0.244419917659233 -0.0845978790333876 0.326141383544012
-0.243931064673986 -0.0857780745403784 0.337357013883814
-0.242269246095851 -0.089790059489915 0.340521958740179
-0.244028873307842 -0.0855419436100065 0.346388374074633
-0.241903763811778 -0.0906724117769317 0.362639965222249
-0.244800461338128 -0.083679165322724 0.374755088155914
-0.244406902119424 -0.0846293013261172 0.383201283440395
-0.244449677116998 -0.0845260333468447 0.386670891654914
-0.24313421874474 -0.0877018307898864 0.402609830041374
-0.24148891222496 -0.0916739521041986 0.409175141375013
-0.241900614504506 -0.09068001487726 0.424131572776737
-0.242477513896304 -0.0892872565414551 0.429207820192763
-0.24169837902612 -0.0911682545119715 0.43850883772193
-0.240974735138874 -0.0929152853988896 0.452883501048198
-0.243033299474994 -0.0879454714596116 0.45150560393743
-0.242208080534406 -0.0899377262179074 0.468434477460467
-0.242756640086594 -0.088613386307244 0.479539580665889
-0.240984457818276 -0.092891812774414 0.485045978499217
-0.242610680575768 -0.0889657637378378 0.496101436208568
-0.242725832803576 -0.088687761667727 0.505443955719834
-0.241627998265041 -0.0913381686999 0.512070260589466
-0.242634813554575 -0.0889075015731026 0.527716743009653
-0.245166197595617 -0.082796199889643 0.529787398301584
-0.242826253217887 -0.0884453253415587 0.538842809951093
-0.241659715873696 -0.091261595618918 0.550619906849848
-0.242831455597159 -0.0884327656869637 0.564766591589898
-0.242666650892308 -0.0888306394405566 0.56752072708589
-0.242182051756047 -0.0900005652476325 0.57774499216514
-0.243111021094119 -0.0877578348726301 0.579952776506797
-0.242440879251103 -0.0893757003987537 0.589852495570687
-0.242896258557476 -0.0882763175012847 0.605293335499725
-0.243152272126555 -0.0876582460706621 0.61618760133509
-0.243188404767187 -0.0875710141596043 0.628044492637351
-0.244248425261977 -0.085011898304687 0.629303986594085
-0.243263356190504 -0.0873900654169119 0.646447625905885
-0.242838421399195 -0.0884159487532147 0.642952743734001
-0.243185908333868 -0.0875770410827796 0.666090854851181
-0.244054854821746 -0.0854792186867666 0.658880040329575
-0.243017722486234 -0.0879830776371362 0.677089456405502
-0.243858305546964 -0.0859537306116218 0.688087076009574
-0.240726877263379 -0.0935136672434509 0.693524894140653
-0.243435565735865 -0.0869743147969323 0.698468675975997
-0.243265402644017 -0.0873851248410852 0.715688416486298
-0.243720679639753 -0.0862859889433431 0.717451641794077
-0.242676669479073 -0.0888064524325122 0.73831784159521
-0.241938522204729 -0.0905884975932638 0.742952965057602
-0.242985712868993 -0.0880603556892055 0.754233891781813
-0.243501731870994 -0.0868145756161327 0.762358607382314
-0.241626497792809 -0.0913417911603106 0.771099166603373
-0.242343566877533 -0.0896106332508133 0.778888998913379
-0.244232970996864 -0.0850492082011183 0.786730824348267
-0.245407204667127 -0.0822143573489752 0.794834966308911
-0.243846017848409 -0.0859833957401239 0.80271286865745
-0.244624198638201 -0.0841047011234292 0.812107444393528
-0.245130896792848 -0.0828814235664498 0.820455055488188
-0.245661748133127 -0.0815998350611446 0.829078503290874
-0.242878000571783 -0.088320396177965 0.844617694834337
-0.242942810203198 -0.0881639318868287 0.849589634922845
-0.243617253198698 -0.086535682460047 0.864581860699148
-0.242131036356693 -0.0901237273166416 0.876152943129506
-0.24271919004744 -0.0887037986996803 0.874819405309367
-0.24382395606222 -0.0860366576035508 0.885343545734948
-0.241574211733896 -0.0914680208728639 0.903970056067063
-0.243478163938616 -0.0868714736381163 0.903719215924625
-0.243075746535432 -0.0878429951906191 0.918051537620451
-0.244377983711025 -0.0846991165398771 0.925394200651055
-0.243520223166973 -0.0856980289228144 0.938890165702432
-0.240412600505669 -0.0885395031018895 0.944935058433591
-0.243795201908591 -0.0789341407459367 0.94680136631404
-0.238641510294793 -0.0838307376405607 0.956587232562571
-0.237166478042921 -0.080064946969924 0.966089487904821
-0.235028094305224 -0.0790497603597786 0.974101420757334
-0.232051881068591 -0.0811658473513607 0.980675630799191
-0.233137907127984 -0.0740280720166625 0.986532323367398
-0.232894235563099 -0.0771656761378321 1.0
-0.230825609092849 -0.0775876375630325 1.0
-0.202773916435555 -0.0382147091260673 0.984375
-0.194217809875685 -0.0346165109694966 0.984375
-0.188660174766903 -0.026926946175515 0.987259751213079
-0.181803817405346 -0.0226780714040298 0.997395833333333
-0.184575737345614 -0.0200981070491779 0.997395833333334
-0.151883088416934 0.0117188598440611 0.984375
-0.151239665661179 0.0127472808670638 0.984375
-0.136422451083222 0.0216395868177362 0.984375
-0.127866990762652 0.0375702280945932 0.984375
-0.11579593747576 0.0546246142507037 0.984375
-0.106384679350272 0.0549764588980934 0.986575005056031
-0.11369131418323 0.0559383956228112 0.997242976861076
-0.0974449962188075 0.0730699336258649 0.997395833333333
-0.0942965022605579 0.0731929718776135 0.997395833333333
-0.0717169777515877 0.105289884650178 0.984375
-0.058117610991202 0.108047368962741 0.984375
-0.0470213025788709 0.125581845934946 0.984375
-0.0392261873822475 0.137655043121501 0.984375
-0.0288862841299353 0.145057235557952 0.984375
-0.0121078528172406 0.168492171156959 0.984375
-0.0141459708450444 0.164576612769395 0.984375
0.00134467618713405 0.182080888566539 0.984375
0.0115120552528038 0.188775739337662 0.984375
0.0299556047985127 0.206887287430177 0.984375
0.0353315109117631 0.219201190112873 0.985282371344042
0.0416096141098425 0.226497086099134 0.99321543860418
0.0460886369254807 0.230917876080734 0.998109095016445
-0.247572446118314 -0.0769870020717089 0.220779105121706
-0.249339239607227 -0.0727215852688608 0.233034143949735
-0.246710847776474 -0.0790670844738981 0.236473746306436
-0.248448409024535 -0.0748722405433742 0.246770150493986
-0.246767793615312 -0.0789296050574513 0.262679824636426
-0.248064308116712 -0.0757995421643597 0.272374460879007
-0.246397945364099 -0.0798224977215506 0.272095870754493
-0.246521806433822 -0.0795234706471761 0.282906046747004
-0.246286817155641 -0.0800907849495732 0.288697269704841
-0.247926757766909 -0.0761316180843629 0.300670831071894
-0.247897854811106 -0.0762013959922558 0.321700782815892
-0.246841933925408 -0.0787506145153021 0.319665397109543
-0.248395124371482 -0.0750008810754403 0.329946103544188
-0.246301373395006 -0.0800556430790787 0.346215018665161
-0.247385593424896 -0.0774381043783241 0.351309906744124
-0.247834433153732 -0.0763545094176362 0.363698798050797
-0.246702543952267 -0.0790871316789161 0.36616453531831
-0.246960428318703 -0.0784645437439425 0.373362992463702
-0.245612421273174 -0.0817189206354337 0.38665381352072
-0.247652242511786 -0.0767943565363595 0.388550273486255
-0.248300156501631 -0.0752301537948267 0.408663386061752
-0.245326283256579 -0.0824097189158073 0.420992718577712
-0.247137670136961 -0.0780366441424851 0.423688648583143
-0.247748107762697 -0.0765629173474513 0.438687892848467
-0.247766702816632 -0.0765180249160463 0.439571786978181
-0.246562574195783 -0.0794250485633418 0.45148890720595
-0.248076246264648 -0.0757707209257025 0.461456607857837
-0.247275479269107 -0.077703943466639 0.465585103615272
-0.247756232997155 -0.076543301296224 0.47569604461823
-0.245961620805255 -0.0808758783891091 0.495540117506808
-0.245962454201658 -0.0808738663922116 0.49939862779124
-0.247683710870606 -0.0767183851977105 0.508220284172059
-0.246594718763567 -0.0793474447118403 0.517657599718518
-0.245720068851871 -0.0814590363909856 0.525217074697095
-0.248624038545567 -0.0744482333717438 0.529374240675966
-0.247888971363725 -0.0762228425314037 0.548819930888813
-0.248383325808709 -0.0750293653257032 0.548604194215559
-0.248052944955609 -0.0758269752620062 0.560760011520419
-0.246711036386569 -0.079066629128847 0.572320929818331
-0.248198567323126 -0.0754754117673607 0.583024939633337
-0.246056936542654 -0.0806457658431718 0.586604443066054
-0.248647055568959 -0.0743926653617057 0.60056856089713
-0.248254148189118 -0.0753412276868752 0.604653419674389
-0.247122114090174 -0.0780741997616137 0.620828607573151
-0.246338629158267 -0.0799656997101383 0.629013074510347
-0.24875028582179 -0.0741434454852766 0.631822100074242
-0.246291278979372 -0.0800800131542093 0.643169198679043
-0.248399978519262 -0.0749891621260368 0.655558672390336
-0.246669647081432 -0.0791665517506459 0.66166532982619
-0.248132213137785 -0.0756356049415305 0.67684047485653
-0.248429140540781 -0.0749187587781791 0.686835278722821
-0.24752775872368 -0.0770948869858996 0.693242989537045
-0.248287485134723 -0.0752607451806674 0.698289061882792
-0.246255775608062 -0.0801657258747348 0.707842800456332
-0.24806330676265 -0.0758019596469174 0.718182047940077
-0.248911254644258 -0.073754832370953 0.72731104685216
-0.246600779556446 -0.0793328126634748 0.735731858652584
-0.246083760520106 -0.0805810070330125 0.743114644147503
-0.247635568625701 -0.0768346108582827 0.758857478449069
-0.248366324574948 -0.0750704099348272 0.768159982471362
-0.248450994753027 -0.074865998042579 0.779468282559261
-0.247424632276114 -0.0773438562542521 0.787679115126074
-0.245454835609704 -0.0820993660814178 0.792754010152063
-0.249258961344682 -0.0729153941390624 0.79919516973256
-0.248733168681317 -0.074184769917954 0.808504821922116
-0.247690603615444 -0.0767017446396399 0.820820084818387
-0.247170914890127 -0.0779563842085135 0.821639568972034
-0.246587962164971 -0.079363756583808 0.839721765752011
-0.244733141517847 -0.083841689745864 0.847023232847551
-0.248594657890046 -0.0745191645487765 0.855035258278144
-0.2462005401607 -0.0802990760408799 0.869419906391789
-0.246979118950727 -0.0784194205666195 0.872902819469821
-0.245981305262016 -0.0808283559066273 0.887832608562895
-0.248481393202371 -0.0747926096938967 0.887804435888253
-0.248747150101567 -0.0741510157835649 0.907380825563695
-0.244737525554265 -0.0838311057456867 0.919945101166344
-0.247150614332426 -0.0780053940902377 0.925205654056443
-0.245969676991388 -0.0808564290352844 0.931029892338486
-0.246869381565586 -0.075475284858332 0.94166187384414
-0.244834417764448 -0.0769435543717298 0.946129173613471
-0.24506219969829 -0.0735959313972899 0.949757554507804
-0.242762041144914 -0.0700740151430973 0.961527014526249
-0.241703812297152 -0.071003137715799 0.963635362022061
-0.237539660067229 -0.0723046466876973 0.97498547033082
-0.237892012187348 -0.0615495256022534 0.985956259180433
-0.240920344115275 -0.0719628544719709 0.993105323824628
-0.238640461214187 -0.0687781861292627 1.0
-0.204899991297289 -0.0358114550458701 0.984375
-0.204450879017757 -0.0335188542486391 0.984375
-0.199805328809633 -0.0204299381475636 0.984375
-0.190508878502768 -0.0186435478422709 0.989569425813009
-0.187890347468685 -0.0136956923696225 0.997395833333333
-0.173306423643852 0.00652257891026127 0.997395833333334
-0.151056815103921 0.0241033452141405 0.984375
-0.151041722512776 0.0314921716738131 0.984375
-0.137172058710522 0.0440148830257864 0.984375
-0.124290561857991 0.0548033104456364 0.984375
-0.128975333450055 0.0552860253890182 0.997395833333333
-0.115104977543939 0.0616002946296343 0.997395833333333
-0.114793722059483 0.0676295010479538 0.997395833333333
-0.0811841735834239 0.106356828919458 0.984375
-0.0782073997391067 0.11023629438223 0.984375
-0.0696027936995432 0.123139174942556 0.984375
-0.0516534609220269 0.132595096954572 0.984375
-0.0363679602973033 0.150249699052088 0.984375
-0.043237943474655 0.15212939005272 0.984375
-0.0234382112311253 0.166911402617979 0.984375
-0.010989149616645 0.175273866076258 0.984375
0.00159341662213395 0.196418200589877 0.984375
0.0176139857239079 0.211330468897558 0.984375
0.0183558404870255 0.213260298677593 0.984375
0.0238972092518866 0.221336994166754 0.985898123459699
0.0356554860593203 0.22734649403289 0.993279442970279
0.0309233568489913 0.233758833314204 0.998933819658618
-0.252040589341212 -0.0636226237933235 0.215070006032593
-0.251548917593718 -0.0673572414914635 0.223960398551827
-0.250429567199891 -0.070089301607224 0.238864964696399
-0.251862453232059 -0.0649757018770504 0.244573853448307
-0.250420952935634 -0.0701100982808216 0.254588642845119
-0.24953426913877 -0.0722507423287477 0.265895333257268
-0.251032455140204 -0.0686338013651271 0.267786949406874
-0.250226141868999 -0.0705804137999927 0.27890498386358
-0.250526902727771 -0.0698543128557133 0.290356710700336
-0.248659272093301 -0.0743631720629538 0.307254718476532
-0.25004353258095 -0.071021271619814 0.309153661410511
-0.250917705297246 -0.0689108319922763 0.315658573102642
-0.2522727467582 -0.0618592131384316 0.325347224691288
-0.249448231213396 -0.0724584562550635 0.336419369806618
-0.248935306272769 -0.0736967666032053 0.346799743855677
-0.251493019967491 -0.06752189951274 0.357336712451752
-0.250862760824908 -0.069043479682574 0.361409748679902
-0.248906235643543 -0.0737669493105491 0.375428774185206
-0.250338656579876 -0.0703087792590259 0.386472519039028
-0.249871967266346 -0.0714354669291658 0.391868225323181
-0.251357568382072 -0.0678489085673041 0.402578460029027
-0.251157181814431 -0.0683326845366179 0.407276938270181
-0.251684428202304 -0.066327936228978 0.420980832611727
-0.251344843675683 -0.0678796287260463 0.429298788496976
-0.250627613745144 -0.0696111749516904 0.436195650544969
-0.251740739791768 -0.0659002072417103 0.450596930577572
-0.251273405820495 -0.0680520949649071 0.456724397644795
-0.250797051098061 -0.0692021169963064 0.469744184902553
-0.25045849639215 -0.0700194603589225 0.473090462861585
-0.250353211207325 -0.0702736412800433 0.489576161703408
-0.250540104355868 -0.0698224413061145 0.497769556597275
-0.251998885043908 -0.06393939938109 0.504012882493131
-0.251966176175296 -0.064187847904373 0.504893824507874
-0.251164916655577 -0.0683140109782218 0.524025832688337
-0.249596677661127 -0.0721000748276663 0.52826955455889
-0.248570542479927 -0.0745773842989446 0.539851258287515
-0.252376878554348 -0.0610682536195778 0.54872976149754
-0.250147029779301 -0.0707714072798888 0.55608438078344
-0.252080940059884 -0.0633161296560205 0.567610789463814
-0.251552403039549 -0.0673307669019574 0.574721207421687
-0.249584490451629 -0.0721294973541237 0.589255071473778
-0.250903513255697 -0.0689450946114627 0.599362495698489
-0.250507732704683 -0.0699005933854446 0.60014802014572
-0.251066270202716 -0.0685521645825994 0.613525936398176
-0.252046352678726 -0.0635788468986993 0.617288715653532
-0.249603426195965 -0.0720837824233333 0.628141081734197
-0.251462679593215 -0.0675951476558042 0.649025645072362
-0.25178364265058 -0.0655743276754431 0.650766291842482
-0.250135337750585 -0.0707996343341862 0.656505234568599
-0.25141954000287 -0.0676992958398897 0.668811847466727
-0.250673782476401 -0.0694997137745337 0.678966662918707
-0.24950499950798 -0.0723214054683654 0.693262981283784
-0.251994075233789 -0.0639759335160849 0.691882673872208
-0.249774207903918 -0.0716714789077884 0.706017028315201
-0.251025835574184 -0.0686497824111901 0.719761225779787
-0.251572217121947 -0.067180264004093 0.729577922778099
-0.249221793586757 -0.073005125044327 0.733740449127026
-0.251434925651977 -0.0676621515971514 0.74189164216126
-0.251552311983342 -0.067331458542514 0.747912351084078
-0.250392243035719 -0.0701794101105696 0.759898015795732
-0.250809865550565 -0.0691711801712768 0.778395225968728
-0.250702267096034 -0.0694309458194963 0.783602432040306
-0.251714471570487 -0.0660997341915416 0.782788218366001
-0.251908802507709 -0.0646236441759078 0.796678530943841
-0.251277683101068 -0.0680417686961381 0.803810050910097
-0.251645065917075 -0.0666269224688936 0.820406710572992
-0.250133959105166 -0.0708029626786541 0.829397451515159
-0.250379378520173 -0.0702104677984748 0.835728801355994
-0.251956635706577 -0.0642603149588791 0.846539456752742
-0.251720065245319 -0.066057246012933 0.854377281710744
-0.249554152705348 -0.0722027391526463 0.869430181394923
-0.248539184648517 -0.0746530888008238 0.872304034353116
