ply
format ascii 1.0
element vertex 854
property float x
property float y
property float z
end_header
-0.14054641059657 0.23453546602374 0.298760689685661
-0.140925047002917 0.234244928090518 0.296137636728883
-0.144363790225426 0.231606287611157 0.316087009578702
-0.142425376731147 0.233093684599179 0.321674286459176
-0.145231223256886 0.230940682835854 0.327497493409049
-0.141493960825953 0.233808385160268 0.334962051422833
-0.139375018429805 0.235434306846806 0.348921029552245
-0.144966085162285 0.231144130451383 0.355494148892735
-0.145804385603727 0.230500879898629 0.364760619430721
-0.144673877491975 0.231368349282905 0.371848167600638
-0.143710775342539 0.232107363554349 0.385125488958954
-0.142195290162089 0.233270236233189 0.393099139782399
-0.139984269318039 0.234966812197813 0.402267645277314
-0.144439161860689 0.231548452921292 0.409001188085357
-0.139531980763824 0.235313865411816 0.420931235565376
-0.141108435361719 0.234104209253528 0.433717568609498
-0.143641831245673 0.232160266220535 0.440622942660766
-0.143138344453057 0.2325466052246 0.44838332084125
-0.139515490452608 0.235326518872653 0.454320381161017
-0.141258881507363 0.233988767865738 0.463562084473125
-0.141624115845021 0.233708513701517 0.472876360736383
-0.143698896693339 0.232116478362461 0.483018322713773
-0.141231427540814 0.234009834035198 0.487403532725816
-0.144085344181942 0.231819946775018 0.510084601689862
-0.138566781633589 0.23605448875322 0.512338039898837
-0.141638635808042 0.233697372142027 0.522107236605959
-0.143518318565883 0.232255040833097 0.532802673584668
-0.143052924154483 0.232612150525017 0.543530895133126
-0.146131840365621 0.230249615022486 0.549993204760694
-0.143270043479625 0.232445549007225 0.553160028036305
-0.142616825608188 0.232946780709007 0.568993478032398
-0.142580238512605 0.232974854974861 0.569098810996035
-0.141905143486097 0.233492873608151 0.577940296726869
-0.140691102871079 0.234424439736557 0.590241731977632
-0.144539728880967 0.231471285132532 0.599180844757033
-0.146599906204972 0.2298904554718 0.615880205238199
-0.139218645682386 0.235554295876085 0.622783361792736
-0.139954196552025 0.234989887842779 0.626565093051643
-0.143161327528603 0.232528969690468 0.637735427587276
-0.141169194918595 0.23405758680576 0.650724552342361
-0.138561788284995 0.236058320284356 0.658087189192287
-0.143941032361149 0.231930681129797 0.668514340518853
-0.142634332999674 0.232933346815032 0.680971268359208
-0.141319334289226 0.233942380814716 0.687754661345258
-0.142173294984157 0.233287113726823 0.695106068672504
-0.138404716447212 0.236178845744538 0.70512032934472
-0.146705864966184 0.229809150454709 0.711226097863614
-0.143317852462914 0.232408863884079 0.726343950124277
-0.140194661822553 0.234805372351031 0.731548724699916
-0.145335364915676 0.230860772130491 0.738901315302595
-0.139222740822694 0.235551153564407 0.744541611485375
-0.139772673821886 0.235129175132547 0.753143717985133
-0.140621387315127 0.23447793436412 0.764894231051124
-0.14084619704322 0.234305431792595 0.774072725180211
-0.139246357309608 0.235533031996636 0.782059773141133
-0.144924513216075 0.231176029727652 0.792114564183663
-0.140191774577744 0.234807587811894 0.805341055419944
-0.144558999338308 0.231456498390543 0.812139118765028
-0.141806775619197 0.233568353927173 0.816817228083364
-0.143190093535416 0.232506896757103 0.829384530388702
-0.142480900321889 0.233051079849534 0.84704926517527
-0.144260810326357 0.231685306866932 0.853613461046605
-0.141498116053322 0.233805196742166 0.862991810153943
-0.145842251901076 0.230471824066738 0.869958816857031
-0.143820498946655 0.232023169671692 0.871827082824043
-0.142588969573234 0.232968155396406 0.880329317113424
-0.141051253169494 0.234148086692855 0.894569176062318
-0.141487264463445 0.233813523459942 0.906492529792374
-0.143060908997223 0.232606023539689 0.920976338084014
-0.145039692762192 0.231087649353453 0.924078127833865
-0.139288650298556 0.235500579444815 0.92894452994818
-0.139466299361817 0.227169640810668 0.938008081410618
-0.131835482661787 0.22834575421058 0.941720354795049
-0.132889118578231 0.221217482665395 0.946734179929777
-0.131164930440568 0.218724849817062 0.949761337760684
-0.122427798399428 0.214575702518386 0.958042388619216
-0.115623179185251 0.213183864440519 0.961932294368747
-0.119987354257482 0.206621359114024 0.966168159789193
-0.115819793804387 0.1995108602531 0.97434634786855
-0.112252627419949 0.201035726487749 0.974445564699944
-0.1050145217588 0.195064997083759 0.982731702508683
-0.10052923156778 0.193059085010093 0.98960587169619
-0.0959038905507831 0.191615913942923 1.0
-0.0958389032763483 0.188629969617243 1.0
-0.0681585410912336 0.155378647488599 0.979452054794521
-0.0499560221741453 0.144643180055983 0.980259333100331
-0.046572707771435 0.143211704384061 0.986301369863014
-0.042497516789678 0.133793463781718 0.986301369863014
-0.0234244652142943 0.11509004642597 0.979452054794521
-0.0127206541771432 0.104122803939435 0.979452054794521
-0.00513096910633228 0.0993476279619771 0.986301369863014
0.00594167642211926 0.095064213111113 0.986301369863014
0.0079641546772217 0.0879081668149811 0.986301369863014
0.0138961313240241 0.0847227716025903 0.986301369863014
0.0271234927980132 0.0699128989544652 0.986301369863014
0.0429737284624005 0.0537267980372559 0.986301369863014
0.0629375077068804 0.0431970963097133 0.979452054794521
0.0728646835895441 0.026310221688198 0.979452054794521
0.0906777959562878 0.0170661242153315 0.979452054794521
0.0917912831704954 0.00978991430162098 0.979452054794521
0.106092622702169 6.80490787046098e-006 0.979452054794521
0.114277899968114 -0.00943043328066159 0.983556837729933
0.119086745706871 -0.0210400138825291 0.983230530580407
0.125441898909771 -0.0324124129749141 0.986301369863014
0.139691417705876 -0.0365177240452495 0.986301369863014
0.152899216104119 -0.0429697699270206 0.986301369863014
0.163752944069655 -0.059153674008694 0.986301369863014
0.170835674196528 -0.0703192214817321 0.986301369863014
0.191273266544173 -0.086942455921615 0.992307143490235
0.193162923390982 -0.0823804207338168 0.996668550457031
-0.134091810021852 0.238466171486063 0.257383794091359
-0.135426299673757 0.237913407773396 0.261360734541081
-0.138174345752272 0.236355615396006 0.26925989347154
-0.128858050729217 0.240634065567268 0.281195332703623
-0.133224271548118 0.238825517687763 0.290020294531687
-0.136278522831332 0.237560405383361 0.301471745696505
-0.136707911714812 0.237382546684291 0.30570749944788
-0.13716973836277 0.237126477758293 0.321062201805965
-0.133165598598434 0.238849820819267 0.319527710520077
-0.13754486842987 0.236838630333805 0.337321482721223
-0.138450714149988 0.236143550465813 0.34312492774147
-0.134043835026777 0.238486043379677 0.350070817718735
-0.135694985233855 0.23780211457039 0.364292475604312
-0.13797103558084 0.236511620777475 0.369921525711613
-0.132684795324098 0.23904897605633 0.380765770039778
-0.135307490229847 0.237962620256403 0.400809710141134
-0.133394359838131 0.238755064811239 0.395293667135734
-0.136986301369863 0.237267233913545 0.41463194005787
-0.132645223830031 0.239065367105856 0.417038864782798
-0.136055293584282 0.237652869965007 0.431012699593461
-0.131188649178128 0.239668700081284 0.432559090037605
-0.135060415671502 0.238064961889386 0.449803859553069
-0.138523985302608 0.236087327532967 0.454529371264335
-0.134020431616539 0.238495737389603 0.457235370986453
-0.136014857699984 0.237669619056689 0.482449897435736
-0.137314412015493 0.237015465760109 0.486981283704355
-0.136223297142758 0.23758328061256 0.489195006254483
-0.138274276608061 0.236278935753427 0.507201223439217
-0.137905200909447 0.23656213749758 0.510324710067147
-0.132342582739454 0.239190725150105 0.519511528869761
-0.134948491652653 0.238111322335949 0.521455732717068
-0.13949220326029 0.235344387763792 0.536033705077356
-0.131653132257127 0.239476304890469 0.545094209654945
-0.13193164751767 0.239360940092224 0.556780480233991
-0.137175886568208 0.237188705153165 0.571332759251154
-0.137003683334818 0.23726003406792 0.582644309354844
-0.134524655142179 0.238286881166816 0.590532095377994
-0.133885321637721 0.238551701775242 0.590432027647862
-0.134671334408695 0.238226124625306 0.59793318255543
-0.134825701272957 0.238162183776548 0.611285803647629
-0.133700964263491 0.238628065099972 0.619175708117131
-0.131659246139682 0.239473772437396 0.626740498275915
-0.134859436803181 0.238148210062395 0.64250955206898
-0.134495355153111 0.238299017619666 0.640614003650567
-0.134104297075264 0.238460999179185 0.653233577665894
-0.132860677884202 0.23897612311455 0.670377853354264
-0.135805302308461 0.237756419741926 0.674242805178865
-0.135395959478706 0.237925975093672 0.685514023645915
-0.137930871233675 0.23654243996501 0.69468704177268
-0.13566603747209 0.237814105125914 0.700930568613988
-0.132285689111197 0.239214291262541 0.710522647150875
-0.136986301369863 0.237267233913545 0.719099608139311
-0.131714223255136 0.239451000170555 0.732736797957879
-0.135512342142587 0.237877767815868 0.735222090082595
-0.136990426511413 0.237265525223968 0.748265981083663
-0.133944186485591 0.238527319156907 0.750057662610412
-0.135138908499215 0.238032449095599 0.775165980366257
-0.13596428204889 0.237690568177299 0.779838103710052
-0.138643092294512 0.235995933523622 0.782976779569912
-0.139474533097996 0.235357946556203 0.797537120087247
-0.131680261694383 0.239465067509618 0.800049745822199
-0.134423032970224 0.238328974448677 0.806155210187022
-0.134309771124836 0.238375889041137 0.824069760546788
-0.139741869532356 0.235152812095248 0.833780676609971
-0.137739815226099 0.236689042395839 0.835433320213286
-0.133810706092983 0.238582608545836 0.840863888505234
-0.136489831842031 0.237472878325278 0.862827268127951
-0.135858858555352 0.237734236018115 0.871635545405514
-0.138575468703282 0.236047822930197 0.877164618405881
-0.129480525133497 0.240376228226785 0.8823006260685
-0.134273457299838 0.238390930719952 0.894365879673383
-0.138985127236322 0.235733480881941 0.907396536152562
-0.135371288368004 0.237936194202323 0.911505947383162
-0.1352401688651 0.237990505678718 0.923954851645698
-0.133496633689611 0.23871270159488 0.930036340193873
-0.132479186835691 0.235640287468225 0.934734749896391
-0.128635302371682 0.229718455323106 0.941676800310536
-0.122062705118128 0.225008603720955 0.948543359883471
-0.121162768518889 0.222656122192375 0.951061160245046
-0.11882018302586 0.215565277666513 0.95850871502779
-0.112464792511011 0.217914863836059 0.958770083112117
-0.102277191734003 0.213701443064631 0.966561402357609
-0.103519328228574 0.210434417994557 0.969104394894844
-0.0943109613251041 0.208667648680696 0.974260566355685
-0.0946783003083474 0.199718113045311 0.982388284611749
-0.0940757811998665 0.20068172127711 0.981728600769529
-0.0935105662242748 0.195966311385131 0.995511455826483
-0.0910312303077459 0.191050092827008 1.0
-0.0601151489755033 0.158611057907663 0.979452054794521
-0.0476737188497993 0.154812115346772 0.979452054794521
-0.037148514770493 0.146002926547689 0.986301369863014
-0.0273341232374706 0.137265638835347 0.979452054794521
-0.00988940204673167 0.125914615014746 0.979452054794521
-0.0046713759397078 0.123157005866018 0.97945205479452
0.00232299784660454 0.10573861514217 0.979452054794521
0.0177238794324616 0.102926849475059 0.986301369863014
0.0149742190709167 0.0929878585867059 0.986301369863014
0.0283300356511567 0.0825685947401673 0.986301369863014
0.0444008348879117 0.0736954194408811 0.986301369863014
0.0441125731383958 0.0650448234090903 0.986301369863014
0.0658093873237793 0.0437083900407149 0.979452054794521
0.0797159179935194 0.0344481501292499 0.979452054794521
0.0850701744337916 0.0201882218054662 0.979452054794521
0.0935123135134835 0.017251529559445 0.979452054794521
0.113068307997871 0.00252476930023889 0.986301369863014
0.122876853670019 -0.00424345409177088 0.986301369863014
0.132368777713552 -0.0149807900495708 0.986301369863014
0.13938444662962 -0.0177508593150588 0.986301369863014
0.155989178249787 -0.0393920863689284 0.986301369863014
0.166013346544341 -0.049137187989463 0.986301369863013
0.176866439883169 -0.0611851451957341 0.986301369863014
0.188185951400537 -0.0668096389057056 0.986301369863014
0.195198727857891 -0.0690684349972964 0.986301369863014
0.194918845928714 -0.0781412487287494 0.997135986308422
0.198908671068858 -0.0861046961243545 1.0
-0.127790047734483 0.241076446892342 0.258364138299649
-0.123600487297868 0.242811819645569 0.258487700805201
-0.127613768498914 0.24114946414248 0.263288534324989
-0.126855762494374 0.24146344050992 0.28429305799804
-0.127814062731178 0.24106649955501 0.282734865754996
-0.125888711256443 0.241864006248181 0.294755385959906
-0.124622117406213 0.242388646598964 0.297852133555123
-0.132084582126924 0.239297592502915 0.317818602499555
-0.126786596435977 0.241492090029364 0.329949444105422
-0.125793526980534 0.241903432866188 0.334832706893908
-0.130444569479092 0.239976907984111 0.350115912701296
-0.124225697397386 0.242552849143017 0.343998766340569
-0.122423880800927 0.243299186014179 0.356950357645898
-0.123747760138307 0.242750817237691 0.369306945275444
-0.127674960594176 0.241124117546712 0.377414154903824
-0.128312771920443 0.240859927445137 0.3937753455508
-0.128126730225949 0.240936988438163 0.396652014238602
-0.130770745947336 0.239841801267237 0.409113479445351
-0.124023246973557 0.242636706854274 0.415972913586384
-0.123181768411151 0.242985258687269 0.418436286499723
-0.128122169294898 0.240938877637662 0.430754723325473
-0.128399313054229 0.24082408093382 0.446145729686491
-0.125716896358635 0.241935174309071 0.450779419326479
-0.129001341728881 0.240574712491842 0.462578449183948
-0.124179132004491 0.242572137160291 0.475747022934511
-0.128541417110742 0.240765219506343 0.48076904558808
-0.12403604197819 0.242631406989826 0.487617276351919
-0.130779786650292 0.239838056485459 0.500891380844557
-0.128239813590677 0.240890147774814 0.503059395180803
-0.123636806472254 0.242796775750965 0.519637568863513
-0.122871546820403 0.243113756677499 0.52363143693194
-0.128375814023223 0.240833814551164 0.529969127916526
-0.131117512034462 0.239698166050978 0.545700907841159
-0.124103072547644 0.242603642018864 0.551380202386658
-0.125784459953344 0.241907188551819 0.567699082688221
-0.123481668792538 0.242861035881938 0.569522618498691
-0.123604552598404 0.242810135742952 0.57640194078022
-0.125937124816527 0.241843952694991 0.59369898734339
-0.129255753729125 0.24046933159091 0.599100992392463
-0.1256160023307 0.241976965983804 0.611180357616235
-0.124192769825537 0.242566488189852 0.612936357757423
-0.127606884390453 0.241152315633569 0.627521783731202
-0.12630247137965 0.241692621193579 0.64365208266805
-0.121997297022282 0.243475882800782 0.636682603775986
-0.122082490305106 0.243440594587613 0.651616872332535
-0.123291162358569 0.242939946230608 0.661550823226412
-0.128863937149958 0.240631627331963 0.670181182768194
-0.120776664001633 0.243981485552615 0.674531081391016
-0.129994036436895 0.240163524880485 0.696678133170313
-0.122346245958965 0.243331343418633 0.693883060168977
-0.127341188680037 0.241262370400288 0.711808576956253
-0.127761876662882 0.241088115732266 0.712238861680449
-0.122579719016074 0.243234635711928 0.725525509392931
-0.125974346203449 0.241828535091718 0.734872281267462
-0.130537475667198 0.239938424980969 0.745548574204468
-0.125215961065329 0.24214266850143 0.759511271623921
-0.129366502139622 0.240423458097271 0.766724204042386
-0.124037567563544 0.242630775071681 0.772763704280941
-0.122521789065642 0.243258631083066 0.781052569151462
-0.122479796550787 0.243276024952237 0.789947021130478
-0.122937695877826 0.243086356840775 0.798644680686452
-0.124861087165924 0.242289662083496 0.801728235224953
-0.120160382862316 0.244236757558755 0.817954325972794
-0.12646461532337 0.241625458973034 0.829546704006918
-0.125090181810777 0.24219476797453 0.83385342859845
-0.1287072065422 0.240696547275336 0.845823525904324
-0.124069455769771 0.242617566544182 0.855810582941556
-0.124063041138725 0.242620223571359 0.865244144789928
-0.126419143865858 0.241644293867436 0.86668702118128
-0.124344702146776 0.242503555761832 0.880353862355594
-0.126279213512679 0.24170225491751 0.891274485456634
-0.125566850961194 0.241997325147663 0.895239466333474
-0.124218607060332 0.242555786056786 0.913549249191007
-0.123074376199025 0.243029741998025 0.911145338459908
-0.126440016434272 0.241635648166517 0.925868682462615
-0.125061644594667 0.237346534082868 0.935996954096214
-0.117262874286357 0.236447756856944 0.939811776169343
-0.118694812399113 0.230036005271547 0.945187483234715
-0.109646983296691 0.229419971220207 0.949219078782445
-0.110380167303747 0.222729082778811 0.955120076295392
-0.0984679560674165 0.220458879650324 0.961776076383422
-0.0997979163802078 0.214845228561835 0.966453459949328
-0.0923676545662108 0.210916319780308 0.972926736452035
-0.0914524061993986 0.208383037393692 0.97561743458558
-0.0913473144957727 0.204921690246592 0.978855519223559
-0.0841930676824632 0.202753419288568 0.98359655210912
-0.0855402695788697 0.199267716351795 0.998395005548607
-0.0495388523458509 0.171363056124881 0.979452054794521
-0.0597353480578008 0.181537459641901 0.986301369863014
-0.0416697716396569 0.158222363701545 0.982817321835819
-0.0366838473666311 0.159085782985132 0.986301369863014
-0.0197835902724894 0.141296334117781 0.979452054794521
-0.0104423443957403 0.134090004860607 0.979452054794521
0.0029253362064597 0.120855451204468 0.979452054794521
0.0121249359072832 0.109529860674273 0.979452054794521
0.018877135199285 0.102798828497125 0.981701100034061
0.0232011402889104 0.102798828497125 0.983606766651025
0.0393485243518153 0.0919818477269442 0.986301369863014
0.0480286090268262 0.0739370696221853 0.986301369863014
0.0633420406516436 0.067829948914816 0.979452054794521
0.0780586123237625 0.0560544711575481 0.979452054794521
0.0759981473711139 0.0487714931283881 0.981480754661486
0.0843717350410603 0.0460013700413993 0.986301369863014
0.104999156671082 0.0271084428446943 0.986301369863014
0.115904865398707 0.022664305250034 0.986301369863014
0.130435241241428 0.0036214777876777 0.986301369863014
0.132613559986839 -0.00377552613412279 0.986301369863014
0.138655929599982 -0.00913990630104159 0.986301369863014
0.158063237366251 -0.0205570023655644 0.986301369863014
0.170505059261458 -0.0417435256043622 0.986301369863014
0.179041248573644 -0.0416019680092917 0.986301369863014
0.190661827844271 -0.0585995645506693 0.986301369863014
0.198120475709942 -0.07041183068921 0.988941517343873
-0.117772590005038 0.245225813744378 0.255519046613244
-0.120448391475383 0.244117460485142 0.263049851979382
-0.115944723670316 0.245982940770424 0.269057218943999
-0.114029447027023 0.246776274331772 0.269967570150667
-0.113888880116269 0.246834499052628 0.28122811501757
-0.119139292851115 0.244659706889798 0.297728493474772
-0.121238475896526 0.243790196802485 0.303846495494259
-0.113389333812339 0.247041417906749 0.309266366178406
-0.117597436575719 0.245298364670297 0.318991415626955
-0.117366208614266 0.245394142427931 0.327616753587648
-0.114151197530155 0.246725843622149 0.332086165443654
-0.120744599749664 0.243994767000648 0.353876285581321
-0.117665730547524 0.245270076380948 0.354041419370729
-0.117653061626421 0.245275324019889 0.362726531548612
-0.112066633070731 0.247589298492883 0.372165668080834
-0.118300250814141 0.245007249480914 0.389258309117927
-0.117362496787923 0.245395679916744 0.392373339806362
-0.11757307808775 0.245308454286373 0.403739486579443
-0.116726827591272 0.245658982719179 0.409206686964921
-0.115695407858316 0.246086210761069 0.422029255209988
-0.111496218426268 0.247825571974797 0.430104940205276
-0.117347740499007 0.245401792171743 0.447399834274098
-0.120076050874451 0.244271689011871 0.448774736830843
-0.110551990150628 0.248216684132543 0.451909695015327
-0.117154994181334 0.24548163031062 0.474370867027603
-0.11494470139274 0.246397163560471 0.472949838395011
-0.115393727682383 0.246211170781439 0.48601970778745
-0.121673037686613 0.243610195415342 0.495881173336319
-0.119244146094399 0.244616275254371 0.506229149305453
-0.117321765537065 0.245412551353261 0.512366029325409
-0.115152306932562 0.246311170530253 0.525338117314859
-0.113992464944996 0.246791592811713 0.527587332547815
-0.113829339938953 0.246859161401578 0.540041983992407
-0.117348477396118 0.245401486938965 0.54402215276044
-0.117980676019498 0.245139621695048 0.556318001869866
-0.117124159771172 0.245494402341497 0.57300519046815
-0.117055652860707 0.245522778832928 0.578722401831225
-0.111492231545852 0.247827223394736 0.582833757537428
-0.114434056256317 0.246608679701538 0.595999746718709
-0.112883420353697 0.247250974122706 0.602204951095568
-0.121231078441277 0.243793260928776 0.611931559413038
-0.116427309250556 0.245783047278083 0.620699090854262
-0.115099486574574 0.246333049438901 0.629036820232524
-0.114417117859113 0.246615695815385 0.637923360893648
-0.116108239621754 0.245915210245674 0.646486192582388
-0.112158682224329 0.247551170485059 0.657977124802319
-0.112782139561797 0.247292926000318 0.666714731400293
-0.11728530234563 0.245427654901681 0.68007828302696
-0.121888807301755 0.243520820714402 0.691270221622799
-0.117838946538557 0.245198327968242 0.689835989246167
-0.116431282870097 0.245781401350978 0.71222577462868
-0.11133100496245 0.247894005632197 0.710491975883863
-0.116381496880774 0.245802023382971 0.725036108721817
-0.112431627748812 0.247438112747029 0.726880038895657
-0.114097821828381 0.246747952561726 0.739103228075421
-0.116499038391719 0.245753336094996 0.749653954063272
-0.113209514211282 0.247115901624287 0.754008085414609
-0.114709332223649 0.246494656662474 0.768168343381332
-0.117299822162055 0.245421640596794 0.783484017499864
-0.116309515155505 0.245831839189821 0.78348195988544
-0.11705834773188 0.245521662580739 0.796899973396557
-0.11445550455285 0.246599795526224 0.810000055936341
-0.114098416545746 0.246747706221727 0.814473526227171
-0.114151827207535 0.246725582801239 0.823942065288361
-0.113675982046841 0.246922684320388 0.832159486056647
-0.118524934980974 0.244914182251762 0.843808270679782
-0.11774391324373 0.245237692047836 0.850126122790895
-0.116508055382509 0.245749601135119 0.852870319853191
-0.118948320172929 0.244738810363146 0.87038078767961
-0.115694228016072 0.246086699467728 0.879292260816028
-0.119097436580185 0.244677044324888 0.88901748921611
-0.11984615883145 0.244366913413964 0.897423267387352
-0.116354370570047 0.245813259468771 0.906718557735483
-0.11618495677054 0.24588343296218 0.908623832379521
-0.119466643417077 0.244524113845726 0.926022344078637
-0.116338823722704 0.245819699183793 0.929763023009395
-0.106630220181476 0.243138878393018 0.937698926500626
-0.102565709537023 0.239485844541078 0.942629310592307
-0.105553573708556 0.233496009272444 0.94701979068351
-0.0942787762801817 0.229363070181531 0.955152806697831
-0.0993194142980661 0.22321916619939 0.958900065178653
-0.0916110627481466 0.225066385950509 0.960143315087543
-0.0873667151341168 0.216384062980409 0.969788977087358
-0.0858475683282321 0.210744879648602 0.975580255461636
-0.0768378463886175 0.21314266124822 0.976812865434823
-0.0778165731825016 0.206011396949872 0.983026752032165
-0.0684683574444433 0.206339133893516 0.992231933810636
-0.0721856924097457 0.204799363335004 0.996023792259141
-0.0406614895808533 0.173660786769661 0.979452054794521
-0.0314101373508405 0.168603816989845 0.979452054794521
-0.02961462501358 0.169039674208692 0.985249896709023
-0.0150108658122324 0.144019024419149 0.979452054794521
-0.0014428185166745 0.133066870246847 0.979452054794521
0.000518127805356788 0.135771594114234 0.979452054794521
0.0228476454359178 0.11840461436019 0.979452054794521
0.0196312442809872 0.112304217024678 0.979452054794521
0.0368622611262983 0.106117272518638 0.98087908793239
0.0401874211576331 0.0977298328342188 0.986301369863014
0.0629510908025152 0.082270929563711 0.979452054794521
0.0756570700093027 0.0663587460500656 0.979452054794521
0.0851632516427338 0.0630706731928114 0.984138398064643
0.0869396316836121 0.0612229614682788 0.986301369863014
0.102704144841797 0.0414231297869919 0.986301369863014
0.110707578719184 0.0297757780970918 0.986301369863014
0.123839792623067 0.0240388643981598 0.986301369863014
0.134436789589203 0.00583441461197373 0.986301369863013
0.139630486775903 0.0070005520325619 0.986301369863014
0.152525484995392 0.00087538024830368 0.986301369863014
0.165672142497388 -0.0120084581063556 0.986301369863014
0.177843771544949 -0.025508151101469 0.986301369863013
0.19556323997512 -0.0485846509583879 0.986301369863014
0.205737402656368 -0.0460260333105591 0.989325710020489
0.204422816707418 -0.0551966335784016 0.996639933839667
0.209110771066437 -0.0617770333915985 1.0
-0.108967109696633 0.248873163111327 0.236824573544604
-0.103628446423355 0.251084509844063 0.245222433768404
-0.108127025204279 0.2492211375016 0.271504738146142
-0.111394505612345 0.247867702801791 0.267699693002327
-0.103703925254733 0.251053245488434 0.283452003346847
-0.102982121744774 0.251352226291628 0.28336896857
-0.108171377190288 0.249202766307477 0.297633424068943
-0.108999405213124 0.248859785870393 0.312890134062279
-0.10799779780549 0.249274665242809 0.323724551482286
-0.10563694382999 0.250252562978243 0.320326664409289
-0.107462582419942 0.249496358714293 0.33843802453382
-0.104904023852291 0.25055614837314 0.345869885496583
-0.110515534594722 0.248231784518223 0.357551723237689
-0.104961099964238 0.250532506673484 0.357088916141597
-0.111768438064631 0.247712814908642 0.372552482449377
-0.107673024562621 0.249409190724701 0.375809012176794
-0.111095235695636 0.247991664460101 0.388862550486515
-0.111574725312825 0.247793053357645 0.400286533979487
-0.108151553764139 0.249210977439441 0.409247267292907
-0.108174986980713 0.249201271083325 0.412954755775498
-0.107542286475835 0.249463344213366 0.423196867013909
-0.104667916381205 0.250653947289842 0.431565182869483
-0.10865750603659 0.249001405146278 0.446996355900382
-0.109777486895958 0.248537493884729 0.45053783295324
-0.106075865040363 0.250070755860094 0.463157065709913
-0.103781215912729 0.251021230649648 0.475418711917818
-0.107105665006988 0.249644198747386 0.483692912534892
-0.107608043710125 0.249436106675099 0.492096544017429
-0.108563600568898 0.249040302064576 0.496106830749352
-0.10784148498522 0.249339412132937 0.513777530257443
-0.11080059637778 0.248113708061566 0.518348317629779
-0.105585635740266 0.250273815484866 0.527409494407676
-0.108776076336068 0.24895229172014 0.53561386210818
-0.105492493239005 0.250312396372122 0.546204128077195
-0.103862664932181 0.250987493361148 0.550760043632212
-0.112328492458383 0.247480832783084 0.56876728106369
-0.107942004253262 0.249297775688834 0.570728332296168
-0.107087440755474 0.249651747479527 0.581132388524253
-0.108548818845312 0.249046424854962 0.594078019642345
-0.10329790761657 0.251221423500724 0.600522776822525
-0.103530909137928 0.251124911110523 0.612729985477174
-0.102536712745954 0.251536720739742 0.615631032143076
-0.107135875106671 0.249631685314377 0.623806874422241
-0.110255203476647 0.248339617198038 0.642572913299022
-0.106508646467499 0.249891491923431 0.653145706089756
-0.107851269922939 0.249335359079027 0.65305560865769
-0.109017096382686 0.248852457948027 0.668007312176831
-0.10503190112356 0.250503179873062 0.66711487391036
-0.105354300830689 0.250369637541864 0.682044578109196
-0.105995170108902 0.25010418079512 0.695268535955362
-0.107686072125932 0.249403786247022 0.704359252943912
-0.10807413462469 0.249243045496988 0.713879485496846
-0.107929482237968 0.249302962477397 0.716646600922667
-0.105121552138755 0.250466045206687 0.726515571631411
-0.108754270466873 0.248961324006899 0.741256562014103
-0.105982628101784 0.250109375864567 0.749222439603163
-0.110294004402366 0.248323545328372 0.753128270599915
-0.109225691773742 0.248766054908003 0.763899168731422
-0.109876874785388 0.248496326072992 0.775775655574481
-0.102732266300392 0.251455719805323 0.782640931255482
-0.108064601902206 0.249246994079927 0.786516919381366
-0.101098720202627 0.252132356753779 0.801644965109084
-0.103516954496179 0.251130691312394 0.809588329594282
-0.112405332400975 0.24744900463673 0.825824625850137
-0.108971203238972 0.248871467510573 0.828177179900756
-0.107294383704532 0.24956602890339 0.838883830643758
-0.107103853749553 0.249644948994781 0.8530477724684
-0.104371731923362 0.250776630909245 0.855849265272901
-0.104317222497175 0.250799209452848 0.863341763097889
-0.107350498886352 0.249542785234025 0.880373660096433
-0.109093213920015 0.248820929031731 0.886060026649921
-0.112038116298441 0.247601110526722 0.897840404235509
-0.103757410791461 0.251031091053731 0.905786697430012
-0.110004320958312 0.248443536139694 0.908175070460968
-0.106403978757431 0.249934846708483 0.915263954805286
-0.107416133084404 0.247696261220795 0.933187697936992
-0.100080961952602 0.246751459028111 0.936867629810787
-0.0971540410982572 0.241282758573942 0.94304013434863
-0.0943131578829386 0.236236664437032 0.948789276380634
-0.0923457530678625 0.23576515333284 0.949977789066633
-0.0846252583691048 0.228040755338825 0.960068707685153
-0.0884874789104197 0.224299350192165 0.962047307509683
-0.0754274591766438 0.224766762720539 0.966613327819955
-0.0750042307227102 0.221258193233853 0.970016785874524
-0.0702153165709132 0.213946467672644 0.978604577572777
-0.0669321958888766 0.210276301363457 0.983251764998217
-0.0587466520714541 0.210365996108404 0.988870461707866
-0.0650532245204499 0.207753728267941 0.991708827855208
-0.0616127141584567 0.2083531652017 1.0
-0.0239493658192161 0.172169282660377 0.985583726567585
-0.0172512157677288 0.169809939928596 0.986301369863014
0.0044788391860823 0.147348487164082 0.979452054794521
0.00684612863600484 0.145951034375275 0.979452054794521
0.019135046219254 0.13872168979404 0.979452054794521
0.0260148230356607 0.129996367530568 0.979452054794521
0.0315309879141355 0.119736558985246 0.97945205479452
0.0436741297348049 0.107457383815728 0.986301369863014
0.0485711813069538 0.097796232878615 0.986301369863014
0.0638013806688957 0.0888292137051156 0.97945205479452
0.0754139905677406 0.0802080562649082 0.979452054794521
0.0875616107380221 0.0688608242480981 0.983907550752279
0.0882678268152897 0.0663210465739589 0.986301369863014
0.111723998213416 0.0508457535935613 0.986301369863014
0.122333522963194 0.0381746017918587 0.986301369863014
0.127485897863579 0.03209597863295 0.986301369863014
0.135492381724576 0.0245478114373903 0.986301369863014
0.14440708841343 0.0180912444336038 0.986301369863014
0.166053806383951 -0.00361910706435205 0.986301369863014
0.172153160279876 -0.00562222302929298 0.986301369863014
0.189064334851191 -0.025157684267776 0.986301369863014
0.196913204942993 -0.0369920851025031 0.986301369863014
0.206043548069346 -0.0437006280308435 0.995943433318333
-0.100242754925322 0.252486909180559 0.23439820302891
-0.0977424441463212 0.253522571815369 0.249906610976252
-0.101764214021361 0.251856700188385 0.256820365030028
-0.102395443000659 0.251595236584196 0.266863452464862
-0.101273947010075 0.252059775433643 0.280437343881065
-0.093969644778025 0.25508531648183 0.285951543869825
-0.0990989782732245 0.252960676982183 0.299962315643083
-0.095876493723527 0.254295473787206 0.302106351340246
-0.0934531632130907 0.255299250150742 0.316108961490575
-0.0970894932097723 0.253793032948852 0.321635875086274
-0.0990920271616188 0.252963556226884 0.336193409036454
-0.102044465209356 0.251740616345445 0.341162034300463
-0.100605662938078 0.252336587759782 0.349930799505212
-0.0969659705849761 0.253844197695302 0.356242910512958
-0.0952806893226416 0.254542264050574 0.369117822878929
-0.10046019698976 0.252396841728439 0.375772718930205
-0.094865536947371 0.254714225794863 0.381932702158063
-0.0987848560979346 0.253090790647431 0.396671000610551
-0.0989668686184108 0.253015398592928 0.407552203144188
-0.0949594690296909 0.254675317852425 0.408346433417519
-0.0958368505814408 0.254311894514313 0.425129414254966
-0.0991127633567081 0.252954967013647 0.439569211305956
-0.100820267884362 0.252247695480479 0.439293108604763
-0.0976564361300359 0.253558197502187 0.442657632718287
-0.0990405004693657 0.25298489928164 0.457736342509889
-0.0951223126786398 0.254607865804483 0.465742785445967
-0.0936289488107925 0.255226437372104 0.47601489747418
-0.100440771092814 0.252404888198415 0.488421168441835
-0.09563238672309 0.254396586217457 0.494494647366005
-0.0963806004291841 0.25408666595284 0.508189266861646
-0.102555387413344 0.251528985439236 0.516258478502623
-0.099866939489372 0.252642577031079 0.528452884024506
-0.0950866793274988 0.254622625621798 0.528675540034287
-0.0955362069752762 0.254436425173427 0.538419194138414
-0.0977441456586738 0.253521867025875 0.557407952614407
-0.102745514569436 0.251450232192607 0.565018309027743
-0.100533403309125 0.252366518678106 0.567618623705083
-0.0970879353097448 0.253793678252172 0.577542181719749
-0.0950245171712021 0.254648374030003 0.587416352387708
-0.093548221794638 0.255259875597044 0.600254166974439
-0.0932678261992495 0.255376019255484 0.600032510711133
-0.0983348137006991 0.253277204312009 0.611988808484509
-0.101153102107488 0.252109831031238 0.619549394706089
-0.0960837526172768 0.254209624342493 0.633720286550606
-0.0968104120968121 0.253908632130842 0.641044953813485
-0.0947952474901743 0.254743340641326 0.656130027046868
-0.0994949014819538 0.252796680219469 0.661563774553573
-0.0930909093702615 0.255449300605463 0.670209988591926
-0.0959708352958051 0.254256396228473 0.681296381742961
-0.0943879506966446 0.254912048497117 0.692048246311232
-0.0985988909810075 0.25316781992099 0.697292598939729
-0.0955800081622264 0.254418282127744 0.703906592150305
-0.0940568528557066 0.255049193713305 0.711255188951124
-0.102185903063333 0.251682030868095 0.727817863099653
-0.0953271982957157 0.254522999403155 0.733830392646165
-0.0952321753881002 0.254562359180226 0.744446503368611
-0.0991344935351665 0.252945966079016 0.751025941979787
-0.0943198374589859 0.254940261923933 0.763793977146819
-0.102704179662436 0.251467353671686 0.771493579050082
-0.0955653543281718 0.25442435194455 0.783138930522033
-0.0970987617238171 0.253789193804631 0.786541938422061
-0.0988610884711146 0.253059214164568 0.798649572546283
-0.0968151444626751 0.253906671920719 0.809499660789041
-0.0995764414194334 0.25276290527149 0.81854215639783
-0.101316266473142 0.252042246138088 0.824649757983368
-0.0993237766340855 0.252867562452316 0.834726901293868
-0.0985922399599282 0.253170574864125 0.851674285471838
-0.0989296073571835 0.25303083271268 0.854972153153564
-0.0969477642740368 0.253851738996214 0.859630901050851
-0.0981882620749868 0.253337907982967 0.870202084703788
-0.0986263248486325 0.253156456440952 0.880243339161345
-0.0982637573104144 0.253306636832558 0.89177021303529
-0.0955706075814741 0.254422175975786 0.893673455062874
-0.099011553838796 0.252996889368607 0.912831592729072
-0.0944818790390374 0.254873142103806 0.910916239256195
-0.0989472058757078 0.253023543167629 0.930179986173391
-0.094095010469067 0.255033388312344 0.929872460038657
-0.0927688450414217 0.248442387193635 0.938103641885138
-0.090831980330641 0.241261883163995 0.945478768626786
-0.0872619193286918 0.239096804550131 0.948845243642391
-0.0786985803523207 0.239017820056597 0.952195263751337
-0.0737627075033918 0.231532108548418 0.961000036163573
-0.0674726357971273 0.231264134944231 0.963654717722111
-0.0702498773267599 0.225261232657641 0.96813787195929
-0.0649954891493083 0.218796096261195 0.976121646453585
-0.0596197425009273 0.217142584620809 0.979706501193835
-0.0478477321574279 0.212745478573107 0.985964784661884
-0.0465411538398087 0.212578003290354 0.986822731296235
-0.0445908092922746 0.208114988231502 1.0
-0.0179931578840716 0.179898631379295 0.979452054794521
-0.0133605454118697 0.176323242608219 0.985129080905073
0.00143094646176357 0.154397498590613 0.979452054794521
0.0144052398687077 0.146781138953562 0.979452054794521
0.0239327504966613 0.141756992696596 0.979452054794521
0.0298558975573486 0.132485623709559 0.979452054794521
0.0374036495173291 0.129514445958375 0.979452054794521
0.0451180313501868 0.114875254726964 0.986301369863014
0.0515856293240193 0.111292742272585 0.986301369863014
0.0684014971893196 0.0908552057133101 0.979452054794521
0.0773937600510867 0.0855378799352604 0.979452054794521
0.0929091809186948 0.0832537321089731 0.98512271318915
0.0990894984903137 0.0740681698224082 0.986301369863014
0.117224734789913 0.0586091559799828 0.986301369863014
0.13081774703781 0.0417446218073136 0.986301369863014
0.132900714832891 0.0465081927935012 0.986301369863014
0.151747977496479 0.023418570495924 0.986301369863014
0.160634927628551 0.0185623029480548 0.986301369863014
0.170579008770043 0.0105998041230825 0.986301369863014
0.181472101707649 -0.00408982056523146 0.986301369863013
0.200144283107082 -0.0136607995136862 0.986301369863014
0.204940416733991 -0.0274840474997732 0.986301369863014
0.208101046774577 -0.0280723737786509 0.99453793750982
0.2127961027936 -0.0375256664293404 1.0
-0.084782089074971 0.258890926659094 0.235313300732785
-0.0854866483883553 0.258599088635993 0.239916293211479
-0.0836581563862946 0.259356474821937 0.251685973410953
-0.0917950331706866 0.255986070102483 0.266763576484327
-0.0872139254694222 0.257883627043039 0.263327288724612
-0.0879260612277406 0.257588650753693 0.276334324448861
-0.0907725176051374 0.256409609917472 0.292763505172638
-0.0882729813757857 0.257444951723312 0.301777695053509
-0.0915363134276212 0.256093235328914 0.312167633381099
-0.0877956546380641 0.257642666931759 0.314195261390957
-0.0898655472219142 0.256785289350873 0.329678331817692
-0.08862127607005 0.257300683337245 0.339412801117677
-0.0904570400892259 0.256540284983186 0.349578500643624
-0.0938397671866487 0.255139113541626 0.35508442387553
-0.0868409777586662 0.25803810704289 0.369356114500749
-0.087149923460063 0.257910137543334 0.371462659213702
-0.0883941547056427 0.257394760086687 0.384451403726043
-0.0837526774570747 0.25931732291249 0.390473029052949
-0.0888384942177348 0.25721070863448 0.403583567077736
-0.0865236106188575 0.25816956481645 0.403656549470106
-0.0927775999606548 0.255579077612141 0.417846967384383
-0.0907163950679878 0.256432856633514 0.431327822585695
-0.0907904850290043 0.256402167566825 0.438224309812929
-0.0825598757482894 0.259811397557491 0.446277136967899
-0.0869249068224277 0.258003342486403 0.458662750485736
-0.0858917668660435 0.258431283068167 0.465902950074804
-0.0848236349706136 0.258873717785657 0.467062109132678
-0.0864597680232714 0.2581960092854 0.479771596415361
-0.0908878504842892 0.256361837474739 0.492832780861187
-0.0864161117966626 0.258214092286543 0.497338438575386
-0.0866471269297597 0.258118402685301 0.5165077340723
-0.0899862745044173 0.256735282473112 0.523741433663591
-0.0873678803168847 0.257819856857227 0.525275039708871
-0.0901307637206975 0.256675433080112 0.536862529943928
-0.0881591268121955 0.257492111827689 0.542162421385506
-0.09091470551966 0.256350713754871 0.55941833170619
-0.0879586312952748 0.257575159789993 0.563867655984413
-0.0916373539865464 0.256051382959058 0.570742934907544
-0.0857165681157765 0.258503852766638 0.579898404616443
-0.0885466485399656 0.257331595072333 0.598287295931573
-0.0892817412886019 0.257027109686245 0.610601385901294
-0.0916332623825094 0.256053077756943 0.616354052415255
-0.0882040644132537 0.25747349806387 0.627786401000487
-0.0892938456555266 0.257022095893301 0.633083109248512
-0.0859777799873704 0.258395655266771 0.635077996604281
-0.0873456873287634 0.257829049493896 0.647327900839204
-0.0878321875685154 0.257627534496493 0.663789784056111
-0.0890437833454307 0.257125675093581 0.661095464844904
-0.0851913758938091 0.25872139450783 0.67317081810874
-0.0907522159695523 0.256418019130269 0.685463556077524
-0.0879023340498741 0.257598478872562 0.695039451431908
-0.0894264033858721 0.256967188683595 0.704277435590019
-0.0858166082484989 0.258462414786883 0.715833704037194
-0.0859563468150961 0.258404533177412 0.723414055249514
-0.0902635927419559 0.25662041349803 0.73519691222631
-0.0904315959388444 0.256550824295357 0.74110471324178
-0.0861081257797602 0.258341664271765 0.747896008929591
-0.0894133672000654 0.256972588448557 0.755224124050988
-0.0842596227647394 0.259107339290674 0.765298637037227
-0.0883648564532519 0.257406895820181 0.772835920815807
-0.0884739795915497 0.25736169553633 0.789253565694147
-0.0937295420002571 0.255184770308745 0.801422914762352
-0.0908814200944382 0.256364501029427 0.805003326589323
-0.0850203375427021 0.258792240912544 0.816037823336263
-0.0895175878942859 0.256929418823531 0.821522464642164
-0.0859872880083137 0.258391716915545 0.832800187203362
-0.0842480835284884 0.259112118998828 0.836152415495826
-0.0880127337572126 0.2575527498165 0.85183386150615
-0.0896433982102289 0.256877306484381 0.864039444209317
-0.0890586452389132 0.257119519095738 0.869886547806045
-0.0878161265026664 0.257634187207794 0.872628773528879
-0.0927567045789793 0.255587732762622 0.891537605265294
-0.0858766247423998 0.258437555141143 0.895989814773166
-0.0894484428932674 0.256958059620723 0.910619329597079
-0.0866512731480744 0.258116685265442 0.918791427085083
-0.0922205601487705 0.255809811057006 0.92399110493756
-0.0831702744800587 0.258951816865061 0.932067408841561
-0.0845866825551622 0.251417957299494 0.938485751591193
-0.0769321571516894 0.249884455780103 0.942831782312561
-0.0733518930965802 0.245718573430574 0.948050663487524
-0.0694060139496443 0.242351405184868 0.9526715438879
-0.0694241078245416 0.233370798513589 0.960961618354878
-0.0584021333119069 0.232534636356898 0.964967300072372
-0.0556049325258824 0.230985978901505 0.966867816516025
-0.0498781403676694 0.225802982327387 0.972753968209999
-0.0458226992725043 0.222476469650195 0.976581363394022
-0.0478020028474733 0.219624493331445 0.979150589701117
-0.0436032809552516 0.2129647815932 0.990310176708661
-0.0403616898389644 0.213391545159816 0.992367839837698
-0.0366342715329917 0.208907131570359 1.0
-0.00453341076763273 0.177485356930673 0.982279976587961
-0.000947032369081595 0.173410229036665 0.986301369863014
0.0140271856433084 0.170875423309407 0.986301369863014
0.0257069154269776 0.147512329320857 0.979452054794521
0.028773349624465 0.152484691371557 0.986301369863014
0.0461350090769699 0.133209769239195 0.986301369863014
0.0487686948704594 0.132480171761899 0.986301369863014
0.0720938361107083 0.113915369245146 0.979452054794521
0.0784728468798521 0.107986728884725 0.979452054794521
0.0897244485221424 0.0935157742761842 0.979452054794521
0.0943489457917149 0.0941898320645686 0.984590659243305
0.111294734439037 0.0765851027893731 0.986301369863014
0.117017026007922 0.067193557956289 0.986301369863014
0.121808967538188 0.0611847146999904 0.986301369863014
0.141398822856933 0.0414379855732412 0.986301369863014
0.152835260702396 0.0365644516871702 0.986301369863014
0.164221489195141 0.0284273915569205 0.986301369863014
0.183201122745091 0.0107705730805066 0.986301369863013
0.183647883919505 0.0105665720420178 0.986301369863014
0.19767317019186 0.000770615031341972 0.986301369863014
0.210251681499888 -0.0117366812189055 0.992892190056101
0.215180041782601 -0.0243205510613772 1.0
-0.0732448205498195 0.263669819754951 0.227431661431407
-0.0792252197171628 0.261192657311433 0.237783774493988
-0.0759605032306258 0.26254494715746 0.253063504121216
-0.0776884896441872 0.261829191749366 0.252714993464287
-0.0832728196928957 0.259516086506423 0.265547569040867
-0.0793686288931638 0.261133255285765 0.281947995625926
-0.0751174577968615 0.262894148009821 0.284306636083392
-0.0777712979003973 0.261794891446567 0.293481916770325
-0.0738288745729992 0.263427896657391 0.308759874343131
-0.0794748310816144 0.261089264898954 0.314824841006793
-0.0761473154054913 0.262467567021014 0.322529123557504
-0.084336336008465 0.259075563624709 0.337657322137072
-0.0803742600567721 0.260716709219052 0.335156767334771
-0.0810164122762072 0.260450721060655 0.353246307656857
-0.0768118897799204 0.262192291301919 0.357326983374803
-0.0850964247379519 0.258760724564349 0.36978669074072
-0.079174247937509 0.261213770513863 0.374597951094302
-0.0789458340997342 0.261308382623304 0.392150525398571
-0.0734763833661629 0.26357390329588 0.396584581582082
-0.0804913833411548 0.260668195166192 0.403493927850984
-0.0829830936045548 0.259636094981587 0.414950787108904
-0.0775602976927207 0.26188229059425 0.428486876691802
-0.0825332656315493 0.259822419828741 0.440615505013517
-0.0770024636538758 0.262113353018693 0.435972091719342
-0.0760831665995875 0.262494138326429 0.448045240822722
-0.0750673507794672 0.262914903015996 0.463223236434002
-0.0813994989002854 0.260292041385398 0.471324034071296
-0.08378228327995 0.25930505977913 0.481034506217875
-0.0767182015767998 0.262231098226286 0.48621249257421
-0.084188947081836 0.259136614117063 0.496675653300911
-0.0841090924443487 0.259169690990928 0.51064553765357
-0.0774356292784014 0.261933929942261 0.520877390838915
-0.0743192629518464 0.263224771140043 0.526138090326556
-0.0798380772719472 0.260938803400439 0.534493283112202
-0.0774318076986424 0.261935512892427 0.542378312352273
-0.0756698210104457 0.262665351675399 0.55617794905222
-0.0735947085827741 0.263524891386389 0.557198854132105
-0.0749808775880745 0.262950721384653 0.574326536434969
-0.0788299795788976 0.261356371137096 0.574081828285658
-0.0768207663546096 0.262188614504296 0.587213975486622
-0.0794726103288034 0.261090184764887 0.593229527520068
-0.0761219413942448 0.262478077280604 0.613833382757684
-0.0771758625337896 0.262041528850933 0.620637639729523
-0.0768880842491249 0.262160730519397 0.624885531981632
-0.0757180598328863 0.262645370500911 0.633934186840865
-0.0837564199237587 0.259315772732033 0.646458613629232
-0.0825003215566635 0.259836065711359 0.654168299144523
-0.0804745201368794 0.260675180134108 0.663425437590763
-0.0790274593586533 0.261274572334027 0.678072525657228
-0.0801739503069144 0.260799680234119 0.686460297680911
-0.0789571333003506 0.261303702341164 0.688052357775244
-0.0823161391480262 0.259912356562966 0.697155218946788
-0.0813550083758184 0.26031046996403 0.710094286327793
-0.0826685054090476 0.259766401678729 0.723382588929444
-0.0760018726844197 0.26252781136863 0.725324779647759
-0.0789570748603317 0.261303726547813 0.741728013731699
-0.0817959716362832 0.260127817001036 0.744524312340328
-0.0774655420732303 0.261921539656954 0.757670811908209
-0.0812367708643253 0.260359445544871 0.767754938859142
-0.0855952898505404 0.25855408786892 0.777357905624912
-0.0752048460187084 0.262857950623141 0.780135962185501
-0.07922299395019 0.2611935792543 0.7880041016362
-0.0791474734165844 0.261224860883557 0.804703718166752
-0.0775626951980453 0.261881297515029 0.806667329628535
-0.0762048859192927 0.262443720533404 0.819463013098118
