ply
format ascii 1.0
element vertex 851
property float x
property float y
property float z
end_header
-0.243882018438756 -0.0858964826266544 0.166954529150666
-0.243072197859555 -0.0878515624520501 0.176619293977421
-0.247210685817342 -0.0778603686966417 0.189888343172644
-0.247679390913243 -0.0767288144973649 0.217455347908927
-0.242817242427933 -0.0884670793128725 0.202597296905444
-0.249236551097784 -0.0729694972610577 0.227366692964893
-0.241169070570575 -0.0924461181640278 0.216167265547017
-0.244597185873726 -0.0841699157057808 0.229808469191782
-0.242449709615573 -0.0893543820130881 0.242360157963746
-0.248948192866584 -0.0736656556136436 0.266254900699997
-0.251959170669107 -0.0642410600068248 0.288065190133972
-0.248515825984863 -0.0747094816034159 0.282360539429936
-0.242410500588065 -0.0894490409790678 0.279283916396823
-0.248523532594583 -0.0746908762017096 0.302506635698813
-0.248375964387568 -0.0750471373684601 0.315878146530762
-0.251748402281614 -0.065842004852958 0.332538887497231
-0.25117502967324 -0.0682895959938236 0.346429998613336
-0.245308645967319 -0.0824522990987427 0.337710133852738
-0.25144124003841 -0.0676469073197857 0.366373565242573
-0.246863315988137 -0.0786989936494674 0.362594650870864
-0.242847067969588 -0.0883950740857042 0.358376544012685
-0.246433054021169 -0.0797377379254951 0.370067209633242
-0.247743400450317 -0.0765742818048396 0.387805887748386
-0.2460457914804 -0.0806726724036186 0.390289231352908
-0.239677284158113 -0.0960476091531558 0.393382047507513
-0.247713147150528 -0.0766473197314964 0.42235140123451
-0.247778226565898 -0.0764902041242789 0.431282796738801
-0.249750247623498 -0.0717293241417363 0.447427825751436
-0.252102488330348 -0.0631524542920274 0.458591410674625
-0.250561361447139 -0.0697711221480733 0.461524615897402
-0.245483552177356 -0.0820300381543269 0.456378749358631
-0.24787909572405 -0.0762466844346441 0.472917929267633
-0.246046176214832 -0.0806717435725351 0.477669897046832
-0.245677787330308 -0.0815611130137818 0.486591753269442
-0.241576185814777 -0.0914632550200262 0.493783430354347
-0.246636255267186 -0.0792471667214698 0.50727066748633
-0.25128237964097 -0.0680304302458086 0.538580948237172
-0.245843002361174 -0.0811622486455569 0.530136970767238
-0.242427112437196 -0.089408936427597 0.531719173756915
-0.245898159373375 -0.0810290878386407 0.551336913017022
-0.246330791457028 -0.0799846215947684 0.555498268129003
-0.252014031014976 -0.0638243543090626 0.582461197285167
-0.246426291456294 -0.079754064201334 0.57583556012992
-0.24467480210543 -0.0839825335465403 0.592140252651711
-0.25190913369554 -0.0646211285545795 0.605661808042471
-0.244506379822553 -0.0843891409060693 0.595794334913703
-0.246406761902574 -0.0798012127147922 0.612160312351516
-0.245069514058221 -0.083029614596882 0.630192209186195
-0.242416024629193 -0.0894357047640563 0.627059083997144
-0.243936568115908 -0.0857647880562506 0.639709706336221
-0.238816387730081 -0.0981259969855116 0.642003121035849
-0.24530223047834 -0.0824677874592446 0.660873856765383
-0.241775306442048 -0.0909825353011205 0.66961474484125
-0.244940954293515 -0.083339985324411 0.677966822296404
-0.249508074551195 -0.0723139816573324 0.701049110071805
-0.239636788433586 -0.0961453744805282 0.690667519418162
-0.251747955142409 -0.0658454012124075 0.730708971695167
-0.243253224678805 -0.0874145250498638 0.720930544076277
-0.251563625376689 -0.0672455247884762 0.743105462549715
-0.24672685529016 -0.079028438917256 0.741490807119453
-0.250600484059649 -0.0696766718063565 0.760148305077159
-0.250450411042505 -0.0700389801196908 0.774357772249404
-0.251130063923296 -0.0683981529171813 0.780323199695402
-0.251881832927111 -0.0648284984786602 0.796487663130195
-0.246692226363996 -0.0791120405404506 0.792932955141576
-0.240048362660043 -0.095151746401092 0.79250890120444
-0.243085230720066 -0.0878200983434466 0.798078092558153
-0.247162253336495 -0.0779772950487629 0.814086946246596
-0.250700345961691 -0.0694355838480812 0.837436827410364
-0.247863358924904 -0.0762846764285708 0.83950440544679
-0.241616533305578 -0.0913658475605272 0.844582249174793
-0.248303581770782 -0.0752218844635851 0.861000042064122
-0.246747635021898 -0.078978272207072 0.866874095770093
-0.24742454469863 -0.0773440676850037 0.876863866307092
-0.244373024452324 -0.0847110892494906 0.884896257689342
-0.24726200889264 -0.0777364638321946 0.899418560926891
-0.242298348448653 -0.0897198001950821 0.904340853928396
-0.241870868705748 -0.090751827588045 0.907618515557945
-0.247902450777529 -0.0761903003477853 0.932044036771368
-0.250420077328809 -0.0691460305968745 0.938753052097849
-0.243287478128123 -0.0862852606952883 0.938857307742904
-0.240002653752779 -0.0895611124006112 0.944893673611147
-0.237327397847845 -0.0911084518724296 0.951263195011869
-0.235640448028546 -0.0878788559081945 0.96073357169525
-0.228429613813583 -0.102039996831045 0.964945101227579
-0.223935302368711 -0.105692941927029 0.974279340388869
-0.222176443298981 -0.109554310430025 0.974778512474877
-0.231669774515268 -0.0942957050599843 0.99554310762314
-0.223348251693252 -0.100499097267437 1.0
-0.220084118656526 -0.116851382954743 1.0
-0.213393135110655 -0.128346136555949 1.0
-0.198402840029767 -0.140818226472858 1.0
-0.185199147114639 -0.145058198236857 0.998381067632996
-0.177329679987633 -0.160006183242392 1.0
-0.171621398466548 -0.164189370979208 0.999242420450836
-0.162252796401444 -0.184149191735522 1.0
-0.143313780941893 -0.193950516407268 1.0
-0.147323180310746 -0.198498356792972 1.0
-0.122709454058269 -0.219035577430132 1.0
-0.252616262255244 -0.0592499538889832 0.11891573336079
-0.252956930143997 -0.0566623243719165 0.144923637218191
-0.253404362385701 -0.053263739081826 0.154013347199943
-0.253334011978377 -0.0537981034775904 0.166067202259559
-0.251851580800985 -0.0650582861900949 0.162555640797306
-0.253101247561352 -0.0555661247555006 0.175591011121507
-0.252979529943358 -0.0564906618529741 0.191899883011365
-0.253051425486144 -0.0559445609881686 0.19958187238734
-0.253496305844558 -0.0525653591760761 0.210071206104079
-0.253124737578815 -0.0553877003587482 0.223847672054896
-0.253203765320308 -0.0547874250662871 0.222947206171482
-0.254228485420245 -0.0470039031527975 0.238304028136805
-0.252347013039268 -0.0612951047285815 0.238054038832331
-0.253644027403942 -0.051443302533848 0.259768617861852
-0.253406456997886 -0.0532478289227073 0.266283417459394
-0.253464452740245 -0.052807307524163 0.268131072788035
-0.253085088414415 -0.055688865662305 0.279721682547608
-0.253272896587266 -0.0542623209609708 0.297247237325804
-0.254005286926156 -0.0486992640322256 0.310109743605867
-0.253297811615548 -0.0540730725324285 0.312774232685906
-0.252521404522649 -0.0599704699014617 0.322015725335058
-0.252979439048509 -0.0564913522678933 0.334147149546916
-0.252505467817536 -0.0600915211948701 0.33665174153814
-0.253833757339266 -0.0500021605973024 0.350435730058494
-0.253259516011479 -0.0543639565245372 0.357287734111277
-0.253291519788913 -0.0541208637004693 0.368633264033317
-0.253554278996473 -0.0521250093689845 0.38317459584516
-0.253383709599778 -0.0534206125654395 0.387451977790614
-0.252172521031706 -0.0626205031126563 0.390533289679817
-0.252401492035611 -0.0608812956680569 0.40576809368741
-0.252414979214966 -0.060778850369997 0.406780578739919
-0.252945142156468 -0.0567518630266641 0.425474637723201
-0.252888095421436 -0.057185175998907 0.441335288523878
-0.251334284216733 -0.0679051215150541 0.438420861644613
-0.25293181043474 -0.0568531275068125 0.459283808517471
-0.253236459783831 -0.0545390859605212 0.464953959094447
-0.2521894337462 -0.0624920382919849 0.46967652533905
-0.25161453718729 -0.0668588111937143 0.473485769864794
-0.252634570262548 -0.0591108907672079 0.483320040394153
-0.252598481827687 -0.0593850096447233 0.496006015474527
-0.253444646543135 -0.0529577505273189 0.50887346110386
-0.252785422040641 -0.0579650577533433 0.516965994521243
-0.253591945866421 -0.0518389010866664 0.534211539796522
-0.253749749488855 -0.0506402635725655 0.547617024746567
-0.252526069268317 -0.0599350376403679 0.545449980693627
-0.252590844443781 -0.0594430213349371 0.559143633643153
-0.252213225586341 -0.0623113213243767 0.559524494977647
-0.252752424442563 -0.0582156993946614 0.579111392564985
-0.253593918121101 -0.0518239203250736 0.588551075335628
-0.252428678893068 -0.0606747909837128 0.589388003619565
-0.254109029477977 -0.0479112611175686 0.616069846910674
-0.252190745887211 -0.0624820715915002 0.611473268301429
-0.252369237480713 -0.0611262933360735 0.622006484633039
-0.252876657106754 -0.0572720586246914 0.627940444959457
-0.251812147885781 -0.0653578089179355 0.641888802094039
-0.25331260939447 -0.0539606722423263 0.65606111570296
-0.25173923569515 -0.0659116319897856 0.660848796025686
-0.252933322261824 -0.0568416440400231 0.673708164291778
-0.252838911177964 -0.0575587674185402 0.68212392377505
-0.252634543806191 -0.0591110917231926 0.69829071907492
-0.253396586920513 -0.053322799603504 0.705420400877674
-0.253636398393586 -0.0515012506206343 0.717277102133959
-0.25437851793283 -0.0458642930782883 0.732270464828448
-0.25282351564728 -0.0576757080840533 0.731095360529978
-0.25293463263576 -0.0568316907618054 0.740761463758155
-0.252596730589249 -0.0593983116212943 0.752342469438159
-0.251908717274331 -0.0646242915876899 0.754465807829246
-0.252556813570737 -0.0597015114788199 0.767439255555324
-0.252387771745628 -0.0609855116171209 0.774294078043185
-0.253744509268122 -0.0506800670007438 0.792591493387799
-0.251979131144867 -0.0640894451409775 0.787824558571087
-0.25333993033143 -0.0537531491230451 0.81240207477535
-0.252943523968569 -0.0567641543840546 0.816482789760714
-0.251717375168177 -0.0660776791774436 0.824518834526124
-0.253271294420129 -0.0542744906285883 0.832894141364341
-0.25323261018073 -0.0545683265991077 0.847604238382126
-0.252260892081451 -0.0619492583481159 0.850626773793869
-0.252690718595904 -0.0586844018331985 0.867674902593354
-0.252129675094931 -0.0629459503131265 0.869463349969741
-0.252974582345321 -0.056528242591112 0.886718277732464
-0.253245775332941 -0.0544683273400545 0.891391100462509
-0.252110285047217 -0.0630932323477972 0.902338341398138
-0.252875914961399 -0.0572776957783285 0.912318810902475
-0.253740595682256 -0.0507097936366846 0.923753446994037
-0.252753489587234 -0.0582076088176455 0.928413550491899
-0.251462304329452 -0.0565380671692943 0.942576908207661
-0.249333146137929 -0.0614185353334767 0.94757199296519
-0.247160344884562 -0.0647958606661216 0.953378637237405
-0.243471815718183 -0.0752411873840077 0.952603329466871
-0.242830178709569 -0.0641742009332827 0.968202988255144
-0.238887658348983 -0.0719207381037859 0.971262754150129
-0.23341388576069 -0.0846944448859639 0.971834885710111
-0.241701177636792 -0.0700777555943693 0.998837157568433
-0.2352361000285 -0.0716332094653748 1.0
-0.223380891363423 -0.0903968776096738 1.0
-0.220226164395657 -0.0950404504124304 1.0
-0.214880812889945 -0.10984863747975 1.0
-0.209121023906607 -0.117265249179512 1.0
-0.185729281854541 -0.134034931549989 0.992184738427696
-0.17022324433408 -0.154178521341187 0.99214619466701
-0.167211985586469 -0.153394018206313 0.989322296189249
-0.15184918709031 -0.172018668143816 0.992152496082444
-0.15024763725422 -0.179584658814623 0.997105203143498
-0.139559651879643 -0.192664558906368 1.0
-0.133746675804689 -0.202750616678265 1.0
-0.116408056295316 -0.209853086147053 1.0
-0.115913695055224 -0.222474401998508 1.0
-0.255760820968204 -0.0353646591123087 0.141549929029746
-0.255449578114026 -0.0377287833019945 0.159103198285754
-0.256366202457524 -0.0307663301750465 0.171773914211855
-0.255187022706766 -0.039723089616502 0.174590984338238
-0.255072159103995 -0.0405955652996566 0.180317466467657
-0.255675561862613 -0.0360122663142492 0.190415482735272
-0.254803852001236 -0.0426335600789135 0.19676100170466
-0.255586701171412 -0.0366872302748983 0.212944088915882
-0.255671191497348 -0.0360454625341904 0.221451987728715
-0.256274323585374 -0.0314642194960483 0.236459717872863
-0.254880104356309 -0.0420543659392563 0.238737666676566
-0.255332155854284 -0.0386206939143484 0.24465796573568
-0.254680731338891 -0.0435687543562785 0.248258526522479
-0.25519840990972 -0.0396365952228336 0.272465912381228
-0.254926886708101 -0.0416990186982291 0.274727422791338
-0.255450823693117 -0.0377193221894892 0.294751749746826
-0.255299642657027 -0.038867656166136 0.288802337150839
-0.255584499271394 -0.0367039553660172 0.311903090603498
-0.255496234386858 -0.0373743937257437 0.308766254390103
-0.254181336731978 -0.0473620329956078 0.319256167621611
-0.255206846488303 -0.0395725130463633 0.335241007490195
-0.25437408528562 -0.0458979623765617 0.33188102002726
-0.255377462217661 -0.0382765579183905 0.348612644924868
-0.255582891535807 -0.036716167330216 0.367273283775012
-0.255735748032261 -0.0355551069686167 0.375917222313649
-0.255771066621593 -0.0352868356484469 0.377495865033212
-0.254298790714839 -0.0464698814222407 0.386143842542097
-0.256262387720002 -0.0315548813945345 0.40483114099478
-0.255863452709869 -0.0345850936384628 0.414391605974529
-0.255152944287477 -0.0399819409099794 0.419574428639797
-0.255524220352975 -0.0371618192085086 0.425253422849115
-0.255044314875318 -0.0408070632141433 0.433212785998244
-0.255298901843437 -0.0388732832040107 0.441436625197072
-0.255629744624358 -0.0363602827901642 0.458892042062552
-0.254876314592171 -0.0420831520557935 0.462060459145178
-0.25568354561619 -0.0359516236851845 0.473095585122203
-0.253960072357064 -0.0490427027813629 0.479408949685593
-0.255205319701464 -0.0395841101437777 0.497033086297882
-0.254944386240648 -0.0415660965519179 0.502758100579174
-0.256273632643772 -0.0314694677185597 0.518678087653426
-0.255423758081387 -0.0379249059211016 0.530749489067797
-0.254522017802611 -0.0447743033522224 0.52820541218278
-0.255005352396512 -0.0411030126227799 0.53992699421904
-0.254763161534288 -0.0429426348605738 0.55120703507269
-0.253649364972821 -0.0514027596730803 0.557049661302808
-0.254294824974446 -0.0465000042111384 0.560555547235698
-0.256377986694643 -0.0306768200074777 0.582402330799061
-0.255957490422007 -0.0338708062997405 0.595795781620419
-0.253864901600255 -0.049765596448802 0.594802127581851
-0.254668070693674 -0.0436649215042582 0.612459121229006
-0.255558615915039 -0.0369005589765073 0.614419861794068
-0.254083194302107 -0.0481074987609373 0.618842142962066
-0.255247351927642 -0.0392648436889141 0.634935139222905
-0.255359481860426 -0.0384131322908131 0.644925670166934
-0.255089341405875 -0.0404650527594847 0.655920540606576
-0.255964213188879 -0.033819741815622 0.675406581045355
-0.255685495635827 -0.0359368118155032 0.6737916063474
-0.254564905214701 -0.0444485411154523 0.68319624889166
-0.255979517355528 -0.0337034951288608 0.700669867421174
-0.254268752847953 -0.0466980416731762 0.696358636498312
-0.254201782733936 -0.0472067301921487 0.701559869742207
-0.255524589805412 -0.0371590129386442 0.725521873117948
-0.255209045792364 -0.0395558076734972 0.726705331017077
-0.256263275407598 -0.0315481387378265 0.748544655034263
-0.256037269611009 -0.033264823196766 0.752527832595574
-0.254297235441271 -0.0464816948978353 0.756606781600214
-0.255071039051522 -0.0406040729428347 0.764249745098236
-0.255346497521416 -0.0385117581372473 0.78005023197845
-0.253987113977261 -0.0488373012835365 0.779965742478264
-0.255176244683691 -0.0398049568296037 0.805779097271205
-0.254452196839789 -0.0453046462177276 0.811379339319477
-0.254996739824936 -0.0411684315987459 0.814329078792929
-0.2553262647803 -0.0386654410637954 0.828734263934711
-0.254990368857164 -0.0412168239033981 0.840567423773524
-0.256033914784092 -0.0332903056371242 0.85007291313119
-0.255325840033258 -0.0386686673378853 0.860840546507849
-0.255507888958966 -0.0372858684617198 0.86433281870139
-0.255254005288057 -0.0392143063991787 0.868819705011921
-0.254684714383388 -0.0435385001296601 0.877679262092916
-0.256280853780571 -0.0314146177390254 0.894631949844042
-0.255483871783068 -0.0374682970243246 0.907284079402524
-0.254977942278538 -0.0413112131391065 0.909839553936094
-0.254632459929384 -0.0439354121135666 0.913487131752706
-0.25612506018618 -0.0325979875743577 0.936511871297735
-0.253182034290817 -0.0406407552304909 0.943830829498281
-0.252412399713025 -0.0505337467306949 0.942040613226564
-0.249976349547288 -0.0408990944534858 0.954487653263331
-0.247376909500473 -0.0483778960480638 0.959913506046769
-0.243930143516043 -0.0540870426853396 0.96896918508378
-0.241637635941691 -0.0583897866327518 0.97476868145676
-0.240542863695607 -0.0539724915258435 0.980401117259843
-0.238533484545363 -0.0620961180542648 0.983559125578965
-0.236411505039006 -0.0615431247353762 1.0
-0.226110480041247 -0.0737904553679821 1.0
-0.206335427186186 -0.0916104212280892 0.988975850385976
-0.20099283571751 -0.101364477079909 0.987790564655446
-0.18943881523765 -0.116962124058066 0.984845340361187
-0.183142332892533 -0.130636329158063 0.988124781514366
-0.177962351269185 -0.133561699352359 0.985830741159885
-0.159344513034892 -0.156282088615451 0.984905494077921
-0.14995774112811 -0.161007106923385 0.984375
-0.140647441179746 -0.170354747818241 0.984375
-0.131598453148045 -0.181293214717121 0.987256599591561
-0.130330744275128 -0.183513866489298 0.988231892207428
-0.118472965300823 -0.202325030684455 0.995822539402968
-0.108717128701742 -0.2090027661403 0.997852478401641
-0.101217249633319 -0.212911465251295 0.998582534929048
-0.0947209136906854 -0.2207543383676 1.0
-0.257317554839151 -0.0235400914096488 0.149769887113047
-0.257610344500307 -0.0213161331367588 0.169011594432911
-0.257509045143653 -0.0220855781416753 0.179224314800248
-0.257612894480736 -0.0212967641124289 0.186276395792599
-0.256740666839174 -0.0279219908080541 0.18721747286579
-0.257031364577968 -0.0257139222630458 0.199828954883889
-0.256934951637695 -0.0264462512506459 0.204123927905035
-0.258150026274781 -0.017216843078732 0.228394036757569
-0.25774734512115 -0.0202755101075495 0.239789997790743
-0.256447356607168 -0.0301499032091175 0.23922039278819
-0.256286860413344 -0.031368992833433 0.243374156200126
-0.257371412221696 -0.0231310039746861 0.268474320290801
-0.25753124276055 -0.0219169705018397 0.266185695554741
-0.257446485693301 -0.0225607643439819 0.2726209940346
-0.257242680053076 -0.024108821873913 0.296092266673028
-0.258555728856854 -0.0141352260224096 0.304493060059503
-0.257505314599919 -0.0221139144345912 0.302779031984389
-0.256169005764199 -0.0322641877693808 0.31000393458571
-0.256834504653332 -0.0272092218452341 0.318868939522324
-0.256723101746181 -0.0280554109353983 0.3315726566409
-0.257214821591565 -0.0243204278975141 0.347570042620363
-0.25621495966485 -0.0319151332395144 0.348307473528639
-0.257611737287456 -0.021305553868047 0.367901444217787
-0.256581131598836 -0.0291337812659743 0.368350950629354
-0.258268070648704 -0.0163202070400266 0.388989126824917
-0.257149983674856 -0.0248129207700148 0.386000700443644
-0.258123921332169 -0.0174151298039452 0.399863687614978
-0.258057180418251 -0.0179220773753222 0.415698207131829
-0.258456900283267 -0.0148859035666894 0.428379193725922
-0.257001592654392 -0.0259400624739947 0.430542317181853
-0.257658531097239 -0.0209501195949315 0.442633706172471
-0.257336351573076 -0.0233973160406295 0.44532686449831
-0.257324124749196 -0.0234901879884045 0.457475105674542
-0.258102611714976 -0.0175769924163793 0.47305091507953
-0.258051953367798 -0.0179617807652961 0.479817121405393
-0.258058348783303 -0.0179132027616759 0.495645591744773
-0.256878084806688 -0.0268781977161476 0.490341908464474
-0.256673130858362 -0.028434977512068 0.506441538963085
-0.257643750797853 -0.0210623871147798 0.517858337611149
-0.256292410697264 -0.031326834241523 0.521426028087168
-0.256377668138182 -0.0306792396840271 0.524831665611434
-0.257398731258958 -0.0229234952850428 0.547670308188513
-0.257075879552314 -0.0253757974635818 0.554246593697618
-0.257100102457811 -0.0251918062295299 0.565187146053696
-0.257411607384858 -0.0228256913987829 0.57628282011574
-0.257384424119283 -0.023032168800068 0.587209687989363
-0.256071428348832 -0.0330053618234638 0.588649726339145
-0.257284206192528 -0.0237933995293885 0.599599233858947
-0.257116889399292 -0.0250642967497327 0.610600427542641
-0.256641387105345 -0.0286760952545936 0.616226982325469
-0.257562236413443 -0.0216815503354098 0.634954131737275
-0.256051408251454 -0.0331574295604634 0.627536954378272
-0.256492758133449 -0.0298050443791441 0.645528366318661
-0.258335784477132 -0.0158058694492564 0.665854419387948
-0.256963961288016 -0.0262259010799168 0.668493855949969
-0.257603932579125 -0.0213648365134464 0.682014490278867
-0.257892194498741 -0.019175269851984 0.684332027656228
-0.258694567510081 -0.0130806417511592 0.705556510320085
-0.257742973396435 -0.0203087166535283 0.708979668653485
-0.255886066364995 -0.0344133258745376 0.702977058193479
-0.256156895756473 -0.0323561724103695 0.719718191249033
-0.257839961717445 -0.0195720172153321 0.736900915653151
-0.258172465933931 -0.0170463969454582 0.742800359845514
-0.256695267872917 -0.0282668301927175 0.748607137938094
-0.257481987576042 -0.0222911007721413 0.76099851952552
-0.256099825925556 -0.0327896608132708 0.768540918426527
-0.258417896547891 -0.0151821663500793 0.786017965349441
-0.258217889484282 -0.0167013708260644 0.790852315501139
-0.256788156909804 -0.0275612679087538 0.797884670387007
-0.257772032089496 -0.0200879939661993 0.806800419544868
-0.256213227100768 -0.031928293370269 0.807062311314384
-0.257377252242426 -0.023086644613199 0.827086598753948
-0.257627045272184 -0.0211892781800892 0.834859335080677
-0.25751771466158 -0.0220197266152315 0.851545203780673
-0.256624137033649 -0.0288071225576315 0.847274974158914
-0.256089613654913 -0.0328672307100087 0.858878259508114
-0.257833931717664 -0.019617819610966 0.870475357054802
-0.257165036038242 -0.0246985867189224 0.882302211114627
-0.25740028540612 -0.0229116903653438 0.897253339353072
-0.258666056624127 -0.0132972034303964 0.908410456928435
-0.258680161932281 -0.0131900629779748 0.918892303999181
-0.257758215080431 -0.0201929445696253 0.927196586410752
-0.25825190302069 -0.0164430123670084 0.934581221002834
-0.256330787122622 -0.0219697764137312 0.941510172122008
-0.252405660349233 -0.0291702288112626 0.95151346073983
-0.251687053205095 -0.028111037081114 0.954396516739437
-0.250830896830457 -0.026981786897577 0.957772728677954
-0.245796453653368 -0.0446705443357422 0.966863793590574
-0.245390539080935 -0.0316139961270757 0.974003261883928
-0.24170767583796 -0.0389484139316653 0.983133285121317
-0.247423864424777 -0.0368757258504241 0.992313241013345
-0.246351977956118 -0.0450175119031126 0.999556986575283
-0.232336720943829 -0.0528967223394697 1.0
-0.221062897773724 -0.0712242350071189 0.994694396382133
-0.201319802426894 -0.082113566699742 0.984375
-0.193056956702223 -0.0970599226203145 0.984375
-0.186870268244886 -0.103206255850497 0.984375
-0.173234413475091 -0.128987438828726 0.984375
-0.157941715394283 -0.131330237289508 0.984375
-0.161704372677975 -0.135569753737773 0.984375
-0.152343684157518 -0.146901023214936 0.984375
-0.127998087929316 -0.17093048805875 0.984375
-0.127834849700382 -0.179569470947826 0.984375
-0.108464127903898 -0.192413460100923 0.984375
-0.100966867910393 -0.202230873092478 0.988767443024123
-0.0993611584021989 -0.207780810596698 0.993213262171354
-0.0892003946895334 -0.214738213885537 0.995714908984457
-0.0854932545309468 -0.219578894793019 0.99872300175449
-0.0775942756744707 -0.233227680979941 1.0
-0.259703114553012 -0.00541996640193832 0.167669458229678
-0.260175657068592 -0.0018306496457811 0.178504635948743
-0.259636429440031 -0.00592649012312004 0.184044027027346
-0.26039051239153 0.000198661442938388 0.204073160513041
-0.259872050668941 -0.00413676920457878 0.210061296885494
-0.259652093297679 -0.00580751131197003 0.212687894828123
-0.259627964360865 -0.00599078878300863 0.232191132131056
-0.260374485214186 0.000320399941160881 0.239395687239424
-0.259227328950067 -0.00903391685227713 0.245755204886687
-0.259004613125222 -0.0107256114948139 0.253676706427038
-0.259436021672732 -0.00744873824580116 0.260865374066442
-0.259835380117484 -0.00441530969662816 0.271578876947959
-0.259104051148268 -0.00997030472230724 0.28030264623672
-0.259386337678289 -0.0078261256509295 0.295834034126108
-0.25993520367529 -0.00365707449687428 0.310207401865905
-0.259431298404896 -0.00748461502689508 0.31094061431387
-0.259092482826886 -0.010058174847019 0.319509541725965
-0.260043709432823 0.00283289144283749 0.33363531354645
-0.259886195899794 -0.00402932550915339 0.339104448739669
-0.259737740105837 -0.00515695921666037 0.35282390776157
-0.259116608937648 -0.00987491884197457 0.350785061634284
-0.258861960388263 -0.0118091666082662 0.370199329959118
-0.259314726748553 -0.00837006466498596 0.37657057054834
-0.260086604723867 -0.00250706935947133 0.393364314013711
-0.26024356646992 0.00131482653135359 0.39758817861185
-0.259127990507515 -0.00978846723584582 0.40776408520714
-0.258808286336978 -0.0122168615040599 0.41085513298015
-0.260290145376323 -0.000961024611476694 0.434780459037177
-0.259496639869679 -0.00698829732703898 0.431740101797826
-0.25860389622667 -0.0137693585250355 0.431371212867621
-0.259626454805917 -0.00600225499121152 0.457270218583766
-0.259434929669795 -0.00745703283160062 0.469455399179261
-0.259425615928384 -0.00752777772123272 0.464953725862335
-0.260352001005632 -0.000491184460754164 0.488696665952342
-0.259825176593485 -0.00449281315600608 0.488839082306393
-0.259177328014193 -0.00941371166658851 0.498839487526012
-0.259743894761321 -0.00511020996695406 0.509885239418416
-0.259807122945361 -0.00462994422799639 0.517306577659031
-0.259732138629981 -0.00519950664992901 0.526256653902468
-0.259501324732696 -0.00695271225950658 0.53409109249529
-0.258789780888521 -0.0123574243402877 0.544136362331438
-0.260229104658667 -0.00142467489365408 0.561712932476539
-0.259944101265223 -0.00358949059154775 0.563381591547395
-0.259508641043854 -0.00689713935894199 0.575009792166911
-0.260281649497939 -0.00102555721464911 0.579582870453092
-0.258984995249198 -0.0108746240573067 0.591692669226873
-0.259947499328655 -0.00356367973725593 0.609167675322073
-0.259267493683083 -0.00872883541628729 0.615779631599956
-0.259888586371416 -0.00401116807450028 0.625204033929325
-0.258971282183091 -0.010978785135591 0.620661483132204
-0.260309320125426 -0.000815377932110013 0.649741483230725
-0.260090193195448 -0.00247981221170149 0.652041293211017
-0.259928259929213 -0.00370981748469468 0.657695657173666
-0.258184309618434 -0.0169564352301833 0.662056972751771
-0.259081674216491 -0.0101402743938825 0.681598180464913
-0.26009047192912 -0.00247769501927208 0.686003016527913
-0.260400644404521 0.000121701163588384 0.69583245711083
-0.260261815625852 -0.0011762104301301 0.713850657602147
-0.259012260410613 -0.0106675245953537 0.708165784574472
-0.259664461294674 -0.0057135670479271 0.724030063572659
-0.260416666666667 4.62592926927149e-017 0.734555127665941
-0.259134803115882 -0.00973672033782682 0.74226717873191
-0.260378278008125 -0.000291590811001575 0.754431352460695
-0.259316277511461 -0.00835828545125601 0.758066665202507
-0.258989953413019 -0.0108369630640742 0.769720044438771
-0.259390594698763 -0.00779379037015814 0.780556206370837
-0.258871953015121 -0.0117332650717103 0.784977132277816
-0.259530160405612 -0.00673368357836273 0.797565289286731
-0.259902585167007 -0.00390483666531277 0.815498926330748
-0.260088895937896 -0.00248966586109137 0.823876050095055
-0.260185831345407 -0.0017533683408183 0.831643954316336
-0.258471826381214 -0.0147725285968184 0.834597256106417
-0.259182803455741 -0.00937212155892388 0.841266530635964
-0.259646384663674 -0.00585087269218819 0.852141614762377
-0.259631473288868 -0.00596413582869428 0.862860569607985
-0.259499324266179 -0.00696790731128112 0.868657628891659
-0.259509926815402 -0.00688737295441763 0.882761944721496
-0.259395147687026 -0.00775920699083036 0.897275270237627
-0.260198248119834 0.00165905357540272 0.911108995303816
-0.260288656888403 0.000972330799718324 0.911357252801388
-0.259489471175677 -0.00704274896398643 0.924117522857826
-0.259756708088595 -0.00240845172977264 0.938652076438895
-0.259365181320817 -0.00798682414020436 0.934702813879354
-0.256411853646568 -0.0102487045486308 0.946422632776634
-0.253926192376622 -0.0217796633952694 0.949673707417012
-0.252698089719884 -0.00930897826056744 0.959316569741542
-0.24800218151345 -0.0190314388979028 0.97079406759714
-0.247905952544367 -0.0259981556053653 0.968035653134067
-0.24385834395002 -0.0191565251114233 0.984662029624525
-0.243445002211363 -0.0301662309952174 0.981180688134669
-0.246322988978342 -0.0239676846937574 1.0
-0.233219695798772 -0.0389170662086427 0.999435108535219
-0.22792445259385 -0.0465079611506469 0.995239374798546
-0.201781258372919 -0.0764422181850891 0.984375
-0.192380178014903 -0.0751090318400286 0.984375
-0.185546006434331 -0.0959416579475525 0.984375
-0.175619633965941 -0.0983222463933925 0.984375
-0.158921585358068 -0.118447353957969 0.984375
-0.149518623618339 -0.126998700249184 0.984375
-0.154938733159012 -0.136239178349554 0.984375
-0.139094263382837 -0.149273849892693 0.984375
-0.122520935353767 -0.159374734985488 0.984375
-0.110613531909829 -0.168988908872945 0.984375
-0.101232314530228 -0.182612083470473 0.984375
-0.0996404345628259 -0.191410665480311 0.984375
-0.0914734996106992 -0.204983625537805 0.987693920765703
-0.0787830675904262 -0.211862636751578 0.989170568279976
-0.0687955422225952 -0.222814985988684 0.9953734341078
-0.0717280095049342 -0.223099481656844 0.996737864013441
-0.0533500052851869 -0.232345026202925 1.0
-0.260373074965429 -0.000331111843957825 0.176952529008678
-0.259239392779774 0.00894228296817258 0.197969776977811
-0.258268554753574 0.016316529898469 0.205019287878891
-0.259640686658709 0.00589415333683598 0.201229414760995
-0.259237414693017 0.00895730802878939 0.215344869399588
-0.259436990726158 0.00744137755426003 0.232682757423785
-0.259094998425489 0.0100390669785874 0.235130634075336
-0.259878605930554 0.00408697704921919 0.241351685547862
-0.259804423099542 0.00465045159298218 0.251359922971948
-0.259693596436891 0.00549226367160962 0.259608243578678
-0.259780128991411 0.0048349836647298 0.264395732095114
-0.258697416502904 0.0130590015022037 0.289099062540684
-0.259257921363428 0.0088015444026814 0.292493553654178
-0.258504380502346 0.0145252554973504 0.305835253101271
-0.258831758741265 0.0120385708926566 0.316628660142378
-0.25918883286084 0.00932632368035397 0.321081248661511
-0.259151574422154 0.00960932961923113 0.334755637988488
-0.259713020977853 0.00534471963470379 0.338087577153916
-0.258939700226171 0.0112186739147547 0.351540426123068
-0.259354611315162 0.00806711130413622 0.351234904556518
-0.259856382607773 0.00425577994463712 0.359872147650587
-0.258387738551017 0.015411239078866 0.385418956421799
-0.259040798249714 0.0104507581866329 0.388176975391599
-0.259595809466488 0.00623502945421796 0.387634887185833
-0.258541293632992 0.0142448724334333 0.406685607351072
-0.258591451060685 0.0138638889457446 0.419354085462327
-0.259137392934695 0.00971704871092605 0.417634777609279
-0.259159441806503 0.00954957090220938 0.438109672227896
-0.258943932703634 0.011186525056652 0.447149609326078
-0.260405481381507 8.49606757544649e-005 0.450515024236785
-0.259461591130756 0.00725451892986032 0.47022678927746
-0.259284850548278 0.00859699693610179 0.473326119694946
-0.258970465920392 0.0109849852663456 0.481253141764949
-0.259047445698599 0.0104002657994312 0.491973692649991
-0.260319382381416 0.000738947509799698 0.496010513366023
-0.258896523013461 0.0115466374057741 0.508913809131157
-0.25842324306739 0.0151415555026124 0.525581332048467
-0.259401476462751 0.00771113516659078 0.531054066429083
-0.258552698010835 0.0141582475835222 0.538028660957558
-0.259054037573946 0.010350195535151 0.548502360541549
-0.258837472739047 0.0119951687705127 0.559975783084283
-0.260062604958832 0.0026893656734466 0.56183035290376
-0.25944301160711 0.00739564442300057 0.570848064072701
-0.259329070710043 0.00826111146050714 0.584210980683346
-0.258656179256818 0.013372229483763 0.593599882724544
-0.259673718339476 0.00564325281179788 0.604087304010214
-0.259694224903275 0.00548748999548464 0.610408788954908
-0.259400917035015 0.00771538444211685 0.62087902530157
-0.2599881646434 0.00325479600554434 0.625072232912727
-0.259816084505556 0.00456187442028585 0.633564665276592
-0.259498635428411 0.00697313955359415 0.646834122601427
-0.260143910131114 0.00207179157669709 0.648294362439019
-0.258541069661677 0.0142465736644664 0.670075787894097
-0.259127845021433 0.00978957231235723 0.67374348266064
-0.259164280997534 0.00951281359703528 0.681911853348683
-0.259171350469488 0.00945911562636502 0.696219706640797
-0.259956613023287 0.0034944543537788 0.705453371023435
-0.259806176945286 0.0046371298119557 0.70462588016655
-0.258653090880008 0.0133956880346123 0.720040146893045
-0.25960748946711 0.00614631104145933 0.727526443348442
-0.25885826136441 0.0118372634839078 0.745705350051783
-0.259174903475732 0.00943212786457459 0.748337183023576
-0.258700212155141 0.013037766415229 0.767311863351867
-0.25883319877231 0.0120276327709313 0.774010605385266
-0.260149950629812 0.00202590943386931 0.776248940312985
-0.259989186899616 0.00324703119868711 0.782630069052114
-0.258791418513617 0.0123449853427245 0.802048066544085
-0.259288480648845 0.00856942358478676 0.802563512659394
-0.26005128598938 0.00277534178220855 0.814054052039178
-0.259941686429702 0.00360783308839322 0.822763360724068
-0.260082932762163 0.00253496067769404 0.833193836223963
-0.259952156177161 0.00352830746106486 0.844425647331417
-0.259943829351341 0.0035915559825313 0.85048125952419
-0.259336648863326 0.00820354967154076 0.870419279345358
-0.260254046666015 0.00123522153876221 0.871442523603226
-0.260154032059406 0.00199490789824776 0.877316528475044
-0.259632075932106 0.00595955829884269 0.890908373589564
-0.260355125795085 0.000467449328419184 0.900447643615389
-0.258886630592787 0.0116217778007874 0.90647579162168
-0.259883672311176 0.00404849406778211 0.91523651559223
-0.259340909725888 0.00817118520720969 0.927969116668013
-0.259159953687351 0.00828347233781312 0.938058341808685
-0.256755841147879 0.00946645533991651 0.94561286458076
-0.254315904497817 0.00402745255155643 0.956217007617916
-0.252342721299343 0.00400507881814652 0.962856800239278
-0.253427610284239 -0.00255252439798566 0.95985411417214
-0.247346302365172 0.00204248299341404 0.980512926815482
-0.245877310754652 -0.00228066931662838 0.98534337633704
-0.245078253744662 -0.0111280640215085 0.984114541680875
-0.252047288946938 0.000143557152082639 1.0
-0.236222344243813 -0.025077427968218 1.0
-0.213414544642328 -0.0393735791013473 0.984375
-0.20446138406172 -0.0564463971108186 0.984375
-0.196783312436945 -0.060788548297544 0.984375
-0.192158309962554 -0.0723351024867175 0.984375
-0.182798025436764 -0.080921555594567 0.984375
-0.174827639850351 -0.0963708645329625 0.984375
-0.159704017313312 -0.100934953100703 0.984375
-0.148227565631259 -0.108987652548047 0.984375
-0.147151360848971 -0.121465870547286 0.984375
-0.122836774530485 -0.139631239130114 0.984375
-0.118447369471611 -0.150403756408636 0.984375
-0.111663126196469 -0.161258179272001 0.984375
-0.102706040851144 -0.174978390426998 0.984375
-0.0885665165264123 -0.17960584521723 0.984375
-0.0753835035097601 -0.202633905408197 0.984375
-0.0706871197857967 -0.212412450889332 0.986618900776283
-0.0570429167728429 -0.217274255239079 0.98619208310314
-0.0535140002713501 -0.225683458633029 0.993951484416673
-0.0468926105420522 -0.229845659345115 0.997165252272707
-0.0416379611301823 -0.243169634001552 1.0
-0.257326734098713 0.0234703680110792 0.19468786403613
-0.257696175998191 0.0206641781837035 0.194265255745362
-0.257379219877381 0.0230716989418993 0.20864887850069
-0.257965729755995 0.0186167141192655 0.213707710636213
-0.257305516749375 0.0236315297795701 0.232245656368247
-0.257556660695302 0.0217239021194147 0.238379771981325
-0.258599966035979 0.0137992112871408 0.239482376865316
-0.258335225818806 0.0158101128805316 0.251772579375555
-0.257330426453953 0.0234423217885826 0.256017127555105
-0.258713169717439 0.012939343958112 0.266749610893762
-0.257733789985194 0.0203784715872324 0.277690035061059
-0.258337413536002 0.0157934955186401 0.294108679491724
-0.257641721582913 0.0210778005325094 0.307415723856132
-0.257544154069647 0.0218188993726705 0.31543087801378
-0.257613595972959 0.0212914357499902 0.314816950616872
-0.257992638412513 0.0184123225808529 0.3234565590202
-0.256963150647191 0.0262320585082956 0.338351903908719
-0.256940882333759 0.0264012031416305 0.352709719275792
-0.256998835943229 0.0259610017741519 0.35546987243203
-0.258148858815964 0.0172257108088439 0.35918918349052
-0.257837513344041 0.0195906144576819 0.371284822402105
-0.257673106495697 0.0208394084521521 0.385605477531973
-0.257812078976058 0.0197838076628949 0.393311875226643
-0.257614402276589 0.0212853112658748 0.407168901643975
-0.257122703086353 0.0250201374123334 0.410898214916408
-0.25699533217621 0.0259876155269007 0.424623965006607
-0.257715632396047 0.0205163921696754 0.430696631762495
-0.257760393248911 0.0201763997374439 0.431586911800315
-0.258118743782285 0.0174544571997687 0.447863307358484
-0.257488001929915 0.0222454172189799 0.458381633303531
-0.257609943711428 0.0213191774305348 0.462645733915181
-0.257471571290569 0.0223702203153636 0.482338221828483
-0.257484078289533 0.0222752202265438 0.489002180767599
-0.258854500631046 0.0118658290898236 0.494369740469693
-0.258448369250832 0.0149507031913896 0.497602672378313
-0.257650236748475 0.0210131214286729 0.514951213424048
-0.258154848052169 0.0171802180433092 0.51993827135705
-0.257538200210861 0.0218641234200263 0.535202327679675
-0.257789347382145 0.0199564712608454 0.544807354250527
-0.257606275383418 0.0213470411481026 0.549846455749345
-0.256970558105912 0.0261757932732533 0.560877377413081
-0.257411232807547 0.0228285365959342 0.565329803431978
-0.257373131601999 0.0231179439846732 0.577457985616098
-0.257290528963354 0.0237453733168801 0.585498543886351
-0.257366962228586 0.0231648050281493 0.595489391741881
-0.258164979816801 0.0171032596504368 0.61014180189733
-0.258005168423324 0.0183171476997013 0.612624001037167
-0.257638681158431 0.0211008948492763 0.628325283595925
-0.258055156196609 0.017937452865188 0.634832054926841
-0.2583516290205 0.0156855181938048 0.638776513221627
-0.257171531270066 0.0246492505350825 0.66255340367828
-0.257958807154071 0.0186692965013011 0.666073980074402
-0.25751956735092 0.0220056540425574 0.673466815199757
-0.257961406761602 0.0186495505217102 0.6842871459662
-0.257935670499681 0.018845036839035 0.686744070438209
-0.257876163052826 0.0192970407732242 0.70500977677863
-0.257917745585728 0.0189811900779135 0.70899395211265
-0.257163049917158 0.0247136728063106 0.723732894684328
-0.258009755933043 0.0182823021038859 0.731824128122397
-0.257695132027619 0.0206721079274704 0.7360580403892
-0.257502462120899 0.0221355811638405 0.756308132571314
-0.257689585187922 0.0207142403579152 0.760898970862743
-0.257654483276619 0.0209808658450547 0.767589153981392
-0.258126742788823 0.0173936987129613 0.768311946031005
-0.257545695991718 0.0218071873117591 0.787138411955547
-0.257197871567428 0.0244491761130675 0.798999723808333
-0.257849372884638 0.0195005323034227 0.799261594213268
-0.257821210993875 0.0197144431010042 0.817735115918379
-0.258351657856196 0.0156852991649489 0.820549787943991
-0.258288563669196 0.016164547095347 0.833661994900217
-0.257839869815165 0.0195727152824506 0.835688762308287
-0.258042554447282 0.0180331726544675 0.850312759382474
-0.257355726772175 0.0232501467923925 0.861703684691837
-0.257420820283085 0.0227557124891876 0.868738734382801
-0.257477614723227 0.0223243158868979 0.879853675617765
-0.257761517457028 0.0201678605290073 0.885021791968849
-0.257979211061807 0.0185143134351996 0.891533812154287
-0.257430643948379 0.0226810943431213 0.908841915755138
-0.258521035206436 0.0143987504602611 0.912748985913478
-0.257694094442304 0.0206799891703914 0.925874920538992
-0.257986480145488 0.0184590992629307 0.932781856284387
-0.256621450331881 0.0170047160490425 0.942729850067115
-0.255351332074116 0.0196136618974076 0.945843373976857
-0.252289973498453 0.0174330551066693 0.957094135420748
-0.2521812970696 0.0111844094620573 0.960223391568686
-0.250500934559396 0.00761836099370073 0.967446859672556
-0.247326369387313 0.00725516654037235 0.978274058585907
-0.251312998637809 0.00733481865684447 0.99437654429043
-0.247585898215876 0.00722157710935963 1.0
-0.241066550824959 0.00304731103557425 1.0
-0.21700398581348 -0.0228204264340798 0.984375
-0.209445082832245 -0.0380195067024885 0.984375
-0.206653514748179 -0.0439408695373884 0.984375
-0.192077237591064 -0.054813142418413 0.984375
-0.176394670513695 -0.0735958854070714 0.984375
-0.168171355500744 -0.0754459537771456 0.984375
-0.161564785162982 -0.0966250067272727 0.984375
-0.152073237166426 -0.106396337854261 0.984375
-0.13881424516374 -0.107934227835597 0.984375
-0.136203015176475 -0.124600219394385 0.984375
-0.115861604779466 -0.13607401949484 0.984375
-0.109809814937501 -0.13824795083567 0.984375
-0.099314997537103 -0.164082515847087 0.984375
-0.0871965649505747 -0.171188874135214 0.984375
-0.0829247089198326 -0.177487519400133 0.984375
-0.0727663871128238 -0.18884550610063 0.984375
-0.0561518312093934 -0.203094874847283 0.984375
-0.0571158839459097 -0.215355924391685 0.984375
-0.0502939133258354 -0.220709796791744 0.988679723287897
-0.0355714999310685 -0.229266132121499 0.995143529647683
-0.0273174167844467 -0.230546591496675 0.995332800597892
-0.0242383522793413 -0.241337209111206 1.0
-0.256333734469254 0.031012949030474 0.191826898810165
-0.255888508973404 0.0343947724216713 0.202827913606423
-0.255685225252682 0.0359388655793948 0.217369894416046
-0.25658081630539 0.0291361761574685 0.22206643728462
-0.256036115765856 0.0332735875208352 0.235820439691485
-0.256951610093678 0.0263197177151019 0.231995056674317
-0.25632703156997 0.0310638626052822 0.246908402628522
-0.257096430524156 0.0252196973346985 0.25646646008604
-0.256320931368521 0.0311101982355216 0.263557786769412
-0.255971668100021 0.0337631161436594 0.277648410267582
-0.256881029994705 0.0268558267921571 0.288781338465439
-0.255610641515984 0.0365053853041607 0.300870621114569
-0.256576517128378 0.0291688316489338 0.298941725562245
-0.255136087379654 0.0401099818369031 0.317025314623675
-0.256196389361935 0.0320561886942558 0.329818084901395
-0.257094169981955 0.0252368678574101 0.332836618368616
-0.256137617524875 0.0325026051173206 0.341807756735087
-0.256522234647734 0.0295811480245344 0.352963572274094
-0.256772602011041 0.027679419095008 0.362926507223277
-0.257019641514535 0.0258029677703399 0.365129021482381
-0.255619341357215 0.036439303449346 0.387784414674775
-0.256550111031021 0.029369405871535 0.384613363274594
-0.256287378317577 0.0313650589602232 0.403597408543384
-0.255950883004338 0.0339209946196765 0.408297992556869
-0.256819088540213 0.0273263188498633 0.415256195796235
-0.256491548217516 0.0298142346030757 0.422106891564285
-0.255886669858124 0.0344087418891191 0.434856075356579
-0.256538301152635 0.0294591108038586 0.440646172437309
-0.255964565736857 0.0338170639478707 0.4537706012762
-0.256380650493359 0.0306565864474243 0.46836552129082
-0.25600952372833 0.0334755740992363 0.472754957202721
-0.255864484076775 0.0345772596290484 0.48192398349724
-0.256304650256493 0.0312338655591706 0.498159743719504
-0.255530252399851 0.0371160012636419 0.503416699840541
-0.256546816222454 0.0293944324272635 0.513662480996115
-0.2571469091561 0.0248362740584973 0.521453899614109
-0.256457972544046 0.0300692671629199 0.521269388869205
-0.255212642066224 0.0395284912615406 0.54490335239309
-0.256642197063086 0.0286699430147597 0.55000937327966
-0.256225172667606 0.0318375577818283 0.559517244846841
-0.256041251460452 0.0332345780474893 0.566370545895588
-0.255545179323834 0.0370026200194097 0.577636506003681
-0.256055623345966 0.033125412738987 0.591165598154956
-0.255661295478108 0.0361206302630307 0.596529438082517
-0.257126547370388 0.0249909371760682 0.599433714139646
-0.256644580536903 0.0286518387337044 0.612405977547734
-0.256762850437818 0.0277534896474216 0.620491338205887
-0.255705759423604 0.0357828930661637 0.638726604445825
-0.25571114079835 0.0357420174668025 0.643790703176455
-0.255601195619644 0.0365771340101298 0.653580477990708
-0.256448806107232 0.0301388931630445 0.66486819688466
-0.256641424767605 0.0286758091813256 0.668100989300734
-0.256453674342779 0.0301019152428744 0.673449825344572
-0.255704634582769 0.0357914370805595 0.696584954667986
-0.255927546964875 0.0340982494373953 0.701290974262947
-0.255777078896235 0.0352411678886098 0.705817290418756
-0.255778106703366 0.035233360918362 0.715156109876217
-0.25607445706577 0.0329823564343303 0.734523097218879
-0.256690861437994 0.0283003003889025 0.733687924967079
-0.256040354763452 0.0332413891374099 0.750589073919728
-0.255829118704363 0.0348458863019887 0.75433863701498
-0.255136115359399 0.0401097693096308 0.771237323993425
-0.256396418054499 0.0305368199300523 0.768051686928702
-0.25662068609864 0.0288333350114167 0.78458103430461
-0.256709275679398 0.0281604303390238 0.790812274837487
-0.256386728205296 0.0306104216419904 0.803045062684973
-0.256713108220544 0.0281313192988565 0.811936291387976
-0.256328329086763 0.031054006986759 0.819987013795645
-0.256086320448352 0.0328922450972857 0.827474717573374
-0.256419327561575 0.0303628049474568 0.834050835385855
-0.257222632584858 0.0242610975130821 0.846135270644864
-0.25661399663629 0.0288841465225729 0.849213775922672
-0.255655508019234 0.0361645903775727 0.867100340744819
-0.256884114446462 0.0268323980550398 0.87095427418633
-0.256149884569659 0.0324094276614535 0.881702974191528
-0.255755815011834 0.0354026831259999 0.893446970209525
-0.256308683148205 0.0312032327053627 0.90663781784355
-0.256306525006316 0.0312196254204905 0.904745106824861
-0.256291851851065 0.031331079099833 0.925747717299788
-0.256010602996878 0.0334673762407258 0.936166614633724
-0.255376591802249 0.0286849537595738 0.941745793637537
-0.251874764668279 0.0348502597828888 0.950784694941507
-0.25340317394095 0.0262286513096743 0.94946302891543
-0.24773711985416 0.0280587623874755 0.967691416634347
-0.247977980546451 0.0229675593741024 0.96913423053883
-0.245593523114372 0.0251260139712127 0.97619120995679
-0.244215120278646 0.0173019400345235 0.984283641305077
-0.248809308098918 0.0243008507903246 1.0
-0.240075925247872 0.0158740223047799 1.0
-0.239109369723363 0.00758266765204771 1.0
-0.208445494082528 -0.0158726262349637 0.984375
-0.195854719906773 -0.0323281374753705 0.984375
-0.193167040707752 -0.036174366961583 0.984375
-0.17685259272629 -0.0513555192330047 0.984375
-0.1737944241723 -0.0646867508706135 0.984375
