ply
format ascii 1.0
element vertex 858
property float x
property float y
property float z
end_header
0.0159653959627831 0.178402043692578 0.9625
0.0306787326028274 0.188471746820607 0.9625
0.044087549276917 0.20406765975563 0.9625
0.0539157663808822 0.218768033243404 0.9625
0.0642689928489481 0.227938663668591 0.962499999999999
0.0676715624929075 0.243088805153372 0.962499999999999
0.0835943875975995 0.247957889438755 0.962499999999999
0.090583047269447 0.264297700323002 0.964912235107633
0.0967928487868866 0.261725516314834 0.96512820911105
0.0898878816210285 0.264585647362673 0.979736022131173
0.0933161780812094 0.263165600473031 0.996964872490427
0.106704206860652 0.267362709608072 0.999999999999999
-0.295350006466656 -0.150552100466562 0.305915937305768
-0.2970240078119 -0.146510703715444 0.30880796331059
-0.298628841454729 -0.142636292569573 0.323114316836467
-0.297930481793106 -0.144322281936077 0.336087507573175
-0.296978029341806 -0.14662170556152 0.342820650567007
-0.295938939862098 -0.149130289475953 0.34751622467297
-0.296119940068478 -0.148693316322917 0.363658589097637
-0.298151407717652 -0.143788919572758 0.36107371859672
-0.296026730342816 -0.148918344506755 0.379235191286273
-0.296840045086179 -0.146954829022848 0.384679837599066
-0.296074549216722 -0.148802899532833 0.394794915968495
-0.297241647864798 -0.145985274148022 0.401855143362371
-0.298879870289521 -0.14203025535207 0.409184175126528
-0.296514741375536 -0.147740181652975 0.418557836320195
-0.296779094795248 -0.147101976041847 0.426162934418078
-0.296517232410707 -0.14773416776208 0.445269662720572
-0.295427610666467 -0.150364747354881 0.455254390162642
-0.299743248482798 -0.139945876008405 0.456738346265947
-0.297362170428015 -0.14569430694133 0.46034016459969
-0.296270536569422 -0.14832974420789 0.481090352343498
-0.297124873387456 -0.146267192674959 0.484247180620726
-0.299430072899181 -0.140701948749777 0.495120240842365
-0.296461540639047 -0.147868619592536 0.501177567309608
-0.296841888997116 -0.146950377428057 0.510133867125276
-0.296667693275254 -0.147370923102286 0.521603033312225
-0.29771808558935 -0.144835051731782 0.525278770090457
-0.297764238916027 -0.144723627744571 0.536027297362902
-0.299088449835342 -0.141526699783716 0.543628387809983
-0.296795204946309 -0.147063082696662 0.556911497210691
-0.298627419083847 -0.142639726476646 0.562367452572811
-0.297985711813739 -0.144188944871216 0.569718653283761
-0.299084549959047 -0.141536114917959 0.582209422237564
-0.297018539004512 -0.14652390658441 0.590800474564696
-0.295885134951309 -0.1492601860213 0.600594832457949
-0.297459803906671 -0.145458598873019 0.610973963407409
-0.297541926703818 -0.145260336902364 0.617892693236317
-0.29879766638756 -0.142228713127066 0.623478855782451
-0.295294161683549 -0.150686921699326 0.640347626321279
-0.296365728170681 -0.148099931353108 0.639133368273291
-0.296570632186887 -0.147605249298199 0.650367745138622
-0.296917961323753 -0.146766722585369 0.66007114077234
-0.298587088853466 -0.142737092265806 0.671679656996105
-0.298465154393688 -0.143031468092323 0.682165473708067
-0.297818666500405 -0.144592227932196 0.68468647535317
-0.29657489208485 -0.147594964994762 0.6992631615698
-0.297024201555246 -0.14651023597763 0.710055443892283
-0.29502579831679 -0.151334808179 0.720645819840379
-0.29878662690884 -0.142255364786313 0.725917969764462
-0.299131167874693 -0.141423569313758 0.736351735817425
-0.297571277536641 -0.145189477723697 0.741625243937477
-0.296632528069119 -0.147455819419861 0.757654267189172
-0.297578998301398 -0.14517083814871 0.755958420450261
-0.298212644732109 -0.143641080341937 0.762497124635234
-0.299065985702727 -0.141580932997343 0.777346867873723
-0.299027282966376 -0.141674369668343 0.785277393244038
-0.297858692412738 -0.144495596831796 0.793835323673987
-0.296658986205619 -0.147391943827887 0.813644252714838
-0.298045541389833 -0.144044503497178 0.808543312196498
-0.298892633842024 -0.141999441410514 0.827194999819933
-0.296627246664561 -0.147468569858371 0.833855781288706
-0.29535486423441 -0.150540372777768 0.847764377303363
-0.295676208436612 -0.149764579246623 0.849739958586301
-0.298475509561238 -0.13793999447276 0.855866757947049
-0.294271173348055 -0.139225513145596 0.86613163583153
-0.292955069143771 -0.135573804859816 0.874039397824969
-0.292915060178887 -0.135514629434551 0.874219767669871
-0.29142008043872 -0.132632245235547 0.881736742013821
-0.28823680199351 -0.132964459377641 0.890251082235643
-0.284411979335425 -0.130602164758726 0.903679019245165
-0.282674291265396 -0.131687503097932 0.907280046858182
-0.281641260537327 -0.128884214404655 0.913414028174188
-0.280039773009742 -0.12446638692765 0.923006727842059
-0.278188866755609 -0.126994294480525 0.925253830312465
-0.276022134954636 -0.126561187023878 0.931812567855721
-0.273926165347598 -0.120698027115173 0.944461251837853
-0.272245837696545 -0.11837560827907 0.951847960765655
-0.272799276410199 -0.112243032991991 0.957402049545261
-0.268371102727357 -0.117144000974337 0.964106143344842
-0.268659283215151 -0.112156464732618 0.969075870349355
-0.267591225358049 -0.109618964828237 0.979006519877589
-0.265812148451306 -0.113914036425001 0.991373749206878
-0.268085172324566 -0.108426471362579 0.996609449475904
-0.256780034612827 -0.108928890119465 0.999999999999999
-0.219591177431806 -0.0590193934439831 0.9625
-0.210279523539656 -0.0459340688154726 0.962499999999999
-0.206678496443481 -0.0410584490618662 0.962499999999999
-0.194972343119969 -0.0298056145719051 0.962499999999999
-0.180751368157685 -0.0240031934542951 0.962499999999999
-0.173616185442153 -0.0104984235349898 0.962499999999999
-0.159283868782279 0.00474947986852389 0.962499999999999
-0.151664747614648 0.0115481659281468 0.962499999999999
-0.146232990416535 0.0207448832577258 0.962499999999999
-0.13538351296378 0.0231791749136807 0.962499999999999
-0.127244232502625 0.0415706729002683 0.962499999999999
-0.11422757705025 0.0503946220788452 0.9625
-0.0998966015568164 0.0682345563180285 0.9625
-0.106292387363178 0.0645339673891634 0.9625
-0.0805075468525676 0.0884338875381825 0.9625
-0.0820133187428747 0.0885981451457065 0.9625
-0.0595668784433317 0.110389594161241 0.9625
-0.0600134603861472 0.110779802581856 0.9625
-0.0518872407987589 0.129010232256533 0.962499999999999
-0.0380027073990667 0.136416170189025 0.9625
-0.0238750028152434 0.144172466591739 0.9625
-0.0164957998624816 0.165753504089392 0.9625
-0.00964327968782529 0.163754338368253 0.9625
0.00120025004337116 0.186735236383532 0.9625
0.0190916985726677 0.198475296079635 0.9625
0.0188043113715949 0.200165719214167 0.962499999999999
0.039244306596687 0.225845527348944 0.9625
0.0534087442919233 0.232953447818489 0.962499999999999
0.0638714970866928 0.248166303500501 0.962499999999999
0.0816858013091073 0.267983060267544 0.95654326327699
0.0841600701839697 0.266958184542619 0.97225273986263
0.0832674434977889 0.267327922622171 0.966469574707722
0.0826866189353825 0.267568508033279 0.993013648756138
0.0779877695675379 0.269514835168988 0.999512058773173
-0.299016588803265 -0.141700187661963 0.299373152227305
-0.300851122011383 -0.137271232710301 0.314167454198297
-0.302121877706256 -0.134203357077274 0.318182351147318
-0.30158802519612 -0.135492191047552 0.321545878603718
-0.300071518325385 -0.139153362502312 0.335048921692492
-0.301026467411743 -0.136847911466653 0.35048160937946
-0.303014260328414 -0.132048954848034 0.356156026445088
-0.300519571659469 -0.138071666066502 0.359032138065051
-0.302026866244753 -0.134432735036217 0.370560014436012
-0.302628175649072 -0.132981045717126 0.379690787316966
-0.302263547170643 -0.133861336734978 0.388745736708967
-0.301734414448365 -0.135138776129396 0.403479560538108
-0.30102788451398 -0.136844490279213 0.403390326011414
-0.300449193158553 -0.138241574797911 0.420321524446932
-0.300313342216229 -0.138569547985331 0.433338941069117
-0.301179087085123 -0.136479454981293 0.435665938476114
-0.300637154133903 -0.137787796862023 0.445141225069517
-0.301553197598187 -0.135576272306826 0.454310139743575
-0.301951199676992 -0.134615410290324 0.461746993304052
-0.301419364790016 -0.135899373287406 0.468055772834679
-0.302388719604292 -0.133559143748028 0.481943536917149
-0.302957111693091 -0.132186923858503 0.483010224772928
-0.303531412550883 -0.130800438938738 0.491871429316228
-0.301232059346827 -0.136351568628658 0.510767945233685
-0.301812157851385 -0.13495108695144 0.520497544777672
-0.29888023074591 -0.142029385133368 0.526823275599906
-0.303476264993974 -0.130933576918561 0.529279181094208
-0.299846967671618 -0.139695475736077 0.541081187758322
-0.302488902529428 -0.133317280771445 0.550623981032954
-0.300789762649936 -0.137419367312885 0.560661402042131
-0.30140228731071 -0.135940601969556 0.57031566926965
-0.30195064455652 -0.134616750469696 0.575263496164399
-0.300276004052448 -0.138659690286727 0.585707671444859
-0.302043626629225 -0.134392271888714 0.597972564197988
-0.301600944003661 -0.135461002287176 0.600646579696514
-0.301409431231591 -0.135923355018876 0.611946767288526
-0.3018635837053 -0.134826933957463 0.616124536134316
-0.300697148912053 -0.137642956654945 0.63435590854496
-0.301611463521159 -0.135435605925366 0.644537556634579
-0.300310539978011 -0.138576313186843 0.649177662098378
-0.302125065693939 -0.134195660594176 0.664599186914749
-0.301202311996043 -0.136423385086364 0.670834163711581
-0.300545195357517 -0.138009804987154 0.679106719329572
-0.300393000922839 -0.138377234855473 0.68526290435854
-0.302671290533263 -0.132876957178973 0.696085169125041
-0.301568019144852 -0.135540489927853 0.70379858734053
-0.299095581107341 -0.141509483370139 0.709643434970407
-0.303299747494765 -0.131359727859149 0.724373656452899
-0.302663796593339 -0.132895049150374 0.726397190758241
-0.301563352389251 -0.135551756472516 0.736707057300381
-0.300612020774396 -0.137848474159415 0.752678619007885
-0.300015864082331 -0.139287723730696 0.758296689633239
-0.301046901155417 -0.136798580045543 0.766557412161578
-0.299814722298078 -0.139773322954201 0.775560534530096
-0.299336990536485 -0.140926669452215 0.783011085104747
-0.299176674123591 -0.141313707510495 0.790583738398109
-0.300303495883784 -0.138593319134661 0.797977950122886
-0.302745063356909 -0.132698853827593 0.805666059695884
-0.302385786178894 -0.133566225663408 0.816828317524704
-0.299402324257189 -0.140768939897611 0.833814861098997
-0.301406368106372 -0.135930750057324 0.842782723569205
-0.299535002399665 -0.138909376176966 0.851782385375187
-0.301460042094418 -0.132265282719303 0.854094404164677
-0.296438665061459 -0.134251144564098 0.865832397440758
-0.295292286237748 -0.130291305640752 0.873622484765317
-0.294008576735037 -0.12751531911294 0.880425637645022
-0.294351329392954 -0.123855652687932 0.883705189294423
-0.293307759156912 -0.120784458996025 0.890178856793177
-0.28953556661318 -0.124986875032401 0.895858012227657
-0.288081193420423 -0.124850287456246 0.900081954926645
-0.286278850730875 -0.119530695663268 0.911280360340037
-0.285204853485327 -0.115667434039866 0.918756268645857
-0.28311524655181 -0.115560518197097 0.924721683593362
-0.284180877746915 -0.111049466594123 0.926966255801679
-0.278440496179023 -0.111830488730521 0.942109418076591
-0.278315071132799 -0.110845868858472 0.943600197940833
-0.274778324014339 -0.10773207525391 0.957093007291335
-0.275381925867723 -0.106794723413796 0.956491018054104
-0.273978003546961 -0.10350906754005 0.964220407546883
-0.27114528395858 -0.101038708353368 0.978536187111685
-0.269734907655274 -0.104443657952858 0.982940056966528
-0.271512284195847 -0.100152691403163 0.988370421779754
-0.268927701986078 -0.0963973087119837 0.999999999999999
-0.224712075261731 -0.0522097277170687 0.962499999999999
-0.212352521528536 -0.0368600404614106 0.962499999999999
-0.199543017325795 -0.0282114315209491 0.962499999999999
-0.200076222140681 -0.0279518189311224 0.962499999999999
-0.18351258062174 -0.00885134259682388 0.962499999999999
-0.17374200141553 -0.00378497263828426 0.9625
-0.173109036641973 0.0103071881299999 0.962499999999999
-0.157006172122115 0.0186018843677756 0.962499999999999
-0.153768328603295 0.0264928533708405 0.962499999999999
-0.13412865554723 0.0439836053252867 0.962499999999999
-0.134046761451581 0.05145343728324 0.962499999999999
-0.117068567762378 0.0659601931306557 0.9625
-0.114522169845047 0.0682013901316255 0.9625
-0.103548466318837 0.0799312773128454 0.9625
-0.0936866596459697 0.0899968083497002 0.9625
-0.0818099728053648 0.0999825699129089 0.9625
-0.0818726608067509 0.109216265910688 0.9625
-0.0665868173743524 0.115816014638174 0.9625
-0.0555135445794851 0.131270195629176 0.9625
-0.0357013625778077 0.148544971698321 0.9625
-0.0306899703446415 0.158312857691623 0.9625
-0.0227668946470952 0.161410488067083 0.962499999999999
-0.00682518660662861 0.17858301214804 0.962499999999999
0.0080704079780044 0.191561073976905 0.9625
0.00705239030646932 0.206290161360058 0.962499999999999
0.0166833671062039 0.217161397790579 0.9625
0.036715846835934 0.227267909022627 0.962499999999999
0.0411284363084847 0.241989102660156 0.962499999999999
0.0580041487709812 0.249341732987125 0.962499999999999
0.0631336870674972 0.261527791823537 0.962499999999999
0.0750152837475379 0.270746079109594 0.967793224797614
0.0760461261071601 0.27031909022357 0.980177040434699
0.0750990674982419 0.270711374743746 0.99553289463532
0.0722682919520245 0.271735698868142 0.993564129144688
0.0776194307031068 0.279148339169235 0.999999999999999
-0.306964804682017 -0.122511497090811 0.291098538787143
-0.305317993574643 -0.126487250800899 0.307747493878668
-0.305985635411534 -0.124875420823469 0.316773470741307
-0.303567565703871 -0.130713157506474 0.32923896454082
-0.304453325532723 -0.128574744114654 0.332861369108477
-0.306320878247191 -0.124066073022938 0.336591726839483
-0.305168398092668 -0.126848406242353 0.35369232623282
-0.304794682878913 -0.127750634579866 0.364799430503066
-0.304016361563403 -0.129629668455653 0.36246969065652
-0.305906475285713 -0.125066530272826 0.378674574088855
-0.303501499549641 -0.130872655312031 0.390973485173571
-0.304294058677654 -0.128959248316196 0.38921881097424
-0.30587076019746 -0.125152754123268 0.407904902101778
-0.306343750554412 -0.124010854388644 0.416656272565947
-0.305560507983709 -0.125901769225461 0.418506034466631
-0.305545578384102 -0.125937812467313 0.431810286662169
-0.305014657238946 -0.1272195694965 0.436826873849934
-0.304403810104448 -0.128694284933142 0.452345558348127
-0.305709200328094 -0.125542794151026 0.46010012675722
-0.303983704615144 -0.129708509303049 0.47127275161353
-0.304429890556307 -0.12863132115255 0.477969965808113
-0.30331320491023 -0.131327238784216 0.487971066734304
-0.30737266590275 -0.121526833000151 0.494510569018813
-0.304421138532721 -0.12865245040659 0.503504087913589
-0.304026265892573 -0.129605757289845 0.518240034402029
-0.30584895531404 -0.125205395768545 0.523076017819656
-0.304856260105541 -0.127601974004207 0.523265155349376
-0.303142340435193 -0.131739742117179 0.545265991671448
-0.306292765533734 -0.12413394311704 0.546312911636131
-0.305937374340716 -0.124991933355174 0.563629086557793
-0.303128961697778 -0.131772041246494 0.569236776995424
-0.303074597480332 -0.131903288077561 0.579163422634716
-0.304089947224447 -0.129452016954766 0.585762474260343
-0.307258853586058 -0.121801600238676 0.593770026344131
-0.305489652438543 -0.126072829643571 0.597131759623195
-0.304968853088879 -0.127330150496803 0.614172797928529
-0.305037605471806 -0.127164167561498 0.617533927302582
-0.304302253369551 -0.128939464579881 0.626031104152534
-0.304974365481621 -0.127316842403484 0.637603426600493
-0.304225961341688 -0.129123649828247 0.651521077037258
-0.307408874486625 -0.121439417745885 0.650996938558511
-0.303085132532244 -0.131877854212354 0.665967359529234
-0.306724184991383 -0.123092404411314 0.674055636898082
-0.303636936671707 -0.130545681175089 0.680463784167932
-0.304563445766086 -0.128308890353777 0.695604826575137
-0.304449617752827 -0.128583695487164 0.701102752958723
-0.304390285499669 -0.128726936217426 0.707348891757878
-0.307142555984239 -0.122082367486255 0.715988402036524
-0.304794984096847 -0.127749907375443 0.728348482751374
-0.306660167798401 -0.123246955586834 0.738796569769478
-0.305233966055302 -0.126690111177704 0.750934419037232
-0.305024005658978 -0.127197000414072 0.757355480313065
-0.306283594607204 -0.124156083692248 0.76170763196558
-0.306596039520886 -0.123401774944144 0.771051952273337
-0.306560705693153 -0.123487078350266 0.783380716186881
-0.305142574469017 -0.126910749984801 0.78793227665374
-0.305400645297238 -0.126287711891257 0.795485814253996
-0.305723060626923 -0.125509332429614 0.814041399854383
-0.302705192840573 -0.132795109768868 0.817643372078295
-0.30564463960891 -0.125698657514876 0.818234697915045
-0.305369531020922 -0.126362828399122 0.835631351633643
-0.303936454251652 -0.129822581771416 0.843285370751251
-0.302318581440755 -0.128519244591811 0.856032060478435
-0.301053455351883 -0.124989548063516 0.863656026007043
-0.303359909926273 -0.119917449746598 0.863081476110833
-0.298560281727752 -0.119567138463111 0.876904745841562
-0.298942900660708 -0.115929190614368 0.880047699955542
-0.292753519101947 -0.122925044230433 0.889249560145855
-0.292625406107372 -0.118767773798195 0.894421646537368
-0.294081389116757 -0.109713993361283 0.90083525243922
-0.292081784163324 -0.107358613171784 0.909152686435147
-0.28872516031757 -0.110022014164426 0.915452209636826
-0.288714045111825 -0.106212844219631 0.919894136960922
-0.28566993311086 -0.103987652742788 0.930980794909749
-0.282115135101236 -0.106013827748093 0.938572205028789
-0.279883761424774 -0.102669508282392 0.948682710165196
-0.277945484749717 -0.10174382768764 0.955173167252433
-0.278631040707115 -0.0964613370422983 0.959373553743641
-0.277850182346559 -0.0946568352601052 0.96364602127412
-0.27494821006007 -0.0918576325824485 0.976553056237002
-0.272269471106773 -0.0983246804935531 0.979072463214325
-0.27401466594455 -0.09411140744721 0.988633129480478
-0.273982628859903 -0.0941887518114634 0.994768004410146
-0.266841193799228 -0.0853092934892731 0.999999999999999
-0.219025425721187 -0.0419677755489444 0.962499999999999
-0.2137502669848 -0.0296715362207649 0.962499999999999
-0.19940917200746 -0.0123384120027097 0.962499999999999
-0.190689863576626 -0.00806026100753746 0.962499999999999
-0.187169515619635 -0.00202601860782582 0.962499999999999
-0.170983513191757 0.0188061368389573 0.962499999999999
-0.162127760744415 0.025258940696451 0.962499999999999
-0.158071746483396 0.0396975427338539 0.962499999999999
-0.148142942821701 0.0403862871834487 0.962499999999999
-0.137178630001563 0.0575069512150689 0.9625
-0.132592280228152 0.0659995937506071 0.962499999999999
-0.125230582740964 0.069185846825013 0.962499999999999
-0.107782801108476 0.0932958765966041 0.9625
-0.0954666000038483 0.100849216682947 0.9625
-0.0904837039300625 0.103507998706663 0.9625
-0.0835239671983767 0.115820301470652 0.9625
-0.0744178587216432 0.1327795999375 0.9625
-0.069508450746374 0.139215346583397 0.9625
-0.0547485885603153 0.153618207220738 0.962499999999999
-0.0378631200802219 0.170563745754519 0.962499999999999
-0.0314216529485812 0.169592026011735 0.9625
-0.0226187856347873 0.183311280114705 0.962499999999999
-0.0114046794044353 0.198623516836627 0.9625
0.0109214384666226 0.220983676976955 0.9625
0.0110705607535777 0.22131457225746 0.9625
0.0184204933883001 0.23505664195442 0.962499999999999
0.0399845040527418 0.249250604998083 0.962499999999999
0.0440551273959239 0.263300678225183 0.962499999999999
0.0624244239968554 0.273031668670359 0.964548653508719
0.0610708642130667 0.27320986819653 0.967022579688469
0.0603582589729194 0.273303684456188 0.98093005753446
0.0667010323097588 0.272468642504763 0.989925417820669
0.0595248559978835 0.274402456039961 0.999999999999999
-0.31050639216449 -0.113961348558293 0.288829336030136
-0.307344299691313 -0.121595315092517 0.3033324540663
-0.309717106536215 -0.115866852626661 0.312443798269139
-0.30920239847743 -0.117109467802843 0.323211030995212
-0.309621041804221 -0.116098773405506 0.331781273411401
-0.30770087128107 -0.120734475124566 0.33656249972616
-0.308538521696479 -0.118712208131161 0.34423094420034
-0.308008721700363 -0.119991258467126 0.357580992866531
-0.310330377685167 -0.11438628510145 0.36779695175199
-0.308887115943484 -0.117870627172273 0.369792396323051
-0.309720991754937 -0.11585747287893 0.385460552236257
-0.308349219188397 -0.119169224813562 0.389115570711009
-0.307696281254942 -0.120745556427896 0.409287094172613
-0.307561693101995 -0.121070480972075 0.414864844339927
-0.309630748122261 -0.116075340280853 0.412846381896775
-0.308920973068783 -0.117788888841194 0.427663406330156
-0.308078239726828 -0.119823427104805 0.43642663835363
-0.308705368716054 -0.118309403793659 0.443882216909942
-0.309334706370892 -0.116790048292036 0.458618737848267
-0.3080594690934 -0.119868743422603 0.464364354343126
-0.308229220160059 -0.119458928095247 0.474168476300409
-0.308457677608296 -0.118907383025288 0.483499640959731
-0.308739193624126 -0.118227743241846 0.486385987390387
-0.310597573613294 -0.113741217067953 0.502202231154912
-0.308793296631045 -0.118097127028778 0.510070251799011
-0.307712659225794 -0.120706016508542 0.517978225018201
-0.30950851624585 -0.116370434134641 0.528709274883128
-0.308452678743183 -0.118919451353241 0.531956593044748
-0.30668087481993 -0.123196964414623 0.548217989415758
-0.307492258468823 -0.121238111005177 0.558266995219582
-0.310357813779968 -0.114320048509281 0.565297682117754
-0.308382839465634 -0.119088058284286 0.570656913302276
-0.308506328933716 -0.118789928335632 0.585558187913609
-0.308781059466416 -0.118126670157589 0.589454394523948
-0.309499018543895 -0.116393363615511 0.602433834199988
-0.307339292682885 -0.121607403080168 0.60774563716179
-0.310747669675274 -0.113378853119463 0.618542606291527
-0.308787843406544 -0.118110292277327 0.624258888218713
-0.3082098922711 -0.119505589746904 0.629083276945097
-0.309213452711473 -0.117082780521096 0.645247976395558
-0.308896639559641 -0.117847635128985 0.652155658226397
-0.307609561283962 -0.120954916957966 0.666578385694547
-0.30632788826481 -0.12404914934333 0.673170111384183
-0.308381445141701 -0.119091424480034 0.680320953860388
-0.309197924906205 -0.117120267959167 0.687635277224704
-0.30751537030147 -0.12118231410535 0.704013436244595
-0.30981544795458 -0.115629435440701 0.706040768450749
-0.310886875186452 -0.113042781286421 0.714132326450743
-0.310118791849176 -0.114897098496303 0.725677797219632
-0.309701605538511 -0.11590427534555 0.730186281847761
-0.308091312165618 -0.119791867445784 0.748256402044835
-0.308037141163038 -0.119922647814903 0.749596616341355
-0.308317322420783 -0.119246230422531 0.761023662608792
-0.308757107844057 -0.118184494489128 0.77201032534731
-0.308697689100893 -0.118327944024735 0.775890015088417
-0.30681079335045 -0.122883313336237 0.789146023435522
-0.308524755810606 -0.118745441919531 0.802499200648381
-0.306559564983198 -0.12348983226771 0.810814378177024
-0.308211622595944 -0.119501412373198 0.810336709972445
-0.310744630095993 -0.113386191312988 0.819359603315814
-0.308770335966282 -0.118152558977049 0.829767145353227
-0.308010046371576 -0.119988060427919 0.838014982907233
-0.309385982500997 -0.114576870243683 0.852419419281958
-0.30602308658843 -0.115778392659641 0.860429268597379
-0.304948327504398 -0.113600727108657 0.865955459267773
-0.303375321103275 -0.113514817469543 0.870452364759876
-0.302317029290303 -0.109541974110948 0.878011258578792
-0.300884208910909 -0.105721485712099 0.886440747130106
-0.301249656840618 -0.102783948401692 0.888820658597194
-0.294241673248769 -0.109240898242614 0.900934993038556
-0.295566312303922 -0.100776415110436 0.907033397374644
-0.292277105573847 -0.10262908368133 0.914083245427135
-0.291222165951659 -0.0978520197875155 0.922564020632135
-0.289805676262353 -0.0982418482208197 0.926072490929111
-0.28664645759416 -0.100091320320014 0.93276265158683
-0.284413914923389 -0.0961626249041015 0.943553106803434
-0.285401940684317 -0.0913253942953642 0.946392330458529
-0.284596660073084 -0.0904139789625214 0.94969891622573
-0.282485684335316 -0.0889916529893509 0.957247256916055
-0.279791002093176 -0.0867112525195774 0.967420994397783
-0.279361983343894 -0.0813524638411365 0.974825585560582
-0.278849623449834 -0.0824387874644555 0.986747770438963
-0.279947567238838 -0.0797881166783156 0.995345655317007
-0.232445726360306 -0.0411362829821713 0.962499999999999
-0.223726449711864 -0.0296321823166263 0.962499999999999
-0.219328234494493 -0.0161318281540201 0.962499999999999
-0.213023924403257 -0.00659946876980929 0.962499999999999
-0.208535905367303 -0.00920805073081016 0.962499999999999
-0.197674396225693 0.0105680609146391 0.962499999999999
-0.1832704716186 0.0174778080096034 0.962499999999999
-0.173774976583768 0.0362544419026423 0.962499999999999
-0.171396736341854 0.0406480999925158 0.962499999999999
-0.159405471891956 0.0510419070515447 0.962499999999999
-0.141242565003318 0.0655581686197154 0.962499999999999
-0.137161876080279 0.0739775194449839 0.962499999999999
-0.133455670950967 0.0731434004232004 0.962499999999999
-0.118188282421641 0.0927631123016569 0.9625
-0.109200216324299 0.103654956694467 0.9625
-0.103835242306152 0.105351591057622 0.9625
-0.0816361835847459 0.124817301493736 0.9625
-0.0819171599724733 0.140948892890956 0.9625
-0.0614883958939003 0.152035351803816 0.9625
-0.0602898291681108 0.162170742499587 0.9625
-0.0489400708251456 0.171683608862068 0.9625
-0.032673019965425 0.181552589828601 0.9625
-0.0272180643036442 0.195655786573459 0.9625
-0.0112034422696927 0.210941749702353 0.9625
-0.000520910670636243 0.214833811725228 0.9625
-0.0011334582719017 0.228500073281081 0.9625
0.0185052100455143 0.238413005321452 0.962499999999999
0.0266328158283443 0.247803579583445 0.962499999999999
0.0348985214172311 0.262464011877319 0.962499999999999
0.041158223516967 0.275831417077732 0.974767134015233
0.0442540622524242 0.275423842176081 0.973382944064727
0.0482906404668404 0.274892416572446 0.98267365950125
0.0523533170818806 0.274357555049186 0.993429312461866
-0.313380756177083 -0.107022019975895 0.285640395782001
-0.312261471242756 -0.109724212844508 0.293341453191472
-0.311275215282309 -0.112105245360189 0.315177186433395
-0.311637669634667 -0.111230203146983 0.323006116973568
-0.312143716785889 -0.110008497251304 0.326442617958151
-0.312232114879119 -0.109795085375741 0.337393939685331
-0.313131962200687 -0.107622661767945 0.336638555373245
-0.314574117734512 -0.104140990319136 0.351656575309206
-0.31195615436613 -0.110461312988879 0.35994007653935
-0.3123957629301 -0.109400004031606 0.369422142131878
-0.313364233169131 -0.107061910045784 0.379567543728168
-0.310739321453164 -0.113399007510504 0.387550583918531
-0.311448073807853 -0.111687927963449 0.39571233934142
-0.314136973855114 -0.105196349001486 0.401077306894309
-0.314364160932681 -0.104647870877627 0.413496054299529
-0.312642550894474 -0.108804205180985 0.425418940337813
-0.314356794852276 -0.104665654168845 0.428089045292288
-0.31161066214497 -0.111295404994898 0.444083982776
-0.311661137329021 -0.111173547120997 0.452063510759958
-0.313164538965656 -0.107544014500139 0.461945426595288
-0.313759295288324 -0.106108145719647 0.461043531835262
-0.312221572830115 -0.109820536133421 0.476991505162968
-0.312910303745467 -0.108157792616752 0.489988202319717
-0.312970453048206 -0.108012579354311 0.493741680239503
-0.312461599666932 -0.109241060088644 0.50428207876998
-0.31342337562361 -0.106919127530068 0.510422754190027
-0.313457945268003 -0.106835669025728 0.519091209566503
-0.311871173654502 -0.110666474575432 0.528289602951491
-0.312581505958767 -0.108951580692683 0.53806998334172
-0.314075326907986 -0.10534517789732 0.547853184979383
-0.311958029850344 -0.110456785169453 0.552100755024603
-0.312659874213228 -0.108762382989903 0.570531715147572
-0.311218935286243 -0.112241117289981 0.581700443151714
-0.314245862581468 -0.104933468361533 0.587816651464275
-0.313608343742391 -0.1064725749891 0.587243199144793
-0.311793868095317 -0.110853106704862 0.607691489299425
-0.314162182987701 -0.105135488771699 0.610508609022447
-0.315022427598581 -0.103058674565154 0.622001357837996
-0.312822514238619 -0.108369735234818 0.627433116991498
-0.31268326328341 -0.108705916779458 0.643128350819229
-0.312558691218633 -0.109006660347735 0.647413856502846
-0.311940835108753 -0.110498296947802 0.657784406861859
-0.313622723924785 -0.106437858157735 0.669714529831302
-0.31073663759595 -0.113405486914989 0.67577263959885
-0.310752454643124 -0.113367301185184 0.689358525074919
-0.312561563302943 -0.108999726522842 0.696415822761243
-0.31209710903071 -0.110121018325969 0.701611784956225
-0.31171889381808 -0.111034110621796 0.712363136035265
-0.31172942343552 -0.111008689876566 0.729535363884393
-0.313440982922798 -0.106876619749572 0.72971999655459
-0.314130745540272 -0.105211385483647 0.734621818674668
-0.311431511803562 -0.111727912178827 0.750647022126583
-0.312933455968784 -0.108101898205222 0.760594455003199
-0.313607670281468 -0.106474200867595 0.766912590619876
-0.3125738007703 -0.108970182663179 0.778318943843362
-0.314669504635919 -0.103910705968085 0.780318191168951
-0.314854598746269 -0.103463849256562 0.792348914454653
-0.313047346856563 -0.107826941279317 0.805589105928049
-0.311954421115187 -0.110465497426812 0.805898102422379
-0.310673552200579 -0.11355778853208 0.820256667198101
-0.313045218578996 -0.107832079395883 0.834859363904192
-0.311239440151024 -0.112191614167331 0.834765205669724
-0.313191138885912 -0.1074797966119 0.841334474059965
-0.312588399039093 -0.104903039156976 0.85466876612681
-0.310854711667988 -0.103717331791534 0.860888382332627
-0.310818575030255 -0.0992633183941475 0.86614695929155
-0.305950125159379 -0.10411389391751 0.874140221660794
-0.307323288335869 -0.0956838049882384 0.880063147148532
-0.303266951309887 -0.0958424333921394 0.8912191753963
-0.301611212540594 -0.0993165805631097 0.891824971857626
-0.299646885209423 -0.0953948185446191 0.901857587777333
-0.299245436923981 -0.08960201179246 0.90968767836343
-0.294048915296428 -0.0923367320020265 0.921048152360108
-0.294481052517927 -0.0906229774389857 0.921824542719976
-0.290067220934193 -0.0906394828413902 0.934144538943902
-0.289890996078834 -0.0856256660335991 0.940442968367474
-0.288978590289469 -0.0822021233459696 0.946957963354805
-0.288686506478909 -0.07768615307763 0.953003798080298
-0.28432384254523 -0.0815459513696169 0.960730385275673
-0.284361448424621 -0.0767493871116635 0.966179470066007
-0.283164552790008 -0.0727931396496553 0.97175614570366
-0.280573124148719 -0.0782778887024484 0.988888464107955
-0.282263936382794 -0.0714208272245756 0.991466959953851
-0.27456862336388 -0.0740588203052657 0.999999999999999
-0.237666807545689 -0.0207076336717987 0.962499999999999
-0.225743610871015 -0.0140026331729658 0.962499999999999
-0.222108278791009 -0.00925022780502846 0.962499999999999
-0.203241030808967 0.00769764648033643 0.962499999999999
-0.198854766209589 0.0132193331350385 0.962499999999999
-0.190069365325097 0.0216990299603225 0.962499999999999
-0.177415316720801 0.0416496434747843 0.962499999999999
-0.176625249814758 0.040967511464561 0.962499999999999
-0.171300238328363 0.0539888712894183 0.962499999999999
-0.158268352854253 0.0603622640132394 0.962499999999999
-0.137182094137624 0.0845222965411496 0.962499999999999
-0.13284200283426 0.0923145774636536 0.962499999999999
-0.125513498620815 0.105297453271681 0.962499999999999
-0.11798586897531 0.108786947547618 0.9625
-0.104110086135741 0.126980030616358 0.9625
-0.0900206171864652 0.128908839398091 0.9625
-0.0838705891730405 0.145389044222688 0.9625
-0.0669848921616993 0.160404927930641 0.9625
-0.0665737940711516 0.168677420864483 0.9625
-0.0608163958176683 0.171851661151479 0.962499999999999
-0.0490703197455558 0.187238331198374 0.962499999999999
-0.0353598544227919 0.20215040688809 0.9625
-0.0318595149883784 0.203997708391336 0.9625
-0.012705814780696 0.229544470011342 0.9625
-0.00297561784686695 0.244218953639724 0.962499999999999
0.00916340978541401 0.242477777453434 0.962499999999999
0.0147445174786261 0.262624263707864 0.962499999999999
0.0252116539313099 0.266218090721027 0.962499999999999
0.0325675601876074 0.276962399360974 0.977659619932541
0.03007396345454 0.277290687598858 0.977471505703133
0.0328452908538123 0.276925835425111 0.993976462079382
0.033702123274419 0.277790049066326 0.999999999999999
-0.319047960405811 -0.0933401786661595 0.280323125743901
-0.316854857512445 -0.0986347974150054 0.287691257058995
-0.316844258718202 -0.0986603851678101 0.30580257924949
-0.316001553816737 -0.100694854770006 0.316603925102854
-0.317194024448026 -0.0978159759992172 0.317833890089525
-0.315925699551257 -0.100877983166492 0.334010417164868
-0.315991186442137 -0.100719883826373 0.348078682959241
-0.318322455721832 -0.0950917019137882 0.34884662377853
-0.314342055320849 -0.104701238545516 0.35711638214925
-0.317971071346904 -0.0959400188373471 0.362495890482915
-0.316070293654922 -0.100528902120384 0.372098942446389
-0.316463222550221 -0.0995802878523037 0.383260237230893
-0.314498697949805 -0.104323069786247 0.396127896319692
-0.316680432760174 -0.0990558960175518 0.405054784109321
-0.316185878092777 -0.100249856602916 0.411106789572275
-0.31665623496634 -0.0991143146596047 0.416502571130536
-0.317379189104423 -0.0973689489744719 0.432157644274632
-0.315931307730014 -0.100864443825276 0.439884874614462
-0.318327730701656 -0.0950789669859547 0.445863494953419
-0.316237361363516 -0.100125564992462 0.454609140240174
-0.315552676161945 -0.101778541292051 0.464236305481548
-0.31393484489535 -0.105684331477496 0.480989350086618
-0.315894379661909 -0.100953596068129 0.483867273081252
-0.317294772491815 -0.0975727487055181 0.487171675632628
-0.316090569867564 -0.100479951012829 0.504542003369135
-0.315997918559851 -0.100703631056483 0.511190122832464
-0.315855175585674 -0.101048243080675 0.516096048295418
-0.316281059327453 -0.100020068775278 0.529608470684907
-0.314158984533688 -0.105143210522755 0.538963022383672
-0.317683864575762 -0.0966333973194413 0.545109153984319
-0.31713531474787 -0.0979577137535748 0.559606243288648
-0.318208619139365 -0.0953665277350724 0.563558820915135
-0.315278214200754 -0.102441151081114 0.5702666086911
-0.31539675020669 -0.102154979847952 0.580255635461033
-0.316843765150076 -0.0986615767466766 0.586556183243644
-0.318047831550945 -0.0957547033117003 0.602255589215926
-0.316899337332513 -0.0985274136301446 0.612713668056734
-0.317793967214708 -0.0963675860352458 0.614185138342875
-0.316826210487215 -0.0987039574518362 0.632513693381835
-0.318074345802562 -0.0956906922458493 0.636690908686324
-0.315034361887292 -0.10302986264349 0.647844248003742
-0.316964404683153 -0.0983703271497623 0.656216005813613
-0.315044818387338 -0.103004618419263 0.667074607161952
-0.317033428123268 -0.0982036898245139 0.676683968034336
-0.31596524595366 -0.100782509705468 0.678178438151079
-0.317077368866435 -0.0980976074864207 0.689822259095798
-0.315861576364797 -0.101032790232905 0.702109759314182
-0.315685001655756 -0.101459079290246 0.71088884769342
-0.314848351539329 -0.103478931348284 0.718914208916426
-0.316262501385149 -0.100064871611277 0.72078925912625
-0.314513376848043 -0.10428763179104 0.735052796441318
-0.314859265935731 -0.103452581664464 0.740865936935751
-0.315289385559658 -0.102414181034937 0.755127321647583
-0.316084752280036 -0.100493995911542 0.768839896710125
-0.316774094864897 -0.0988297756940489 0.765003177406274
-0.314194172606602 -0.105058258999893 0.779166481367893
-0.315397290336451 -0.102153675859359 0.78813475260279
-0.316717534689125 -0.0989663240374856 0.799552478702405
-0.318018675024448 -0.0958250933934005 0.80784941033799
-0.317723894863642 -0.0965367556555351 0.813912245324518
-0.31565065329483 -0.101542003569036 0.830550157745956
-0.317869098979326 -0.0961862019101387 0.829848957538219
-0.316782666844485 -0.0988090811046713 0.847804028876425
-0.318064713970568 -0.0957139455452803 0.848341477428768
-0.314254600850655 -0.0971752357865492 0.858959269682612
-0.313990282545322 -0.0931146328847505 0.864400188683811
-0.308448930069779 -0.0957797483179709 0.876805255589713
-0.307839745996045 -0.0915564128655822 0.883398703059455
-0.305315113358623 -0.0952816913139636 0.886142740916763
-0.306648596223141 -0.0819923411059252 0.897670721861678
-0.30249587248874 -0.0886133349931122 0.901745752106481
-0.302800552493311 -0.0832328955516459 0.907124318728254
-0.300376487740877 -0.0804856373154649 0.917082131259887
-0.297578845309001 -0.0787729343600005 0.926151503420651
-0.297324429526783 -0.080008465477055 0.926166872096079
-0.293726798576638 -0.0739166853856606 0.939625655536876
-0.291019679972102 -0.0757789006225301 0.947011515489546
-0.290220046818736 -0.0719850069871166 0.950908841667691
-0.28894364133074 -0.067621315441838 0.956461530803591
-0.285912838319287 -0.0653886141258923 0.966435761951784
-0.284188681864924 -0.0635329204083622 0.972341151452883
-0.283431887314852 -0.0625493591289356 0.977896156414536
-0.283858328061024 -0.0593102200773603 0.994230713796117
-0.280439546323621 -0.0598143604967223 0.999999999999999
-0.280797858331725 -0.0587997770959329 0.999999999999999
-0.234835482143708 -0.00776955318574539 0.962499999999999
-0.227170965135251 0.00959904354937788 0.962499999999999
-0.220884464683743 0.00747211265829108 0.962499999999999
-0.20523409822715 0.031937361292247 0.962499999999999
-0.199131030806058 0.0337850375286953 0.9625
-0.186810960367357 0.0400439866992013 0.962499999999999
-0.18306036632601 0.0526969497810407 0.962499999999999
-0.169788370853508 0.0676133364434536 0.962499999999999
-0.165406113914393 0.0724306493415028 0.962499999999999
-0.15101737119509 0.0846409705522033 0.962499999999999
-0.143901327378637 0.09572393687322 0.962499999999999
-0.131894698703648 0.11003349210923 0.962499999999999
-0.124294022510428 0.116752580966373 0.962499999999999
-0.11000333788509 0.12618864043655 0.9625
-0.106634438943301 0.144305231252747 0.9625
-0.0900537601687611 0.153341701755426 0.9625
-0.0798091398317563 0.16447298202456 0.9625
-0.0689784971785632 0.168751074492227 0.9625
-0.0665542332503043 0.186021130571105 0.9625
-0.0507418458147297 0.194934346531238 0.9625
-0.0509717404906439 0.205100355180958 0.9625
-0.0274023401842729 0.218629025783338 0.9625
-0.0161672238285457 0.233512329991575 0.962499999999999
-0.0101069605659456 0.2405552565823 0.962499999999999
0.000736202253416678 0.26017453111142 0.962499999999999
0.0187152430351461 0.278786091511468 0.963927592202874
0.0210249171026741 0.278482017151866 0.963224731955903
0.0198818488188051 0.27863250494635 0.975597030417542
0.0197354196316414 0.27865178271456 0.986901007219045
0.0175859576007893 0.278934764759391 0.997302547811913
-0.320122528680207 -0.0907459413644177 0.284272628162552
-0.31992563215271 -0.0912212916314849 0.285656822214512
-0.32196346166713 -0.0863015359799691 0.294432826169981
-0.319994333003595 -0.0910554331055339 0.304206484185886
-0.32202789141609 -0.0858733569390795 0.314930478089961
-0.318678938752844 -0.094231075745563 0.33043019509084
-0.320541406166987 -0.0897346816548614 0.334796759402844
-0.320247754108651 -0.0904436204367158 0.346272977092521
-0.322098203056159 -0.0853392870098547 0.355087973929739
-0.320281299744294 -0.0903626341081857 0.363315375591229
-0.321036338739817 -0.0885398087250753 0.372588375521636
-0.319381116525505 -0.0925358686436098 0.385494647875822
-0.322156759235111 -0.0848945086727499 0.385782515543861
-0.320888538127258 -0.0888966309684413 0.390642107452908
-0.319358478608352 -0.0925905214102219 0.411379611103222
-0.321616501670275 -0.0871391715099772 0.411486154889523
-0.318054946440711 -0.0957375264483325 0.427825247904856
-0.31948446827799 -0.0922863554410636 0.43388694149375
-0.320265122365637 -0.0904016897551434 0.446078524131478
-0.320870776215287 -0.0889395120172153 0.449388122927653
-0.318491619539536 -0.0946833043308226 0.45987715807362
-0.319695049617334 -0.0917779671156364 0.47423225930695
-0.320589706780088 -0.0896180736596424 0.480208795028748
-0.318575220110881 -0.0944814746976618 0.488736018761289
-0.320498131363061 -0.0898391562734087 0.499178453995449
-0.320192379562303 -0.0905773064175178 0.511578098072794
-0.319638461469875 -0.0919145829887021 0.513389148361923
-0.321415308438492 -0.0876248949388053 0.523875738287493
-0.32011774374875 -0.0907574932108362 0.541674104497421
-0.320690586977145 -0.0893745273197318 0.54439200063877
-0.318842196007878 -0.0938369378663047 0.555868530009054
-0.319383499283081 -0.0925301161579511 0.557586026738357
-0.319718601265633 -0.0917211084068963 0.574087798695394
-0.322210970347551 -0.0844827343924811 0.5777592751388
-0.320362857958931 -0.0901657351602878 0.58291553400821
-0.31953572194297 -0.0921626181479478 0.600402970225144
-0.319790197068814 -0.091548260847847 0.603695355841385
-0.318711088992723 -0.0941534582004133 0.614871736001524
-0.32146858506168 -0.0874962737925471 0.621594487020674
-0.322040027163165 -0.0857811767883209 0.633362180657564
-0.3213845907012 -0.0876990541167807 0.640086146946339
-0.322116932530668 -0.0851970225268249 0.650767845441426
-0.320486482975978 -0.0898672779674839 0.65912292117181
-0.322151358943099 -0.0849355279630139 0.665634184168832
-0.319864434633697 -0.0913690355118714 0.678205494252238
-0.31989616956897 -0.0912924206007338 0.68547457534504
-0.319297132084945 -0.092738625019037 0.699932041492147
-0.32071722503379 -0.0893102173621038 0.709893400042469
-0.32088043165687 -0.0889162017191946 0.708851612240715
-0.321753437521217 -0.0868085791214558 0.724536271729578
-0.320318313476503 -0.0902732750538934 0.741368743324167
-0.321463871327096 -0.0875076537545095 0.744028670054862
-0.321427559994529 -0.0875953170660602 0.751046848540989
-0.320908140699309 -0.0888493061731383 0.758807607702925
-0.319904012158004 -0.0912734869159244 0.767947885075675
-0.320604193880824 -0.0895830987045641 0.773754780327749
-0.32023089777939 -0.0904843152154278 0.783942822694885
-0.318335181535596 -0.0950609790816062 0.79253262801781
-0.320960802373995 -0.0887221696438947 0.803052294780389
-0.318982563545338 -0.0934980606536509 0.809228642334457
-0.318758335535848 -0.0940393949552276 0.823784725691962
-0.319611115632426 -0.0919806016803466 0.832209185952205
-0.320267828554415 -0.0903951564374945 0.835401406754707
-0.320382569319624 -0.0883326288752209 0.852067553655207
-0.317902673945116 -0.0912810621258002 0.855586079197521
-0.318206983348269 -0.0878053786247791 0.858760056804529
-0.313294447100862 -0.0870463995009495 0.873372186886706
-0.312745458425782 -0.0845918128078021 0.877749220197223
-0.312546927599105 -0.0772975868730047 0.881829956094756
-0.310349217996877 -0.0804258086664986 0.887187570265077
-0.304709745639751 -0.0778028701163976 0.905141936569872
-0.303947021566533 -0.0734326126657126 0.909156174714974
-0.301602642269554 -0.0712098725136475 0.917067200483435
-0.300984445593953 -0.0698718460240802 0.919450254097805
-0.300511007358441 -0.0675608528780403 0.921783312863092
-0.296927695143978 -0.0702242473184987 0.931481321916038
-0.294598190697897 -0.0666667120044906 0.939874910482319
-0.294237201637792 -0.0562533486864614 0.945070713529941
-0.291254349603446 -0.0584306732567829 0.953159318979758
-0.288183355260481 -0.0628185223928695 0.960639288115244
-0.287475642131892 -0.0469270409974662 0.969038887149215
-0.284089520972316 -0.0575541355705881 0.980019868437747
-0.285210078587324 -0.0490426554578466 0.984181013657908
-0.285457898903453 -0.0471602732723867 0.990516451080465
-0.285439137354132 -0.0473027813878056 0.996881484658398
-0.280089940755367 -0.0444192528073727 0.999999999999999
-0.229175824370754 0.0115849859294575 0.962499999999999
-0.224060045072517 0.0198318900596388 0.962499999999999
-0.21552322366071 0.0332916162283448 0.962499999999999
-0.206616670318992 0.0366435018113881 0.962499999999999
-0.196388924391191 0.048188692156855 0.962499999999999
-0.181267187805538 0.0596384496535267 0.962499999999999
-0.172879760762662 0.072479303785344 0.962499999999999
-0.167980884897965 0.0806215199059249 0.962499999999999
-0.15339509032404 0.0971814244048957 0.962499999999999
-0.153473627693565 0.0991703203869822 0.962499999999999
-0.130390288086927 0.122082060704105 0.9625
-0.134963798706029 0.11979457991027 0.962499999999999
-0.113345382206821 0.143227676502494 0.9625
-0.116428368354974 0.141670257645399 0.9625
-0.0932048000773425 0.161697293962061 0.9625
-0.0952572257778821 0.159725085584565 0.962499999999999
-0.0831053781058262 0.180332143243182 0.9625
-0.064364907125572 0.198880072864656 0.9625
-0.0541241054492618 0.204287707935606 0.962499999999999
-0.0447161532638077 0.223418562902353 0.9625
-0.0421143048791712 0.227415052485651 0.9625
-0.0303173436941284 0.239448515457462 0.962499999999999
-0.0160870442647233 0.26069030377079 0.962499999999999
0.00204569557630547 0.280980679068077 0.954684214307617
0.0102289385027521 0.279903334698445 0.958883180156807
0.00655715756233874 0.280386733829845 0.967288711576266
0.00578946465522669 0.280487802518446 0.977982565508328
0.00926375493805613 0.280030403525368 0.988625934146191
0.0104411852147526 0.281534820328791 1.0
-0.323172148568049 -0.0771818609710771 0.275310551480823
-0.322559322427757 -0.0818367376465838 0.283131652413972
-0.323013535331217 -0.0783866481170741 0.290292546474879
-0.321964877723329 -0.0862981173178868 0.311147370619219
-0.322023645249414 -0.0859056097770701 0.313031223399812
-0.322548141383934 -0.0819216661061796 0.318276851061307
-0.322400422080361 -0.0830437056138305 0.328652235333669
-0.323062224990834 -0.078016813434788 0.335685685749859
-0.322818521865601 -0.0798679224505595 0.345726429238774
-0.322428867555045 -0.0828276407825058 0.360195022513798
-0.323156570589807 -0.0773001874633684 0.358281449228288
-0.322377412285434 -0.0832184823582784 0.381686786382132
-0.322295375974798 -0.0838416100021823 0.3841197126978
-0.323742239719843 -0.072851588760204 0.388272783808294
-0.322877173653745 -0.0794224178895478 0.409410093402064
-0.32312256241586 -0.0775585051904997 0.404309330734628
-0.322516049441184 -0.0821654286123093 0.422405976013011
-0.323017761466048 -0.0783545474360502 0.425029046019032
-0.323107152158798 -0.0776755577139493 0.43799558711031
-0.323038006923756 -0.0782007679174001 0.452430761451482
-0.323286062435494 -0.0763165992439308 0.45611743306354
-0.322693069713785 -0.0808208261486724 0.461404940940083
-0.323106758488726 -0.0776785479350252 0.471819741417378
-0.321960839019576 -0.0863078676112621 0.486548576197635
-0.322872076572647 -0.0794611340642605 0.495569840373241
-0.32301025205885 -0.0784115870466578 0.50463822824738
-0.322733941405626 -0.080510374827268 0.50864729449606
-0.323370001201547 -0.0756790210164646 0.522128626832957
-0.32269757399183 -0.0807866127601851 0.527755267091927
-0.323361402242602 -0.0757443365942354 0.534872610472793
-0.322771034626661 -0.0802286238410375 0.545169491155058
-0.322016952965012 -0.0859564427238413 0.563845243024249
