ply
format ascii 1.0
element vertex 859
property float x
property float y
property float z
end_header
0.169406345293537 0.286572905246027 0.347341144297798
0.173602904766057 0.283352771906104 0.357536956981631
0.178386862341036 0.279681912149476 0.382942898677053
0.174879777922884 0.282372992672644 0.380745259702593
0.16948523324082 0.28651237239505 0.383206485989208
0.168001640821763 0.287650772897354 0.397625248873351
0.171833592702017 0.284710412802998 0.404699504705101
0.170348960907794 0.285849610845917 0.414715755182847
0.173184126382639 0.283674111861683 0.433018939073183
0.174059197681707 0.283002646037501 0.440343492150056
0.180862788295966 0.27778206734402 0.451395390293298
0.170094061379244 0.286045202133397 0.454679118383102
0.172522083270715 0.284182115408667 0.469811595840625
0.173988924238208 0.283056568747237 0.479551515524868
0.180186948302775 0.278300657610351 0.488683447139293
0.169396028742353 0.286580821414173 0.490547419295876
0.180967884554781 0.277701424148296 0.512698726379139
0.175709742214326 0.281736138672762 0.518195844688382
0.180671645812325 0.277928736130267 0.531914973882487
0.176768253689533 0.28092391425075 0.528067954866932
0.170206539287506 0.285958894798835 0.537366160627957
0.171995672561018 0.284586044552979 0.544613910641537
0.172660909588545 0.284075590228354 0.555128099869927
0.173473356452248 0.283452177823536 0.572524472182948
0.173235146042977 0.283634963099387 0.577009157974539
0.177783653233718 0.280144770776915 0.590211355368319
0.175219830300475 0.282112061305992 0.594632590779764
0.178875629527986 0.27930686789609 0.616667669599483
0.181586952229092 0.277226396814412 0.619300798069478
0.178354108684115 0.279707044914386 0.633795756096043
0.178123470753576 0.27988401962294 0.633480312545884
0.179591228233732 0.278757769696609 0.645426070752635
0.176293732824084 0.281288026917168 0.652189396010137
0.178696696524889 0.279444168018406 0.664486038423927
0.177992772838286 0.279984307660615 0.679521162274399
0.181224782646226 0.27750429930957 0.689360356171613
0.171185001976727 0.285208093970666 0.692915153548335
0.174407245720574 0.282735579384165 0.699447232646767
0.173871777998178 0.283146458218751 0.712113324367494
0.171478262247313 0.284983067450543 0.722260286369543
0.180443681993363 0.27810365892084 0.741667892013322
0.180601364548069 0.27798266484108 0.745204534604937
0.167634332940867 0.287932618147262 0.744106505275155
0.175471479829173 0.28191896383111 0.763382705383048
0.177019850425638 0.28073085728505 0.768597235028473
0.180209397524331 0.278283431716792 0.782869200515915
0.1711524245074 0.28523309154208 0.784301777424392
0.167931899911123 0.287704286980254 0.785144914650934
0.178337701347041 0.279719634706924 0.810209861902638
0.179171444519467 0.279079881069678 0.816772388816161
0.17792598979721 0.280035552090371 0.82971374684816
0.168533784031235 0.287242445051256 0.827891830713515
0.175776323170411 0.281685049308272 0.848535752491915
0.179820741314522 0.277777089893776 0.851931444433766
0.169057955941814 0.285227721632284 0.853870992617082
0.164131979340412 0.284095174717931 0.865663643679707
0.167104491700743 0.278809024604077 0.87287806599639
0.160663627290505 0.279368687601446 0.882967944164542
0.144098038664848 0.289375817440204 0.874174698359314
0.133380337496689 0.290290198524367 0.884029130496894
0.134703261290781 0.287687258237568 0.889773904546392
0.138551976723428 0.282452242821965 0.899952031724037
0.126175132015999 0.287500888894572 0.900170115383313
0.111647279167028 0.293608853292939 0.89991759090191
0.104413074652564 0.294324674151945 0.906293370500564
0.103040792437421 0.290040743684555 0.919858377049416
0.104441126288713 0.287809091658398 0.924475556860717
0.0878618151148814 0.293389295407785 0.928073916349822
0.0906941106768536 0.289204723771207 0.936492440491583
0.0798456495048174 0.290954265244212 0.944163550296397
0.0714789032214097 0.295203699755667 0.936157772331282
0.0692418102223917 0.291635087063877 0.947747167048618
0.0564339923614818 0.294561659698763 0.94402599277406
0.0466980016605767 0.29333941173968 0.951538039128094
0.0128090113590155 0.303133497286618 0.935540493129027
0.0110350256346785 0.298136640623538 0.951231712072148
0.137520686871373 0.300747794714676 0.123130438346642
0.159673087521809 0.291571969926143 0.156930733752935
0.167254851687834 0.288223804354146 0.180314339755582
0.147077368557317 0.296789287549076 0.166571270736117
0.150821550204232 0.295238396730935 0.17657685364172
0.16798987489137 0.287659801213282 0.205026745827016
0.165950279848713 0.288971871730715 0.214101132761117
0.167313319055245 0.288178940765216 0.228893850355048
0.145156082925334 0.297585110115035 0.215866860735436
0.14505299094996 0.297627812209407 0.227040051417736
0.165784833805377 0.289040401725706 0.254460899209038
0.14358412262501 0.298236237390942 0.242419651096303
0.15565910227316 0.293234617055299 0.257415911831871
0.156430607479712 0.292915049135303 0.269841331828125
0.144368667185519 0.297911268393692 0.275744503296967
0.143309538477412 0.298349973868889 0.27064992395192
0.165529433284121 0.289146192085447 0.313137151137656
0.162582590394385 0.290366814376558 0.314049577251824
0.163499870469686 0.289986864528874 0.328535597427768
0.149811818085648 0.295656641468816 0.315358026178365
0.154522502970578 0.293705411901412 0.329561818277462
0.156522308498659 0.292877065329572 0.343930172360434
0.146806225463953 0.296901598695691 0.345063351344267
0.144295002427479 0.297941781335542 0.354079978574052
0.145408853991637 0.297480408911197 0.358469351790995
0.163433679143508 0.290014281873889 0.384717399152141
0.151463853872601 0.294972345840334 0.387274162824891
0.156523196031781 0.292876697701316 0.407567230280705
0.147236558667212 0.296723348846561 0.407053009186814
0.139316008977175 0.300004147949624 0.406269924509295
0.150247120125354 0.295476333460241 0.424030429451524
0.141375196317304 0.299151204625876 0.430819392724888
0.153764976064832 0.294019189819635 0.44367240900764
0.154324330662601 0.293787497559063 0.464426847934885
0.154070222464454 0.293892752621045 0.468766671466861
0.16345909678205 0.290003753543281 0.477710370729788
0.165894248856061 0.288995080527784 0.496510484581614
0.15972758316755 0.291549397090587 0.502542936665701
0.15494870907657 0.293528871551944 0.502316514521198
0.156616105985786 0.292838213138288 0.518327500552778
0.144051789124561 0.29804252358416 0.517761025695752
0.13839192360127 0.300386916645115 0.513077027837435
0.150008432879166 0.295575200954778 0.536981977669892
0.147460762504453 0.29663048057644 0.542474645241619
0.155887837669411 0.293139871751977 0.563579449627239
0.166929775615158 0.288473243997857 0.581716137077295
0.163211776243702 0.290106197064518 0.59097658088923
0.161028310769152 0.29101061807705 0.600930444403342
0.148948016367279 0.296014439855766 0.594708759485307
0.141076794206675 0.299274806827139 0.599114058340896
0.15194399562418 0.294773464614969 0.615357068939708
0.164084127279818 0.289744857434209 0.641528429115207
0.148956075725496 0.296011101560288 0.628119313673984
0.148875423912381 0.296044508635111 0.64022589375986
0.141535961956212 0.299084613317877 0.644778073591086
0.147454867750809 0.296632922263346 0.655810392173726
0.147970385471034 0.296419387831985 0.667364013466755
0.157547393731838 0.292452461123401 0.681512136988713
0.163726379744475 0.289893041315253 0.706057817259605
0.151371510060612 0.295010595899662 0.706096055296613
0.144622407827346 0.297806165578523 0.70791167681676
0.149911343357725 0.295615416751323 0.714086886330495
0.164197634737104 0.28969784110597 0.738539565156733
0.141325868749128 0.299171636773614 0.725607102069937
0.153150897814572 0.29427354935925 0.751637168069951
0.143974099515907 0.29807470367372 0.756562469759405
0.139705909053301 0.299842646050123 0.758065267120824
0.150599262438588 0.295330471338214 0.778353761005337
0.157252830972388 0.292574473013335 0.796864539101853
0.142611016425588 0.298639311176372 0.794359695216713
0.152445169609175 0.294565871553275 0.804320327321049
0.167673292443486 0.287902723469465 0.831316806023215
0.140154363077203 0.299656890311322 0.814616214685596
0.146234786186379 0.297138296594535 0.835383991164747
0.157262645408687 0.292570407740713 0.849849928255806
0.150044591030961 0.295560223757914 0.848231302854324
0.140713438306705 0.296994863602072 0.856794457013331
0.145187696577194 0.291272817241621 0.867609754394499
0.135618949882208 0.295428842308902 0.86707155300421
0.136316014675519 0.292295907367249 0.875022673910592
0.128274154841088 0.291828863207188 0.885640447629554
0.114029714293604 0.299313513229457 0.881211143631574
0.109851342160939 0.297311406748454 0.891646516661866
0.104771970081271 0.297488689824684 0.897032605406079
0.0873163239337532 0.305047050223677 0.89611567728865
0.0883120334072927 0.303064440934342 0.900505181983042
0.0873391839415427 0.297470047987309 0.917271132554333
0.0625188641597663 0.307956623331814 0.901437836165679
0.0601385962571257 0.303512999674828 0.915708811779565
0.0598754702745482 0.300087853961431 0.926088172498116
0.0401381581785876 0.304029188296487 0.922059568792232
0.0261492585954307 0.307229734036985 0.917982952276605
0.00222472869490268 0.311957791262043 0.913247952946458
0.127171428128817 0.305034598046351 0.114066651127724
0.122645179591485 0.306909431577186 0.12127953860245
0.11054843281109 0.311920068154218 0.118921356241252
0.135589570646862 0.301547689245387 0.158574514120811
0.130191992382182 0.303783439366588 0.159599786232433
0.11693704410177 0.309273818712888 0.159753966551576
0.110038455928946 0.312131307495299 0.153506349597721
0.123162237985958 0.306695258977656 0.175720960407738
0.110650439304871 0.311877815681044 0.171533502629081
0.107918148186183 0.313009567718756 0.189301471524666
0.111919475593075 0.311352163639326 0.198787359433886
0.129171356385588 0.304206200638623 0.224685878217723
0.114207901484388 0.310404266598659 0.219856222667112
0.107014209041266 0.313383991572141 0.224999890216895
0.119312893719509 0.308289709579062 0.244322887693485
0.115642646077902 0.309809975929484 0.246963258910377
0.13187937388928 0.30308450306145 0.273094381099004
0.122237936722896 0.307078117096535 0.273920399060586
0.113660112676642 0.310631168152143 0.285692703683792
0.127353649829814 0.304959119346439 0.303296719100446
0.134078559682498 0.302173570479721 0.3170939046427
0.134673543948026 0.301927119927541 0.326760944345188
0.108948638069038 0.312582724833389 0.306499677400854
0.108430123710025 0.312797500513178 0.317485623451577
0.126194683012311 0.305439179120589 0.348171763747778
0.132883321214183 0.302668654463567 0.363372818201458
0.135993816518741 0.301380245122722 0.369939655813725
0.123549541128737 0.306534832763167 0.365106170093823
0.106694900410108 0.313516253537749 0.359035635443337
0.12639171899805 0.305357564143021 0.391688151038255
0.132295727890889 0.302912043587236 0.408322587552436
0.114813801470673 0.310153294606898 0.405612199779956
0.115001650232825 0.310075485101939 0.411965955232078
0.124700264184097 0.306058187667102 0.427856989203651
0.110372961624081 0.311992750699683 0.431748472358853
0.130112833351664 0.303816228110613 0.449789438715586
0.127073062259896 0.305075342523333 0.462230731046497
0.110016442692613 0.31214042567634 0.455087662000811
0.115216951983351 0.309986304196869 0.468567760439621
0.113436030411235 0.310723986065562 0.475983189756476
0.115585549731551 0.309833626010504 0.491138842777904
0.118250988635378 0.308729565066862 0.493949413361802
0.115922783708594 0.30969393912352 0.510305500600509
0.121425346690714 0.307414702908514 0.528465358044005
0.133263258904199 0.302511279119506 0.543572912169136
0.135315870918921 0.301661059384718 0.557128676781303
0.121462253336009 0.307399415675491 0.550339859335344
0.1088478248024 0.312624483055698 0.553477657058617
0.137888017744213 0.300595641285268 0.584748467984703
0.132690362607865 0.302748580535281 0.587846139959233
0.135601855749126 0.301542600589415 0.606353604394547
0.134374788480771 0.302050868493911 0.616098224997599
0.115557052748752 0.309845429847266 0.599702168298772
0.13545953730663 0.301601550818472 0.629781834920439
0.125065105095545 0.305907065613471 0.62975392147616
0.116035329327155 0.309647321201926 0.639328107652827
0.135700651777459 0.30150167793457 0.655158650780367
0.118170024742844 0.308763101409212 0.657704182369856
0.129186184912134 0.304200058461818 0.670042198011719
0.111198062868527 0.311650982573902 0.667467029102631
0.124333096796468 0.306210273378719 0.691926275755832
0.123073588900667 0.306731978631075 0.700122826918706
0.124532088582106 0.306127848282307 0.711893655985671
0.132695486960191 0.302746457959049 0.718193925841392
0.119908988823587 0.308042798902489 0.722501001857332
0.123128051256915 0.306709419584478 0.739249436558566
0.106658024389059 0.313531528085794 0.728837042154807
0.117840092762755 0.308899763710026 0.748505733266563
0.115100222218574 0.310034655248572 0.76053745956404
0.126159800440918 0.305453627954751 0.774537146827189
0.125641438037154 0.305668340692614 0.780998633739962
0.137657901809167 0.300690958426482 0.804297217153416
0.117573637978217 0.30901013289554 0.799503768560087
0.135071200765679 0.301762405080499 0.820373872818881
0.115717786604058 0.309778851704466 0.81546353648401
0.11816888576255 0.308763573190297 0.829188680653026
0.116088671882857 0.309625225991903 0.833827024845447
0.125827495163039 0.304428687527362 0.853250072442005
0.109395511552183 0.311355718282022 0.852912704069196
0.103813902696944 0.311978790660041 0.857634132799044
0.0992680348718164 0.309542449224346 0.869708977637665
0.100113161497193 0.307398340021063 0.874724332646827
0.0864491229305831 0.315217527277127 0.868687731018736
0.0772767670853801 0.312822838613061 0.881010445984007
0.0620460941152111 0.318728672686192 0.869308412173994
0.0732175283828438 0.309767937014342 0.891778377520641
0.055506564169264 0.312523650615062 0.890506314738678
0.0597918182186421 0.309990542232662 0.896413146690686
0.0218651924804709 0.318709149557166 0.885236729727653
0.0138136986863816 0.317542280665618 0.891917334204202
0.0914551197485561 0.319828777375355 0.11941688120313
0.101416822574231 0.31570250496063 0.132246682453937
0.0885261411422982 0.321042000037967 0.131174619654177
0.0946069861351637 0.318523231571234 0.147399765446496
0.102969715693926 0.315059275569536 0.186657869917053
0.0925895100113428 0.319358897543485 0.200490063892088
0.0475782472228703 0.327069538255612 0.165898055684226
0.043625006817911 0.327589992228489 0.176812890268067
0.0941448482277223 0.318714655360183 0.242512678645832
0.103406610552121 0.314878307793941 0.256485542211618
0.0123049028548592 0.331713362139921 0.181220052983374
0.0364090158177758 0.328539995466224 0.211729953578611
0.0465504583138344 0.327204849232479 0.233388599133001
0.0919599431930744 0.319619672658032 0.276810248083548
0.0938269700044403 0.31884632483145 0.293003144544654
0.100026414512248 0.316278430837136 0.305786076416181
0.103255972376541 0.314940704169277 0.325909763025515
0.0953253629784846 0.318225670139836 0.333237935364933
0.0460928531209172 0.327265094099036 0.289550141054538
0.095572829264543 0.31812316624792 0.372340908985447
0.106231590255231 0.313708162887484 0.410181090151263
0.00342872865285017 0.332881932642637 0.329789507387115
0.0933993525964391 0.31902344976135 0.421240790885841
0.0907912686388754 0.320103753508381 0.429808640931029
0.0276088292121096 0.329698562012096 0.39923703439059
0.0173182364301831 0.331053344253491 0.396942565790584
0.100167646096807 0.316219930799376 0.47810834820948
0.0946612813463815 0.318500741758376 0.481083369681318
0.100544310293869 0.316063911380493 0.50427543998788
0.0160209400155999 0.331224136566582 0.436403212388392
0.0962685518506696 0.317834988517098 0.510722737953395
0.0570752452880287 0.325819234740751 0.487340958664531
0.00633974117108181 0.332498690574103 0.459773114646955
0.100759125583028 0.315974931974319 0.563723158824174
0.0862960015144684 0.3219657541178 0.568387542154735
0.0910152760934778 0.320010966582612 0.586220262173048
0.0774566450334238 0.323135972559943 0.576905060531785
0.0515243455296314 0.326550024557802 0.581521018208262
0.0786287902951523 0.322981656708701 0.620109678101233
0.103908456615847 0.314670436348122 0.650961545879835
0.00708092707568438 0.332401111598586 0.600085859450373
0.0975599040689957 0.317300092914466 0.689209538599526
0.0811583446910967 0.322648634554692 0.717249214260199
0.101686647721134 0.315590739725313 0.755027056214257
0.0962365036045786 0.317848263335278 0.78484469493216
0.00264360107154673 0.33298529664964 0.725862183940239
0.100194441781602 0.316208831663321 0.805313542459041
0.087071885731988 0.321644372352072 0.819333199651282
0.0927927553270007 0.31927471057725 0.830285240684148
0.0920874317150962 0.319566865183163 0.836318435635212
0.0977160870613872 0.315102048324349 0.855963901296597
0.0841569683515572 0.318528595918538 0.86117578702579
0.0673316842147042 0.322402951005022 0.856197993804039
0.0140405176791229 0.331484864113457 0.831719531954945
0.045907467813202 0.323468903818526 0.86146179015786
0.0231485707376066 0.326087050821058 0.862596146077274
0.00700580577927944 0.330648639347355 0.855287086472574
-0.149706330856997 0.295700335709581 0.112348389666829
-0.157885371957026 0.292312465958742 0.113425480659482
-0.159302253162874 0.291725574547008 0.13364019734593
-0.153462506412168 0.294144476851975 0.151244029706293
-0.142528312736228 0.298673568166163 0.166256410703784
-0.158685722047606 0.291980950096577 0.165033761486616
-0.155423588738658 0.293332169955412 0.176622819272378
-0.153862145297409 0.293978941005656 0.193204420999093
-0.234866650435053 0.236343446469604 0.106226395760003
-0.160105155407837 0.291393001547885 0.20906976749865
-0.147638195298225 0.29655698550685 0.236875435295488
-0.149439702714161 0.295810776702454 0.242580316606178
-0.164705649156368 0.28948741464363 0.236041870078781
-0.145997896230375 0.297236419627102 0.266028892528808
-0.160680270740355 0.291154780977227 0.258267987883162
-0.179599927628924 0.278751094415898 0.246843450790521
-0.220288650604683 0.2475295391702 0.204693308960652
-0.154833281165317 0.293576683358262 0.283927981646478
-0.162020812806632 0.290599510272443 0.328206241187478
-0.16464746752638 0.289511514263852 0.32977016694251
-0.160702422687329 0.291145605340357 0.342008911735386
-0.164674692386358 0.289500237357615 0.347319985564797
-0.176515520997178 0.281117842866339 0.355462103063841
-0.179540735724258 0.278796513961819 0.362565150542166
-0.170192069460111 0.285969997887907 0.387992777681827
-0.158029192990528 0.292252893336111 0.397228779420392
-0.162241856159523 0.290507951117803 0.408625146298829
-0.176624522070106 0.281034203401362 0.405509048985462
-0.158116580493781 0.292216696247082 0.439018542665556
-0.195294944463109 0.266707884422245 0.410716301512372
-0.151456851734874 0.294975246220747 0.455867440295116
-0.223377049677854 0.245159727211706 0.396899786529023
-0.162894468762575 0.290237630126644 0.481217693114275
-0.155164430636687 0.293439516756048 0.49675280737593
-0.16613469183917 0.288895485783204 0.490303541558195
-0.164429633669235 0.289601744001826 0.497100519361528
-0.156436902938076 0.292912441471068 0.529818295931749
-0.159073266096676 0.291820424095436 0.540196179732871
-0.142684484231193 0.298608879814892 0.563299392063954
-0.151761728889476 0.294848961968453 0.559502916111835
-0.157362621592099 0.29252899624963 0.568886798386416
-0.151122950021127 0.295113552839081 0.59074782869316
-0.153527791549769 0.294117434862559 0.595156542628722
-0.157746822535201 0.292369855008321 0.597620910226573
-0.152748958226779 0.294440038187769 0.607375629275552
-0.164106477666707 0.289735599600835 0.613957207108596
-0.15580004299714 0.293176237495936 0.62262462144296
-0.145651505992179 0.297379899161636 0.651085700066456
-0.162998112357995 0.290194699543767 0.645441018084107
-0.215585124295053 0.251138681846248 0.597055776256887
-0.159493154292747 0.291646500709943 0.661192033487442
-0.163146112693738 0.290133395797467 0.67182243541193
-0.149815218152957 0.295655233114824 0.697841868401375
-0.157144257163136 0.292619445757646 0.698282902440979
-0.20059572817436 0.262640450023162 0.662205021117454
-0.156038076615278 0.293077640743002 0.710055542057402
-0.170979657797104 0.285365660101515 0.716674918432336
-0.216057549075731 0.250776177562243 0.680909202506695
-0.162372637676427 0.290453779639794 0.745043057108759
-0.14244227048045 0.298709208035444 0.764237068827992
-0.199786103936238 0.263261696551195 0.724745509423109
-0.151607987763964 0.294912643627735 0.78254751436013
-0.153358537905436 0.294187542017523 0.787983450156377
-0.155847007325068 0.29315678423436 0.794041884959957
-0.155197074884018 0.29342599506607 0.808197709400384
-0.15254706491435 0.29452366513593 0.824027898747952
-0.163620992534482 0.289936694126933 0.831363758157293
-0.176676578675173 0.280994258963391 0.829976328207283
-0.223884840972943 0.244770085246724 0.795295169174937
-0.164187159017166 0.289328158317814 0.851045598982126
-0.169668875371664 0.282249155816221 0.859895990169342
-0.183861133103813 0.274068083146466 0.853392700318639
-0.200071981459022 0.256261148870369 0.866278898262799
-0.228010801137486 0.238805567217571 0.856718209904619
-0.12015462226276 0.307941054200611 0.128909911751696
-0.122393726652696 0.307013586794731 0.134489195554306
-0.141821737676807 0.29896624113861 0.119854174758545
-0.132760065340477 0.302719708718099 0.130197767011831
-0.124453009381949 0.306160603959514 0.163061759088398
-0.125114011452022 0.305886807937333 0.173460563075178
-0.142803137377349 0.298559732072536 0.161461732401455
-0.137431883094227 0.30078457844356 0.174360489329443
-0.121441159595694 0.307408152988811 0.203376150471262
-0.121227065478748 0.307496833675674 0.216525785315235
-0.139581915087318 0.299894006032486 0.19770831700237
-0.120285917291434 0.307886670019062 0.232669241704836
-0.14080605546036 0.299386950487723 0.2200160782535
-0.115977510503959 0.309671270542655 0.249484723010998
-0.121859592166162 0.307234832543184 0.252068594567773
-0.115420633547759 0.309901936530486 0.269256134724827
-0.139242415800567 0.300034631241474 0.257877535083773
-0.128335308219717 0.304552503127725 0.283147920314186
-0.128358337875381 0.304542963932012 0.285523576639077
-0.134684715240733 0.301922492626593 0.28611076402838
-0.137223180208944 0.300871026009151 0.298038819308771
-0.13790449347231 0.30058881681524 0.303987718231717
-0.112574725758259 0.31108075013416 0.341116802128567
-0.120582866016126 0.307763669829966 0.338428770910811
-0.11756546073446 0.309013520020808 0.353180974508906
-0.120161670789338 0.307938134605308 0.360964261357721
-0.133028168132457 0.302608656905551 0.365282661613119
-0.128803202034992 0.304358695163687 0.369924427703732
-0.136661877987071 0.301103525002041 0.378598979778615
-0.124653576135614 0.306077526489984 0.39883763927254
-0.13243070864624 0.30285613272771 0.395748552903866
-0.128414665289816 0.304519632353019 0.418582312174503
-0.1420677306714 0.298864347504001 0.408850092875945
-0.118990941187117 0.30842306668442 0.442428362095369
-0.140057797689433 0.299696889004592 0.43482350662483
-0.128879760721194 0.304326983517544 0.444666697915922
-0.127471300282213 0.304910386933437 0.466031702213553
-0.121634563311674 0.307328042546639 0.472574249659333
-0.142253741117306 0.298787299454563 0.467077026528812
-0.129348454025126 0.304132844394463 0.482922746266981
-0.141074968692758 0.299275562979763 0.490254285808571
-0.129070138677992 0.304248126385862 0.513123895198842
-0.131940556761286 0.303059160286081 0.519000350830982
-0.125364030835143 0.305783246517988 0.528989311975908
-0.137722868325721 0.300664048414225 0.526753080465242
-0.129888501237955 0.303909149514587 0.543915132844702
-0.134805437712761 0.301872487741396 0.551284176250711
-0.122984588800267 0.306768843679714 0.5707411423379
-0.126674900514684 0.305240266518218 0.574213283183377
-0.120784539340141 0.30768013400399 0.596330869219067
-0.109850915465844 0.31220898929861 0.613551085016883
-0.135968337799517 0.301390798753777 0.594908513313274
-0.125425654739447 0.305757721061059 0.616659589956911
-0.130990862442598 0.30345253655299 0.615424394510054
-0.14872811167762 0.296105527360652 0.614941914942252
-0.150594789090606 0.295332324259618 0.62677377289962
-0.115768803055136 0.309757719998526 0.66091047129705
-0.132178213058726 0.302960719824498 0.664156223467451
-0.147707634922644 0.29652822267265 0.655041121517623
-0.135864242781987 0.301433916321813 0.671798333603644
-0.125639496711139 0.305669144816179 0.685706318899135
-0.111822582191456 0.311392298200381 0.713589065658081
-0.129351016372357 0.304131783035488 0.708562413290802
-0.143368205667172 0.298325673123225 0.71003847206801
-0.118267942762991 0.308722542437267 0.740203797198469
-0.129942176654226 0.303886916429202 0.736187053656098
-0.135546587474202 0.301565493458457 0.746156033261958
-0.125165128621271 0.305865634512559 0.765909358905041
-0.127149914485743 0.305043509289089 0.771878101684538
-0.130172980503615 0.303791314344537 0.770843488866086
-0.113348813875516 0.31076011233752 0.798981781017485
-0.132683905087325 0.302751255327868 0.794245129136958
-0.123972183428678 0.306359768590499 0.809156981820768
-0.134945658750438 0.301814406285859 0.808115006401306
-0.148216357482505 0.29631750288887 0.809372635406631
-0.130161668932687 0.303795999750627 0.833614222729616
-0.133667546664454 0.302343817646108 0.838208248234165
-0.150334106894641 0.295440302360656 0.834752458978644
-0.140621733871769 0.297843487189191 0.854528272909107
-0.145866859317831 0.292273097312203 0.864026975385278
-0.153488277638953 0.288533709546951 0.865655366389524
-0.141106456840284 0.28988250664848 0.876222343281344
-0.151601059630209 0.284337220952226 0.879572197770093
-0.160082813947434 0.278141714174086 0.887070572559686
-0.166188324249833 0.27503165560415 0.883633628485182
-0.168648838579963 0.272453362659561 0.885290698247106
-0.178248379931898 0.26293813383723 0.890450162353572
-0.211150201503693 0.243725805588753 0.875964651420462
-0.193472961414362 0.248646643178554 0.896713941469665
-0.212558648723745 0.23678707652187 0.890027326173102
-0.114414920627749 0.310318516461808 0.124958563378529
-0.0926731580932027 0.319324249373512 0.161676906850064
-0.10062059425275 0.316032313530133 0.157288484074938
-0.0840107557690362 0.322273107512135 0.190491015963279
-0.10489662769858 0.314261122483709 0.176641629627364
-0.0946215110099495 0.318517215171107 0.198902879737641
-0.10064686365527 0.316021432387334 0.198324951431187
-0.10524116762644 0.314118409372811 0.209005139422802
-0.0865674233473711 0.321853327513488 0.23251299999102
-0.0884865782411045 0.321058387528209 0.240351582901718
-0.095319250910318 0.318228201841365 0.24690354064138
-0.100737548843656 0.315983869352398 0.243817192368544
-0.110143471052339 0.312087808806935 0.246272234751031
-0.104261220079931 0.314524316936989 0.262422790132242
-0.0998034310038839 0.316370793630486 0.270556026758731
-0.100010630084773 0.316284968961071 0.295166592367708
-0.103384568977147 0.314887437713232 0.289910969236381
-0.105057054608695 0.314194671481771 0.302620730490265
-0.103084887641398 0.315011569786889 0.308228608065411
-0.100436313063783 0.316108645297893 0.324437201387395
-0.0848035186059788 0.322168738304657 0.345485515327161
-0.10634062399442 0.313662999633956 0.338424071595819
-0.096409272124323 0.31777670027125 0.355860984843755
-0.0941902225374685 0.318695860705703 0.366125245473067
-0.0870667014408694 0.321646519755765 0.379152799060708
-0.105245880094477 0.314116457404638 0.368905013077025
-0.0899543225059437 0.320450427947617 0.399634793798205
-0.100255291887462 0.316183626724203 0.402419291439834
-0.0880254876234232 0.321249377515536 0.419766309457946
-0.0923713844912216 0.319449248092219 0.428994553335537
-0.113443359046958 0.310720950445252 0.420647728509916
-0.105148802688667 0.314156668182724 0.436140508057039
-0.103448454501495 0.314860975462607 0.444724051668976
-0.116241912921453 0.309561751475404 0.441090104165815
-0.112029260299354 0.311306689325044 0.45893659669396
-0.107097411884058 0.313349527826228 0.46740023535154
-0.0963259974270143 0.317811193780277 0.48927695630859
-0.114440630624744 0.310307867032364 0.481407115400686
-0.103272005523274 0.314934063022453 0.504845417929397
-0.101593198861994 0.315629447510158 0.505031171562463
-0.0950899479644994 0.318323182231415 0.53051621091317
-0.103174890385177 0.314974289429765 0.528267181753635
-0.108157175921537 0.312910559188989 0.531916710422436
-0.0912650643338966 0.31990750090571 0.561236020163971
-0.107827718487308 0.313047024926472 0.552665302782093
-0.113446534126923 0.310719635284069 0.556770083835216
-0.0915673847228166 0.319782275700437 0.58298906532022
-0.103915586645354 0.3146674829932 0.592311995487928
-0.0878285685225205 0.32133094407782 0.612222233293004
-0.0961278263361349 0.31789327893379 0.607595178559618
-0.093772593580712 0.318868848283632 0.620245195747048
-0.117843556084537 0.308898329155173 0.614130630219063
-0.0964844275137333 0.317745569889671 0.635989798472621
-0.106423625124575 0.313628619440154 0.641127135888777
-0.0974411739708336 0.317349272531387 0.659424646392916
-0.0836172743607523 0.32232491032229 0.675214074249268
-0.10331084346172 0.314917975821614 0.666530657760326
-0.0892694396644609 0.320734115709196 0.698100633184043
-0.0962372690494687 0.317847946277624 0.704925763175058
-0.083184191087719 0.322381926816848 0.715939714780664
-0.095150419663322 0.318298134033623 0.724612105285215
-0.10672873346732 0.313502239426595 0.720301349924848
-0.0883763493326201 0.321104045837069 0.745030040104606
-0.101063053278837 0.315849041000734 0.743900251386556
-0.0884553409042305 0.321071326456795 0.762942385210401
-0.0900583330368159 0.320407345375101 0.761764210475038
-0.0889027540199855 0.320886001876265 0.776609140342875
-0.101252343283295 0.315770634513666 0.777069304453804
-0.098612098844499 0.316864259568195 0.790030449202093
-0.11125274226827 0.311628333624947 0.785148791908833
-0.0886973858828536 0.320971068143945 0.817261463148299
-0.103016996822414 0.315039691084873 0.816878421731583
-0.0930379552678886 0.319173145436242 0.830981153398867
-0.105617413703718 0.313962563144813 0.836601724844125
-0.102771056472935 0.315141562913162 0.845614055747424
-0.100659394859865 0.313669399800287 0.856560725766177
-0.103596416584884 0.310107075003846 0.863118456298739
-0.107906437945923 0.307093846163873 0.866551284673408
-0.117635325315797 0.301209238845111 0.871736396766781
-0.110952213311369 0.303108586162425 0.874165421800083
-0.124018372588151 0.294524748652956 0.883031963611009
-0.131360251022925 0.290977126148896 0.884447959394684
-0.144736311856624 0.284775241311108 0.886296768996905
-0.141941312682518 0.285650089899039 0.887087569927397
-0.153116357032182 0.279280474628106 0.891953961129416
-0.144313260936598 0.277529649883828 0.907042092713378
-0.149718030652085 0.272712592351225 0.914249952055555
-0.175514904972772 0.260452863161504 0.901451475858857
-0.185197550223652 0.25078697123157 0.906819540465714
-0.186172371066297 0.248727177161926 0.909968614761663
-0.195196810309447 0.240746453277844 0.912503713144914
-0.190054896322151 0.238386321986169 0.927641066149871
-0.193734944718449 0.236331765605445 0.925794420783506
-0.217047236891838 0.217306247129143 0.928524782416795
-0.0694568505674972 0.324189165481568 0.164760449644829
-0.0705383261478501 0.324046786520335 0.185053699576514
-0.0759181048971028 0.323338525211528 0.184499001277321
-0.0841375356981187 0.322256416617828 0.185068426016266
-0.0648895679036937 0.324790459651445 0.215877219063665
-0.0780163199400006 0.323062289960655 0.213186297857117
-0.0876070277154406 0.321422709284732 0.209393915458705
-0.0745441796423669 0.323519405902812 0.231135321358412
-0.0762734315411862 0.323291745571375 0.23464878100254
-0.068477187842498 0.324318140526107 0.254717379536679
-0.0713020448536187 0.323946241045266 0.25614469856289
-0.0751352286998941 0.323441592818192 0.265323453233932
-0.0789313622049773 0.322941822361073 0.273646463785996
-0.068378684063782 0.324331108794597 0.298905588917755
-0.0734214067113988 0.323667221763398 0.301079291664342
-0.082726104839013 0.3224422350156 0.302316503733304
-0.0757392608171066 0.323362070481338 0.319416538541478
-0.0764756013069074 0.323265129416781 0.32160708828343
-0.0729854061974208 0.323724622320012 0.337167726005445
-0.0802484195577816 0.32276842847111 0.343844603223687
-0.0812339388646776 0.322638682392937 0.352015388418571
-0.0734025535699913 0.323669703826552 0.358600678845037
-0.0787653177558311 0.322963682527513 0.370127502422717
-0.0680579931897047 0.324373328549123 0.385355867275318
-0.0722409673608292 0.323822629552151 0.395990630721562
-0.0809506500169117 0.322675978077284 0.396700883091242
-0.0758146372282836 0.323352146988548 0.405992741894739
-0.0773490309173297 0.323150140227103 0.416287513433067
-0.0774560106166035 0.323136056082502 0.426177643573177
-0.0684355586184424 0.324323621117427 0.448013824515278
-0.0806825569715512 0.322711273196292 0.441888590445912
-0.0765037979575347 0.323261417257302 0.452747772429827
-0.0746995597735933 0.323498949720461 0.465132023899307
-0.0710103876176264 0.323984638448824 0.485320019206252
-0.0792814942742642 0.322895726599666 0.480766710416799
-0.0701131912483889 0.32410275659166 0.499142682235591
-0.0771727389173272 0.323173349509207 0.507769778118576
-0.0882094611608281 0.321173173181225 0.501994489575222
-0.0763769504639998 0.323278117046639 0.520143140366486
-0.073402256005145 0.323669743001707 0.541471067610264
-0.0773701016893196 0.323147366207344 0.5488618737092
-0.0778575329023346 0.323083194670748 0.54774691930095
-0.0743797452509795 0.323541054101128 0.567646467225646
-0.0836308354157461 0.32232312497553 0.565008200582532
-0.0724876787325204 0.323790149383884 0.587101460563516
-0.0805944019204242 0.322722879028947 0.59044887067232
-0.0771331366037903 0.323178563252695 0.596847332049423
-0.0817867386839973 0.322565904916058 0.606599182210108
-0.0745807297688667 0.323514593987372 0.617474617479088
-0.0805735065450435 0.322725629957304 0.626370603188414
-0.0670099729737908 0.32451130302807 0.644445412257021
-0.0747738823110124 0.323489164972783 0.647746778586323
-0.0727390894706792 0.323757050532285 0.66073656509256
-0.0745751288548876 0.323515331361686 0.670696208188157
-0.080782689201083 0.322698090538185 0.674981814703358
-0.0805634241280906 0.322726957332677 0.682791985864725
-0.0704358735869021 0.324060274655868 0.697547459188502
-0.0752304322653206 0.323429059031025 0.704856968610638
-0.0852548877231955 0.322109314433042 0.711070493902872
-0.0859336126781486 0.322019958597547 0.714358098595217
-0.0716920613344261 0.323894894401467 0.733531158166868
-0.0658130845202448 0.324668876382313 0.750255296053022
-0.0829953172085832 0.322406792534766 0.74871604407337
-0.086057259280458 0.322003680213535 0.753629171021378
-0.0694895500882161 0.324184860507996 0.766119657829056
-0.0850320096391874 0.322138656889459 0.772165065081419
-0.0764877234605152 0.323263533504983 0.785790206277477
-0.0711675954389776 0.323963941646503 0.797086015201831
-0.0781278331174356 0.323047608972332 0.799461824557697
-0.0767621236661836 0.323227408032568 0.81646216600987
-0.0803553640443813 0.322754348962346 0.818612772732478
-0.0803796192543407 0.322751155703375 0.831807119244893
-0.0799560439442904 0.32280692045086 0.842813565358638
-0.0819340016287117 0.322546517381584 0.843400217796133
-0.0757040188020793 0.320648303576292 0.858155219813033
-0.0771157772441895 0.317191657640634 0.867967573045325
-0.0787468855867687 0.315508205215636 0.87237371185891
-0.0845052465595898 0.31238924758505 0.878845267152881
-0.100256417289383 0.304830062052302 0.881738210839706
-0.102357387265696 0.304176747190446 0.881131756016591
-0.104367067435683 0.299766591809025 0.891133464983349
-0.105651623207912 0.294938325421309 0.903143688957811
-0.103879335849398 0.295001468340668 0.905019401615643
-0.123756340466477 0.288583216388922 0.899945265459575
-0.111199918400749 0.28728601730888 0.918111450815546
-0.13492072419405 0.280684799435417 0.909097850324305
-0.140951734410071 0.275263337078434 0.917270197137598
-0.133143978807718 0.273452787172411 0.931372732423171
-0.139931045852469 0.269205726204722 0.935386494480983
-0.138879464620026 0.267101185220557 0.942487540078588
-0.148680641729045 0.261128170882062 0.947836090460862
-0.179890749908865 0.243353004693036 0.934440857243948
-0.175829420137024 0.241736700019518 0.945802099124942
-0.197690754746045 0.227771685977448 0.939056953189
-0.18417752708339 0.234864149347246 0.946922753028379
-0.196848946536829 0.225290260127492 0.946564504900058
-0.0583654942147441 0.32564937024704 0.179174908748742
-0.0653872219375718 0.324724942254951 0.180918085623215
-0.0643611498502287 0.324860027207954 0.195838217879376
-0.0529635776087993 0.326360546059971 0.215988508156154
-0.0538440145851831 0.326244634333062 0.222391953670435
-0.0536437062523566 0.326271005425366 0.233399509630603
-0.0664427590884276 0.324585978152745 0.231020734113387
-0.0521790794451612 0.326463827202567 0.247918648731309
-0.0599357822720504 0.325442637902364 0.25406180551698
-0.057787191864807 0.325725505195769 0.263466849635737
-0.0533347773784942 0.326311676683187 0.275417326490721
-0.0564010500834076 0.325907994223301 0.283028435086598
-0.0605596828819871 0.325360499828819 0.293935605685234
-0.0603155272773099 0.325392643523975 0.300299872866892
-0.0607693666165628 0.325332894441459 0.302952100787219
-0.0573924600933483 0.325777472619359 0.327307132009276
-0.0575704685634373 0.32575403735968 0.335300042850871
-0.0552705215993804 0.326056831121817 0.343341153936381
-0.0565552275220066 0.325887696378438 0.352835870103221
-0.0506470048265902 0.326665528652592 0.360158587680205
-0.0607817894948366 0.325331258938507 0.357532591538593
-0.0672528014551147 0.324479334052019 0.368362007387631
-0.0588635764079312 0.325583796482303 0.389011252784467
-0.0548758185412365 0.326108794765227 0.399345397256491
-0.0607310751439795 0.325337935609461 0.401483534320631
-0.0574629943276829 0.325768186611244 0.414460053142907
-0.0568511313917814 0.325848739894936 0.419049174494334
-0.0555919784307483 0.326014510527101 0.438690762770272
-0.0582251514655114 0.325667846720494 0.442506606340377
-0.0566557186986288 0.32587446646405 0.453015305401226
-0.056679450452235 0.325871342119416 0.465614581594909
-0.0499864863493913 0.326752487559818 0.482218653169213
-0.0642452105816485 0.324875290902231 0.474734046288333
-0.063992862290985 0.324908513184959 0.482615400993252
-0.0516724762363297 0.326530522780295 0.503136557151384
-0.0511234790965089 0.326602799624921 0.512044686692731
-0.0498744189419977 0.3267672415139 0.519433240360519
-0.0481531574411436 0.326993849889488 0.538315360930384
-0.0687946608926962 0.324276344406132 0.524646147427341
-0.0533822595473037 0.326305425537072 0.555581801266162
-0.0600235529423073 0.325431082674409 0.548993593367191
-0.0542433127289843 0.326192065735149 0.567813437084686
-0.0618947195916333 0.325184738911623 0.567596820326254
-0.058060039644759 0.325689584104078 0.580525220065327
-0.0678151752795002 0.32440529613346 0.588296868333957
-0.0623690868137351 0.32512228728206 0.598022060933223
-0.0650240567633507 0.324772753857174 0.606876201822865
-0.0540500409059894 0.326217510453359 0.628181743021125
-0.056145899080461 0.325941585490101 0.631185306354757
-0.0647457850629552 0.324809389021539 0.634617284491992
-0.061746674516784 0.325204229415483 0.643691552612628
-0.0656989196521064 0.32468390647234 0.649598461919158
-0.0565668745264872 0.325886163021209 0.664819909216154
-0.0578986426152296 0.325710832426118 0.676906471494174
-0.057036897283157 0.32582428335137 0.689545231126934
-0.0646460197721621 0.324822523371244 0.691885167783582
-0.0563391724576756 0.325916140567273 0.710151049422876
-0.0661472702500307 0.324624879996329 0.710440899796248
-0.0580502407877565 0.325690874148076 0.725280352562701
-0.0626539829312217 0.32508477999664 0.728362682850334
-0.0687816235699593 0.324278060802232 0.73314865823515
-0.0609242127204517 0.32531250856514 0.745523254384909
-0.0675536864006365 0.324439721797454 0.756378769405254
-0.0623416989677776 0.325125892960384 0.769107782682267
-0.0497523273819463 0.326783315172715 0.789860229297644
-0.0599247798584585 0.325444086397593 0.786036608008936
-0.054367865656645 0.32617566803114 0.80117237911202
-0.0541183772882647 0.326208513797956 0.810423241717313
-0.0565784185242897 0.325884643225066 0.823895417080686
-0.0578787972500491 0.32571344511801 0.826708825568863
-0.0652213657851439 0.324746777631658 0.830159175877823
-0.0616127585926151 0.325221859781367 0.841810702526188
-0.0620771542049033 0.32516072093914 0.847785371701028
-0.0639491043451541 0.320320292593366 0.863781944303353
-0.0681857093364975 0.319847655083385 0.863526577948092
-0.0682696920665798 0.318471165486081 0.867622877131493
-0.0736802618080207 0.313060295558059 0.881718541856065
-0.0838573010800006 0.311503180436726 0.882072609422036
-0.0746287764876686 0.307729534139581 0.897336203131778
-0.0772817477787169 0.306927290261787 0.898695123875675
-0.0902980424011216 0.30325223058832 0.897680493109577
-0.0987426807440551 0.296852187655938 0.90579363865319
-0.0976076297867781 0.294292372800124 0.914264081713432
-0.106865850194932 0.291365772342652 0.911724935059146
-0.110277768397699 0.286360458133026 0.921766712204511
-0.110274759918699 0.285687665058645 0.923651025907776
-0.114059922903763 0.279110680655211 0.937654292129905
-0.125458689891327 0.276072011476148 0.932949779325933
-0.119684555289543 0.275567154245119 0.941047333759455
-0.130705794248794 0.270202927123521 0.943281207130451
-0.135391409137528 0.264519095748719 0.953744930590387
-0.136721325154221 0.26230104730443 0.958405621649807
-0.151146701419298 0.256278320691942 0.956360156120284
-0.16505668392464 0.242251587189192 0.964409908014676
-0.138246016370637 0.255733512358434 0.989613103261641
-0.18918379315906 0.225053741187268 0.961251835494611
-0.171221845422629 0.233712545269009 0.973552216450745
-0.165810947887444 0.237261379967652 0.99863867500984
-0.174124192361603 0.226132872406513 0.999999999999999
-0.17721045343192 0.22780770771985 0.999999999999999
-0.193270719485704 0.210614268609417 0.999999999999999
-0.206926123350361 0.196699547397985 0.999999999999999
-0.0433371258855237 0.327627892472245 0.199675041307296
-0.0380006904074178 0.328330447531152 0.208191044593164
-0.040619860319732 0.32798562727059 0.216067157598293
-0.0359622286730734 0.328598816109714 0.22659678868852
-0.0374789597205581 0.328399134679144 0.236827040176327
-0.0472506760618959 0.327112663817092 0.233359270325268
-0.0465060786087771 0.327210691931492 0.249197505711465
-0.0363192551457879 0.328551812682877 0.26349954096018
-0.0515886570662146 0.326541557783386 0.263659219406511
-0.042948909769128 0.327679002093572 0.267419108467562
-0.0392447358638773 0.328166665839696 0.282388351776598
-0.0434556195582962 0.327612292484276 0.291002091421521
-0.0407428265181292 0.327969438463452 0.315392566598907
-0.0319552842178716 0.329126340354936 0.320223509383243
-0.0503295383971091 0.326707323900933 0.315357036691018
-0.0382914764969658 0.328292164816199 0.336814797737322
-0.0431348678834819 0.327654520243371 0.346060636380916
-0.0464950299744145 0.327212146511801 0.345614743759001
-0.0421861904597833 0.327779415995606 0.364813392205187
-0.0358453647071712 0.328614201542703 0.376939560321088
-0.0449231048235594 0.327419094383931 0.383970255676274
-0.0442809691695526 0.327503633146571 0.38960582760638
-0.0357408562949984 0.328627960336185 0.405374582934789
-0.0345373416473265 0.328786406045434 0.409335281835763
-0.0429274281902518 0.327681830197083 0.421483540900925
-0.050962978395813 0.326623929943032 0.423466764243534
-0.043114085337894 0.327657256317404 0.427275382103141
-0.0322769019322787 0.329083998579566 0.449228156141144
-0.0413449629143801 0.327890165702997 0.457074622247966
-0.0418047578122044 0.327829632556321 0.46213654032801
-0.0366863412221505 0.328503484884094 0.478106990973269
-0.0445716912176249 0.327465358862839 0.478855002358932
-0.0439344273218088 0.327549256246345 0.489204937675809
-0.0368123888145001 0.328486890403746 0.50905918425303
-0.0418686004087257 0.327821227519036 0.507052438009461
-0.0332931234466599 0.328950210479095 0.523199245300906
-0.0435098187673208 0.327605157023041 0.533256864562127
-0.0423507805501654 0.327757747299128 0.538290649756708
-0.0380822578976403 0.328319708967342 0.543155750199642
-0.0441065573239917 0.327526594901648 0.553560943472079
-0.041976358315551 0.327807040921468 0.561538272241282
-0.0425600797691952 0.3277301925342 0.568576814747305
-0.0419287201613511 0.327813312603448 0.583808186716205
-0.0459223706860533 0.32728753853738 0.588897375436111
-0.0499748111797756 0.326754024625057 0.601342103673226
-0.0410362160199233 0.327930813002774 0.611288369899313
-0.0338925217391059 0.328871298196845 0.625803768689406
-0.041871041007796 0.327820906208073 0.628622710939915
-0.0424205970542041 0.327748555781999 0.640837351654649
-0.0354789246172542 0.328662444295757 0.659688637347477
-0.0392417646977379 0.328167057001139 0.66048844684101
-0.0320535506449668 0.329113403334379 0.678908123920431
-0.0476631897245379 0.327058355363116 0.670461278697014
-0.0440812548100181 0.327529926040808 0.687139381786145
-0.0336174091019736 0.328907517462641 0.700602371002827
-0.0443300532981211 0.327497171098453 0.703679776494495
-0.0392727339508571 0.328162979821618 0.710417013094942
-0.0486791631835041 0.326924599919761 0.723431188565457
-0.0313186789691339 0.32921015102591 0.738675068758265
-0.037447830777793 0.328403232882207 0.747182365700815
-0.0452122998797481 0.327381021132494 0.758160428496005
-0.0445516582547677 0.327467996252433 0.75689462843155
-0.0486151140329797 0.326933032150396 0.7622068161195
-0.0464719439190091 0.327215185848655 0.78406891752495
-0.0448655959993328 0.327426665564274 0.787503954277745
-0.0434624012966827 0.327611399651479 0.791862117378537
-0.0327575608315163 0.329020718634993 0.809139754634379
-0.0456567889214088 0.327322503040009 0.812393745369884
-0.0447996077017118 0.327435353088468 0.822312771652375
-0.0414723423441596 0.327873395882925 0.836084567974927
-0.0402485211491636 0.328050844809793 0.849999999999999
-0.0442241272759945 0.326834961799345 0.852028464173441
-0.0452231244391567 0.322972786094862 0.86322042987205
-0.0575687506601621 0.32070148523739 0.865158334865641
-0.050948224563322 0.319436245211604 0.871568881330972
-0.046589045079076 0.316865194387789 0.881003724402017
-0.0640273100709425 0.314677396489074 0.880679744678852
-0.0567317231799939 0.310937098252334 0.89478208609575
-0.0670766995117847 0.310376692539889 0.892377477318394
-0.0724489326128708 0.306977541086378 0.90045312796279
-0.0761304445118849 0.30390513645554 0.908216301146095
-0.0757183385250998 0.299777025637646 0.92076339794707
-0.0837876217336787 0.297152778292532 0.922270632953069
-0.0799715291273779 0.295596425263244 0.931040373678458
-0.0760843005559982 0.294152290427822 0.937493064130371
-0.0948669614833966 0.287896287901342 0.935318264000058
-0.0919037896195301 0.285050721536028 0.946704426103882
