ply
format ascii 1.0
element vertex 851
property float x
property float y
property float z
end_header
-0.165053472089595 -0.300327373050308 0.433306805755561
-0.162707517447058 -0.301299099279959 0.452055123005105
-0.159988833398514 -0.302425215084673 0.455055518642841
-0.164371352463732 -0.300609916250502 0.458819247067193
-0.167711452552215 -0.299226401494168 0.47040996228049
-0.163652500427295 -0.300907674513333 0.477339592531124
-0.164450199865708 -0.300577256587244 0.490122257897928
-0.166382040262239 -0.299777062094661 0.494562274787241
-0.165742924199201 -0.300041792635902 0.505961745937852
-0.164923766877813 -0.300381098708139 0.51533061105492
-0.164576447100843 -0.30052496327024 0.528721509946037
-0.16261385631255 -0.301337894992139 0.537348606945035
-0.162377230223459 -0.301435908727452 0.546438087103305
-0.160315003062747 -0.302290111186113 0.544113959960201
-0.159496170882912 -0.302629282580308 0.561200579089658
-0.161594218082101 -0.301760242975905 0.571651953032946
-0.166175908116216 -0.299862444825185 0.576548681560857
-0.16107137347387 -0.301976812303648 0.586955784753708
-0.16413501823175 -0.300707809094641 0.597461912175322
-0.162159491285752 -0.301526099148507 0.612029236635881
-0.162332809908984 -0.301454308224153 0.607950595022038
-0.164797340181155 -0.30043346636054 0.617966201198852
-0.161814954074168 -0.301668811134287 0.630620507169773
-0.16308438780781 -0.301142994465279 0.642422618841641
-0.167324727183635 -0.299386588386747 0.646532771999544
-0.162965462873236 -0.301192254786084 0.655470130272098
-0.160980515238625 -0.30201444701694 0.662371765390828
-0.160879387808322 -0.302056335370099 0.678260350331602
-0.161148529112555 -0.301944853391691 0.688419062207236
-0.163517905100014 -0.300963425723325 0.695986989688544
-0.163950632655413 -0.300784184101066 0.704313746910534
-0.163144367081387 -0.301118150236702 0.709591247248393
-0.159012696078863 -0.302829544401211 0.715929414270145
-0.160496920135588 -0.302214758667315 0.733027792553958
-0.160327638023749 -0.302284877613905 0.742105466796799
-0.161851732030037 -0.30165357720617 0.739509446894525
-0.159009621329506 -0.302830818004095 0.758107267197289
-0.16542135194117 -0.300174992226461 0.76744168533197
-0.167932338243019 -0.299134907645303 0.775418025697918
-0.161525452501837 -0.301788726611875 0.777666002903391
-0.162804680925555 -0.301258852849398 0.788795682593606
-0.162211689836001 -0.301504477801057 0.799880559255419
-0.163782778927012 -0.300853711391865 0.815114157589878
-0.159105844605521 -0.302790961018154 0.812590458869032
-0.163636967851057 -0.300914108317069 0.827598594553446
-0.161644832236662 -0.301739277906638 0.831938830917278
-0.162509136595233 -0.3013812713193 0.844021839862219
-0.163347937730905 -0.301033828512771 0.847580627003122
-0.158681286617579 -0.302966818694774 0.864973242906528
-0.158678750468803 -0.302967869201993 0.870541697586117
-0.165369475621868 -0.300196480101483 0.882334794995018
-0.167534323333232 -0.299299770818963 0.893824819530949
-0.162313447097224 -0.301462328563389 0.898400904406418
-0.155787890195217 -0.291678726280286 0.901868155464892
-0.151193799990056 -0.292317079139768 0.901868155464892
-0.148558121461033 -0.282034032419653 0.908566150292699
-0.147512980364384 -0.282466944036478 0.915541139571634
-0.147691714836045 -0.282392909794253 0.923482203164184
-0.132375669129632 -0.27844379929442 0.923341206785484
-0.1291229339843 -0.271800622826526 0.923341206785484
-0.116975776938739 -0.256096976557798 0.923341206785484
-0.114462179350366 -0.248794853062697 0.923341206785485
-0.104576364112412 -0.247006558149584 0.923341206785484
-0.0948094441148515 -0.232613631672989 0.923341206785484
-0.0757664476634375 -0.222004001503961 0.923341206785484
-0.0687955849295501 -0.218348585711476 0.923341206785484
-0.0699144202082929 -0.212532478493621 0.923341206785484
-0.0560646681729245 -0.201369343645088 0.923341206785485
-0.0674251610002205 -0.212080311041653 0.952284488152357
-0.0655918633787695 -0.212080311041653 0.957000396506315
-0.0610519162167026 -0.212080311041653 0.958664630447921
-0.0662429689245752 -0.212080311041653 0.972850670457575
-0.0640373599754017 -0.212080311041653 0.976501073266411
-0.0750601663471665 -0.212080311041653 0.994398162414121
-0.0632468998156489 -0.207225769432897 0.998496886407559
-0.0614997045742416 -0.20045688327114 0.998496886407559
-0.0478918733556817 -0.192349612650284 0.998496886407559
-0.0392042553348611 -0.18857809276276 0.998496886407559
-0.0267581770140542 -0.179104208274804 1.0
-0.0191418124691689 -0.169931221921694 1.0
-0.0129801075949621 -0.156642764233994 1.0
0.00646772613054878 -0.142715457149375 0.998112118620888
0.0102464936721494 -0.140023031664491 1.0
0.0418220738418828 -0.118085718924217 0.989535361639007
0.0418220738418828 -0.110058676469756 0.994836802268905
0.0509398039948835 -0.101633572710688 1.0
0.057491040156217 -0.0937986598597884 0.998496886407559
0.0653597554843981 -0.085051171576658 0.998496886407559
0.0779811094655096 -0.0770217560800034 0.998496886407559
0.181942540998497 0.0124737622059333 0.923341206785484
0.179634245732742 0.0208184238077123 0.923341206785484
0.198512344674326 0.0332525834609662 0.923341206785484
0.212560616567958 0.0450049129885234 0.923341206785484
0.222593308041195 0.0591926234034786 0.923341206785484
0.234400786239892 0.0668485501900634 0.923341206785484
0.236821819335936 0.0745359660594972 0.923341206785484
0.253829103348231 0.0925327383592519 0.923341206785484
0.260375826867996 0.0985718352047035 0.923341206785484
0.288994701135889 0.119199337397463 0.923341206785484
0.293640951170588 0.120489313817712 0.923341206785484
-0.173499049048108 -0.296223638663489 0.328228448775926
-0.168489743676175 -0.298904022755149 0.326090217386643
-0.16730359659053 -0.299395340964993 0.335835240131066
-0.173516390332663 -0.296210332227843 0.352085233882581
-0.168092601477569 -0.299068524440002 0.353200999143523
-0.172796318800081 -0.296762862548069 0.370975670878887
-0.168615943252392 -0.298851749179114 0.379924171483519
-0.172650470183707 -0.296874776127572 0.38620065132822
-0.16986269998498 -0.298335325631496 0.394932453978123
-0.170363275810787 -0.298127980335451 0.403328539622992
-0.170716983882649 -0.297981469654965 0.406822438164148
-0.168089008767128 -0.299070012589393 0.419818964695995
-0.170392059553725 -0.29811605771875 0.423239771732773
-0.172130537305389 -0.297273734657044 0.433534948035313
-0.174826966592172 -0.295204691694117 0.44506097892037
-0.171784410564741 -0.297539327046404 0.458270408572639
-0.170629772431859 -0.298017593820677 0.462542560521238
-0.171923240576647 -0.297432799031527 0.479821092839686
-0.173320602886449 -0.29636056521923 0.487102271152599
-0.170598789944575 -0.298030427187105 0.495912721019073
-0.175262130808696 -0.294870778446575 0.50208166175609
-0.171290602095396 -0.297743869211621 0.504581361300795
-0.174579221362591 -0.295394793294918 0.518652111312834
-0.172920434429779 -0.296667625275772 0.528540167088372
-0.167750036410844 -0.299210419536635 0.53801325694833
-0.166648193719342 -0.299666817723057 0.547694612415488
-0.172011722757359 -0.297364904266311 0.555493061876876
-0.169481382503227 -0.298493272504008 0.562233711021112
-0.175094975571691 -0.294999041171112 0.573442488699674
-0.165884347018257 -0.29998321338622 0.580665891781458
-0.173303620652637 -0.296373596145551 0.58689422540786
-0.168168928299457 -0.299036908835204 0.602751859610538
-0.175781547673917 -0.29447221586788 0.607042645367446
-0.170779794034673 -0.297955452838142 0.623106298301424
-0.17401063335201 -0.295831086220478 0.628000507992648
-0.172870999483414 -0.296705558044267 0.637470676343105
-0.17138003229504 -0.297706826010043 0.651341758067803
-0.172975140904457 -0.296625647521334 0.652511171026294
-0.173263787437475 -0.296404161246563 0.659240115645755
-0.172838865517327 -0.296730215303676 0.673875034228653
-0.175246895736151 -0.294882468728904 0.674478295557328
-0.172435528663849 -0.297039706556597 0.691734760767876
-0.176147045864537 -0.29419175924216 0.694602940294999
-0.172142692780467 -0.297264407432964 0.70647531434778
-0.17070549494232 -0.297986228529866 0.713946110976104
-0.173260087953714 -0.296406999960294 0.721782627877757
-0.170423347143887 -0.298103097974571 0.737661137567891
-0.171325710452202 -0.297729326854079 0.740767797574846
-0.171454615443778 -0.297675932658311 0.753496538594499
-0.168709067378361 -0.298813175903153 0.757094162771754
-0.171784410564741 -0.297539327046404 0.769825783514906
-0.174601525190444 -0.295377678965871 0.776870910473323
-0.170085953681795 -0.298242850922426 0.787416248876549
-0.173922081130183 -0.295899034730132 0.798297339322314
-0.171284729165228 -0.297746301858947 0.801026087422422
-0.171171464262648 -0.297793217717736 0.809844457201786
-0.168628191145653 -0.298846675935616 0.814291022775452
-0.17194112578585 -0.297419075227819 0.827874658198956
-0.172431445410665 -0.297042839746963 0.835340642633171
-0.166664963353221 -0.299659871513268 0.847796623987785
-0.17303703773239 -0.296578152414791 0.858551769712235
-0.171784410564741 -0.297539327046404 0.864793491640663
-0.171032156336183 -0.297850920950225 0.877107297847581
-0.169165381859851 -0.298624164256213 0.882489623788121
-0.173138635386767 -0.296500193792672 0.887939054693632
-0.173947849132327 -0.29587926224666 0.89710682989482
-0.157487867116498 -0.289966765400263 0.901868155464892
-0.151008273441043 -0.284788909891399 0.901868155464892
-0.152002566699911 -0.280607296486859 0.903136051670935
-0.151706674153193 -0.280729859192714 0.913865587294081
-0.147606003405303 -0.282428412631317 0.920636724803476
-0.145208676015342 -0.267623902301754 0.923341206785484
-0.133437276002563 -0.262343393705463 0.923341206785484
-0.129261158156308 -0.254930794621044 0.923341206785485
-0.109088614246014 -0.239084229316169 0.923341206785484
-0.105890399215133 -0.23495355009946 0.923341206785484
-0.098608493235165 -0.226628267355209 0.923341206785484
-0.0853704077591704 -0.21838856830058 0.923341206785484
-0.0741020688109201 -0.206661689562493 0.923341206785484
-0.0671726582382366 -0.202164399272439 0.923341206785484
-0.060486212699239 -0.195872426787916 0.923341206785484
-0.0804234758560304 -0.212080311041653 0.951360781411824
-0.0766426449487876 -0.212080311041653 0.959282443545821
-0.0746977532649951 -0.212080311041653 0.96685443890248
-0.0763973969166423 -0.212080311041653 0.974957577656164
-0.0807496674226924 -0.212080311041653 0.986610708408997
-0.0747437849751558 -0.212080311041653 0.992001500002175
-0.0718330942128148 -0.20324508937355 0.998496886407559
-0.0620950643908301 -0.190939790985486 0.998496886407559
-0.0509894077857934 -0.19047037649889 0.998496886407559
-0.0397834048500573 -0.174886819026597 1.0
-0.0150818708916649 -0.149359213054279 0.981526691077494
-0.0150818708916652 -0.147437785174231 0.98625229326615
-0.00846363522618999 -0.147155085035636 1.0
-0.00842587825515084 -0.143709816920039 1.0
0.00188977975657818 -0.132977633864641 1.0
0.0351136612845898 -0.10333324845795 0.979929533842385
0.0326887153110868 -0.10333324845795 0.996508821576428
0.0336791026046329 -0.102280498406491 1.0
0.0438763247915081 -0.0977295391383484 1.0
0.0636849775400875 -0.0749808414412409 0.998496886407559
0.0674496924206088 -0.074755053603776 0.998496886407559
0.0816892035910719 -0.0593953320064323 0.998408320584366
0.181261933476359 0.0329972108908815 0.923341206785484
0.191177594910694 0.0403533120831995 0.923341206785484
0.198197569201331 0.0451651791087063 0.923341206785484
0.213992931924941 0.068029506149922 0.923341206785484
0.225081050528012 0.0714460293167993 0.923341206785484
0.232922165331441 0.081957485026293 0.923341206785484
0.254838982157874 0.0989175635212253 0.923341206785484
0.256710017309987 0.103714926114122 0.923341206785485
0.266008512865937 0.114878288701264 0.923341206785484
-0.18162588772182 -0.289987696022198 0.321829088425001
-0.179821904210439 -0.29137194125635 0.330221030572514
-0.181700835365636 -0.289930186672412 0.345088728039582
-0.176324133829175 -0.294055874867647 0.357312263845939
-0.178679822277217 -0.292248291546194 0.356051790127204
-0.177467115086569 -0.293178834502095 0.366004685622851
-0.179855250350569 -0.291346353863083 0.376027951368897
-0.178478745900146 -0.292402582876966 0.383509111041762
-0.177761384635901 -0.292953033535152 0.400597364041331
-0.178644246653101 -0.292275589682693 0.410696630231488
-0.177213691041032 -0.293373293611638 0.417242404365207
-0.179366901747674 -0.291721076925626 0.424176722013078
-0.177154169572373 -0.293418966040905 0.428687550305336
-0.175339856679126 -0.294811137288531 0.435734359771361
-0.17813850461377 -0.292663659198427 0.447640904430429
-0.178624992007053 -0.292290364292249 0.459884488004971
-0.181853941916444 -0.289812703883942 0.466913972599308
-0.18143217551503 -0.290136336626369 0.476859567663538
-0.177624074309875 -0.293058395454039 0.479767286720875
-0.180688500182298 -0.290706978779469 0.499322669625223
-0.180003818227401 -0.291232353721644 0.509045847245537
-0.179522864451795 -0.291601402533636 0.509083790706509
-0.182228081332814 -0.289525616612494 0.526204780001365
-0.179811372158945 -0.2913800227837 0.5260078901952
-0.178597544756886 -0.292311425308049 0.541039407656918
-0.179498720583323 -0.291619928775509 0.550259429470631
-0.180465200466021 -0.290878322678176 0.559636380316161
-0.179132628916434 -0.291900840791587 0.559846266271726
-0.177063706897816 -0.293488380492497 0.577008252927042
-0.181576715774844 -0.290025426984164 0.587084024626207
-0.180230695623554 -0.291058264572612 0.585938979401437
-0.178520961703573 -0.292370189551678 0.598807558328137
-0.181274387132478 -0.29025741191069 0.612076799037014
-0.178054025247843 -0.29272848249583 0.61281417114106
-0.178334931805305 -0.292512935313189 0.625762205967642
-0.181466571431069 -0.290109943711716 0.638614473551866
-0.17852499075185 -0.292367097954199 0.645287772397039
-0.178886202370894 -0.292089930530535 0.654399947819965
-0.179815824541777 -0.291376606350193 0.663060499743798
-0.17663071984652 -0.293820623142401 0.672580892432055
-0.178884568865816 -0.292091183963066 0.683165336128125
-0.179998568043339 -0.291236382329566 0.693687258691835
-0.180444696809586 -0.290894055687111 0.699294312657808
-0.17488816366022 -0.295157733532219 0.704709458648276
-0.179197009057757 -0.291851440171661 0.719736654823277
-0.178203540845209 -0.292613755142847 0.717722892147296
-0.176387098607421 -0.294007560294007 0.730841632499707
-0.178756928621025 -0.292189125767646 0.74574304946453
-0.181558403536565 -0.290039478458806 0.749663899249777
-0.17633296010109 -0.294049102231003 0.758653397127148
-0.180564575544241 -0.290802069498725 0.772195014016529
-0.177733741210714 -0.292974245081338 0.782308866366743
-0.180446517400685 -0.290892658698426 0.791952382007772
-0.17737388839591 -0.293250369857837 0.797745955948717
-0.180047759282716 -0.29119863656402 0.803702070216219
-0.179348382127227 -0.291735287530202 0.817204979532971
-0.176254062887519 -0.294109642192253 0.819111116418399
-0.176831961622391 -0.293666204896667 0.826150951638781
-0.177163981786212 -0.293411436864414 0.838477380784528
-0.177429627350883 -0.293207599853405 0.855286925668621
-0.181921140124921 -0.289761140885034 0.855818600279493
-0.178780267209914 -0.29217121743853 0.862952471251704
-0.177475491923236 -0.293172406729246 0.874366630969769
-0.179225256021095 -0.291829765514362 0.887786502935283
-0.1818179775128 -0.289840300341464 0.89115355211753
-0.180305325461659 -0.291000999083726 0.90026806500789
-0.163687429664145 -0.282988109093247 0.901868155464892
-0.162991469877551 -0.280086428036758 0.901868155464892
-0.163097434794622 -0.274945302804493 0.904391805692489
-0.157392118653161 -0.278374870972708 0.914824890179975
-0.153913222800618 -0.26844458655648 0.923341206785484
-0.146983470089967 -0.256680875967161 0.923341206785484
-0.132687553599189 -0.250162452394898 0.923341206785484
-0.134918070671384 -0.243837389128805 0.923341206785484
-0.126704224552132 -0.2379758060563 0.923341206785484
-0.111552387110266 -0.229033896938438 0.923341206785484
-0.103538680214068 -0.221282253112145 0.923341206785484
-0.0949929112547111 -0.212792711324922 0.923341206785484
-0.0868351433751949 -0.207954071764489 0.923341206785485
-0.0798559898663072 -0.199914386877056 0.923341206785485
-0.0753485894356567 -0.188145612911477 0.923341206785484
-0.0889505639133152 -0.212080311041653 0.954782934568635
-0.0889873483701146 -0.212080311041653 0.967999196906392
-0.0971748755770243 -0.212080311041653 0.98214523031752
-0.0881486750301324 -0.212080311041653 0.980183910371392
-0.0863146951058029 -0.212080311041653 0.993598918590122
-0.0870849014034419 -0.201160394229767 0.998496886407559
-0.0707844226493177 -0.198366423813319 0.998496886407559
-0.0636265795477309 -0.187089379147906 0.998496886407558
-0.0584625231897595 -0.184065310564432 0.998496886407559
-0.0573555522343418 -0.171441622073993 1.0
-0.0203676066364943 -0.142715457149375 0.976568480162621
-0.0159204999769141 -0.142715457149375 0.989123635567873
-0.0163390688285579 -0.142066122040547 1.0
-0.0139533907197798 -0.141524825298814 1.0
0.0144306842965615 -0.10333324845795 0.988443367594547
0.0236848092244434 -0.10333324845795 0.988355286548543
0.0234447438494059 -0.102443830878706 1.0
0.0282147551674141 -0.101472526974031 1.0
0.041588360706727 -0.0816204343708675 0.998496886407559
0.0621010478697749 -0.0675156632836935 0.998496886407559
0.0722038074130101 -0.0562465384166595 0.998112314570942
0.080607844837483 -0.0495563347864091 0.997483394176787
0.178053794426249 0.0395838828944849 0.923341206785484
0.184833417195235 0.0519560140459381 0.923341206785484
0.185357749191617 0.0532434566140626 0.923341206785484
0.206419842859111 0.070369736270296 0.923341206785484
0.206314140958744 0.0761352656272754 0.923341206785484
0.233118820566055 0.0948880626653596 0.923341206785484
0.239541714871741 0.102917434111466 0.923341206785485
0.254451413440071 0.11465415519967 0.923341206785484
0.27259516320747 0.128923833316326 0.923341206785485
0.276482138210341 0.138305744859405 0.923341206785484
-0.185115639642795 -0.287309915191883 0.32173043730214
-0.186135710806848 -0.286527187058046 0.339491310001523
-0.187032096551934 -0.285839366084202 0.337026161453981
-0.183932720102369 -0.288217601279859 0.34732356512905
-0.183457744827442 -0.288582062626933 0.360364382233368
-0.183484412717887 -0.288561599634883 0.36822209867429
-0.186246405677243 -0.28644224789656 0.373423026539919
-0.188168653346147 -0.284967255382631 0.391474690234476
-0.188735915981542 -0.28453197945322 0.395581412704659
-0.182361825609392 -0.289422991019588 0.405086783904141
-0.184248422597175 -0.287975354235422 0.417030387086036
-0.1858891410619 -0.286716386677764 0.417862127665097
-0.184221651142651 -0.287995896694986 0.432613164378277
-0.186331926398858 -0.286376625538835 0.445642913381313
-0.182154866786862 -0.289581796109516 0.446129564183337
-0.187820384402012 -0.285234491542541 0.460665907496031
-0.188932262239407 -0.284381317670571 0.468324841571825
-0.186029853089832 -0.286608414541198 0.471925806651947
-0.188051790880674 -0.285056927106269 0.480023227785004
-0.183299560274782 -0.288703441903271 0.490335937453212
-0.181968970065144 -0.289724439681067 0.500294470550287
-0.187159100816993 -0.285741912284033 0.516244282801111
-0.185906377690883 -0.286703160547163 0.521265097509273
-0.188065972094255 -0.285046045478368 0.52946024904859
-0.18486412055026 -0.287502912579577 0.543105686472034
-0.186624877483078 -0.286151836265754 0.549224127150831
-0.184743391033094 -0.287595551596344 0.552629864215725
-0.185057127194795 -0.287354813372366 0.564930075869961
-0.188838165401453 -0.284453520713817 0.574736456096283
-0.182975691662547 -0.288951955029998 0.581826838231989
-0.188641846139972 -0.284604161781411 0.59044991456014
-0.185949610581321 -0.286669986783561 0.600702916428935
-0.187574999227304 -0.285422782209544 0.602121722197092
-0.187028013787405 -0.28584249889961 0.6167854192652
-0.184659332552002 -0.287660051937455 0.629659468619186
-0.186329549767837 -0.286378449191957 0.637221344013913
-0.187918445680299 -0.285159246477235 0.651185685304586
-0.188815841511235 -0.284470650437259 0.653529000275904
-0.185117968075823 -0.287308128522381 0.664569630594547
-0.183458250368253 -0.288581674711825 0.669173569295059
-0.187174795010559 -0.285729869705755 0.686334227076875
-0.187625473347056 -0.285384052055264 0.687468435347547
-0.186548670438548 -0.286210311987697 0.697523934544702
-0.188291992281417 -0.28487261408893 0.707224504681411
-0.183375265373954 -0.288645351337549 0.716976999090704
-0.18773471408993 -0.28530022868507 0.723038456546472
-0.182864150864465 -0.289037543294627 0.733908805301165
-0.187512357744469 -0.285470848709891 0.745403302626772
-0.187185559352014 -0.285721609936049 0.747134367611622
-0.183067370610742 -0.288881607298818 0.755882322277461
-0.184764186650479 -0.287579594557893 0.766090043667816
-0.186247996270501 -0.286441027391427 0.777636298149823
-0.185791964961378 -0.286790952522281 0.782875743760059
-0.184572784989356 -0.287726462218017 0.795470141478077
-0.187450470605704 -0.285518336381674 0.804293581059607
-0.188391588448889 -0.284796191261729 0.811635117554195
-0.181269981707606 -0.290260792312088 0.819328258212955
-0.185444456157064 -0.287057605406391 0.827460452815308
-0.185664207754878 -0.286888984074737 0.847964997206044
-0.183426715944818 -0.288605871925977 0.848520451910187
-0.181980860697939 -0.289715315677619 0.862518785936354
-0.184626007818101 -0.287685622905144 0.867799340714507
-0.186291197171709 -0.286407878174025 0.877146144704276
-0.184692931649026 -0.287634270443536 0.885815025619865
-0.186668483117428 -0.28611837648569 0.899345544524524
-0.183538555269243 -0.284073403110856 0.901868155464892
-0.174640664637347 -0.27580103697579 0.901868155464892
-0.165415163823599 -0.273166846769737 0.902892998858424
-0.169776400287005 -0.269820352330408 0.913417547208636
-0.164476588020802 -0.269552023878433 0.923341206785484
-0.159953158250156 -0.268074803239987 0.923341206785484
-0.156219704159481 -0.264110694320625 0.923341206785484
-0.142052468340672 -0.249792278472721 0.923341206785484
-0.138624196747359 -0.243566167313224 0.923341206785484
-0.126185263275706 -0.2307863396892 0.923341206785484
-0.120664929458641 -0.222399755665399 0.923341206785484
-0.113140351645239 -0.213676575822135 0.923341206785484
-0.100269172685395 -0.201864112100952 0.923341206785485
-0.0929200443024445 -0.196266425198405 0.923341206785484
-0.0918633090608138 -0.194668654397194 0.923341206785484
-0.0788828507120029 -0.178322050019412 0.923341206785484
-0.103071336568971 -0.211802185260173 0.968099774466805
-0.10312170196955 -0.212080311041653 0.975770086919702
-0.102360296104153 -0.212080311041653 0.978439664552902
-0.103071336568971 -0.212080311041653 0.985090444410079
-0.101919063261805 -0.207973725414251 0.998496886407559
-0.0876086217069725 -0.191333571120463 0.998496886407559
-0.0778054419077596 -0.191622121822513 0.998496886407559
-0.0765258807935125 -0.185994095653039 0.998496886407559
-0.0619730673567108 -0.169868862791891 1.0
-0.0364304037215925 -0.142715457149375 0.983504606214489
-0.0268889660905327 -0.142715457149375 0.979924335215755
-0.0332908435515995 -0.142715457149375 0.990277228164241
-0.0265129291592298 -0.137000425007853 1.0
-0.0150818708916652 -0.117532482082084 0.993664851366979
-0.00769581153754295 -0.116234420129266 1.0
0.00521380828228693 -0.0983806258673607 1.0
0.0147601649186017 -0.10333324845795 0.998172466442566
0.0296325084629857 -0.0817240210893453 0.998496886407559
0.034028490062107 -0.0795104580931628 0.998496886407559
0.0506253647896615 -0.0604811987341549 0.998496886407559
0.054928589136466 -0.0520479519089031 0.997717621550028
0.0718651270486465 -0.0479592028472337 0.997271360666087
0.081727515845393 -0.0305796604616105 0.993402325121525
0.170691065980068 0.0502179448007505 0.923341206785484
0.18670969783038 0.0700014344078033 0.923341206785484
0.197333753776225 0.0728314876555676 0.923341206785485
0.21137348887867 0.092253800110143 0.923341206785484
0.224341717689467 0.103950306632684 0.923341206785484
0.22705288269945 0.104412212085569 0.923341206785484
0.248612763974894 0.121482452825889 0.923341206785484
0.25430589285371 0.134550607352137 0.923341206785484
0.27350193912829 0.141973742571022 0.923341206785484
-0.190866117240001 -0.282897418537778 0.328780598048259
-0.196828300005844 -0.278322474794283 0.333795580360066
-0.1937113061457 -0.280714228304537 0.342012381528448
-0.193103487178725 -0.281180624201702 0.353594250177222
-0.189855564647132 -0.283672842815059 0.35926748489334
-0.1959616154984 -0.278987505206909 0.372666442285095
-0.193317829635488 -0.281016153449958 0.374689010377376
-0.191546556729614 -0.282375298953712 0.390129716913809
-0.193369721984793 -0.280976335049866 0.401097420294498
-0.197691695360731 -0.277659968237183 0.404454066809597
-0.195982699368589 -0.278971326984302 0.421334459336878
-0.196807398383685 -0.278338513173059 0.425604918278753
-0.195180270422502 -0.27958705237057 0.433147473608571
-0.193276146832758 -0.281048137789428 0.448625230428674
-0.193518148275762 -0.280862443551081 0.450276376820619
-0.192711707917855 -0.281481247001898 0.461092427272411
-0.195272716949078 -0.279516115655783 0.468347125947852
-0.194989434329863 -0.279733486054732 0.479282878642635
-0.19545842366142 -0.279373617883554 0.491083049782064
-0.19037485531931 -0.283274377067691 0.493301176172793
-0.193676997267901 -0.2807405544324 0.507638973373216
-0.194287778980157 -0.280271885140821 0.51040051508232
-0.195424187111167 -0.279399888512538 0.525501232071542
-0.194721260192779 -0.279939263307594 0.532294849336359
-0.192815537596053 -0.281401575687665 0.537493616382888
-0.195583831586495 -0.279277388998137 0.546283603287679
-0.19384361104925 -0.280612707181401 0.564354007859312
-0.193800268478524 -0.280645965105647 0.561883748682392
-0.19360756728736 -0.280793829930244 0.574359950679442
-0.195262728639138 -0.279523779955564 0.585452165929781
-0.191996243332845 -0.282030242286919 0.595913968678301
-0.192876906104743 -0.281354485974734 0.602996528178895
-0.195392118914812 -0.279424495305057 0.610173073552717
-0.193849614244629 -0.280608100767573 0.623485554589842
-0.194802668302198 -0.279876796668197 0.625925428779712
-0.195595517264032 -0.279268422262391 0.636124388819416
-0.195027619649951 -0.279704185428084 0.648626190013855
-0.193589529282657 -0.280807670978061 0.658320249874588
-0.191686264402468 -0.282268097485902 0.665793137990914
-0.189641903720387 -0.283836790610426 0.671328903863098
-0.191858587042811 -0.282135869673328 0.676790723614767
-0.191961061958002 -0.282057237905311 0.689443050854621
-0.194660772136129 -0.279985677425912 0.701407530118246
-0.195589967255751 -0.279272680933528 0.709757608507222
-0.192608449819358 -0.281560479727603 0.715422950468704
-0.191774403875376 -0.282200465689634 0.728280622689605
-0.190727038147792 -0.283004137678693 0.7317824944251
-0.192326464602945 -0.281776854594368 0.750452653185096
-0.192602146342442 -0.281565316555558 0.747154772539847
-0.189465362504349 -0.283972255449984 0.760880374215931
-0.193325281434062 -0.281010435483804 0.765360131787064
-0.193666946349037 -0.280748266773698 0.778989573876975
-0.193634361390901 -0.280773270091478 0.787430996756708
-0.1914592919332 -0.2824422595871 0.792595817005227
-0.19218587043837 -0.281884736291197 0.803873365797022
-0.189534639974531 -0.283919096977454 0.812586000001438
-0.192699345267208 -0.281490733197382 0.817188079015608
-0.193591895319383 -0.280805855454227 0.831064744781025
-0.191828985624408 -0.282158583640551 0.843207024174814
-0.19425036316711 -0.280300595303949 0.852542557350558
-0.194405686667468 -0.280181411390257 0.859898062810779
-0.194353127534869 -0.280221741431166 0.874223926703845
-0.189842409785914 -0.283682936895094 0.875164792752015
-0.197434930143441 -0.277856991117984 0.887017110918948
-0.189562025275414 -0.283898083497013 0.896126380312625
-0.188685831563989 -0.27721588599171 0.901868155464891
-0.185610522476545 -0.271432669254247 0.901868155464892
-0.174753281587869 -0.266001456992287 0.904635134327542
-0.176528946576792 -0.264638941324677 0.918448700065205
-0.177976065288749 -0.263528528082183 0.920656817879436
-0.168292626444305 -0.261245826097309 0.923341206785484
-0.157386569437299 -0.251960199614694 0.923341206785484
-0.148075280383242 -0.239105850627773 0.923341206785484
-0.136300437781208 -0.233099722029765 0.923341206785484
-0.134188898779376 -0.224367638462809 0.923341206785484
-0.125889652603194 -0.21183950928382 0.923341206785484
-0.121553049939833 -0.212496627351506 0.923341206785484
-0.11215490989021 -0.202973246244204 0.923341206785484
-0.0972364283740624 -0.19148846621403 0.923341206785485
-0.0832459556796829 -0.177762569139075 0.923341206785484
-0.0777736076747479 -0.175081924445023 0.923341206785485
-0.0773165756634738 -0.171386179153959 0.923341206785484
-0.103071336568971 -0.194503161365452 0.96362542400614
-0.103071336568971 -0.192391351621468 0.970489352645133
-0.103071336568971 -0.199273809506577 0.979217860614072
-0.103071336568971 -0.195757173988 0.993975691220643
-0.0949022989401762 -0.193075626749334 0.998496886407559
-0.0870505752632864 -0.183197682748122 0.998496886407559
-0.0767985317738113 -0.170135780025014 0.998496886407559
-0.0791206427660628 -0.166004714422807 0.998496886407559
-0.0632107320127475 -0.150505823634912 1.0
-0.044382049064698 -0.142715457149375 0.989159271358661
-0.046369119683672 -0.142715457149375 1.00006470290608
-0.0150818708916652 -0.103960623664065 0.974930313618826
-0.0150818708916649 -0.114414576069788 0.986138027137456
-0.0124633607712217 -0.110720233206692 1.0
0.000780100849873599 -0.0971059522725228 1.0
-0.000828702963128305 -0.0979982220418412 1.0
0.0190049704397728 -0.0766016684437073 0.998496886407559
0.0232043702625474 -0.0744326734521932 0.998496886407558
0.0449543154155213 -0.0581313890101215 0.99828950214903
0.0550341679787778 -0.0480252802056943 0.997283704032504
0.0719184412246933 -0.0280915911700226 0.992698664987463
0.0761334401211991 -0.0257841214157111 0.992050101739493
0.17615438182594 0.0704571280793266 0.923341206785484
0.183664288561817 0.0795728207665909 0.923341206785484
0.186646696414743 0.0841919816696493 0.923341206785484
0.208358403902719 0.0958205061197137 0.923341206785485
0.209536270524291 0.10268411995991 0.923341206785484
0.231517449406608 0.116719688098387 0.923341206785485
0.241142658135537 0.135750245094798 0.923341206785484
0.247598178205318 0.145845766272237 0.923341206785484
0.264102914670119 0.153102707290242 0.923341206785484
-0.199346750295363 -0.276389999919252 0.332854274621593
-0.200174091886736 -0.275755158387914 0.336595784344984
-0.197564164687866 -0.277757825964268 0.342585406393241
-0.200059347223204 -0.275843205064969 0.351927304567959
-0.202459581588043 -0.274001440459353 0.367286480296007
-0.200713449893634 -0.275341294433039 0.372808581159711
-0.198561111211616 -0.276992841991022 0.376369907570946
-0.196709523054601 -0.278413615554522 0.38958797866095
-0.199370967193236 -0.27637141763995 0.402012958824514
-0.202959331842381 -0.27361796860195 0.406093214003559
-0.201005848380103 -0.275116929183127 0.424115692706446
-0.19950973990383 -0.276264933593916 0.434241723718586
-0.1990092709908 -0.276648956897528 0.438613287120943
-0.199096876226293 -0.276581735036046 0.443554988233967
-0.202090605078932 -0.274284566092725 0.44972052029022
-0.198376306098794 -0.277134647941607 0.462541161311109
-0.203866860442318 -0.272921597414857 0.471993588937106
-0.19908501124724 -0.276590839354685 0.476234838688756
-0.201068883040763 -0.275068560986825 0.491961385886414
-0.203578567925804 -0.27314281204321 0.49928426830549
-0.199936122213116 -0.275937758940804 0.503027324911092
-0.197016328168964 -0.278178195710221 0.511011094760396
-0.201964647011201 -0.274381217117449 0.526952251808851
-0.200629114316035 -0.275406007397777 0.528579341515748
-0.200338665880665 -0.275628876320853 0.54168103734826
-0.19799637005005 -0.277426183125514 0.551015163005942
-0.202390513014982 -0.274054438639484 0.560914819873277
-0.201153394161278 -0.275003713323269 0.565224627636738
-0.199687482039772 -0.276128547256106 0.578554667168413
-0.198541054430063 -0.2770082321008 0.586292776704727
-0.205101071476403 -0.271974553979541 0.598507606985528
-0.198083464707233 -0.277359353044549 0.603533509395705
-0.19845568040455 -0.277073741894649 0.6105040475
-0.200790162138343 -0.275282431057366 0.621625246266204
-0.199373167112377 -0.276369729582621 0.62905512165498
-0.201149567032207 -0.275006649982692 0.640610487046617
-0.200368798530303 -0.275605754725566 0.644416186598827
-0.200660171750142 -0.27538217619041 0.660436752668285
-0.19645075529639 -0.278612175039017 0.669113563037465
-0.198449234678641 -0.277078687874096 0.674161949543089
-0.196411832332789 -0.278642041679439 0.68344786566055
-0.202133771660636 -0.274251443209604 0.690392577739957
-0.200733952607681 -0.275325562147224 0.69812543729471
-0.199643778300824 -0.276162082314477 0.708807963167412
-0.201777385904039 -0.274524907618773 0.714065497178695
-0.200101784646159 -0.275810641685035 0.733159786077296
-0.202906651211535 -0.273658391871742 0.739249302156031
-0.201739228690361 -0.274554186678613 0.751444099817404
-0.196982548149992 -0.278204116030433 0.758581595493634
-0.200101603688198 -0.275810780538963 0.759660651265432
-0.199474005217935 -0.27629235378281 0.774488689759178
-0.202322331821314 -0.274106755909458 0.782457825793537
-0.202364307420361 -0.274074546899473 0.789353931473047
-0.201721841919001 -0.274567528017512 0.797184718449212
-0.196618046296597 -0.278483808139711 0.808025530065844
-0.201107442962513 -0.275038972918212 0.815666167223044
-0.199627718903391 -0.276174405123538 0.827479966376184
-0.202526070501628 -0.273950421721558 0.834263545656906
-0.200314078311169 -0.275647743026496 0.836187626236051
-0.199111557733551 -0.276570469519303 0.85333085992116
-0.198343974611237 -0.277159456764571 0.856243897717939
-0.201890709289381 -0.274437951526831 0.86902134578612
-0.201019255916304 -0.275106641218758 0.87606806637856
-0.202346027124336 -0.274088573863962 0.887304726077283
-0.2037202301158 -0.27303411082165 0.898744400161139
-0.200313283253748 -0.272482647837341 0.901868155464892
-0.192758857965072 -0.264868359239321 0.901868155464892
-0.187322719817152 -0.256356587815223 0.906179216324142
-0.186276473740529 -0.257159400665884 0.917237360363704
-0.181300771998418 -0.260977390896739 0.919003094542151
-0.178100996967513 -0.255221051859832 0.923341206785484
-0.164042226354135 -0.240574594181584 0.923341206785484
-0.157348039587329 -0.237423193920432 0.923341206785484
-0.151222007550763 -0.22727079723885 0.923341206785485
-0.138638021240585 -0.221623483635619 0.923341206785484
-0.138461198458861 -0.20977418946834 0.923341206785484
-0.12623617378318 -0.200672522709192 0.923341206785485
-0.116571618554985 -0.195283813514346 0.923341206785484
-0.103968859812014 -0.1874782588139 0.923341206785484
-0.0917653502715995 -0.170035080233384 0.923341206785484
-0.0949581635737358 -0.167762611304049 0.923341206785484
-0.103071336568971 -0.18368917520724 0.952025839402829
-0.10307133656897 -0.182662315700147 0.957936563307306
-0.103071336568971 -0.180620013339436 0.972305957984363
-0.103071336568971 -0.186661696273013 0.980337548007316
-0.103071336568971 -0.181231387008859 0.987478601021245
-0.10307133656897 -0.183055837855768 0.992739449473779
-0.0999108208903939 -0.178123829247813 0.998496886407559
-0.0879065733189193 -0.167779235661048 0.998496886407559
-0.0737298748020538 -0.159328222445449 0.998496886407559
-0.0659927839104412 -0.143564512773254 1.0
-0.057014155085315 -0.13881890114168 1.0
-0.0226781290338677 -0.10333324845795 0.975006662030758
-0.02405655458525 -0.10333324845795 0.977775938164674
-0.0212539251211236 -0.10333324845795 0.989860781760782
-0.0217293693656524 -0.103333248457951 0.998429421200532
-0.00697068055412576 -0.0918179200045917 1.0
-0.00353432719211165 -0.0793685067066063 0.998496886407559
0.0156058102778959 -0.0749182025973242 0.998496886407559
0.0164996771161997 -0.0661602383926699 0.998496886407559
0.02811250882599 -0.0556456038041866 0.998055823011906
0.0420204501618987 -0.0434206211067328 0.996423545639214
0.0689415396038389 -0.0140307632451021 0.987458492391836
0.155176953380462 0.0637487276959196 0.923341206785484
0.162357036954665 0.0772855558289685 0.923341206785484
0.167124762483744 0.0752910323737395 0.923341206785484
0.180132706112781 0.0905169364287819 0.923341206785484
0.201519692979983 0.106518434277846 0.923341206785484
0.20880601931971 0.121491369332755 0.923341206785484
0.225235602299343 0.12579458488579 0.923341206785484
0.226339742512388 0.141811661280646 0.923341206785484
0.241284632591527 0.142906141910892 0.923341206785484
0.256286158691367 0.161163583306767 0.923341206785484
-0.20725295379796 -0.270323356599256 0.330759820334406
-0.208373460443996 -0.269463561609542 0.338669990828723
-0.209544315192318 -0.268565133162152 0.345675722935267
-0.210411455186283 -0.267899753242427 0.355743840564792
-0.207645607184575 -0.270022063058785 0.366843846588966
-0.208219324917503 -0.269581833958827 0.372647851656385
-0.210075632009741 -0.268157439428975 0.388180227206611
-0.208253159594454 -0.269555871698073 0.389132966496937
-0.209525385299309 -0.268579658579937 0.39614241921271
-0.209436742271729 -0.268647676767295 0.416251551938945
-0.203814157520988 -0.272962037788738 0.419007981672558
-0.206518201440238 -0.270887151912817 0.430335404245212
-0.208156259620749 -0.269630225663031 0.437216468014401
-0.206560497893745 -0.270854696702546 0.437533558101616
-0.206579248273849 -0.270840309029857 0.452879401123977
-0.207714688026632 -0.269969055464322 0.467746339175265
-0.208238036829601 -0.269567475803678 0.464706472220661
-0.204902255380396 -0.272127110935652 0.479295256031429
-0.206289929363071 -0.271062311238229 0.480596846366753
-0.209690248796462 -0.268453154369239 0.496090832512483
-0.205651723449639 -0.271552023859494 0.505168005277346
-0.205964467266748 -0.271312047088302 0.514528474194106
-0.208981740957002 -0.268996811555652 0.516798034980307
-0.204626206371493 -0.272338930790189 0.535818012410498
-0.209068396731082 -0.268930318241536 0.54296557901322
-0.206843878133579 -0.270637251396661 0.555277785513136
-0.207210831350923 -0.270355678289667 0.566173599233632
-0.207334665004862 -0.27026065738498 0.559639624576903
-0.209019620706109 -0.268967745401864 0.580810308894675
-0.209592970378941 -0.268527798724351 0.587471913485592
-0.207897349320783 -0.269828894523661 0.596084361560803
-0.206317223587765 -0.271041367643006 0.605749230042487
-0.205083004611487 -0.27198841717258 0.613360619196073
-0.208366584547788 -0.26946883767027 0.627080353206745
-0.204101816662996 -0.272741309165736 0.630805365598249
-0.204255038319197 -0.272623738053791 0.637214300809012
-0.20788977785271 -0.269834704315452 0.639813932755769
-0.20830965814253 -0.269512518837353 0.650190099606479
-0.208597745813568 -0.269291461392461 0.663191123336688
-0.207709232114095 -0.269973241933256 0.675726078261988
-0.205492772327642 -0.271673991345171 0.683150554000148
-0.209878398916386 -0.26830878170443 0.692790040181309
-0.211192602785047 -0.2673003576083 0.697325710654994
-0.209613002574052 -0.268512427480413 0.714636447084293
-0.203881955840512 -0.272910014308427 0.722640942012122
-0.208632230794586 -0.269265000135846 0.726942896621165
-0.211037629560365 -0.267419272746013 0.740082161623912
-0.203029753233462 -0.273563932368044 0.743884580039481
-0.208419327414654 -0.2694283666451 0.758777032338371
-0.208453264892545 -0.269402325502411 0.759329099488705
-0.208401727206675 -0.269441871759676 0.777034440452198
-0.210554619414432 -0.267789899466454 0.781610447743015
-0.207435808370936 -0.270183047350536 0.788378507558753
-0.20787674672133 -0.269844703454244 0.801362593133332
-0.206815265625631 -0.270659206546203 0.808298800710584
-0.204345814855345 -0.272554082767729 0.815131382310852
-0.207275634142647 -0.27030595335868 0.82512475109034
-0.208509310182309 -0.269359320439026 0.833850170702309
-0.206547242866682 -0.270864867642537 0.840297944326125
-0.21091050062205 -0.267516822211335 0.852787806656302
-0.20854059688553 -0.269335313307279 0.86474416206541
-0.203176060201851 -0.273451667082669 0.870342383724248
-0.208475374455384 -0.269385360238151 0.878513220783308
-0.205968107820287 -0.271309253593321 0.886716015683933
-0.203673498143542 -0.273069969525165 0.900954868935225
-0.206749881864447 -0.269855154682254 0.901868155464892
-0.20026808656419 -0.263315148637418 0.901868155464892
-0.19230956792232 -0.252530044679176 0.902992917735822
-0.191633796037944 -0.253048582683776 0.908731154587673
-0.189575730597464 -0.249611017822836 0.923341206785484
-0.176747734159482 -0.246125900971865 0.923341206785485
-0.174005049143033 -0.235359865884472 0.923341206785484
-0.162011864295794 -0.231378336272257 0.923341206785484
-0.16338437658694 -0.223816658459696 0.923341206785484
-0.152940408559748 -0.213201954209302 0.923341206785484
-0.146074463097788 -0.212164997552626 0.923341206785484
-0.13434781385396 -0.19673647733676 0.923341206785484
-0.121123544040335 -0.187974288054419 0.923341206785484
-0.113016001053981 -0.173157288642239 0.923341206785484
-0.100729275990366 -0.174775284815341 0.923341206785484
-0.0901700782611366 -0.157281887460253 0.923341206785484
-0.0812251281476152 -0.151955554178263 0.923341206785484
-0.0829796299893754 -0.150603315504978 0.923341206785484
-0.103071336568971 -0.168149957495762 0.952419303658192
-0.103071336568971 -0.172317864494531 0.96777815225435
-0.10307133656897 -0.172090805611367 0.980903564242081
-0.103071336568971 -0.169107811750567 0.983601965806368
-0.101723384169718 -0.172924886210116 0.998496886407559
-0.0926522499068591 -0.163700897869749 0.998496886407559
-0.0833057445007693 -0.146396653790451 0.998496886407559
-0.0813121406823268 -0.148439103043617 0.998496886407559
-0.0640022584082753 -0.132319299998266 1.0
-0.0644523218843468 -0.126863273006881 1.0
-0.0275538369924066 -0.10333324845795 0.981663959142984
-0.033989084870996 -0.100438295268393 1.0
-0.0278224516311671 -0.0954109222363052 1.0
-0.0240659864613215 -0.0904181449791916 1.0
-0.00686679976032539 -0.0739125942248261 0.998496886407559
0.00776348758750457 -0.063797402844872 0.998496886407559
0.0192216889558965 -0.052541334540926 0.997764002559718
0.0287144408358371 -0.0474716677354741 0.997180288252387
0.0411495062507744 -0.0352744880834529 0.994730086789961
0.0569226286358214 -0.015864237467446 0.988241766223169
0.0682341768285109 -0.00613789442243047 0.983572513944472
0.150794819427875 0.0824811944759507 0.923341206785484
0.165945961897388 0.0950685516782424 0.923341206785484
0.168904412591144 0.0992588968898959 0.923341206785484
0.187261905890898 0.106719484588636 0.923341206785484
0.207387566819427 0.12768282506936 0.923341206785484
0.210669281430042 0.131016298116481 0.923341206785484
0.231870037347597 0.1492565293231 0.923341206785484
0.236547318427422 0.157971244778411 0.923341206785484
0.239033623459776 0.164098307591319 0.923341206785484
-0.210596752724859 -0.267757569440271 0.32943872027689
-0.215092792630538 -0.264307636681613 0.343151846906622
-0.215601862521613 -0.263917013615424 0.351218718707898
-0.213872101570619 -0.265244305875874 0.350182515175906
-0.216703891913534 -0.263071396721457 0.370453665364219
-0.218642834046043 -0.261583594095054 0.371967627442794
-0.21345343660032 -0.265565558806506 0.389168488522637
-0.216265060874592 -0.2634081236208 0.390201632835312
-0.217017595898367 -0.262830683187658 0.402574206397977
-0.215875235160126 -0.263707247412118 0.41513500408279
-0.213937600052032 -0.265194047123414 0.41377406905871
-0.215132762665931 -0.264276966594746 0.424110837240988
-0.217861171922398 -0.262183384538007 0.436564493820439
-0.217069455798289 -0.262790889686854 0.450857850624839
-0.215011031853587 -0.264370373932325 0.445746390853345
-0.21409992766153 -0.265069488767752 0.466539854128782
-0.217720780711088 -0.26229111050332 0.472884699167655
-0.214450995723585 -0.26480010476912 0.482034411214122
-0.213352638047341 -0.265642904256555 0.480822030840337
-0.21545053669584 -0.264033130005518 0.502981796455353
-0.212648270563669 -0.266183384436232 0.500692204521731
-0.210778404685322 -0.267618182988589 0.510602344013949
-0.214983520711379 -0.264391483974212 0.523563368800627
-0.215246452735044 -0.264189729136451 0.536202993656829
-0.214828857153711 -0.264510161496068 0.543529071399035
-0.212284982656453 -0.266462145051845 0.558574742249485
-0.216651822245056 -0.263111351183336 0.561758519751538
-0.217251051242698 -0.262651546601465 0.571931653575917
-0.21870845926374 -0.261533238094423 0.576827161990544
-0.217907639581616 -0.262147728649021 0.585015789621628
-0.21692842123168 -0.26289910931605 0.597822014892856
-0.214729198374857 -0.264586632366672 0.606911757124012
-0.216679385937847 -0.263090200817968 0.616800844480779
-0.214170752663347 -0.265015142832434 0.627536311677808
-0.218529272112616 -0.261670733231379 0.636362791435644
-0.215598688187758 -0.26391944936746 0.638811646894734
-0.213958708655777 -0.265177849922082 0.643720538060123
-0.214852100443526 -0.264492326292503 0.66552226132668
-0.216938802560454 -0.262891143442312 0.666709441830064
-0.216567034566063 -0.263176411057674 0.673176101666004
-0.21743598538631 -0.262509641642073 0.690106086499602
-0.213923500577508 -0.265204866030733 0.68635604372714
-0.218363878763111 -0.261797644012086 0.703100033659472
-0.213075999694391 -0.265855176330684 0.710500178974903
-0.213439291506562 -0.265576412718694 0.715446546416901
-0.212977469431655 -0.265930781260415 0.735010263036892
-0.213243134829277 -0.265726929031047 0.733925368570237
-0.214689159112691 -0.26461735557311 0.743578149973338
-0.211574530835506 -0.267007293907717 0.754924279082224
-0.215609543206299 -0.263911120018779 0.763980303021361
-0.213813115801342 -0.265289567248546 0.781981144054757
-0.21674466238207 -0.263040112440637 0.788820297817558
-0.217671819601958 -0.262328679683717 0.792511410461147
-0.211227340703565 -0.267273702265915 0.802499218713916
-0.215272656790289 -0.264169622057667 0.810052296953364
-0.216723303154894 -0.263056501952091 0.819939130310326
-0.218221002114725 -0.261907277120345 0.826432981854867
-0.217734148456629 -0.262280853071398 0.831335860356725
-0.213500444614571 -0.26552948828852 0.841619704237601
-0.21733791118023 -0.262584896627222 0.85057559415966
-0.2150310087793 -0.264355045098089 0.862813340377213
-0.213685827109003 -0.265387239297443 0.870794015664682
-0.216265002910965 -0.263408168097855 0.879373868030084
-0.215813790163832 -0.26375439581605 0.887387895620372
-0.213810643303155 -0.265291464463133 0.892628311497312
-0.211149049707981 -0.26143566651612 0.901868155464891
-0.201716349335764 -0.251245024979898 0.901868155464892
-0.199682354895347 -0.246872706258153 0.908343134668725
-0.19477812759051 -0.250635852224338 0.91695417618118
-0.200153719238234 -0.246511015676684 0.921971933011682
-0.190231007900362 -0.238960306188988 0.923341206785484
-0.181722213001168 -0.23292298608521 0.923341206785484
-0.17199899827777 -0.222813822215687 0.923341206785484
-0.161111305990447 -0.21104418997427 0.923341206785484
