ply
format ascii 1.0
element vertex 848
property float x
property float y
property float z
end_header
0.096284587016715 -0.25196054284169 0.923341206785484
0.0806239298417859 -0.273902338935997 0.923341206785484
0.0789660824446698 -0.280187272880415 0.923341206785484
0.064676472361298 -0.283992884931228 0.923341206785484
0.0463830241704076 -0.311042594381325 0.923341206785484
0.341407008101738 0.0164206001964328 0.240995493470304
0.341015062360417 0.0193977236730369 0.255314053296807
0.340370197183719 0.0242959609910942 0.266388630360569
0.340962232540348 0.0197990059961028 0.279439589059841
0.341449750638991 0.0160959383933049 0.284598673866803
0.341174831520846 0.0181841564156192 0.282372929810692
0.340458367547297 0.0236262405893229 0.298597579226569
0.341656734997393 0.0145237361017072 0.306924968378923
0.341220587063721 0.0178366085626495 0.318271685912138
0.342054406573674 0.0115031205906518 0.320708708244327
0.341814727981538 0.0133236602426012 0.33263573140688
0.341537888470463 0.0154264650974173 0.348936155559102
0.341445447801635 0.0161286216878504 0.360426528913104
0.341912236188928 0.0125830118752969 0.356043986420662
0.341910247300441 0.0125981189832006 0.371359507943896
0.341214487140551 0.0178829420791525 0.380644367507172
0.341472114200176 0.0159260702814626 0.386423817648524
0.341677987739937 0.0143623054951194 0.400976921772971
0.340729520530848 0.0215666291993413 0.417209887549447
0.340975335762619 0.0196994771416456 0.419189294508342
0.340674811496313 0.0219821855734114 0.434074139343305
0.341309133692293 0.0171640301445063 0.433636066490879
0.341748425281654 0.0138272792479309 0.448202551493195
0.341911590381458 0.0125879172700393 0.451199127394346
0.341172720109359 0.0182001941781084 0.466818733566731
0.342169862509271 0.0106261456930074 0.465468720315715
0.341018474814654 0.019371803509732 0.484535590066864
0.341734184983994 0.0139354450474514 0.48835747066115
0.34068046921694 0.0219392109186942 0.505018425279237
0.341072567744536 0.0189609269151115 0.514210068007609
0.341418733660141 0.0163315357379721 0.519215064364059
0.341443715026221 0.0161417834238235 0.530956208778678
0.341579159272141 0.0151129822358372 0.539453816293914
0.340529506643796 0.0230858855045231 0.549655337927382
0.341443947905096 0.01614001453315 0.556948255642448
0.340969077265348 0.0197470151480344 0.565134211583539
0.342237200379248 0.0101146637901866 0.569801925216679
0.341134566113789 0.0184900025468762 0.57950714238937
0.341591453632076 0.0150195973007926 0.593602638737857
0.341432308860375 0.0162284218549612 0.606501556365375
0.340995004456703 0.0195500785776665 0.610387809800815
0.341375707611963 0.0166583510203745 0.618988334510028
0.341962185949575 0.0122036057754311 0.623526601766133
0.340733041088567 0.0215398879085704 0.64385726651756
0.341833455059086 0.0131814139662972 0.644421281646627
0.341365674669236 0.0167345587863531 0.652390150222351
0.341279522787337 0.0173889472976023 0.671831011285267
0.340289048116895 0.0249123493491676 0.679406902134379
0.342154898323163 0.010739809971175 0.683951432308178
0.341006774874404 0.0194606733790074 0.697635307819242
0.341316377014723 0.0171090116483669 0.697214899195026
0.340913530328942 0.0201689360186867 0.71262615984854
0.341028075205645 0.0192988813003788 0.727607626734461
0.341249400730714 0.0176177470330811 0.725098523275693
0.341099654597014 0.0187551818439994 0.734799346662811
0.34071191680855 0.0217003427453832 0.744388200562136
0.341917795276763 0.0125407864110059 0.756563606505483
0.340507264846927 0.023254828724557 0.770008583830029
0.340179517715353 0.0257443153471464 0.78158854061156
0.341674501540852 0.0143887858061573 0.784100813554058
0.341034720247985 0.0192484071926966 0.791539787924002
0.341317671518153 0.0170991789186164 0.802658686768663
0.341211116120522 0.0179085475184036 0.81369670516769
0.341361495885754 0.0167662997981751 0.821036715222233
0.340503596407898 0.0232826932854027 0.836291867560297
0.340971699181561 0.0197270997171737 0.842203605634908
0.341294419287153 0.0172757971478665 0.851777973533443
0.341795800534059 0.0134674284796372 0.85702226029306
0.341616736441388 0.0148275552979806 0.865402879491458
0.341255712585935 0.0175698037328351 0.875303719875109
0.341667601799033 0.0144411945484554 0.876523032644985
0.340804919990838 0.0209939134410274 0.895342076342972
0.337089139461025 0.0139104191264964 0.901868155464892
0.334961855525092 0.00721070167895413 0.901868155464892
0.322647026701976 0.00268478945866187 0.901868155464892
0.319084136471992 -0.00813533576244739 0.909192590329863
0.319145309852361 -0.0076706778069265 0.919929495508726
0.315630845894138 -0.0129970975725926 0.923341206785484
0.308054225455166 -0.0226305903314877 0.923341206785484
0.303525168007455 -0.0277503363445347 0.923341206785484
0.28580529935997 -0.0461219904480601 0.923341206785484
0.283756789174795 -0.0467135500806699 0.923341206785484
0.276109549820347 -0.0585906663728107 0.923341206785484
0.267288642107766 -0.0635232397874757 0.923341206785484
0.26633163558211 -0.0756363543593867 0.923341206785484
0.257405686669532 -0.0851611007513444 0.923341206785484
0.240554981629678 -0.104172881143033 0.923341206785484
0.235038406626882 -0.104542642025674 0.923341206785484
0.222906862921682 -0.121872823859806 0.923341206785484
0.214788590620857 -0.130892528140851 0.923341206785484
0.20648664932206 -0.133420677320602 0.923341206785484
0.199377875109039 -0.148509721910861 0.923341206785484
0.190180331498049 -0.158740488069459 0.923341206785484
0.177065826766091 -0.17520392032832 0.923341206785484
0.174551338427289 -0.176375951937122 0.923341206785484
0.168596964480391 -0.190274333742458 0.923341206785484
0.151671125698591 -0.20473913172611 0.923341206785484
0.142868461195252 -0.225853963417531 0.923341206785484
0.136576366571196 -0.232470177115763 0.923341206785484
0.122888299308453 -0.236966590639517 0.923341206785484
0.116467373690383 -0.249406208005301 0.923341206785484
0.105965793366969 -0.266615412087151 0.923341206785484
0.0938143430766071 -0.276690778263467 0.923341206785484
0.0781784352911077 -0.293703607872046 0.923341206785484
0.0777908392197354 -0.300659833588365 0.923341206785484
0.342721520425716 0.00643588780534564 0.238210478195821
0.342894624615005 0.00512103094762811 0.251027594735436
0.342631727412847 0.00711793345213912 0.257311278390495
0.342723671823401 0.0064195463175307 0.262697325833078
0.342615380389621 0.00724210142103993 0.274696227163321
0.34272614100409 0.00640079102815683 0.289771444758452
0.342985244259794 0.00443270640802811 0.292796246125444
0.342996663171935 0.00434597115917049 0.298818859565894
0.343239690889282 -0.00249999237562764 0.301020351002796
0.342476940136245 0.00829365954499174 0.316573932863959
0.342969252594323 0.0045541751667976 0.324323109978295
0.342478187083291 0.0082841880418345 0.345175352416067
0.342343444456371 0.00930765990442783 0.347932174224854
0.342691933408273 0.00666062351477251 0.352629663019845
0.343358250434851 0.0015994432197694 0.356527087719085
0.342669252544852 0.00683290177638166 0.383707884873928
0.342405827193402 0.00883381597305883 0.392418881290177
0.34287621445491 0.00526086999688523 0.39662890791264
0.343098103479847 0.00357545552315353 0.402566999908741
0.343519272044238 0.00037636266803347 0.406929141550647
0.343125214869955 0.00336952407023514 0.415786388920684
0.343345285583956 0.00169792103927017 0.427867747739614
0.343173091771427 0.00300586289897348 0.438980758365315
0.343055884806479 0.00389613818501785 0.443890923227233
0.342792387091072 0.0058976020405147 0.457008684012727
0.343094229141148 0.00360488404725498 0.469795925669769
0.343119976037266 -0.00340931695518399 0.468350489735516
0.34323701845282 -0.00252029154587138 0.481057786714338
0.342978145045271 0.0044866302959392 0.49831100857408
0.342972635323287 0.00452848078935161 0.510431484221168
0.342782875075545 0.0059698529715736 0.512494843934931
0.342037148145413 0.0116342113680979 0.52395192790842
0.343353230964034 0.00163756988586834 0.529484704959822
0.34333898567656 0.00174577358678576 0.535717984416424
0.342805587494622 0.00579733502096079 0.541630049926869
0.342655691620682 0.00693590722192247 0.557728900989026
0.34293262512837 0.00483238839194489 0.561315746702112
0.342624593302884 0.00717212239723317 0.57756725072655
0.343252050420015 0.00240611241923132 0.589844592811888
0.342890621164268 0.00515144017502917 0.597290311774823
0.342807105713086 0.00578580300681872 0.606861541026572
0.343094199207402 0.00360511141663127 0.61320748077511
0.342691545244818 0.00666357190893704 0.629479550809872
0.342544337672726 0.00778172443007773 0.630389276432991
0.342838697228739 0.00554584162187355 0.649929244529915
0.343360016135629 0.00158603139082315 0.6474698589651
0.34332614031508 0.00184334379407939 0.656547713353563
0.342831569164778 0.00559998464302027 0.674319065145666
0.342661240667017 0.00689375803039894 0.68045328134686
0.343042591837688 0.00399710830738454 0.689082326654162
0.342976517495718 0.00449899276214736 0.698151375935234
0.342759706415016 0.0061458364200745 0.707478581910403
0.342779596619956 0.00599475531409566 0.715233886168255
0.343294336563263 -0.0020849172727446 0.715043472729226
0.343097744227306 0.0035781843171135 0.729409906586104
0.342109410799704 0.0110853220145697 0.747798696624303
0.343263874876406 0.00231629675596625 0.747360852756552
0.342867495007582 0.00532710077478206 0.758929840876194
0.342011791483853 0.0118268143344258 0.76922381142397
0.343497065857969 -0.000545035398708625 0.773094362224455
0.343502097067555 -0.000506819567802539 0.783072047343342
0.34332047149605 0.00188640274953517 0.799368816946455
0.343024995647305 0.00413076464285629 0.798739289082675
0.343111813698975 0.00347131606982056 0.816778627557011
0.343496342435907 0.00055053033481429 0.81919481521123
0.343549658898081 0.000145551597977203 0.829075609717888
0.342591527368095 0.00742328310739647 0.846464803107004
0.342916856414966 0.00495216366164143 0.855231301981135
0.342320751033432 0.00948003356503971 0.865516735185634
0.343568821129483 -6.67516527582229e-017 0.868530826141057
0.343168570841914 0.00304020276791334 0.877575095000547
0.342897410062771 0.00509987337130199 0.885912016839565
0.342509820107047 0.00804391137154574 0.901137818428748
0.332326197652682 -0.000563080343351409 0.901868155464892
0.328757474394868 -0.00714552708374312 0.901868155464892
0.329336527381189 -0.0185541369172042 0.901868155464892
0.315530012685335 -0.0351315861320807 0.902064481586314
0.317315027042347 -0.0215730559885345 0.919901675472959
0.312761512146542 -0.0292959442226869 0.923341206785484
0.31268447414523 -0.0330488269305805 0.923341206785484
0.295575264870068 -0.0414214044605664 0.923341206785484
0.287293066313157 -0.0572806719745058 0.923341206785484
0.287960299923215 -0.066959620500775 0.923341206785484
0.271241731231918 -0.0750489214742951 0.923341206785484
0.27491573766615 -0.0806692801252931 0.923341206785484
0.26129607127101 -0.0925285910485135 0.923341206785484
0.253100158414403 -0.102718792510125 0.923341206785484
0.240175393075534 -0.123304743154599 0.923341206785484
0.235518697228224 -0.129390702088263 0.923341206785484
0.223942588032136 -0.135015066031664 0.923341206785484
0.21391902486249 -0.147301043245554 0.923341206785484
0.201218387293692 -0.164009100982896 0.923341206785484
0.19301830459064 -0.17641956574255 0.923341206785485
0.18913544669754 -0.184324292827813 0.923341206785484
0.181245989587673 -0.189051393689813 0.923341206785484
0.174038619929305 -0.200369245593093 0.923341206785484
0.156476341011258 -0.212627274491358 0.923341206785484
0.144174927725625 -0.223055261446239 0.923341206785484
0.138841886283476 -0.240091257328233 0.923341206785484
0.130098513080517 -0.257556321971471 0.923341206785484
0.120642896247706 -0.260086113186302 0.923341206785484
0.11698000291022 -0.266230650355774 0.923341206785484
0.105440094823052 -0.277409373747011 0.923341206785484
0.0887279392927203 -0.299536674062997 0.923341206785484
0.342167171160766 -0.0106465885144817 0.217727437656295
0.341939160271303 -0.0123785031658655 0.226508979720451
0.341555577282194 -0.0152921052329611 0.239133022421855
0.342320659793485 -0.00948072660125175 0.25542060684539
0.343168098554552 -0.00304379014659433 0.264386803441051
0.342271653652104 -0.00985296520119426 0.272136860174099
0.342217222045987 -0.0102664142972147 0.282554880308486
0.342000619185305 -0.0119116763670689 0.287565821542808
0.342192926541342 -0.0104509569765499 0.307043008854577
0.342646342107884 -0.00700692382221156 0.308524105537989
0.342904340839224 -0.00504722889755838 0.319704992627122
0.341389429822963 -0.0165541204797353 0.324311076734198
0.342187484208043 -0.0104922956020841 0.328238545697047
0.341367600999374 -0.0167199268562892 0.342873443053836
0.343183577732255 -0.00292621411889323 0.363205794722849
0.342939604735502 -0.00477937301237199 0.366890562372591
0.341766645150806 -0.0136888856018904 0.373724585868179
0.341961006970748 -0.0122125610087066 0.375231276290495
0.342640601495789 -0.00705052810013812 0.388165729067883
0.341816284784352 -0.0133118351512241 0.396616688845214
0.343498496616445 -0.000534167709130224 0.414621863231635
0.341469531343134 -0.0159456890284621 0.409341317873028
0.342773228381498 -0.00604312688756053 0.432099985784094
0.341598080006842 -0.0149692649874165 0.430878817051629
0.342718843750339 -0.00645621917335375 0.455924615291527
0.341168040740791 -0.0182357375111572 0.452916912637687
0.341284406721394 -0.0173518501354084 0.458991921020296
0.341872071459603 -0.0128880932832508 0.471964454682213
0.342371476312174 -0.00909473682042444 0.482454492901832
0.341988584662174 -0.0120030876456347 0.498044782281222
0.34108383457043 -0.0188753468759938 0.496368003847489
0.341574535059635 -0.0151481066169975 0.500979566435534
0.342189041138596 -0.0104804695404362 0.513107731057515
0.342341339550242 -0.00932364825381169 0.52194421000146
0.341658507857267 -0.0145102698940274 0.54057508744743
0.343058104807826 -0.00387927560066009 0.547472400150812
0.342319203977913 -0.00949178461836888 0.551619027565079
0.342174727280764 -0.0105891940849336 0.571668561674914
0.342097750557358 -0.0111738903483213 0.577933486808826
0.341786579890987 -0.0135374662171697 0.590143866135364
0.34323885456327 -0.00250634490237644 0.595248087647978
0.342545261887052 -0.00777470432530813 0.600219181912623
0.34275564110801 -0.00617671549248362 0.619951068813097
0.342623650357226 -0.00717928478059377 0.623981513622899
0.342320679858917 -0.00948057418915723 0.633123960098466
0.341369548092866 -0.0167051372128839 0.63206568494948
0.341945474550177 -0.0123305414561408 0.649057539002294
0.34093062230208 -0.0200391095934283 0.656979478933466
0.341434843112478 -0.0162091722991293 0.663006131669749
0.341898252687701 -0.0126892271122562 0.668708207905323
0.342544459942635 -0.0077807956979152 0.696299817011448
0.341985423284065 -0.0120271006964168 0.687687688001115
0.343032182745217 -0.00407617321433361 0.709808955957014
0.342777623211954 -0.00600974483605098 0.712909969032235
0.342105123493357 -0.0111178873393887 0.721022569860562
0.341941524940466 -0.0123605417203479 0.733040079271836
0.343406889418413 -0.00122999346033463 0.747074601523616
0.343554107191695 0.000111763453462625 0.75999012900915
0.342540332692735 -0.00781214527331783 0.766200987482465
0.342526855737716 -0.0079145129098313 0.773782548672456
0.342043311974366 -0.0115873924389795 0.777103278231072
0.341237112060702 -0.01771108874887 0.779567397591035
0.341995629649516 -0.011949575654065 0.798321684016457
0.342907076071013 -0.00502645274944312 0.804717793489691
0.341933851241647 -0.01241882924971 0.811165488099626
0.343460963231006 0.000819262075942083 0.836277384630079
0.342628460927317 -0.00714274487304399 0.84073801152575
0.341976860672154 -0.0120921401910503 0.835787338567206
0.341230848020817 -0.0177586688555853 0.850267665259692
0.341401520088248 -0.0164622857974719 0.854888461404541
0.342770516219205 -0.00606372780544782 0.871905291474411
0.342510936041592 -0.00803543500713886 0.874921717376641
0.342454650502084 -0.00846296612534184 0.889153217595547
0.342010530919789 -0.00642744094508624 0.901868155464892
0.339364115552609 -0.0177988013964653 0.901868155464892
0.331310734909775 -0.0218282628311076 0.901868155464891
0.318499544431468 -0.0376012352431968 0.901868155464892
0.319393156362443 -0.0454802628546206 0.901868155464892
0.314725485822056 -0.0412425743626293 0.910967381047271
0.310902424029001 -0.0452239618663205 0.923341206785484
0.303926969591858 -0.0494557641274279 0.923341206785484
0.292352311690857 -0.0703496938732667 0.923341206785484
0.292029501629644 -0.0748736556869315 0.923341206785484
0.284674654631634 -0.0816508501981174 0.923341206785484
0.269971783170285 -0.0884022363840486 0.923341206785484
0.259810025472575 -0.108487317310762 0.923341206785484
0.256405471445927 -0.114945807932591 0.923341206785484
0.249907368202585 -0.129915792581785 0.923341206785484
0.232621688222665 -0.139545561217321 0.923341206785484
0.231988753156388 -0.146846516762551 0.923341206785485
0.221116367965572 -0.162471525548753 0.923341206785484
0.212954748130241 -0.173633415851482 0.923341206785484
0.201525287818265 -0.184896204586881 0.923341206785484
0.195058785883399 -0.186442793444493 0.923341206785484
0.1807222457672 -0.206656452316579 0.923341206785484
0.166730539840558 -0.216673436681958 0.923341206785484
0.160872732930134 -0.224680026604267 0.923341206785484
0.154444803377554 -0.233178651908867 0.923341206785484
0.14619929850146 -0.241753965069311 0.923341206785484
0.131612053217424 -0.260177691716533 0.923341206785484
0.1206328244185 -0.277839307205158 0.923341206785484
0.124644139011244 -0.280559549584717 0.923341206785484
0.101500248121268 -0.297747821687717 0.923341206785484
0.103345327542609 -0.300530539190344 0.923341206785484
0.0722122890459004 -0.334061892920087 0.902017928595152
0.341200044401526 -0.017992645573508 0.222702151611697
0.339337175817318 -0.0321425372834662 0.212569835639696
0.339480431404758 -0.0310544030660032 0.229591462309509
0.340971466989205 -0.0197288633932195 0.25214050856197
0.340785595098249 -0.0211407005733893 0.252523001481615
0.340063814334353 -0.0266231697792356 0.256396437608004
0.340600457754834 -0.0225469583110511 0.273571575419301
0.340073412519026 -0.026550264328527 0.279543675445286
0.339861228893385 -0.0281619589756498 0.282322120832961
0.34103032366696 -0.0192818025411012 0.306718489187627
0.341032653700162 -0.0192641041818202 0.313757480273744
0.339405703481909 -0.0316220179933128 0.312410239281673
0.338848968328541 -0.035850841324208 0.321428476227852
0.339610565914548 -0.0300659333280543 0.330786193058099
0.340041399019057 -0.0267934310025864 0.333390112928248
0.340322849907267 -0.0246555992609368 0.361626689380476
0.338837653612316 -0.0359367851265119 0.349543688743657
0.340445149096956 -0.0237266446878719 0.37537629517806
0.340761550808615 -0.0213233350852608 0.383425556800118
0.33990129228844 -0.0278576472778882 0.389360283491157
0.340943059769133 -0.0199446376519144 0.40060698679922
0.340615363552799 -0.0224337375348549 0.412508033761171
0.341320553364559 -0.0170772891219295 0.424255595192804
0.341226145288343 -0.0177943896551169 0.429587349733062
0.340618845118066 -0.0224072924211619 0.445134400113347
0.339874508063478 -0.0280610936648024 0.448745095538791
0.341326471256503 -0.0170323382698551 0.459844356053461
0.340718779843145 -0.0216482128221325 0.459247442308432
0.339712462986577 -0.029291948224112 0.470782902571977
0.340379087643234 -0.0242284312466684 0.476922783003031
0.340936117211476 -0.0199973716127841 0.491044302624833
0.34006912931854 -0.0265827984662406 0.495360201562766
0.341158215226223 -0.0183103697038422 0.516619709579608
0.33992104545995 -0.0277076070441499 0.507490653746655
0.339692577539176 -0.0294429931929977 0.52344289120894
0.33996309473704 -0.0273882110747571 0.541842359106983
0.340053893051545 -0.0266985294039243 0.542432874789117
0.34043863012853 -0.023776161169103 0.554507590814631
0.339808789618289 -0.0285602748151267 0.563441834092703
0.3412123645941 -0.0178990644200928 0.581481074337055
0.340301359765574 -0.0248188330930769 0.579968478194927
0.339887856210968 -0.0279597044186064 0.592161050239995
0.340487116536988 -0.0234078703326493 0.597914384206755
0.340805728207584 -0.0209877744253538 0.614944817711621
0.34004809935749 -0.0267425368793793 0.618975883412634
0.33915291017343 -0.0335421738058684 0.623955102248427
0.340890612794485 -0.0203430119752925 0.644247636519101
0.340635678101381 -0.0222794332189162 0.654873640756837
0.340025054024483 -0.026917583562344 0.654301098378274
0.339687272215939 -0.0294832911237899 0.660205500642946
0.339314899530626 -0.0323117424797264 0.673510563905135
0.340504081374382 -0.0232790095992397 0.684562569828237
0.339000438125168 -0.0347003139935282 0.690174558314225
0.33899837119566 -0.0347160138818355 0.697495520204067
0.34026706886543 -0.0250792983388791 0.716152113042066
0.340739872571045 -0.0214879976474379 0.725349075708872
0.340782165942339 -0.021166747598493 0.734382052220469
0.339265617872929 -0.0326860738338613 0.737455516649486
0.340081003720112 -0.0264926034316571 0.754144621934158
0.340808553083233 -0.0209663173645242 0.766300658483777
0.339273269429577 -0.0326279544909815 0.762463192582742
0.340786589142517 -0.0211331500575472 0.78736161405664
0.340579275948474 -0.0227078501038269 0.781620330818785
0.339647436344735 -0.0297858746063232 0.800397434361144
0.340023024919142 -0.0269329961475784 0.805651246651641
0.339575337383182 -0.0303335205900619 0.815615828045703
0.339943973425356 -0.027533451856622 0.824369102097929
0.340232061762459 -0.025345203685242 0.828591202801606
0.339067606965341 -0.0341901159995381 0.834612795123824
0.340525146451 -0.023119004456885 0.85217840966362
0.340351916664857 -0.0244348153174247 0.857725124524488
0.339155750932727 -0.0335205960967481 0.869027482825951
0.341034598780587 -0.0192493298291866 0.889112201720935
0.338991026958854 -0.0347717988987633 0.879057349423338
0.340299265153008 -0.0248347432550937 0.892674807354766
0.339203611028171 -0.0331570625799468 0.900954064155329
0.320905855329718 -0.0465756367410913 0.901868155464892
0.322639736012657 -0.0518204452300256 0.901868155464892
0.31343858567674 -0.0544710777827937 0.901868155464892
0.31240935021556 -0.0588353709213021 0.908298207270837
0.311063096283489 -0.0690611847626004 0.913960591078957
0.309210988280926 -0.0676339393419834 0.923341206785484
0.292274024598469 -0.0813896110714342 0.923341206785484
0.290265390429896 -0.0865323458034827 0.923341206785484
0.28117432126356 -0.09394678621808 0.923341206785484
0.272835263602712 -0.111737080246385 0.923341206785484
0.258013757085149 -0.12617550209056 0.923341206785484
0.258637541268275 -0.127744936818932 0.923341206785484
0.248120132574813 -0.141296365361734 0.923341206785484
0.23459386887075 -0.153821447173872 0.923341206785485
0.228263401914805 -0.158667998338749 0.923341206785484
0.223171176897837 -0.172285446177464 0.923341206785484
0.210297918110405 -0.179633736148379 0.923341206785484
0.200813135546366 -0.194789082245423 0.923341206785484
0.191109129773649 -0.204872646773911 0.923341206785484
0.181572330322392 -0.209038386784024 0.923341206785484
0.168765468650753 -0.231139148163605 0.923341206785484
0.16166842155259 -0.235034439872825 0.923341206785484
0.157397006887638 -0.245294180999506 0.923341206785484
0.138018417967008 -0.265942239180555 0.923341206785484
0.134544127663661 -0.274236125805735 0.923341206785484
0.12127686288995 -0.281942604530728 0.923341206785485
0.0881082119460734 -0.331969154968822 0.902008758338159
0.33718518597288 -0.0484885229949047 0.194147693310209
0.337964314613916 -0.0425704534154097 0.209309128592028
0.338475842248329 -0.0386850152825474 0.224574513952843
0.337948950982936 -0.0426871517786092 0.22619350948548
0.338225465282023 -0.0405868171540921 0.233215912885487
0.338495095972963 -0.0385387687244694 0.245798822485626
0.336864986153996 -0.0509206820860832 0.25398728863399
0.337064480192536 -0.0494053744223757 0.263571486076338
0.337041714086288 -0.0495783001675423 0.267694551604005
0.337796285917648 -0.043846758076143 0.281463124078002
0.336967081160804 -0.0501451935182357 0.288091528662841
0.336583901026385 -0.0530557356001588 0.291977176342322
0.338447558612309 -0.0388998508271653 0.317706162070365
0.338043821489656 -0.0419665387370176 0.325448855369298
0.338696410761582 -0.037009631090864 0.337141177306161
0.337986806035065 -0.0423996141107205 0.345091089581633
0.337003259808299 -0.0498703894077284 0.341970669309261
0.338604431523332 -0.0377082827680893 0.359593329834006
0.337500582713368 -0.0460928469061976 0.370142255174348
0.338571995762568 -0.0379546568313074 0.377952376730692
0.337146080641265 -0.0487855574783439 0.373756267191109
0.337472644836221 -0.0463050561514371 0.388356275443967
0.337825783690035 -0.0436227002502213 0.404708235645312
0.339173946293485 -0.0333823886104389 0.423351645587184
0.337037233777327 -0.0496123314927567 0.420719041071971
0.338559150551217 -0.0380522258982574 0.432680875525797
0.336785742928386 -0.0515225941429129 0.432405902949782
0.338629366658834 -0.0375188816100456 0.451777439113527
0.338009515989462 -0.0422271148812068 0.463432517404377
0.337951076309533 -0.0426710083203742 0.473943988806669
0.338801664908186 -0.0362101464739124 0.479845128081006
0.337346957762954 -0.0472597442551246 0.491104461614815
0.336673534082558 -0.0523749049450959 0.487035012495834
0.33786350915872 -0.043336146866303 0.501404940457053
0.338155860085816 -0.0411155211094553 0.518711455929048
0.338599170944281 -0.0377482408330532 0.533522374618891
0.337883182014862 -0.043186716688353 0.535934782715134
0.337753585614211 -0.0441710990815903 0.540338247757354
0.337992135659148 -0.0423591315966684 0.549378428710138
0.338321334079982 -0.0398586213377135 0.567699620812087
0.33777366078236 -0.044018613040555 0.56969089896215
0.338522229007288 -0.0383326728674038 0.584643281947281
0.338905005909145 -0.0354251936408704 0.590872167873878
0.337711771571062 -0.0444887082718097 0.600332189463474
0.337918920535569 -0.0429152556727078 0.612422224874528
0.337727733544556 -0.0443674650459949 0.617375511808119
0.336386396318315 -0.0545559327987612 0.616745355286086
0.337767003673172 -0.0440691788050489 0.639136829144051
0.338279243953542 -0.0401783275887246 0.648613642425995
0.337651591228478 -0.0449458233564947 0.65654723797129
0.33706058109422 -0.049434991014447 0.662310575063657
0.337974837183042 -0.042490526567695 0.668184882140812
0.336886911957208 -0.0507541390761609 0.679012734798714
0.338036181085467 -0.0420245733685587 0.694148372932083
0.338067219122622 -0.0417888160701907 0.709783148848994
0.338438855845888 -0.0389659549010033 0.716538227721111
0.337320791969908 -0.0474584931852668 0.712457315492725
0.337066862040816 -0.0493872824885133 0.72206786194201
0.337145196779647 -0.048792271073866 0.738100867559097
0.339017070636313 -0.0345739775285957 0.755466392045738
0.337121245900817 -0.0489741960602401 0.754671751582986
0.338030135008214 -0.0420704978847186 0.76526508906646
0.338145238597658 -0.0411961993218106 0.777347261760881
0.337600149979561 -0.0453365584345202 0.784281548144617
0.339092200954039 -0.034003306108737 0.7960311604852
0.337099481460079 -0.0491395134004906 0.796898000864664
0.338526528154953 -0.0383000175988484 0.809878877517486
0.336554529999093 -0.0532788307015116 0.817025346987855
0.338625054579113 -0.0375516351073216 0.836904922946181
0.33786860469313 -0.043297442439844 0.841383649306686
0.338823094716689 -0.0360473709178418 0.852529513121503
0.337008137683424 -0.0498333382676886 0.856544874651052
0.338437632374211 -0.0389752480910267 0.877031004059561
0.337153062738771 -0.0487325231824938 0.872709863863476
0.337640939934289 -0.045026727968141 0.883573073754699
0.338269401003851 -0.0402530922143262 0.894706792874762
0.336629527052205 -0.0527091715268887 0.901868155464892
0.320282896315984 -0.0577982560170824 0.901868155464892
0.312207917052685 -0.0673109010091277 0.901868155464892
0.310083247094984 -0.0765038782660419 0.905715499017107
0.310655447266954 -0.0721575864564984 0.917702417426843
0.31005679370408 -0.0740821733477813 0.923341206785484
0.299741108929614 -0.0851779333771436 0.923341206785484
0.298410432863054 -0.0982050036191697 0.923341206785484
0.288674716331407 -0.104293585032533 0.923341206785484
0.277233324797766 -0.116380544976083 0.923341206785484
0.267274318921703 -0.130183485765852 0.923341206785484
0.2637900011453 -0.13049219148774 0.923341206785484
0.253653261519994 -0.146762863784752 0.923341206785484
0.252087977870707 -0.147246777981708 0.923341206785484
0.236455435332728 -0.169263686058856 0.923341206785484
0.225864523379196 -0.180652673731722 0.923341206785484
0.220912711902441 -0.18786372717287 0.923341206785484
0.20839369681104 -0.210684137168449 0.923341206785485
0.19808878536954 -0.217695745723072 0.923341206785484
0.186633939109367 -0.22637204590804 0.923341206785484
0.18431520915431 -0.22920858751712 0.923341206785484
0.169757653183276 -0.248531430555161 0.923341206785484
0.153798146466415 -0.265455267605584 0.923341206785484
0.153075984218259 -0.274290490701102 0.923341206785484
0.139967969437153 -0.273533886419525 0.923341206785484
0.128626943396896 -0.290190152524789 0.923341206785484
0.336167778142116 -0.0562165027097444 0.188113562337777
0.336014394814211 -0.057381564753504 0.195163497831131
0.335788681684759 -0.05909602618483 0.207207498978884
0.334955907364862 -0.0654215751501631 0.209946253638456
0.335421592959623 -0.0618843418785258 0.226294940346229
0.335112811047492 -0.0642297733575287 0.22048523636521
0.335742806518579 -0.0594444826670204 0.245963047685751
0.335279777969501 -0.0629615336729892 0.243720577916433
0.335507058408582 -0.0612351673430951 0.265654203344697
0.336578670057321 -0.0530954687549395 0.278653809540003
0.336889182104335 -0.0507368955967882 0.29023735553862
0.334637916280025 -0.0678369572406226 0.278898217583254
0.336278688522382 -0.0553740547326937 0.303430252993767
0.335512940930857 -0.0611904851503303 0.310370157282481
0.335419343037419 -0.0619014317343525 0.316601981984667
0.334657674182107 -0.0676868810746234 0.324065006048275
0.336360419022737 -0.0547532499484892 0.343185155340656
0.334560223660442 -0.0684270912753532 0.337824097971964
0.334722743160769 -0.0671926331123467 0.346008161946249
0.336065779788078 -0.0569912571269218 0.366273284299216
0.336209175975684 -0.0559020549451662 0.372284888400869
0.334120215866414 -0.0717692822864707 0.377028902030561
0.33453713623225 -0.0686024577029925 0.381939567997028
0.3358554701834 -0.0585887171715971 0.401059381358168
0.336636840973379 -0.0526536167800534 0.415644720404971
0.335667143452956 -0.0600192007089099 0.420086910755176
0.336461804460551 -0.0539831510922462 0.436125073156213
0.335214108644686 -0.0634603417170264 0.432041431539831
0.335225907264101 -0.0633707223050842 0.440322378217907
0.335119573301462 -0.0641784089391182 0.45792494264297
0.334746911721326 -0.0670090546690959 0.463706103281101
0.33636674601499 -0.0547051916710632 0.48078895285321
0.335968243871823 -0.0577321159639503 0.484429885238086
0.334288617406208 -0.070490145597989 0.481687347820974
0.334849381915676 -0.0662307162689272 0.506761150336947
0.336234199517935 -0.0557119822711947 0.512040091867534
0.334497354566138 -0.0689046294569735 0.517403943969694
0.33493040246832 -0.0656153040729674 0.525037222143878
0.336054756962282 -0.057074983801297 0.538780197659462
0.335243047785243 -0.0632405271211271 0.552040630338583
0.335142467112385 -0.0640045131806441 0.556756900792248
0.335863458163041 -0.058528042442391 0.570776773857632
0.336111359811194 -0.0566450424788746 0.584986389598205
0.335786704948551 -0.0591110409870209 0.580496987256253
0.335586382490872 -0.060632641118801 0.600070632621882
0.335645624149104 -0.0601826560496437 0.604804919790053
0.336290135827822 -0.0552871038153169 0.614107765383841
0.334844463136847 -0.06626807810345 0.614912540476084
0.335406386766024 -0.0619998443860872 0.631954809403732
0.33476199007613 -0.0668945231935809 0.635777070541201
0.336244252806672 -0.0556356199619248 0.650477644316065
0.33433995633942 -0.070100187684901 0.652686982026156
0.334336010930463 -0.0701301560412144 0.664080277212085
0.335308784171234 -0.0627412096968772 0.672707917381055
0.336595896579548 -0.0529646203278836 0.698241745100173
0.336790625102266 -0.0514855103505876 0.70926709482079
0.335451941365355 -0.0616538228508676 0.709517803274586
0.334426339570141 -0.0694440419048814 0.715301050041825
0.335242415897861 -0.0632453267823033 0.719462888173476
0.335685428226192 -0.0598803140674023 0.735318182926577
0.334926503330967 -0.0656449209615496 0.740842709837565
0.33440393528389 -0.0696142193543206 0.75002143735641
0.335208422744601 -0.0635035304159883 0.762856977936937
0.334886324702405 -0.0659501079446975 0.770270093362725
0.334197916125933 -0.0711790902206704 0.774368317434539
0.334608721630934 -0.0680587126165255 0.790637964305829
0.335603814861274 -0.0605002291196316 0.796662413633587
0.336234225205639 -0.0557117871537138 0.816051481361555
0.334963987161207 -0.0653602030038467 0.819429501514589
0.336857568925712 -0.0509770215283254 0.832343504174651
0.335538295437403 -0.0609978985529599 0.845516291421774
0.334274676989573 -0.0705960335749749 0.839672875107968
0.334522232662667 -0.0687156615529465 0.85224332566752
0.336782032002254 -0.0515507814253392 0.875585168186872
0.33436826369057 -0.0698851720059829 0.876930910079215
0.335724726037093 -0.0595818175586296 0.896249592786025
0.33700149966385 -0.049883759032169 0.901187169523541
0.331881915822947 -0.0720729344207196 0.901868155464892
0.32070592007684 -0.0703195309694071 0.901868155464892
0.319782709662672 -0.0880067496788984 0.901868155464892
0.308174746933317 -0.0997052569810636 0.901868155464892
0.30553424713446 -0.0918235843778661 0.908612562991381
0.295886983847132 -0.115114138245916 0.905812353783222
0.300334314242556 -0.104377332888931 0.92197169492088
0.290226735242823 -0.112652314111776 0.923341206785484
0.284915496483569 -0.118782719837892 0.923341206785484
0.275910523706119 -0.138832902606206 0.923341206785484
0.264972705171308 -0.14419897180438 0.923341206785484
0.252263562027518 -0.158815897072098 0.923341206785484
0.251131947016388 -0.161188276344187 0.923341206785484
0.242563892448311 -0.172005100064337 0.923341206785484
0.239995381477934 -0.178022169433694 0.923341206785485
0.221912888760247 -0.20164733174647 0.923341206785484
0.212543654097998 -0.216162931319667 0.923341206785484
0.211051083349986 -0.212039562988145 0.923341206785484
0.198235873511654 -0.227682869023975 0.923341206785484
0.187230229970856 -0.24049142400527 0.923341206785484
0.173847304799857 -0.253820253055151 0.923341206785484
0.167301879219423 -0.26680756866815 0.923341206785484
0.142726096881694 -0.302092931143949 0.901868155464892
0.121746334106317 -0.314977454369556 0.901868155464892
0.332529850524363 -0.0838493063740849 0.167527096980605
0.332919945252785 -0.0808862427363219 0.179781729643309
0.333878605365714 -0.073604496240842 0.193435479633132
0.334045752553836 -0.0723348872992293 0.204709343156704
0.33349554131057 -0.0765141566131355 0.208090973661438
0.333098778433005 -0.0795278698721786 0.218685432068308
0.333193350304071 -0.0788095251935798 0.228820091866092
0.333023492745776 -0.0800997214405757 0.239601406658603
0.33298324275972 -0.080405450437701 0.241584678826606
0.333531668414546 -0.0762397440145267 0.260425273105979
0.332682287997775 -0.0826914288084875 0.262985247033259
0.333157065599644 -0.0790851348864594 0.281761660195914
0.334082042575453 -0.0720592372182817 0.289594053044584
0.332943587439219 -0.080706662501482 0.298513926774137
0.333392963212759 -0.0772933146214607 0.312253805043389
0.33432838447399 -0.0701880847293341 0.318671099216705
0.33262889151005 -0.0830970153997269 0.315492217970959
0.334117271453227 -0.0717916473250497 0.334598738676887
0.332347864854067 -0.0852316247776936 0.335580076382161
0.332997967151869 -0.0802936075754772 0.341510421371248
0.332202195058788 -0.0863380967242853 0.352820963782831
0.33341564776753 -0.077121008321266 0.376183286051637
0.333901868751388 -0.0734277932834294 0.377832032233104
0.333459952103205 -0.0767844834813497 0.379537112965019
0.331617259955787 -0.0895130027572689 0.388961234343984
0.331320948416004 -0.0902283620952994 0.394992946671802
0.332438178858085 -0.0845456218102426 0.409254197384892
0.332844352806818 -0.0814604243686662 0.423954897324633
0.333411133842147 -0.07715529498856 0.433648049131427
0.333976862740439 -0.0728581573826638 0.450028503753937
0.334050980256911 -0.0722951789521004 0.460515184652417
0.333873601132181 -0.073642507168276 0.462499015385278
0.333491236662103 -0.0765468536644333 0.473257751296771
0.333326621979578 -0.0777972263162374 0.479091949339796
0.332599701489191 -0.0833187356207245 0.488273315499342
0.332704576239786 -0.0825221328025633 0.497253160983649
0.3339684094134 -0.0729223667762899 0.513506200951105
0.33262540031866 -0.0831235336310888 0.521323284275206
0.332134413943207 -0.0868529454117268 0.519145843777315
0.334168835980474 -0.0713999758551396 0.543492468858659
0.333910514440071 -0.0733621227580611 0.551782001899493
0.332309391880289 -0.0855238560265007 0.553739568848318
0.331921481715545 -0.0884703262557203 0.558947381668039
0.334302475349344 -0.0703848840694211 0.585907468771821
0.334093693385403 -0.0719707405306896 0.58670792993192
0.332166578384599 -0.0866086322237408 0.592210881812823
0.333645897956679 -0.0753720845000819 0.607576623774137
0.332774404292306 -0.0819917360854564 0.610480667752996
0.333362216417465 -0.0775268597182669 0.614905118981512
0.333748426198029 -0.0745933051891735 0.635159709903557
0.334434384172568 -0.0693829370829144 0.651315614094588
0.334046086237853 -0.0723323527174851 0.657892669002428
0.332730155843477 -0.0823278364226287 0.658934024913233
0.332938237965802 -0.0807472957861902 0.66447846170384
0.333161455545552 -0.0790517899367734 0.681178731172935
0.333717291929632 -0.074829793436395 0.685316563676766
0.333504994986833 -0.0764423488127854 0.695170591154267
0.333672327134825 -0.0751713349614816 0.705789538473807
0.331326913800709 -0.0902139603826395 0.705733686026555
0.333771841386863 -0.0744154491722906 0.723693345214961
0.334460377553164 -0.0691854977553463 0.740568608697899
0.332030034253454 -0.08764578786945 0.738006615299562
0.333489822254534 -0.0765575971565437 0.753531398781497
0.333104558409616 -0.07948396659106 0.755583148296297
0.33381642379186 -0.0740768121861761 0.780446750552083
0.332970392149097 -0.0805030605161883 0.783954677361797
0.33323713212468 -0.0784769692496271 0.790909579444143
0.334572714838583 -0.0683322113576102 0.806915738718289
0.332086224901012 -0.087218977527171 0.802500646402601
0.332927341271617 -0.0808300643958671 0.81453045572367
0.333915639419366 -0.0733231946754988 0.832839375539114
0.333131330629157 -0.0792806113943756 0.832565154006031
0.332296773523692 -0.0856197019605127 0.838918233959171
0.332365064922584 -0.0851009772865216 0.855277273864456
0.333435618798159 -0.0769693132832221 0.861118896661265
0.333466179781014 -0.0767371795720181 0.881900788712894
0.333894968505504 -0.0734802058544824 0.884265331989691
0.334011114140034 -0.0725979921733286 0.898315228779297
0.330390360838847 -0.0820993889586491 0.901868155464892
0.328825141511743 -0.088722831947027 0.901868155464892
0.314286321485268 -0.107603465106979 0.901868155464891
0.305316761242696 -0.109125594101256 0.901868155464892
0.297919070418173 -0.124552653146414 0.901868155464892
0.292455601487766 -0.128554834747741 0.901868155464892
0.284601616702292 -0.142359424663351 0.908253861444669
0.287237876184762 -0.135994931266838 0.91147917072983
0.282476225429799 -0.144416423727168 0.923341206785485
0.280769666782467 -0.145189986026859 0.923341206785484
0.267376530682717 -0.167992459282638 0.923341206785484
0.258317489886835 -0.167585659296424 0.923341206785484
0.244986469768358 -0.181134985321407 0.923341206785484
0.238706450659652 -0.189884989413875 0.923341206785484
0.235378984165409 -0.206423123114938 0.923341206785484
0.221687741799023 -0.208989495976551 0.923341206785484
0.218322895639418 -0.224409410607008 0.923341206785484
0.203531317493732 -0.23509311425523 0.923341206785484
0.190950972981378 -0.252653657916431 0.923341206785484
0.170058720992996 -0.287090411329039 0.901868155464892
0.155972127006194 -0.293409340280263 0.901868155464892
0.327105639487824 -0.100405018079305 0.143822606611312
0.331886884683101 -0.088733116807202 0.172960037359467
0.323905530646409 -0.108130764245318 0.167561940940965
0.331953860308788 -0.0882243864229336 0.191797843635908
0.321468508783094 -0.114014255479533 0.171788596970601
0.328506440457206 -0.0970231853808361 0.199464262812682
0.320285180156267 -0.116871063499163 0.192759485014346
0.327182876991415 -0.100218550250612 0.212821640682572
0.329929398064786 -0.0935878618259359 0.231121506662304
0.318686706754888 -0.120730119663864 0.212999729914265
0.327419642047055 -0.0996469488421878 0.241729547716257
0.324119969105284 -0.107613064009607 0.250793391443757
0.3321335529772 -0.0868594850978194 0.281137478612769
0.324930761625863 -0.105655637710156 0.275658483341052
0.325833909961174 -0.103475244750213 0.283404641925814
0.321905977248993 -0.112958113176048 0.280212168739974
0.329320990382453 -0.0950566879040753 0.30798604652469
0.323471150222134 -0.109179451356833 0.297089583424016
0.32338159780493 -0.109395650016989 0.308587960205437
0.326631192022063 -0.101550435585778 0.324252938727606
0.330341109628535 -0.0925939021849466 0.346088314767833
0.327153357845166 -0.100289815773834 0.347128754877728
0.329741140520332 -0.0940423557429737 0.3643530713233
0.324366540947429 -0.107017786924202 0.364917734455945
0.326549134632057 -0.101748539649623 0.375803916387175
0.317987096911918 -0.122419127235132 0.368925303417172
0.323032276019841 -0.110238987408184 0.390868773743858
0.331628390140079 -0.089486132115399 0.41407964404096
0.326658087555092 -0.101485504025172 0.413281390708459
0.331876818585069 -0.088809576412724 0.439082849259353
0.332143141742101 -0.0867866511973842 0.448691353071913
0.327037521488227 -0.100569469477773 0.442477374976025
0.323262046917501 -0.109684271390814 0.44234707309208
0.329627920165835 -0.0943156938583394 0.469973304273614
0.331145470297711 -0.0906520037483817 0.483614321525416
0.320126902489195 -0.11725317958963 0.464142719530449
0.327970697780353 -0.0983165826172369 0.498786853803176
0.319888902224564 -0.117827763056351 0.483539952352598
0.321466885102121 -0.11401817539216 0.493490592496244
0.323016006865913 -0.110278264620246 0.509626177538261
0.317965916834643 -0.122470260464943 0.51217307483737
0.331058230630564 -0.0908626189359869 0.542322293993039
0.322575456755553 -0.111341846671581 0.533440030168036
0.328504172794042 -0.0970286600040027 0.562007854955076
0.321779547668465 -0.113263341184045 0.556282763024118
0.324256089880869 -0.10728443938707 0.568458138522145
0.327103055933789 -0.100411255330495 0.593044375053639
0.328622646136501 -0.0967426400538567 0.602062746859251
0.324518773521319 -0.106650264979683 0.596081226027203
0.322320984924869 -0.111956196016461 0.604005830909854
0.321705733232177 -0.11344154499723 0.612124023597773
0.320966123729904 -0.115227120288478 0.618575505144209
0.330738231291402 -0.0916351656805413 0.649336068212221
0.323503551828674 -0.10910122695888 0.64868180379297
0.326502502937842 -0.101861118518233 0.663770624800963
0.328873789351288 -0.0961363266986204 0.676120305678326
0.327109160132264 -0.100396518491749 0.682093282494977
0.318959439022832 -0.120071685723699 0.67799467934976
0.321689104767974 -0.113481689661032 0.689471455040439
0.31941749411505 -0.118965842907752 0.69704212072934
0.324538462336758 -0.106602731974421 0.711577616993252
0.332122091807127 -0.0869465413275351 0.736387200641768
0.327117788837207 -0.100375686955251 0.731085866866661
0.331070520305114 -0.0908329490370103 0.755938098246136
0.329315257811545 -0.095070527554509 0.757706560734135
0.328255398546158 -0.0976292541672119 0.760400870755103
0.327062244712376 -0.100509782334726 0.776803445835258
0.328351616583758 -0.0973969632758938 0.788236177409764
0.322903691245937 -0.110549418513258 0.785553739087437
0.320549100929755 -0.116233902388417 0.789482174225683
0.321419150295571 -0.114133417409528 0.797251727465056
0.324953319352841 -0.105601178539748 0.822148949640331
0.321486756461694 -0.113970201686375 0.822894806616973
0.321686696847886 -0.113487502894366 0.82801151147129
0.324807198482835 -0.105953945525864 0.843108740294029
0.324016108996987 -0.107863804491649 0.850338665806061
0.320372578040043 -0.116660066342829 0.855027287625698
0.325847815066261 -0.103441674856926 0.878004814067887
0.327166592116375 -0.100257865416794 0.89827315433296
0.330830642299397 -0.0914120657717267 0.900258079246271
0.323249583812795 -0.105155602712868 0.901868155464891
0.316672471507415 -0.118085377354369 0.901868155464892
0.301536915464864 -0.12615208837476 0.901868155464892
0.30457056935365 -0.135745015096253 0.901868155464892
0.286516829103343 -0.152807389280595 0.901868155464891
0.277481045633599 -0.166987203947996 0.901868155464892
0.269861088551819 -0.170631046085575 0.901868155464892
0.26075774862598 -0.18324697402606 0.901868155464892
0.25515835986893 -0.18888428087921 0.904428262047676
0.261141349120589 -0.178339625140896 0.923341206785484
0.236440161003125 -0.213278312575014 0.903594705428714
0.234687485135593 -0.217162073148953 0.901868155464892
0.234660751765282 -0.213642667204789 0.923341206785484
0.228961148339228 -0.219069105579988 0.923341206785485
0.203590180762962 -0.259032952562202 0.901868155464892
0.193823931075585 -0.272655462912281 0.901868155464892
0.187615242748755 -0.271319787788182 0.901868155464892
0.321701367264803 -0.113452085374879 0.139610548035186
0.307218959823625 -0.148415709835184 0.112740265349178
0.314254256333828 -0.131431001584934 0.14594909747711
0.316960735970338 -0.124896981740187 0.154291152086632
0.309029521394817 -0.144044627534498 0.145193664174349
0.307743539749299 -0.147149261864072 0.146361284443139
0.309551881092178 -0.142783539668693 0.166233147921424
0.313749005413192 -0.132650785209936 0.192957958914123
0.309974003041688 -0.141764447133212 0.184542025309007
0.313184420580032 -0.13401381357126 0.198271136597817
0.309782961575798 -0.142225662031137 0.210439862508169
0.30977607985747 -0.142242275968859 0.213538644401123
0.312074402159921 -0.136693635095578 0.232421297738626
0.313284118911541 -0.133773120507185 0.245429684153442
0.315010415633882 -0.129605471547431 0.255490019883019
0.310191930373238 -0.141238324013771 0.249761232962622
0.317156468771106 -0.124424440957971 0.286827333337614
0.31434518348313 -0.131211484027903 0.288486038541136
0.318240667490483 -0.121806953705344 0.30538873128785
0.313142789257682 -0.134114320474297 0.301563616069628
0.312407807859128 -0.135888722534778 0.312941268135312
0.317577007406163 -0.123409170881714 0.323212710000931
0.314086927871243 -0.131834968228678 0.334025729968256
0.313952847973096 -0.132158665737225 0.338393916341289
0.316318190457671 -0.126448223831307 0.345969476642548
0.310617461485185 -0.140211001032097 0.350034705744957
0.313135152062276 -0.134132758295025 0.367360455091715
