ply
format ascii 1.0
element vertex 857
property float x
property float y
property float z
end_header
-0.297205539151675 0.172219411418298 0.60088276555607
-0.296047298118864 0.173728860520124 0.603973137553909
-0.298880979217914 0.168545375696294 0.618207755909009
-0.296823091924881 0.172717826348031 0.627628834763555
-0.295058984012118 0.175016856540372 0.634902748402163
-0.297741471887928 0.17129638974677 0.644438491610838
-0.2941246211033 0.176234541990586 0.656036419793723
-0.297765225041378 0.171239044561563 0.661610900531962
-0.29776449831759 0.171240799027987 0.66450012027555
-0.298454914813 0.169573986161081 0.682276729498463
-0.29682225488275 0.172718917202574 0.686374591950608
-0.297375808852842 0.171997511623513 0.697851924912713
-0.296657041682575 0.17293422723697 0.699706299611649
-0.297519017232776 0.171833442792251 0.713452420355354
-0.29654668329213 0.173078049091504 0.728828201397509
-0.298198262513859 0.170193599622483 0.732932883721901
-0.296665802146203 0.172922810378491 0.742098352917138
-0.297374655109843 0.171999015210662 0.745910284916146
-0.296833270541021 0.172704561317216 0.753993648811746
-0.299627048824573 0.166744204333423 0.764667784003132
-0.299856736901297 0.166189688263481 0.778094987921251
-0.298577002551732 0.169279240286437 0.778902769855079
-0.295395973812961 0.174577682881525 0.795343625168729
-0.297441780224791 0.171911536057707 0.804230314284262
-0.29808400785246 0.170469434775596 0.814761008321515
-0.295017281437712 0.175071204393451 0.817396845482618
-0.295786605698083 0.174068601497394 0.826943190131741
-0.295187594534533 0.174849248044347 0.840964374283299
-0.297539327046404 0.171784410564741 0.847587912517569
-0.298416469328956 0.169666801770073 0.861355904111756
-0.299135795952169 0.167930193680536 0.865968876940369
-0.299075229509957 0.168076414006749 0.874193637958832
-0.298465250038007 0.1695490347207 0.886455965427817
-0.298281380982487 0.169992933888237 0.891996016264684
-0.297668647788601 0.171472202675033 0.901167872901173
-0.294286072324526 0.16208112161033 0.901868155464892
-0.285595975740593 0.163918524767442 0.901868155464892
-0.278710869791197 0.156580945748623 0.9078167504098
-0.28035612359497 0.152608951702008 0.919270800028607
-0.28061036375244 0.151995161665746 0.921913210564414
-0.266237058899411 0.139982293321115 0.923341206785484
-0.261889706539095 0.134425498758523 0.923341206785484
-0.251545063084973 0.121375755553443 0.923341206785484
-0.244828307231135 0.111138456636628 0.923341206785484
-0.23694524503321 0.105493740590633 0.923341206785484
-0.220217510409513 0.0894151229617085 0.923341206785484
-0.218210006991437 0.089483691322597 0.923341206785484
-0.21014624301049 0.0768066433107498 0.923341206785484
-0.19700626171908 0.0642807112681349 0.923341206785484
-0.200370990679031 0.0667926534892205 0.923341206785484
-0.188092647175261 0.058171551649946 0.923341206785484
-0.176053972616818 0.0393484358959344 0.923341206785484
-0.167640895099996 0.0326449584464914 0.923341206785484
-0.162647263529779 0.0266753647466099 0.923341206785484
-0.149931368773547 0.0141550262825796 0.923341206785484
-0.139763433923113 2.24312088022839e-005 0.923341206785484
-0.130263039894642 -0.00814737221890279 0.923341206785484
-0.121306187900653 -0.0146525392193622 0.923341206785484
-0.108827053594421 -0.0231797356553684 0.923341206785484
-0.10956462635396 -0.036055532837326 0.923341206785484
-0.0943980996535155 -0.038488770294313 0.923341206785484
-0.0810859578171652 -0.0559995638069049 0.923341206785484
-0.103071336568971 -0.0336862592107487 0.959333316642391
-0.103071336568971 -0.03203384779204 0.963149480242559
-0.103071336568971 -0.0331407277476561 0.976917480465804
-0.103071336568971 -0.0278728243965038 0.986825654762828
-0.10307133656897 -0.0413308728947008 0.988924866929699
-0.101410657023325 -0.0438775978753184 0.996508909700829
-0.0976090759647088 -0.0493922725771138 0.997467971317478
-0.081663799809128 -0.060050861938042 0.998469944440044
-0.0761280497857413 -0.0693942176366459 0.998496886407559
-0.0593635279227099 -0.0902953709453392 0.998496886407559
-0.0488680630334221 -0.0948095401421964 1.0
-0.0403293214024593 -0.102602720974159 1.0
-0.0166999665838592 -0.130478443958292 0.981333742494302
-0.0111099146091945 -0.13525504648489 1.0
-0.00820767019093311 -0.14658526824896 1.0
0.0199566444608062 -0.16908452239732 0.980754579029555
0.0234534585737817 -0.16908452239732 0.991502369386498
0.0284933483053501 -0.186717299290347 0.998496886407559
0.0386677698107935 -0.193116570381991 0.998496886407559
0.0598750034500855 -0.211001794321082 0.998496886407559
0.0532524645210828 -0.203975496770919 0.998496886407559
-0.290017796220852 0.181586660379208 0.325481165711572
-0.289588239444262 0.182146469669536 0.33626939128417
-0.290923371002551 0.180406492346692 0.346517169514689
-0.291812674066661 0.179247530029398 0.359507053195241
-0.29212808772995 0.17883647494046 0.354365004664885
-0.292897793771893 0.177833374496971 0.366793057137684
-0.293183071989366 0.177461592685641 0.377108804732446
-0.291491195707901 0.179666488783354 0.384110155773675
-0.29254163552641 0.17829752895923 0.388506807195919
-0.292119317066575 0.178847905091507 0.41162944721169
-0.290857471130805 0.180492374731619 0.40892831803621
-0.29416879640532 0.176176971616141 0.423315939248855
-0.292742850470783 0.178035300538329 0.433178293725933
-0.292074138999423 0.178906782294915 0.440992398413288
-0.291571085098623 0.179562374902344 0.450955355007658
-0.295094969168639 0.174969959771348 0.459611786382973
-0.290695238640495 0.180703800229289 0.466076588032082
-0.29156374985849 0.179571934373401 0.482935431148236
-0.289847552110105 0.18180852682391 0.487864201775623
-0.294446711104431 0.175814786128773 0.492260263994432
-0.293181330203692 0.177463862624925 0.50624743709514
-0.294082950403519 0.176288848303844 0.504459989567916
-0.292029763153607 0.178964614023123 0.518734769963541
-0.29341901523545 0.177154105460794 0.53074670588923
-0.291372973602109 0.179820558831252 0.534476025344101
-0.294230703946228 0.176096292138058 0.545359455279747
-0.291452364418561 0.179717094704882 0.556337206335258
-0.289977699171687 0.181638915871055 0.563364585887848
-0.291837373398584 0.179215341233344 0.577729024106013
-0.293264852839701 0.177355013806471 0.583796703555052
-0.291889572986821 0.179147313405502 0.588093584487957
-0.291300787402809 0.17991463371775 0.605222410456276
-0.291352854383151 0.179846778707881 0.611350493616911
-0.292003978049121 0.178998217825532 0.621687191153804
-0.289412177951974 0.182375917473465 0.627462270507641
-0.293775553489339 0.176689455761936 0.636613676583743
-0.293524560182858 0.177016556607356 0.644685755755441
-0.294173009537469 0.176171480955426 0.65019261693381
-0.295043669228596 0.175036815154839 0.65853820616868
-0.292778138091039 0.177989312816264 0.672263487744704
-0.292068047978777 0.178914720267568 0.684481598479217
-0.2920775556599 0.178902329616291 0.688336691812242
-0.293992855541581 0.176406262213884 0.692500044429231
-0.29495710859343 0.175149623170876 0.704027067458197
-0.291462257484414 0.179704201810447 0.717559190671352
-0.293038755515987 0.177649669575467 0.721681098261132
-0.292599460084375 0.178222170528118 0.737104413009527
-0.292089513355815 0.178886746043574 0.74825048715876
-0.292513500932172 0.178334194676296 0.751337445500539
-0.292297351346633 0.178615886300499 0.754204835736728
-0.294754537511867 0.175413618944172 0.769426473451261
-0.294234526743187 0.176091310172066 0.779859007521385
-0.292448857944504 0.178418439058001 0.7827760377313
-0.291079712545826 0.180202744080666 0.796463352053112
-0.291784706411321 0.179283978187457 0.806501931938666
-0.292634779250123 0.178176141695167 0.807224543950318
-0.290211145601167 0.181334682560958 0.825451654591408
-0.293129282805805 0.177531692114441 0.834672518872489
-0.29239407625357 0.178489831947593 0.840674463955676
-0.291762320665113 0.179313151859905 0.85005653554941
-0.294551732461753 0.175677919631221 0.855659820524189
-0.291680820916581 0.179419364400072 0.863750073900832
-0.292074898026062 0.178905793112141 0.872124205974949
-0.292317021996729 0.178590251010194 0.883774782460056
-0.2901918332091 0.18135985096031 0.896118845597712
-0.294176492641314 0.175037984045635 0.901868155464892
-0.281048727702478 0.171169833185514 0.901868155464892
-0.277389494222852 0.16115696373438 0.901868155464892
-0.273305533143995 0.165234424221798 0.911189350666668
-0.273984734656986 0.164349271576796 0.917472820479519
-0.270065260025637 0.153000186845198 0.923341206785484
-0.26302081571673 0.153174656346024 0.923341206785484
-0.256012895055974 0.137964619950001 0.923341206785484
-0.249933297430691 0.136016882658723 0.923341206785485
-0.23571671848488 0.125065591726013 0.923341206785484
-0.232597081907874 0.121387991600298 0.923341206785484
-0.227452997247805 0.105261831127931 0.923341206785484
-0.216655961964507 0.104196509518697 0.923341206785484
-0.204906196947933 0.0861721201357156 0.923341206785484
-0.195939428627033 0.082008992548063 0.923341206785484
-0.18613737077659 0.0649199679716052 0.923341206785484
-0.176076098346272 0.0589172746623513 0.923341206785484
-0.175219898846006 0.0552848638314508 0.923341206785484
-0.162942446939309 0.046952338596629 0.923341206785485
-0.152222861246675 0.0290440647944692 0.923341206785485
-0.142232880412009 0.0254381404759214 0.923341206785484
-0.134134061118486 0.0142097141104819 0.923341206785484
-0.12719569201106 0.00192363335680063 0.923341206785484
-0.116891950119374 -0.00813384387372296 0.923341206785484
-0.108344763474544 -0.0248555044050132 0.923341206785484
-0.0955598434186916 -0.0285373969539131 0.923341206785484
-0.103071336568971 -0.0248569197940394 0.946334622659894
-0.103071336568971 -0.0130509744742025 0.951475415556591
-0.103071336568971 -0.0167430911622846 0.959597960322791
-0.103071336568971 -0.0133564737536593 0.969799721960107
-0.103071336568971 -0.0232616954197963 0.978579724144455
-0.100920617761186 -0.0251318239214019 0.991799678677315
-0.0964304894599831 -0.032497765961034 0.993944791674781
-0.0885385055590992 -0.0325715901841652 0.993965670178013
-0.0798078673646319 -0.0391167559272981 0.99561957607749
-0.072658517756036 -0.0599987365146294 0.998465044328829
-0.0540890236862607 -0.0672936929887929 0.998496886407559
-0.0547510819485806 -0.0759146148840812 0.998496886407559
-0.0454554107405988 -0.0853570175611087 0.998496886407559
-0.0150818708916654 -0.119460192995023 0.986376862330412
-0.0150818708916652 -0.122794781227249 0.992471492977239
-0.00780691226958231 -0.127258023394127 1.0
0.00419918655021166 -0.14130289770348 1.0
0.014056626544479 -0.140428765744332 1.0
0.0347817246326741 -0.16908452239732 0.986703083055821
0.0307754413676867 -0.16908452239732 0.995347073119197
0.0481550989407371 -0.178465484167232 1.0
0.0656357547142158 -0.193156445623217 0.998496886407559
0.0668564847196452 -0.204246480562507 0.998496886407559
0.0759195978478249 -0.210852211393785 0.998496886407559
-0.288895916743321 0.183048722179596 0.327374713955733
-0.287659868856176 0.18465957114817 0.329489939746328
-0.288129679372895 0.184047302162353 0.340472395439654
-0.286699854941939 0.185910685639485 0.342605909687239
-0.284651116869764 0.188580653077449 0.358633314497551
-0.28678516458196 0.18579950795206 0.370044324337779
-0.286561564420442 0.186090909355922 0.378416651745757
-0.285985717946206 0.186841367092009 0.387718027038731
-0.286682813226412 0.185932894835556 0.391468761570737
-0.288282286530692 0.183848420642236 0.405059275104694
-0.286781638005783 0.185804103875614 0.407755769052638
-0.286103106636176 0.186688383172754 0.418459289506326
-0.28567401758342 0.187247582913514 0.433583418753077
-0.285501971849715 0.187471797278967 0.440319874087788
-0.287115481447989 0.185369030631175 0.451186737176459
-0.284249946500456 0.189103468481563 0.458676604552971
-0.286622358091194 0.186011681501691 0.474692927872906
-0.283990751682083 0.189441257745374 0.479741526566239
-0.286315996671494 0.186410939477102 0.484787166899353
-0.287176515768281 0.185289489156356 0.494005664679431
-0.287118066187673 0.185365662132836 0.498437763296535
-0.286930410882375 0.185610219288049 0.507369600665128
-0.28671911292237 0.185885588150757 0.522653178593468
-0.287418177297887 0.184974549719334 0.526790597987194
-0.286326650968079 0.186397054527464 0.531971348818768
-0.287269861094976 0.18516783915817 0.550294361290566
-0.290149205705406 0.181415404204705 0.558647024582933
-0.28476087210201 0.188437617273983 0.561668032401439
-0.284551578967713 0.18871037339696 0.571938379386547
-0.289092103566796 0.182793046533427 0.582196444732565
-0.288177614741519 0.183984831573706 0.593048016597412
-0.284828484865818 0.188349502604661 0.60155311511577
-0.287296647337761 0.18513293064693 0.608258214671156
-0.286089833119429 0.186705681556566 0.61745014428071
-0.289086261733974 0.182800659758184 0.628549889990632
-0.287674964454702 0.184639898181152 0.638772045805282
-0.284501130280592 0.188776119406043 0.650633710412096
-0.286113913327319 0.18667429961866 0.656022088892197
-0.28718897379707 0.185273253537142 0.66066852802156
-0.287804848965553 0.184470629391073 0.671416808322065
-0.284755236147452 0.188444962192964 0.679033151439805
-0.286385064247394 0.18632092885975 0.684962985415837
-0.286915100237334 0.185630172509141 0.692864731432738
-0.285192382193825 0.187875262373693 0.70320713245505
-0.288734996690421 0.183258437275535 0.720335021379106
-0.284789062541153 0.188400878778422 0.722611848747464
-0.284128214648842 0.18926211251927 0.729598186296408
-0.284228081673949 0.189131963278239 0.744462200841931
-0.2880263552655 0.184181956760737 0.749764885322619
-0.287230896280715 0.185218619092764 0.762131202792384
-0.28558010158063 0.187369976631268 0.77215115087945
-0.285686872244395 0.187230830393173 0.785692898491134
-0.286355640010116 0.186359275272346 0.786221024240748
-0.285806580497884 0.187074823559887 0.802292863019252
-0.289173655565154 0.18268676589996 0.803375976771508
-0.285556931002811 0.187400173116182 0.819369359705087
-0.286778114167592 0.185808696230954 0.815861391855542
-0.287113718656805 0.185371327945373 0.837328502391375
-0.288572341264741 0.183470413953311 0.842158869957236
-0.286245746918457 0.186502490737697 0.849443332622056
-0.285982009922197 0.186846199482979 0.86333539352963
-0.284581137815413 0.188671851556647 0.870597985665736
-0.285383365110188 0.18762636859131 0.879173904961522
-0.287426808950911 0.184963300730103 0.887856888285056
-0.286759868696056 0.185832474192399 0.89712305729128
-0.289993104046836 0.181618839846896 0.90066751406479
-0.280208090634399 0.178007300718061 0.901868155464892
-0.272860301714365 0.167493785766866 0.901868155464892
-0.271801232970591 0.167194866376148 0.90862839150619
-0.267888822145033 0.172293619432994 0.916918796936041
-0.2619128957082 0.160671265214338 0.923341206785485
-0.259405318862935 0.151483563435441 0.923341206785484
-0.243776123147013 0.143357751748213 0.923341206785484
-0.246106585196035 0.141501901947235 0.923341206785484
-0.23220510573682 0.126136896990215 0.923341206785484
-0.224810110180705 0.121911085275152 0.923341206785484
-0.212964398067514 0.116599909520292 0.923341206785484
-0.209473743190634 0.102302600854051 0.923341206785484
-0.193453899370973 0.0871553852561208 0.923341206785484
-0.186104367083665 0.0867976064331276 0.923341206785484
-0.17987144218415 0.0762137649762404 0.923341206785485
-0.172245212332429 0.0681403153019773 0.923341206785484
-0.157779146046766 0.0495584236750814 0.923341206785484
-0.154798696814487 0.0468434511330858 0.923341206785484
-0.150450941555363 0.0369869362560362 0.923341206785484
-0.141586175770176 0.028319905325498 0.923341206785484
-0.118372093995284 0.0109113082769194 0.923341206785484
-0.123683040994168 0.00811414739024333 0.923341206785484
-0.114038056853727 0.000165164845907162 0.923341206785484
-0.103165177660111 -0.00628808563062416 0.9333238331391
-0.103071336568971 -0.00740292483980226 0.942521705973076
-0.103071336568971 -0.0098007440193186 0.946166348896557
-0.103071336568971 -0.0111538282011352 0.954946815280859
-0.103071336568971 -0.00555355734640768 0.969158458409988
-0.103071336568971 -0.00224372428500839 0.981424191032189
-0.101593794186172 -0.0107728506063328 0.985854490275231
-0.0910077949731216 -0.0157707729205877 0.988205884316165
-0.0922451044499242 -0.0266860665402346 0.99230116333718
-0.0791125904527547 -0.0297700234503832 0.99317334866585
-0.0724597423154281 -0.0386503687882814 0.99553245414218
-0.0659540479144601 -0.049659368980657 0.997493080026373
-0.0621990044525704 -0.052171038572388 0.997729192455368
-0.045409470082029 -0.0614370337008323 0.998496886407559
-0.0373970230059801 -0.0767352787793397 0.998496886407559
-0.0278503026843361 -0.0869768270929611 0.998496886407559
-0.0184910225290719 -0.0958254619897314 1.0
0.0159345100153175 -0.130478443958291 0.982594852363488
0.0074847291669328 -0.130478443958292 0.997802865030887
0.0160300243720803 -0.130478443958292 0.999523083343035
0.0418220738418823 -0.158712243636472 0.990765100718053
0.0418220738418823 -0.152235089780923 0.99689897851657
0.0589340530929213 -0.174646159243977 0.998496886407559
0.0687125172956112 -0.187057167058585 0.998496886407559
0.08296805885993 -0.196261199052709 0.998496886407559
-0.280631480511772 0.193819145168778 0.329218055415666
-0.279082745545916 0.195837495872088 0.333369241853136
-0.280853799733433 0.19352941311824 0.342934335140505
-0.278203842932986 0.196982904057516 0.357837746135525
-0.281300862550568 0.192946789511697 0.370633142901145
-0.28095037433787 0.193403554643366 0.371824641192921
-0.281619920226934 0.192530985452456 0.386996012400801
-0.280879659764923 0.193495711669059 0.383884938064699
-0.283788101479843 0.189705356630746 0.401185563234411
-0.28382272401936 0.189660235658776 0.40514083854151
-0.282922384774725 0.190833580606549 0.41873213540976
-0.280824524551263 0.193567565278438 0.431254821336678
-0.281472641305806 0.192722923079354 0.434082060308503
-0.280762114020381 0.193648900265816 0.445135087190935
-0.280722177671966 0.19370094632837 0.452244729124729
-0.282117126916559 0.19188301307899 0.459761723544708
-0.277695565925879 0.197645303549608 0.467875122757164
-0.284193930596611 0.189176469828737 0.475714473188824
-0.280564809413298 0.193906032635945 0.487837353539437
-0.284328585265051 0.189000984448254 0.49472045044885
-0.282422188739932 0.191485448770485 0.501630573270089
-0.281094418795407 0.193215832251486 0.505140226806045
-0.280963040039575 0.193387048379538 0.523552874989938
-0.278491475210831 0.196608054374979 0.537084050346502
-0.281054957927137 0.19326725865625 0.535302943236542
-0.28346360738288 0.190128245571245 0.545325835736079
-0.279102815557385 0.195811340123909 0.562446614142635
-0.279776422845023 0.194933478015328 0.566029718013715
-0.282254221411052 0.19170434805529 0.571662350361398
-0.279759438771303 0.194955612091135 0.583255590206954
-0.281191429996369 0.193089404792943 0.597301643496734
-0.279784180333549 0.194923368259452 0.602211843171596
-0.283015723957285 0.190711938615556 0.609037039010959
-0.280972751106154 0.193374392671175 0.617739177932355
-0.283816447529055 0.189668415340193 0.6313911393404
-0.284030684449662 0.189389216349458 0.635735498375934
-0.279542866062749 0.195237855139987 0.644561139591291
-0.281348851529407 0.192884249056855 0.656820209365198
-0.279115872027696 0.195794324600519 0.66685923101455
-0.279491018906196 0.195305423669917 0.677948656235963
-0.281175344403539 0.193110367945655 0.68271207637034
-0.281092859155368 0.193217864813957 0.694450217196854
-0.281917341232262 0.192143378851896 0.699886856567255
-0.281717765220547 0.192403471374173 0.708935093013171
-0.279386431915916 0.195441724089319 0.712161666461721
-0.278669801592189 0.196375654910147 0.726765932082557
-0.27848003551395 0.196622962878214 0.739215818579
-0.281668245210672 0.192468007107507 0.750747245348969
-0.283511192632061 0.190066231267139 0.752978036933631
-0.279954470775383 0.194701441434902 0.763992965123146
-0.283424005030563 0.190179856361608 0.771714208991788
-0.280644368607129 0.193802349075902 0.775034928462519
-0.279755231339024 0.194961095323635 0.79429660901751
-0.28125065124013 0.193012226165462 0.79572142583801
-0.278420123246565 0.196701042065213 0.803209106685088
-0.278955512452246 0.196003309268025 0.81503686410203
-0.28148394061778 0.192708197529294 0.820657112003521
-0.279980192660348 0.194667920021778 0.835831510099682
-0.283136649464052 0.190554345426913 0.844038532352858
-0.280926658573226 0.193434461629586 0.851129647836881
-0.281133212132521 0.193165275790261 0.857768417653044
-0.278277360566842 0.196887094011722 0.870239258941943
-0.281606778539956 0.192548112032368 0.883472394867792
-0.282698249607803 0.191125679243026 0.886465966685885
-0.282871207789567 0.190900275752112 0.888662679520268
-0.273359532688131 0.189285756260788 0.901868155464892
-0.273085078988623 0.182260370568365 0.901868155464892
-0.264128520259947 0.177194140259181 0.904649438872849
-0.263896175394655 0.177496937982877 0.910160812158413
-0.26505587308308 0.175985590530497 0.916376049301212
-0.25452922295896 0.173949416593405 0.923341206785484
-0.252730152438089 0.166535131919284 0.923341206785484
-0.242698852495166 0.14462744257146 0.923341206785484
-0.230719977560832 0.13979126307975 0.923341206785484
-0.225444644106159 0.136561113615133 0.923341206785484
-0.217335248022378 0.126574560933796 0.923341206785484
-0.213439603471264 0.117424078057717 0.923341206785484
-0.204126995321745 0.110607896837584 0.923341206785484
-0.195592598136087 0.106116143814256 0.923341206785484
-0.184893469512854 0.0961856084606734 0.923341206785484
-0.166965039497972 0.0795088943557228 0.923341206785484
-0.164407569812759 0.0699032175973101 0.923341206785484
-0.155618649175712 0.0620706686396887 0.923341206785484
-0.152097556068799 0.0528844902313155 0.923341206785484
-0.141047288947985 0.0393876739798954 0.923341206785485
-0.135895126086322 0.0416666691542879 0.923341206785484
-0.119684293704732 0.0247137503878166 0.923341206785485
-0.10324115302913 0.0102834606603984 0.923341206785484
-0.103071336568971 0.00856943767258429 0.928023004520456
-0.103071336568971 0.0124195489011984 0.936093427314468
-0.103071336568971 0.00704487027601338 0.946470312602242
-0.103071336568971 0.00933908748691221 0.96033491372292
-0.103071336568971 0.00714439789486091 0.968426955612592
-0.103071336568971 0.00280894965358777 0.972124746329492
-0.0949315262376834 0.00293130019119951 0.978260276780111
-0.0924008920215029 -0.00950106769364304 0.985228340126347
-0.0925940568725459 -0.0133524228006593 0.987124517964248
-0.0789618093938962 -0.0171826210427727 0.98874790591394
-0.074917659756565 -0.0239273622993767 0.99133727468175
-0.0711517918262613 -0.031012539662293 0.993524749298945
-0.0500117975229013 -0.0419886342535745 0.996156047984262
-0.0483698982231259 -0.0522272797653209 0.997734479474297
-0.0398251644957613 -0.0608937156226382 0.998496886407559
-0.0241403675581774 -0.0681700506255034 0.998496886407559
-0.0163164605577084 -0.0843696096729101 0.998496886407559
-0.00995394064094394 -0.0914337555395969 1.0
0.0230798009060758 -0.130478443958292 0.981755266449166
0.0212993244726333 -0.130478443958291 0.990782187146685
0.0283907208618565 -0.137181108823228 1.0
0.0469331029472399 -0.149449047567626 1.0
0.04789729007873 -0.151346220773969 1.0
0.0599622696897045 -0.165797319263476 0.998496886407559
0.0750357278050149 -0.177629067759448 0.998496886407559
0.0793116252761662 -0.187277951243365 0.998496886407559
-0.275690524517562 0.200258324386524 0.331069100672971
-0.276389338554313 0.199347612202934 0.336038212500155
-0.275782397413668 0.200138593297242 0.346878790669264
-0.274542736031161 0.201754151464657 0.352461331410201
-0.276098229843741 0.199726992460805 0.370637218076042
-0.276044160868227 0.199797456521578 0.372564037091148
-0.276454156303445 0.199263140067654 0.374802872692122
-0.275486871269807 0.20052373046626 0.398363340502047
-0.275023674258841 0.201127380563576 0.397882908362814
-0.275307879860975 0.200756996611772 0.409228250789835
-0.274109276625498 0.202319046760214 0.418538187723073
-0.27501772648202 0.201135131857241 0.418936893044392
-0.27637095077494 0.199371575623562 0.435554202732627
-0.276095624487178 0.199730387827585 0.450410889033703
-0.277268622078627 0.198201707604127 0.448781117540788
-0.273495796377231 0.203118549785493 0.463649327575852
-0.272536768658264 0.204368379042109 0.466397174815001
-0.27837859777258 0.19675515911653 0.476468179803235
-0.27666069905721 0.198993968310371 0.484769357942878
-0.2727614381272 0.204075584089689 0.502514210748787
-0.274681701615007 0.201573047989838 0.50594628268371
-0.277335672478855 0.198114325821289 0.510562329072243
-0.27630577603777 0.19945651299471 0.524387158210593
-0.275706149798886 0.200237961123446 0.536449408123913
-0.276608170932427 0.199062424295376 0.543533567321052
-0.278058255857264 0.197172636828554 0.551327740560514
-0.276151117425948 0.199658068021765 0.557855103968331
-0.276198634198613 0.199596142957993 0.562626886739596
-0.274748911195288 0.201485458759518 0.580747424412789
-0.275539712666937 0.200454866216784 0.586565586855529
-0.274298192526063 0.202072846765264 0.594879164410285
-0.274913464989853 0.201271008079244 0.606211001916366
-0.27528500470168 0.200786808099772 0.61269652841909
-0.273406783698557 0.203234553366845 0.62042122921496
-0.276958680676242 0.198605631103809 0.632824098887092
-0.27710196698002 0.198418896757144 0.639892847706076
-0.277473837064995 0.197934266227004 0.652767127483706
-0.274418605724162 0.201915921230277 0.660468272052145
-0.273060549930207 0.203685773998694 0.664606879558595
-0.276052856531925 0.199786124112014 0.672570408821546
-0.274374877344782 0.201972909163798 0.677743375749298
-0.272009223228602 0.205055889631371 0.692299386747838
-0.275330461378674 0.20072756780495 0.704435537730826
-0.274093042475195 0.202340203516795 0.715000385001629
-0.276092601255806 0.199734327779416 0.71424635671467
-0.276675751892523 0.198974351073458 0.731190607211356
-0.275957076026248 0.199910947697237 0.73754768758508
-0.277540078036382 0.197847939312371 0.744033271950894
-0.276056664451982 0.199781161533979 0.750050255527856
-0.275488901044314 0.200521085212622 0.769261262704761
-0.276002313501751 0.199851993071359 0.772145867715988
-0.274985668492044 0.20117691064318 0.783318377347188
-0.275789618169398 0.200129183025165 0.789964303129787
-0.275419345938094 0.200611731191859 0.799171994310761
-0.277062390033444 0.198470474438102 0.806498253892194
-0.274318429314526 0.202046473669075 0.81720977418977
-0.272874761331803 0.203927898414119 0.825225924102292
-0.274904319716275 0.201282926431812 0.835378084393145
-0.277006290986882 0.198543584138973 0.846793056336733
-0.275045057346782 0.201099513580821 0.847006372580968
-0.27641422954359 0.199315173634152 0.861563517501858
-0.277295313751401 0.198166922338924 0.870073925994173
-0.276795443592877 0.198818365812638 0.882965980931466
-0.274291138471223 0.202082039788514 0.884281707326128
-0.278227580786547 0.196951968284457 0.895146112812626
-0.275903700210761 0.193981926830956 0.901868155464892
-0.264221564837244 0.192856782208681 0.901868155464892
-0.25832609255144 0.184756011272983 0.907205938012805
-0.25879362940751 0.184146705379414 0.90627832843919
-0.255114022800482 0.185609101916775 0.923341206785484
-0.255147631462107 0.175796431312927 0.923341206785484
-0.249780546468706 0.170070139361682 0.923341206785484
-0.236182915923634 0.165231062166285 0.923341206785484
-0.229252607134254 0.156851068683721 0.923341206785485
-0.225064626217315 0.146597094687201 0.923341206785484
-0.20691725771437 0.13511164345372 0.923341206785484
-0.201907953219119 0.128068619938797 0.923341206785484
-0.196324333577375 0.119027302201974 0.923341206785484
-0.185373836465121 0.107699292419553 0.923341206785484
-0.17787609147058 0.105657022459629 0.923341206785485
-0.173770378988918 0.0936605751917518 0.923341206785484
-0.158263970499438 0.0738904744606117 0.923341206785484
-0.148328122409354 0.0686480949845226 0.923341206785484
-0.142260205630878 0.0578919562302107 0.923341206785484
-0.133908310349869 0.0464932856462446 0.923341206785484
-0.120063504544926 0.0460654669668139 0.923341206785484
-0.108879915188632 0.035467637689666 0.923341206785484
-0.106042985952342 0.021140709203235 0.923341206785484
-0.103071336568971 0.0250447709700745 0.940566733408948
-0.103071336568971 0.014816649692052 0.940748302723144
-0.103071336568971 0.0218333021995096 0.946386068464565
-0.100249907666555 0.0223062544662375 0.963168064184843
-0.0981788524299836 0.0174766028958011 0.967493066989004
-0.0925905733462615 0.0117592429713877 0.972080077768331
-0.0902468722485209 0.00101898866883787 0.979428634315516
-0.0839635736007867 -0.000928106850582277 0.980618243694355
-0.0789089687138909 -0.0121020984216194 0.986508932719095
-0.0652585132950181 -0.0169445019885364 0.988656489798984
-0.0626708285904145 -0.0227481966843733 0.99088458205806
-0.0566874708446115 -0.0251416705110071 0.991803458874452
-0.0411850211115046 -0.0351576320276268 0.99469703829401
-0.0402019484362294 -0.049396016139316 0.997468323235409
-0.0295746707557213 -0.0582059648789394 0.998296512740546
-0.0213354107500796 -0.0606785103381769 0.998496886407559
-0.00646949771819944 -0.0790003916810263 0.998496886407559
0.00595494766779793 -0.0848637312838915 0.998496886407559
0.0067881558700302 -0.0907437576739968 1.0
0.0418220738418826 -0.12968424327741 0.983748551609321
0.035577986822858 -0.130478443958292 0.993856513847136
0.0491285388146828 -0.139842294112074 1.0
0.0510316298466313 -0.140250409683904 1.0
0.0698788120356535 -0.162782620536738 0.998496886407559
0.0798177817082652 -0.16543695990575 0.998496886407559
-0.269624103255161 0.208164238498029 0.330039693959699
-0.270709146966935 0.206750182002203 0.338825400255627
-0.271894610602717 0.205205255713472 0.345707728010601
-0.267458034904884 0.210987113731419 0.358884804224528
-0.273608405731889 0.202971794417282 0.361101512175394
-0.270101915462278 0.207541541506262 0.3798310819353
-0.268424276556018 0.209727883095365 0.389139755405676
-0.268049575913833 0.21021620247948 0.394804404957362
-0.273342821718157 0.2033179102426 0.396203366599828
-0.26729362536312 0.211201376417783 0.410357661551563
-0.270104169177823 0.20753860440698 0.422626751386149
-0.271354390989801 0.20590928361993 0.427060705116163
-0.26710660818329 0.211445101951694 0.438660414033342
-0.268518172479604 0.209605515545341 0.450500765341059
-0.269769978588264 0.207974130062658 0.456450307149394
-0.269363032978551 0.208504471906602 0.470633515125503
-0.269328062507204 0.208550046312162 0.472787481012674
-0.272097986751849 0.204940210755692 0.47952196014436
-0.271050884196651 0.206304821373593 0.495424990543651
-0.268632309335145 0.209456769499223 0.49823196277962
-0.272052447816991 0.204999558251051 0.510199506076051
-0.271143135764471 0.206184596789727 0.519097305141019
-0.267270010945869 0.21123215132551 0.520926076457402
-0.269902800610539 0.207801033033157 0.530043713714764
-0.270382645818631 0.207175686582935 0.541995681580518
-0.269938545810544 0.207754448981554 0.548975833394196
-0.269999375740744 0.207675173873088 0.562529931882805
-0.269724362036305 0.208033578710593 0.568677461044
-0.269479737035121 0.208352380218966 0.580291455977765
-0.273023576948888 0.203733958126058 0.583024906246825
-0.26774743855727 0.210609955548637 0.592201604276705
-0.269120220794242 0.208820910906029 0.601961367186983
-0.268089097771867 0.210164696591309 0.615993590582918
-0.273021753517228 0.203736334468463 0.618741730713663
-0.268391704991202 0.209770331185066 0.625200625872939
-0.271436663316227 0.205802064236649 0.638778585064739
-0.266951261436932 0.211647553773136 0.65137610101602
-0.270988494080107 0.206386129756488 0.653234622706959
-0.271289778800558 0.205993487864347 0.670541037298495
-0.273064877911766 0.203680133663313 0.672393737859687
-0.272132791150688 0.204894852780039 0.681349002288858
-0.268456271677711 0.209686186240968 0.69515610961625
-0.269211207280425 0.208702335008648 0.701858817818693
-0.266920245922561 0.211687973978416 0.709504760431705
-0.268363889893958 0.209806580525542 0.7219985652798
-0.266856800468242 0.211770657704277 0.732938637181424
-0.267323584004664 0.211162333555987 0.733943149714897
-0.272442792872762 0.204490850670207 0.750440380441354
-0.270128002069168 0.207507544778271 0.751747703955451
-0.266963379625331 0.211631761042542 0.764845556790503
-0.269381692345572 0.20848015454606 0.778199366236548
-0.268995786079254 0.208983077383863 0.785613646893212
-0.270864703354678 0.20654745697079 0.786006247983225
-0.272156406505107 0.204864076650971 0.800932977643171
-0.270742847674965 0.206706262384416 0.810694277054473
-0.272732353664341 0.204113487699642 0.814612420820406
-0.27151973545391 0.205693802519045 0.818514216278429
-0.273452331115385 0.203175194817568 0.830593297871765
-0.270274818643072 0.207316209694005 0.841866922686889
-0.270114032483741 0.207525750296447 0.852607932513741
-0.272629435231385 0.204247613612803 0.860602338273857
-0.271938285473913 0.205148337513173 0.870941024199148
-0.268943616940382 0.20905106552932 0.883485274567527
-0.272980392493495 0.203790237204039 0.886241799659785
-0.270259353754787 0.207336363928807 0.896577287269107
-0.268330831027824 0.200083068996192 0.901868155464892
-0.254752627750223 0.189413041270883 0.902795029561922
-0.256371239237045 0.187303625712485 0.906643114564535
-0.252365958840581 0.1925234087505 0.910901782478515
-0.255760760240274 0.188099217430664 0.916720839958794
-0.247425451849222 0.184310067778659 0.923341206785484
-0.236181614709929 0.16889671453495 0.923341206785484
-0.225375634458304 0.167073349745385 0.923341206785485
-0.227112747489091 0.162429566661899 0.923341206785484
-0.21743689146986 0.153625655380367 0.923341206785484
-0.204045444951383 0.141230867710988 0.923341206785484
-0.202257059771951 0.136127476723166 0.923341206785484
-0.188414072368119 0.12610347570892 0.923341206785484
-0.180680230773339 0.116658776090759 0.923341206785484
-0.161555566056827 0.0994438762646385 0.923341206785484
-0.159012654552668 0.0977776392803671 0.923341206785484
-0.151656783523505 0.0893749579125317 0.923341206785484
-0.1397912303839 0.0804781095291442 0.923341206785484
-0.14075253663229 0.0722112464165673 0.923341206785484
-0.127302948371762 0.0607814118808145 0.923341206785484
-0.113403564559735 0.0464282529717628 0.923341206785484
-0.110358652040901 0.0415193450232907 0.923341206785484
-0.103071336568971 0.03468529925557 0.935653710654089
-0.103071336568971 0.036018274112924 0.931131001081597
-0.101322208246201 0.0379287111578809 0.945409234692011
-0.103087802077758 0.0274502926682619 0.957949524702766
-0.0979790375537875 0.0274657155826737 0.957932953555903
-0.0956870647811572 0.0185192344231054 0.966559379700484
-0.0824566582452012 0.0129959565247488 0.971160469216878
-0.0879480579145152 0.0102769796463383 0.973182274817532
-0.0757321100310611 0.00247623830015085 0.978538304174323
-0.0741924659373502 -0.00152966775488315 0.980985777021078
-0.0609022813976775 -0.00808789497610589 0.984532578059837
-0.0564304643055313 -0.0132816642543876 0.987089680670996
-0.0491740702753401 -0.0202138766060703 0.989911633058428
-0.0412883034931688 -0.0267946780796519 0.992331880170769
-0.0275392225097565 -0.0430416529730791 0.996352753727382
-0.0162614304947855 -0.051268051057426 0.997644306060991
-0.0135959108611906 -0.0542273534936786 0.99792249873755
-0.00409125062822136 -0.0662587531071463 0.998496886407559
0.00254413633293797 -0.076035535669019 0.998496886407559
0.0160134024000412 -0.092773204156969 1.0
0.0305660099387518 -0.10089214042902 1.0
0.0421152613288853 -0.123266782387857 1.0
0.0428056877933116 -0.125799501022577 1.0
0.0709634327477466 -0.143590250485394 0.998496886407559
0.0815564162275435 -0.158286392121266 0.998496886407559
0.168992841374319 -0.24993341398682 0.923341206785484
-0.264002233580015 0.215490801701486 0.335652498877001
-0.265690192946897 0.21329101022624 0.334514559216802
-0.261716125436373 0.218470115839339 0.346058211097287
-0.261309988218043 0.218999404167122 0.356766933449359
-0.265077068328929 0.21409004978509 0.365756231180994
-0.263256490896097 0.216462672488779 0.375515779446615
-0.266244068265422 0.212569185857749 0.378769164470449
-0.265357310807372 0.213724830676636 0.391205667008163
-0.266821845165292 0.211816212341996 0.399588735118849
-0.26477131092258 0.214488520594977 0.406219036833234
-0.263417954178683 0.21625224944213 0.425157155585271
-0.264786032615493 0.214469334911243 0.426306327383578
-0.267295844715286 0.211198484101729 0.432690981086293
-0.266214883105849 0.212607220698215 0.445955689592353
-0.266997704202295 0.211587028382931 0.451542601800376
-0.263819067268728 0.215729508685805 0.465942024134761
-0.265154292189568 0.213989409690517 0.470125347069559
-0.262853885166907 0.216987358490311 0.485417833735724
-0.26365907754319 0.21593801135552 0.484678112590919
-0.264809404408716 0.214438876197305 0.501638144024041
-0.265113705836854 0.214042302855165 0.505068341155112
-0.264503419800956 0.214837643101838 0.519072804119671
-0.264821721143493 0.214422824716034 0.527999401797869
-0.261699500375528 0.218491782040458 0.539914720029623
-0.264208534999403 0.215221944457286 0.543381175602948
-0.265132556504059 0.214017736187368 0.549538481356669
-0.265881542714949 0.213041638353429 0.558803978785369
-0.263407092046756 0.216266405248061 0.562339398533299
-0.266486185884 0.212253652034005 0.58244848286213
-0.265099633500974 0.214060642280338 0.589488185215584
-0.26184309610675 0.218304644440098 0.592507527379891
-0.264169634174848 0.215272640998871 0.60641848108031
-0.267746967352544 0.210610569634591 0.6099471974502
-0.262718134044381 0.217164272797577 0.622202450600919
-0.2655561169991 0.213465741403297 0.629227610719439
-0.261564166337378 0.218668152792783 0.643837746175322
-0.264340634927942 0.215049788478664 0.654088821732789
-0.264849257561413 0.214386938557523 0.65600915986514
-0.266879789496509 0.211740697819341 0.671331289332193
-0.268293862531096 0.209897841961617 0.673515003330109
-0.262597239575021 0.217321825537484 0.682380517581258
-0.264526060172506 0.214808137595182 0.692064796050688
-0.265168335617045 0.213971107939507 0.70572079169057
-0.264984766866182 0.214210339393293 0.710301583120737
-0.263171837226218 0.216572995299269 0.720964788044618
-0.263985209491658 0.215512987925383 0.727521217135362
-0.263063083652694 0.216714725715674 0.737283035184599
-0.264736482772928 0.214533909523295 0.74820349316477
-0.267158200945598 0.211377864954799 0.754674066667874
-0.262911814346659 0.21691186371343 0.765397465497584
-0.265710273798236 0.213264840351268 0.776071572032961
-0.264092038643033 0.215373765464751 0.77778055556579
-0.264440706752911 0.214919372337258 0.791713241555264
-0.265469423288098 0.213578722847142 0.796193941770257
-0.26443714695337 0.214924011558342 0.807853645716766
-0.265907102891574 0.213008327682716 0.821425953260833
-0.265707022516961 0.213269077503519 0.829698746416794
-0.267008670493236 0.21157273683433 0.840276248376401
-0.262997800626857 0.21679980421136 0.843684586481624
-0.264565189073704 0.21475714381833 0.85565350515475
-0.261727928449615 0.218454733853006 0.861436808587362
-0.264117294415144 0.215340851501726 0.872140989151911
-0.266030059079505 0.212848088058856 0.873201995664998
-0.265860829520428 0.213068632314081 0.887068615954801
-0.264335542952989 0.215056424469621 0.899674231777036
-0.257573591302386 0.20933117675035 0.901868155464892
-0.252104778669175 0.205705003119106 0.901868155464892
-0.249053456488011 0.196840345863966 0.905374190491064
-0.249964660439536 0.195652841754505 0.914465958630973
-0.249420640782761 0.196361821974539 0.922686179396619
-0.237368175690832 0.18659107874751 0.923341206785484
-0.228402114381264 0.179699688638466 0.923341206785484
-0.228685521146497 0.170363334215468 0.923341206785485
-0.216788466749288 0.164263323253863 0.923341206785484
-0.20380399621915 0.150450938101166 0.923341206785484
-0.193310805951676 0.146137942605507 0.923341206785484
-0.191162183876972 0.132505256243449 0.923341206785484
-0.178563858491592 0.129599188617351 0.923341206785484
-0.16881485872367 0.112169380736577 0.923341206785484
-0.165731166751341 0.108761701195677 0.923341206785484
-0.156390228798288 0.108477992434137 0.923341206785484
-0.143162291114135 0.089786524937317 0.923341206785484
-0.136080494041066 0.0822861216668475 0.923341206785484
-0.129059303185538 0.0756803803114944 0.923341206785484
-0.11481574803293 0.0669476869578058 0.923341206785484
-0.105197852944776 0.0548480429129339 0.923341206785484
-0.10203249295718 0.0530106057966149 0.923341206785484
-0.0970265755562167 0.046102260954747 0.932756626971939
-0.091339617291151 0.0423354067422023 0.938861067157101
-0.095144637089631 0.0393840022735319 0.943489682001759
-0.0885336629802587 0.0331844447458826 0.95154008234476
-0.0810355990224512 0.027268290807424 0.958145076560517
-0.0771727919426727 0.0245554130250966 0.961059927473263
-0.0733623954416372 0.0237174887747777 0.961904289303208
-0.0708849619382847 0.0132593841809043 0.970964586892607
-0.0690584503298774 0.00782986361970179 0.975001927249073
-0.0525481602265438 -0.00158477468161463 0.981019445485838
-0.0522695421492398 -0.00039560920197078 0.98029290567643
-0.0441364312091791 -0.00948032531027091 0.985218127812353
-0.0311626211570833 -0.023722106215374 0.991258474966076
-0.0228018058760712 -0.0257443485616113 0.992034832571664
-0.0248435567811324 -0.0362543906937319 0.995007216693235
-0.0172342212341363 -0.0410497988022617 0.995980671875845
-0.00305582413036532 -0.0502570659602077 0.997549267227949
0.00791385357396735 -0.0663058131446768 0.998496886407559
0.0194614186051781 -0.0748502612290405 0.998496886407559
0.0305572127918866 -0.0855231116069768 0.998496886407559
0.0417359012422292 -0.0928750320935589 1.0
0.0483248037483911 -0.11053126379289 1.0
0.0637356521315796 -0.124021961896436 0.998496886407559
0.0796841406587532 -0.135993377341231 0.998496886407559
0.0756534288270828 -0.136835231465952 0.998496886407559
0.171772268572722 -0.238284247759721 0.923341206785484
0.190712518091009 -0.244862440148052 0.923341206785484
-0.259046014895343 0.2219498716447 0.322950406420376
-0.262403637714117 0.217574132394844 0.34383208459706
-0.259793592882181 0.220975609044075 0.346013148788722
-0.258862436870315 0.222189115184814 0.354634249987036
-0.258530547318646 0.22262164206953 0.362231828874407
-0.259419996800642 0.221462488936732 0.380042737571027
-0.25618704696249 0.225675751194933 0.388107698740167
-0.257173187605735 0.224390587687467 0.394414406793996
-0.262005477873562 0.218093024401501 0.402439513049067
-0.259426423712955 0.221454113221536 0.410362522243201
-0.262105393937858 0.217962811251357 0.42104523955985
-0.259591532942042 0.2212389386849 0.431226314954611
-0.257659070142193 0.223757373237735 0.436502617136502
-0.258292372439814 0.222932037614797 0.449558496375597
-0.259938077472428 0.220787313060082 0.456908605175566
-0.262680248222885 0.217213646561423 0.464798212511308
-0.25853056908575 0.222621613702087 0.46500558163623
-0.261118370703983 0.219249124973326 0.482128521793353
-0.260902621417735 0.219530294917336 0.496817664806658
-0.261344503456778 0.218954423032252 0.497730519407149
-0.258977916755611 0.222038618868243 0.50526039593791
-0.256497022154901 0.225271783659233 0.517646943272518
-0.259099829409377 0.221879739204583 0.519793722959136
-0.258717778153651 0.222377638094772 0.530518939613067
-0.259971778313487 0.220743393268927 0.546208850010201
-0.257475024842609 0.223997225741904 0.558317062877926
-0.259364768484957 0.221534463879031 0.562328653310031
-0.259267368126477 0.221661398497526 0.57336411284638
-0.260921040542825 0.219506290646174 0.583078010471492
-0.259744159697395 0.221040031624748 0.591422687450248
-0.258332532015327 0.222879700637024 0.597599182838138
-0.258138756831978 0.223132233372592 0.602410972742442
-0.258608793937926 0.222519669089944 0.61719987816936
-0.257309241993231 0.224213278157595 0.623318929009274
-0.259107411136589 0.221869858505312 0.637489147851384
-0.259842556702559 0.220911798151008 0.632742934815278
-0.261024879918786 0.219370964536721 0.653129517084672
-0.258156148934955 0.223109567542706 0.66216380389962
-0.25940329106078 0.221484260280791 0.670888555472386
-0.2572007285085 0.224354695684193 0.672323486507685
-0.258290493310262 0.222934486544107 0.681219615020883
-0.259223494958985 0.22171857512259 0.694827905332057
-0.25790442615127 0.223437619061327 0.706545634322168
-0.258779092420585 0.222297731786386 0.708068888602333
-0.25736318084764 0.224142983673947 0.726088011786705
-0.260436503086408 0.220137752153469 0.722842729114041
-0.26118685721781 0.219159871610809 0.735875600472576
-0.259155002335946 0.221807836446786 0.742267621443462
-0.259495580466483 0.221363986385635 0.759670687943244
-0.262995783390598 0.216802433124835 0.765678296931538
-0.257532454054197 0.223922382536221 0.774520392555094
-0.258834818461828 0.222225108195512 0.784379875760146
-0.258569821480093 0.222570458985834 0.796715466494597
-0.256058999889887 0.225842625388868 0.802538669365451
-0.258386089902434 0.222809902639632 0.808245071640039
-0.260830601282772 0.219624153384576 0.816504782662495
-0.260689549037546 0.21980797624945 0.828237679765358
-0.259343795308633 0.221561796654565 0.84347433378648
-0.258003696593128 0.223308247302724 0.839325433826464
-0.25841868009228 0.222767430277319 0.859122899718387
-0.26058422303101 0.219945239773588 0.85920205229453
-0.256660933583314 0.225058170126827 0.867038139475188
-0.259230842982695 0.22170899899165 0.882430745961576
-0.25689087466221 0.22475850507855 0.886368734616638
-0.260508835481696 0.22004348674065 0.899111098014366
-0.256239590037998 0.223917203824147 0.901868155464892
-0.248278364512456 0.207191585719615 0.901868155464891
-0.246016309329828 0.200798433101562 0.908881723888087
-0.240296005194874 0.208253278590603 0.914701791838356
-0.24166637038459 0.205659009781078 0.923341206785484
-0.232260996048656 0.198060560896097 0.923341206785484
-0.230622476359066 0.1853070288524 0.923341206785485
-0.215229748033888 0.178678351369496 0.923341206785484
-0.206403941170952 0.169032095608848 0.923341206785485
-0.201539087227105 0.162402998495609 0.923341206785484
-0.184783385191982 0.148127021911529 0.923341206785484
-0.182506905485264 0.139322697793375 0.923341206785484
-0.175928348799302 0.132373500605676 0.923341206785484
-0.16343220737459 0.131812953078477 0.923341206785484
-0.151472281796386 0.114237724039704 0.923341206785484
-0.146389910896621 0.10905810648013 0.923341206785484
-0.1427000039813 0.0987693201352751 0.923341206785484
-0.129453224292566 0.0875455067543917 0.923341206785484
-0.119922881075351 0.0783593650533771 0.923341206785484
-0.107234496585369 0.0728397442523416 0.923341206785484
-0.0942805816477399 0.0549045793795738 0.923341206785484
-0.0949703239921719 0.054268335313287 0.923341206785484
-0.0921004630242961 0.0474765525301107 0.930095434766255
-0.085909295936925 0.0451602717281992 0.934430901062575
-0.0860880755924375 0.0369966828002943 0.946613661967418
-0.0797472455950658 0.0374449147068279 0.946034427731097
