ply
format ascii 1.0
element vertex 867
property float x
property float y
property float z
end_header
-0.0116594547092844 0.152543550864345 0.962499999999999
-0.0126658783690787 0.145996492145952 0.9625
-0.00826829020272178 0.125404195857954 0.9625
-0.0096210730158782 0.125559743260711 0.9625
-0.00948287619252975 0.10615866013752 0.9625
-0.0064733710312191 0.089295991793497 0.9625
-0.0123167662805687 0.0857133441950734 0.967616369855367
-0.0134867748378082 0.0855593096559216 0.98170125823924
-0.00876480406419114 0.0734793387170975 0.987499999999998
-0.00774251150473348 0.067329521777283 0.987499999999998
-0.00942637521024416 0.0133829373617406 0.9625
-0.00985501096382521 0.00320827802220284 0.9625
-0.0113363526792971 -0.0113544094052842 0.9625
-0.00728903402618636 -0.0239406590420538 0.9625
-0.00663457490569303 -0.0341491518687871 0.970705131564243
-0.00744053303511861 -0.0340669769631957 0.974691355228149
-0.0136283410101368 -0.0368664017925621 0.987499999999998
-0.00620635819080756 -0.044659754754961 0.987499999999998
-0.00993196726135558 -0.0688847419199762 0.987499999999998
-0.00670660997301973 -0.121614139604481 0.962499999999999
-0.0104763358108792 -0.134806591482465 0.9625
-0.00900718614803109 -0.161739934283347 0.962499999999999
-0.0151633076051885 -0.166602332425953 0.962499999999999
-0.014839135432748 -0.182369502840935 0.962499999999999
-0.0147740452219616 -0.193361123090885 0.9625
-0.016084005129047 -0.199159233097204 0.967294660979442
-0.00598769744757271 -0.200881773691323 0.98317854164093
-0.00973293839294113 -0.210178569985889 0.987499999999998
-0.00610879242887917 -0.268387865652143 0.962499999999999
-0.0148997784489961 -0.27928840695369 0.970474252868639
-0.0138800374459463 -0.279422658403635 0.976395150732277
-0.00657611756437782 -0.280384237698221 0.986557112973254
-0.0148390421417253 -0.279296403040237 0.997991417889322
0.00187316587640605 0.333086726367309 0.321289200542955
-0.00308645001979347 0.332926994479549 0.332886347639955
-0.00408836244561453 0.332795090206326 0.337563658979578
-0.00086659497514842 0.333219243940459 0.355094483680772
0.00170754897920943 0.333108530245468 0.36014703443318
0.00177941309711505 0.333099069154859 0.376235252192441
-0.00361082898657241 0.33285795867889 0.381895886221487
-0.00167659420735135 0.333112605518495 0.391117637954305
0.00240508727284855 0.333016697586948 0.393342319703431
0.00451336001519995 0.332739138214821 0.396248445254148
0.00318374772848796 0.33291418499319 0.416668104961021
-0.000552266633629797 0.333260626051682 0.425724856981183
0.00261644972465241 0.332988871192272 0.428131912502796
0.00331217954042205 0.332897276624379 0.439384242324014
-0.00142415595905637 0.33314583964437 0.451098924118688
0.00371363206362784 0.332844424397036 0.45784077704069
0.00294873956608559 0.332945124404724 0.466138863977729
-0.00318864839662602 0.33291353980799 0.477784899733234
0.00119213401900032 0.333176385912274 0.483984807761516
-8.85561105801532e-005 0.333321674700199 0.491129887574286
0.00162918730701698 0.333118846755327 0.503324128081662
0.00245016134059521 0.333010763473352 0.509923432749065
-0.000911281469646849 0.333213360851849 0.519241018754862
-0.00128605321516375 0.333164021215527 0.529723125767312
0.00216252507067565 0.333048631506684 0.535450443844418
-0.00444615547748146 0.332747985860061 0.547565027513464
0.00301847128009742 0.332935944050413 0.553231955186959
0.000894194270084461 0.333215610424349 0.567017164630341
-0.000954921068986839 0.333207615589602 0.576956882596867
0.00443524989330404 0.332749421607456 0.582132417976952
-0.000320612993741267 0.333291123831949 0.592984100223886
0.000678983749567982 0.333243943426882 0.598745205552486
0.00185903633559079 0.333088586556647 0.607332713753927
0.0021918952438363 0.333044764850032 0.619843754415064
0.000530092342342065 0.333263545352512 0.623566448952074
0.00293779447397601 0.332946565353436 0.63345578582444
0.00156999372227233 0.3331266397386 0.647018181571529
0.00435211265419438 0.332760366832628 0.654007816225347
-0.000689289545856542 0.33324258664306 0.668597494314009
-0.00135702298570582 0.333154677867982 0.675597349918362
-0.000691981101514989 0.333242232293035 0.678735268256956
0.00293642938807037 0.332946745070405 0.687122957759943
0.000101982647742712 0.333319907063047 0.70369408576883
-0.0034372642514191 0.332880808909767 0.704188278404548
-0.00335246231350411 0.332891973296693 0.71476271128057
-0.00128090292960022 0.333164699263485 0.729069197239783
0.00148500658118927 0.333137828507986 0.729683711786718
-0.00136976103612937 0.333153000871829 0.745764307851334
0.00142464070035122 0.333145775826968 0.749309061040528
0.00251276286085769 0.333002521826857 0.763047885935061
-0.000199680817194384 0.33330704485503 0.771783047306222
-0.00172396286855604 0.33310636931594 0.774207612712556
0.00299924161223235 0.332938475684215 0.789854701450833
-0.000500908092493634 0.333267387531895 0.79791607320915
-0.00187155537793872 0.333086938393455 0.809279551156272
0.00016906698349731 0.333311075242697 0.806780055120882
-0.00175678262465693 0.333102048513079 0.823288259581412
0.00165462979418323 0.333115497188347 0.825287978180347
-0.0037059546891427 0.332845435142562 0.837324268424411
-0.000553685313785363 0.333260439278896 0.848232095522518
0.00168167885952194 0.330424404653 0.858062594375012
0.000541533149777056 0.329906250016528 0.860067367375333
0.00319246393963861 0.326817680426986 0.868286071165708
0.00307510869209776 0.32481885189919 0.874328907083426
-0.000841068910477045 0.321079596260371 0.886429024750764
-0.00218468786984579 0.318687988718928 0.893073174999674
0.00239563208092554 0.317319135513985 0.897096420617784
0.00311941047092221 0.315010482007781 0.903736519438164
0.00414210894958047 0.312858578921284 0.909788306270675
-0.00331130667046428 0.308334646595246 0.923688234833928
0.00156208933396025 0.307187229645842 0.927821352175664
0.000627670054154451 0.30493814193555 0.934937671202478
-0.00392687336483045 0.301869141199068 0.942841628344228
0.0015016932639262 0.300344486065468 0.948373436797179
0.00245614427388666 0.298195578793705 0.954443191034609
-0.000948334724446604 0.294803885288054 0.965213792230771
-0.00342089343298434 0.291897865155513 0.972955297040161
-0.00191149328870001 0.291415013801088 0.978024958770831
-0.00226293563230903 0.291368745538794 0.986944784083687
7.80000574515066e-005 0.291656397764292 0.996500278842409
0.000706332732417459 0.229542968485484 0.962499999999999
-0.00334889259836679 0.225658567986776 0.9625
0.000891153385395245 0.203911740442527 0.9625
-0.000216992483551939 0.201729456087539 0.9625
-0.000309225940130153 0.179521658214126 0.9625
-0.00152446107862576 0.165035566335356 0.9625
0.003419151858585 0.152880917647574 0.9625
-0.00148025208190142 0.1432779383104 0.9625
-0.00424028518287153 0.126833023642782 0.9625
0.00345467066543491 0.115244481199097 0.962499999999999
0.00481380295271282 0.107365538888595 0.9625
-0.00137543534432664 0.0931237495348 0.9625
-0.00173253058566127 0.0871067851724509 0.972065926392707
0.00351176283167887 0.0868725449227591 0.983749177903432
0.004633191179311 0.0867249060721364 0.984581014637109
0.00152367595543897 0.0285864225866173 0.9625
-0.004267584930259 0.0134667525744311 0.962499999999999
-0.00062191212991976 0.00436622876462458 0.9625
-0.00496048475754125 -0.0055919655972223 0.9625
0.00050595977756302 -0.0263003020522854 0.9625
0.0038328907015066 -0.0305583468804732 0.9625
0.00321893956036076 -0.0344974075681714 0.980903037885746
-0.00217737916239269 -0.0389314526514847 0.987499999999998
0.00459021926899012 -0.0469330979736833 0.987499999999998
0.00277759293185463 -0.0692307393482426 0.987499999999998
-0.000180755298402702 -0.119347994146225 0.962499999999999
0.00388082041774442 -0.12864415758801 0.962499999999999
-0.00474800746406106 -0.155271050122842 0.962499999999999
0.00271634936607324 -0.170791502410938 0.962499999999999
-0.00230092905590482 -0.191171266510703 0.962499999999999
0.0030045306744625 -0.201185935209142 0.96719147263898
-0.00280254061830635 -0.201206529968582 0.967969544623767
0.00323610696085942 -0.201162323859151 0.983482316421253
-0.00127996187359715 -0.202519825635673 0.987499999999998
0.00199612110438741 -0.28098720567112 0.960040590880027
0.00335019011377229 -0.28080893910413 0.963307169651776
-0.00276942319133229 -0.280885398519985 0.980361365491931
0.0019082110054295 -0.280998779255212 0.986544579906206
-0.0010387928501604 -0.283093575866045 0.999999999999999
0.00207308997562052 -0.289524706535527 0.999999999999999
0.0059923491867167 0.332544425596487 0.320822602304016
0.00737777556742769 0.332362030753242 0.339358561545494
0.0046604290251454 0.332719776212345 0.34611210691792
0.01092872217497 0.33189453976356 0.35386131181645
0.00664245814945975 0.332458837127837 0.352451355716294
0.0104819213135014 0.331953362212897 0.368733486275616
0.00725294193935301 0.332378465412161 0.380005201279354
0.0117630705146976 0.331784695720777 0.387352580898957
0.00927932862263734 0.33211168654423 0.394747046225191
0.00711964385132855 0.332396014438373 0.404286618191569
0.0087943929230991 0.332175529540242 0.411951655484614
0.00811745860753734 0.332264649633589 0.427694517967996
0.00658774073878096 0.332466040811615 0.426972482112381
0.0117484359879647 0.331786622392773 0.440953226138537
0.00821882313079947 0.332251304740935 0.447438126746602
0.00965183489178532 0.332062645163529 0.461404189392706
0.00461347674080805 0.332725957597845 0.469481781569978
0.0111170318529842 0.33186974832413 0.477110496170961
0.0044203666347237 0.33275138102562 0.480467155883315
0.0118757680179873 0.331769858812997 0.487436071412175
0.0055277904331597 0.332605585916669 0.50228708360344
0.00839857757683796 0.332227639619161 0.50613742071023
0.00929170557548544 0.332110057087475 0.51621845172325
0.00587281257378895 0.332560162890132 0.527092874484766
0.00460323749470849 0.332727305620168 0.536890246529783
0.0105186822754708 0.33194852254044 0.545789514275555
0.0132931192352403 0.331583260985287 0.55494005259122
0.0120807320656674 0.331742874784205 0.566022468177551
0.00696583534823213 0.332416263711956 0.565310968203863
0.00705105499189263 0.332405044333025 0.583952546933097
0.00849203109877102 0.332215336229591 0.587970290730845
0.0116461736365642 0.331800085486744 0.594545165821951
0.00499389160172106 0.332675875031286 0.611370375144728
0.00713918842198189 0.332393441346833 0.612280604072431
0.0112149447445328 0.331856857847411 0.62631677335132
0.00643535069020062 0.332486103342118 0.628358293301309
0.00947611551986622 0.332085779057717 0.643363645567035
0.00939640073234792 0.332096273708588 0.655424873763546
0.0102249015627537 0.331987199505012 0.660015918356826
0.0113060740359332 0.331844860448595 0.673392379008356
0.0133963661736469 0.331569668267978 0.674295607117155
0.0123229729047329 0.331710983172724 0.690509077362138
0.00789577077648005 0.332293835390233 0.696748756208132
0.0124480262258957 0.331694519590661 0.705010032936698
0.00489256022553377 0.332689215560046 0.712913065710038
0.00633772567338454 0.332498955919409 0.727233183816807
0.00807786381637791 0.332269862386736 0.727985731963544
0.0082065665416176 0.332252918351512 0.741157289446814
0.00966266752401055 0.332061219020441 0.746098658324534
0.0053160903320158 0.332633456763723 0.757414768308357
0.012991502729643 0.331622969551563 0.768349680469724
0.00644602295792918 0.332484698311417 0.774693383078238
0.0133735758045769 0.331572668676987 0.785127571956207
0.00989932567777616 0.332030062383423 0.790679464075598
0.00750735338224723 0.33234497151029 0.803501882327293
0.0106864615541697 0.331926433979356 0.811008040619875
0.0127329145419441 0.33165701333232 0.820265539153412
0.0105775147118758 0.331940777103247 0.830789652261575
0.0110899294920668 0.331873316417635 0.835162281373563
0.00931537555629428 0.332106940875383 0.848986681557089
0.00550869518306074 0.329929287618007 0.858036436708085
0.0117524873958476 0.326379081972084 0.866221021128168
0.0124624772415999 0.324958238972008 0.87020313431903
0.0044149353754478 0.324318368078712 0.875301183957271
0.00523596535178053 0.320926828038143 0.885151532138044
0.00731175859943226 0.319296110715695 0.889223834008801
0.00774374028104583 0.316112996740972 0.898602561531079
0.00840106902909923 0.314689973993486 0.902612012859289
0.00583776872813845 0.312818742648428 0.909238101554523
0.010784300905494 0.309570899711146 0.917027960419733
0.00693207425790438 0.306593221467513 0.927482460928918
0.00830053472828838 0.30484472530897 0.932187465688221
0.00513472634530788 0.302555969489371 0.940304092888524
0.00848547079779353 0.301041089565565 0.9435253310321
0.00656171508692863 0.297319353705827 0.955450340343568
0.00737952729665697 0.294726971136891 0.96290448699047
0.00574335198374906 0.290910540033483 0.975385314170235
0.0057996488465694 0.290903128410887 0.98124912930061
0.0086885216766666 0.290522801087592 0.987452386849903
0.0112603896685726 0.290184208242992 0.996865003161235
0.00504277446100624 0.287068941483512 0.999999999999999
0.00978633322825776 0.220668813996541 0.9625
0.0107092991458183 0.203868481844832 0.9625
0.0114752969754643 0.19166596381295 0.9625
0.00985868008075373 0.183450595001195 0.962499999999999
0.00772361659078524 0.170268364749375 0.9625
0.0134000440092061 0.165737482368745 0.962499999999999
0.00933996994026498 0.151856286491783 0.962499999999999
0.0105107912451094 0.131299218535494 0.9625
0.0129834621722725 0.120529722192541 0.9625
0.00680001638767819 0.105914466583937 0.9625
0.0118604345238255 0.0916432415385504 0.9625
0.00654402123597094 0.0864733405094352 0.965625368629099
0.00986755609824546 0.0860357888209062 0.981044010537374
0.0105994669417259 0.0794870981899701 0.987499999999998
0.0131606963157147 0.0664783391287912 0.987499999999998
0.00540609183672232 0.00867944688190123 0.9625
0.00898284422430223 0.00528168036444274 0.9625
0.0107678612231005 -0.012931216372122 0.9625
0.0131350157656175 -0.0233281565506257 0.9625
0.0061631156797505 -0.0341972215090916 0.966619158561998
0.0148443243781268 -0.0328826075373389 0.972926780769744
0.0134745927340403 -0.0352300731917495 0.987499999999998
0.0106593931525797 -0.0431666530254901 0.987499999999998
0.0145074880449663 -0.0565193727017522 0.987499999999998
0.013705708571351 -0.0783622701998801 0.987499999999998
0.0106627474882672 -0.138618883591761 0.962499999999999
0.0105435518588704 -0.143924748061214 0.962499999999999
0.0149157835216716 -0.164074439442834 0.962499999999999
0.00528578383630212 -0.184538088081619 0.962499999999999
0.0105897999064591 -0.20041254666665 0.967280809886833
0.00734512317580791 -0.200743371549831 0.977256724379099
0.0102235698353451 -0.200449887218746 0.980671018356475
0.00726642314836422 -0.200751395747479 0.986478273873879
0.0135888089091358 -0.26396241519032 0.962499999999999
0.0112141056658269 -0.279773634980885 0.961672204166055
0.0147660304607124 -0.279306015210395 0.973689467039661
0.00777426119844238 -0.280226499096328 0.985132548642016
0.00919472029368351 -0.280039492108719 0.998195071597481
0.0141281454819963 0.331473327694351 0.32456991448
0.0142134733604566 0.331462094066037 0.332303910704324
0.0185889283838009 0.330886054484133 0.336870062495319
0.0190095044837743 0.330830684590146 0.349886302226183
0.0192759847493241 0.330795601797629 0.361431290530783
0.0169500461146145 0.331101817428123 0.365885739381367
0.0168638052594243 0.331113171252103 0.379572093307595
0.021445387158584 0.330509994552178 0.384676409896929
0.0205164303929398 0.330632294030526 0.393847888538763
0.0212639707116993 0.330533878480513 0.401671203631464
0.0139917223862722 0.331491288135632 0.411342258194584
0.0173061991294765 0.331054928994194 0.42388153701809
0.0160300139382712 0.331222941961999 0.424442813565424
0.0216640165231739 0.330481211450283 0.434888268638074
0.0180828313942162 0.330952683416833 0.449144160129541
0.0164581987647646 0.331166570360162 0.451157333081087
0.0201266324745545 0.330683611900035 0.463214946639154
0.0207313463475817 0.330603999808325 0.469224412270305
0.0181588414501468 0.330942676503128 0.488453649017078
0.0150075667365857 0.331357549689753 0.488813653190854
0.0145084606534927 0.331423258252153 0.497113917545149
0.0218352031423782 0.330458674304311 0.513169692730142
0.0200472563047783 0.330694061971035 0.514306553030383
0.0150700820667837 0.331349319390395 0.527670906291959
0.0133149797643391 0.331580382992033 0.53648761037333
0.0182583800998113 0.330929571991294 0.548460591057234
0.0194526164964445 0.330772347786967 0.555047828001793
0.0149642833694371 0.331363248053141 0.567179086045198
0.0177022129347058 0.331002792787656 0.57336846316242
0.0217065923142933 0.330475606241046 0.578829709112346
0.0178355229631897 0.330985242189452 0.587100592987863
0.0199465639492393 0.330707318371129 0.59159812141575
0.0150154385781814 0.331356513342146 0.608001432275589
0.0142795658007676 0.331453392831199 0.617527728766101
0.019272675265366 0.330796037499457 0.619250674239198
0.0185718693477136 0.33088830034884 0.631324344216222
0.0208201613668785 0.330592307089212 0.645581765722292
0.0153583390853456 0.331311369633954 0.651950038367674
0.0194960456173841 0.330766630234727 0.656265202836331
0.0215318148918016 0.330498616125238 0.673201397732625
0.0162096500729796 0.331199292416208 0.679116386150798
0.0187405122120805 0.330866098094546 0.688874816240806
0.0145814986482469 0.331413642617725 0.695146382841384
0.0198983211188184 0.330713669660245 0.701138120995822
0.0222687111020196 0.3304016018987 0.715233564765435
0.0212949181257992 0.330529804176153 0.722047796471408
0.0176286417858548 0.331012478613152 0.734684325145735
0.0220495013495126 0.330430461410114 0.734336826899219
0.0171411389661976 0.331076659576941 0.752654483948072
0.0178897530788057 0.330978102659287 0.755475632985032
0.0222331352961514 0.330406285542397 0.764825100915002
0.0172299082017325 0.331064972885374 0.777933249787044
0.0136965765578058 0.331530144821102 0.788338581756875
0.0158580357933207 0.331245583314312 0.791215367955951
0.0191042496900882 0.3308182111471 0.798590737375686
0.0153368952806051 0.331314192764406 0.81441945535585
0.0181583411869693 0.330942742364025 0.81860757440045
0.0201720762782312 0.330677629109781 0.830023218657479
0.015899648599626 0.331240104884431 0.838451858668488
0.0163669958515588 0.33065649590621 0.851566244635789
0.0149408333264217 0.328055480111787 0.859932565594258
0.0133141138021769 0.327513752621507 0.86220023312982
0.0221682443053317 0.324244042700608 0.868512357708405
0.0213865020053946 0.322589648929592 0.873784294000222
0.0197326989397838 0.319799585863084 0.882807665112059
0.0185190093563164 0.3192516415405 0.884930853874692
0.0216190128594884 0.316531594611633 0.891866625050125
0.0157876894711229 0.312594542342297 0.905980906723088
0.0153759126413855 0.309839887114628 0.914407506750345
0.0167630050636359 0.309668846730445 0.914372785357571
0.0183099686126296 0.30634222905094 0.923741653551382
0.0144342016879924 0.302055163254313 0.938133614128347
0.0208309974953924 0.301447117294527 0.937431289573902
0.0210855183012473 0.298890579590649 0.945000377786203
0.0199654839166953 0.295069852538813 0.956904924914039
0.0171626684713433 0.293087559880021 0.963958795851387
0.0154779378414503 0.291978952282675 0.967950015628986
0.020456936149163 0.288973459929644 0.975457659138683
0.014914699603479 0.289703109213103 0.984710470056348
0.0202520112842997 0.289000438799921 0.991146896370679
0.0153440430761445 0.28736759274997 0.999999999999999
0.0220466802466784 0.219918942192642 0.9625
0.0183303311997491 0.212083622718858 0.9625
0.0189945356474122 0.195435431330538 0.9625
0.0202033597777608 0.177201619783516 0.9625
0.0144580991993347 0.167655493180306 0.9625
0.0235863995309637 0.151532758972778 0.9625
0.0186416988924123 0.13854683958797 0.9625
0.0201350112418989 0.129058618446675 0.9625
0.0235474550834481 0.11318717956093 0.962499999999999
0.0217627963446898 0.100826266346238 0.9625
0.0177857310953139 0.0849933412511918 0.964321332829136
0.0159373417614862 0.0852366863363467 0.965338379608993
0.0227983842263886 0.0837781661766113 0.981384931932262
0.0198180989694105 0.0769523943211266 0.987499999999998
0.0169146760315709 0.0728513081073375 0.987499999999998
0.0178037675477302 0.0127529793981701 0.9625
0.0162274868866229 0.0096436965885081 0.9625
0.0232316424797667 -0.01433165288059 0.9625
0.0242765005408225 -0.0299149592719994 0.963045241493454
0.0159245640126447 -0.0318265613744798 0.9625
0.0229799066794397 -0.0303229069669127 0.981994817553747
0.0227734116952856 -0.0303878765424324 0.984561357427879
0.0172432935206064 -0.0569902702953121 0.987499999999998
0.018985091872584 -0.0725415029276493 0.987499999999998
0.021495683941065 -0.12653105972502 0.962499999999999
0.0226756425053579 -0.125529094662753 0.962499999999999
0.0254498918868159 -0.15356428919262 0.962499999999999
0.0257270937300193 -0.155749569160722 0.962499999999999
0.0223216535865675 -0.177336201305179 0.962499999999999
0.0231470336101202 -0.19055155394075 0.962499999999999
0.0200064466184901 -0.197925114217186 0.972592204315063
0.0167360111776771 -0.198954092248917 0.984541758193154
0.0165927270311947 -0.26160264363511 0.962499999999999
0.0261326090526001 -0.261002419946646 0.962499999999999
0.0195449800725672 -0.278676854558151 0.968976304773253
0.0175377461705979 -0.278941111914587 0.980274762951801
0.0220902145456557 -0.278341768082823 0.997263933919813
0.0181412592378289 -0.284128448104262 0.999999999999999
0.0305972110618485 0.329305134077833 0.322726829192
0.0246689952765338 0.330085598492206 0.329185064464065
0.0257668928384142 0.32994105753609 0.336766035762569
0.0253675836206098 0.329993627591923 0.339650628457238
0.0259079633552502 0.329922485250212 0.355893741176949
0.0247308317134904 0.330077457570839 0.370765703401385
0.0288458761608516 0.329535701691661 0.376140819264444
0.0274806765423475 0.329715433631142 0.382210293158012
0.027730845275846 0.32968249829256 0.392467029069676
0.0270457368917645 0.329772694522442 0.39653891135644
0.0282590597434907 0.329612957538632 0.40924604414633
0.0279837072358047 0.329649208383986 0.418398334513822
0.0251388314832392 0.330023743382137 0.432764580788275
0.0254371310522818 0.329984471498843 0.442457749303683
0.0224774137229029 0.330374125677408 0.449696053122697
0.0273207972155993 0.329736482143822 0.460368597009609
0.0233387526105933 0.330260728261575 0.467432725844271
0.0290989369848274 0.329502385602143 0.474379733756307
0.0269974146082165 0.329779056271759 0.478059219852097
0.0257911020623379 0.329937870331296 0.491812900350294
0.0260851488954828 0.329899158331304 0.495421975014487
0.0257774517505322 0.329939667428938 0.508324456566126
0.0287894852747881 0.329543125692652 0.516555037539507
0.0227593337271745 0.330337010204726 0.522752861490192
0.0306812091161974 0.329294075524185 0.532569405597988
0.0222220438476362 0.330407745759295 0.545710434730443
0.0267603557400574 0.329810265663828 0.557224264054023
0.0303928232728576 0.32933204224073 0.567142456443486
0.0263919915347986 0.329858761731472 0.567133975095426
0.0246817106281011 0.330083924484415 0.582313595702172
0.0242744209429828 0.330137545188702 0.580837346355135
0.029764882156172 0.329414712257079 0.600230989159056
0.0224688898976298 0.330375247860295 0.606537922855648
0.0248844164504462 0.330057237756627 0.610339221409332
0.0257122257327043 0.329948254597092 0.629712775015176
0.0243142489998676 0.330132301725539 0.634081342499649
0.0230640663828913 0.330296891389505 0.64684333820476
0.023209324694958 0.330277767769926 0.650501870924002
0.0284152847088169 0.329592390131761 0.661121540891676
0.0228411156707414 0.330326243407598 0.668041406333179
0.0235577691210067 0.330231894190966 0.677360154383038
0.0267590534058034 0.329810437119385 0.68884636504857
0.0270804162526903 0.329768128897961 0.69534628833588
0.0260829314152725 0.329899450268113 0.705111444806198
0.0264339497356183 0.32985323782954 0.71499610345629
0.0292903496356478 0.329477185648593 0.722339469301329
0.023310378415728 0.330264463795196 0.730275440746641
0.0262225786553786 0.329881065360171 0.738037024236152
0.0258078742728661 0.329935662227889 0.745993371427359
0.0258542065118775 0.329929562472905 0.754345715534402
0.0255950523489689 0.329963680765712 0.759111369153317
0.0284675167994112 0.32958551364658 0.774492098343062
0.0299438866036804 0.329391145874485 0.785162187640832
0.0295821323305638 0.329438771728054 0.788734845532878
0.0256537051996293 0.329955958971432 0.802661745927331
0.022557118863803 0.330363632296538 0.810989292169891
0.0263450626953921 0.329864940030389 0.820642595825927
0.025906105582643 0.329922729830615 0.826340592555476
0.0226998325215724 0.330344843687053 0.838869131882341
0.0251986253139283 0.330015871374986 0.84533654675778
0.0293761512897101 0.328132618485726 0.853999813482437
0.0307339412167951 0.325615891173078 0.861013726115081
0.0290341405997384 0.322940064231447 0.869712555929882
0.0299065181702442 0.321024146685853 0.875115756508674
0.0238243565288588 0.320819898814779 0.878130695434355
0.0226644134746701 0.315728930534495 0.893861728475634
0.0271278098968271 0.312961765050263 0.900400373068231
0.022474811407387 0.311364177767198 0.907030871534641
0.0290877980572704 0.309560048382543 0.909831411061698
0.0253355132202352 0.305692393272147 0.922916369404255
0.029671854558696 0.305505976394783 0.921762949533544
0.0311096719532404 0.302127371534826 0.931330887360218
0.0248069772603374 0.300087711696406 0.93993916336903
0.024363576796653 0.297769756236878 0.94706815408304
0.0230436895209124 0.295227797284336 0.955215330309822
0.0236013815914706 0.293003645227808 0.961667521817488
0.0279086672351364 0.290790674354922 0.966605239697711
0.0248271519106235 0.288398110109652 0.978481253131943
0.0244421785054371 0.28844879281995 0.982932690559065
0.0259150483557997 0.288254885825528 0.991359455762581
0.0264853187544211 0.28817980830325 0.997833357038228
0.0269392194965147 0.217725651584764 0.9625
0.0297095539778427 0.206377861233937 0.9625
0.0312971405239235 0.195817052781914 0.9625
0.0276521708775993 0.185227750068816 0.9625
0.0252236714701114 0.176818738765548 0.9625
0.0324771545400115 0.15308181696048 0.9625
0.0253539692272246 0.142645660532609 0.9625
0.026700358527635 0.131382083681342 0.9625
0.0278150025035601 0.113511033242881 0.9625
0.0260391162430093 0.106747866232495 0.9625
0.026994347099041 0.0916223795563623 0.962499999999999
0.0279291499623403 0.0816529333898308 0.965679570064445
0.0299284462373708 0.0808247977444231 0.980661486793519
0.0263953919927556 0.0822882367522724 0.981989265690858
0.0265480303498127 0.0702711747464446 0.987499999999998
0.0266297185445559 0.0185287989638596 0.9625
0.0264110726351505 0.010145026912577 0.9625
0.0296202888934451 -0.0111563167980621 0.9625
0.0273501770098123 -0.022975013354898 0.9625
0.0309148006844367 -0.0264235434028638 0.969053589256608
0.0303231172673484 -0.0267529863727473 0.981858646174583
0.0293393706462083 -0.0320804507375028 0.987499999999998
0.0351675833097391 -0.0398591280211347 0.987499999999998
0.0351348363902718 -0.0643198106256698 0.987499999999998
0.0347082372233146 -0.128883848344107 0.962499999999999
0.0300831030291409 -0.137256571796573 0.962499999999999
0.0362494005006888 -0.163175919881424 0.962499999999999
0.0353655817770915 -0.168499696908548 0.962499999999999
0.032994391815948 -0.178422499236879 0.962499999999999
0.0371481721723871 -0.189386835909112 0.96539153749999
0.0342450683098005 -0.191235952834461 0.980168401844183
0.0348050867501975 -0.190924140583406 0.984585165039662
0.0313208878734866 -0.208498771989413 0.987499999999998
0.0286261980203377 -0.277481289534191 0.958273379756675
0.0376246022739234 -0.276296627139906 0.96931069395889
0.0300778606473833 -0.277290174523686 0.980168384101479
0.0374253496959818 -0.276322859239443 0.985221985446331
0.0372171381383894 -0.276350270811026 0.996995349721226
0.0393804342646392 0.328148800806318 0.32143012187579
0.0355796462494681 0.328649184041315 0.325082359244432
0.0358976387216111 0.328607319538144 0.340320104669385
0.0328943523495645 0.329002709689994 0.351935471142951
0.0318360900715525 0.329142032561997 0.35921159733806
0.0340997705995625 0.328844013366744 0.368764053698113
0.0388634084573813 0.32821686854516 0.37845767628273
0.0392226701496139 0.32816957084609 0.383443643806322
0.038495017524077 0.328265368131618 0.395086491243159
0.039621315861216 0.328117088142505 0.405771434970883
0.0353001567260578 0.328685979535121 0.409078290757203
0.0330590211649837 0.328981030629169 0.417207801785861
0.0342709818908206 0.328821472972635 0.427213645984816
0.039550578552488 0.328126400885872 0.431350787696388
0.0363942209094856 0.328541943252853 0.448828774677085
0.0397194722377157 0.328104165610385 0.455899196380919
0.035900030981856 0.328607004591108 0.459872092808357
0.0314074317200941 0.329198466504578 0.471398008593482
0.0317440679932038 0.329154147498444 0.479780385063751
0.0349170803630194 0.328736412495082 0.488686680134906
0.0382033533471816 0.328303766448964 0.49277433649603
0.0378289383984158 0.328353059112103 0.512871732216918
0.0400282023060391 0.32806352052581 0.511061206055367
0.0340157247565532 0.328855078211888 0.518428549363894
0.0353541050712069 0.328678877100742 0.528413328043706
0.0324705855399627 0.329058499648873 0.540778344174477
0.0375724151796863 0.328386831034538 0.549960727760039
0.0315684559394418 0.329177267263928 0.563603671920269
0.0390551759171962 0.32819162188012 0.569575917523044
0.032608029244966 0.329040404841831 0.576744112976316
0.0315063558238154 0.329185442899251 0.587887392009598
0.0327776134661397 0.329018078655563 0.594542912610848
0.0379317502365645 0.328339523676828 0.605032651233331
0.0343580227980697 0.328810013819803 0.609798237385307
0.0395493282994516 0.328126565484807 0.625004948963146
0.0400225799503674 0.328064260722977 0.630055027328454
0.0396341881059181 0.328115393479341 0.64380060481874
0.0393264027194305 0.328155914194193 0.645428475972887
0.0335472391057752 0.328916755517897 0.657566852657406
0.0319765641971015 0.329123538792521 0.667077733573685
0.0381532861590294 0.32831035791933 0.680714307008469
0.03363299199142 0.328905465936327 0.68285590514616
0.0311703082933087 0.329229684395951 0.69217359402727
0.0342884282090993 0.32881917612126 0.709395843199783
0.0373825760691361 0.328411823827581 0.715627125048105
0.0382428807550064 0.328298562567 0.724980189744717
0.0390123468354705 0.328197260435698 0.736022580215424
0.0323018427232017 0.329080715062149 0.742976381261598
0.032584090305017 0.329043556463065 0.752781750627487
0.0356870378682954 0.328635045666477 0.756366558743429
0.0387910872238762 0.32822638981618 0.77129870594848
0.0331049338021153 0.32897498611582 0.778268938903304
0.0392227549725404 0.32816955967894 0.780134404452968
0.0318532425053329 0.329139774401249 0.793836770908963
0.0383237353329586 0.328287917859871 0.798408622118042
0.035988283935171 0.328595385869384 0.814143937519411
0.0397888338420183 0.328095033981942 0.814108866820514
0.0388297060616441 0.328221305549733 0.823573840604766
0.0389517184423889 0.328205242315072 0.835423640775141
0.0400587743530091 0.32805949563947 0.845218213817313
0.0312241208688467 0.328767577147405 0.851365068065722
0.0391622161012785 0.323454751042847 0.864168336189089
0.0315031450032087 0.322946525171282 0.868718021321565
0.040045767406413 0.320117195322521 0.873832038141865
0.0365725037743023 0.31786063815197 0.881973501149358
0.0355852914774641 0.317069275007288 0.884737497476984
0.0332055311049955 0.313311177275924 0.896951694861162
0.0313237473610253 0.311560277577172 0.90294761854686
0.0355882583496127 0.308738603004694 0.909728341696383
0.0316678567908025 0.307901944749823 0.913786708431283
0.0331303089538938 0.30505931225662 0.921736999471273
0.0325290392453611 0.301161016014327 0.93366936417471
0.0324104576817825 0.299205677961849 0.939582213009181
0.0402236999781914 0.296597543388272 0.944320718142182
0.0318720879129424 0.295262462676865 0.951624492038214
0.0350139466910725 0.291943287532767 0.960341116804884
0.0355698244856646 0.290212583048263 0.965313682158362
0.0315568206017685 0.287897717919378 0.973843243497445
0.0332923060221811 0.287283651428403 0.989350702623288
0.0386654757738365 0.286576260210637 0.986684354788864
0.0328281163477746 0.287060829098729 0.999999999999999
0.0379798246738273 0.220157431228187 0.9625
0.0389670588248298 0.21161305270537 0.9625
0.0418238970109185 0.192376447614248 0.962499999999999
0.0329274176407419 0.184691348663625 0.962499999999999
0.0422851480495556 0.16421962711266 0.962499999999999
0.0411633722125457 0.157406377210113 0.9625
0.0353170193216661 0.14253305125641 0.9625
0.0412207981655921 0.12461979143649 0.9625
0.0354279132396724 0.122431820749568 0.962499999999999
0.0348372321985795 0.0961202427642664 0.9625
0.0358726750937671 0.0941945263888492 0.962499999999999
0.0388324610437957 0.0806002199798588 0.9625
0.0397212887395059 0.0767684695017446 0.970702284193806
0.0438427793441876 0.0737915423462002 0.977594089382085
0.034581412400755 0.0630432313993817 0.987499999999998
0.0432188294531544 0.0580795197390523 0.987499999999998
0.0414821748626846 0.00660509535317398 0.9625
0.0412383973948376 -0.00628575281408525 0.9625
0.0388030677923032 -0.0212941179470992 0.966890323908579
0.0437558487849094 -0.017026223546351 0.97476041415599
0.0398260205342489 -0.0204126224224446 0.982778618504743
0.0432266031063572 -0.0325133299477337 0.987499999999998
0.0441233857072375 -0.0464318329306094 0.987499999999998
0.0407876206464244 -0.0717007438305455 0.987499999999998
0.0425168766004596 -0.0724286047086761 0.987499999999998
0.0412854110592514 -0.0851153679376427 0.987499999999998
0.0402509638888469 -0.16075504653471 0.962499999999999
0.0450049464904313 -0.171188714193345 0.962499999999999
0.0383746801799448 -0.188329933400049 0.964327659907281
0.0416951475298068 -0.185468631026393 0.97313621874639
0.0383012216673804 -0.188393233831651 0.973348244859198
0.0428281682242224 -0.194904286152359 0.987499999999998
0.0424375130319635 -0.203129648247157 0.987499999999998
0.0476709635864774 -0.274973998581443 0.959734458701926
0.0487181254638603 -0.274836137104907 0.966337513083397
0.0402009493538437 -0.275957444612182 0.975545406134849
0.0469374272576065 -0.27507057047121 0.993433302570838
0.0457553403325652 -0.275226195167256 0.997391459122509
0.0486919808162188 0.326922912446401 0.32428961805437
0.046249848057224 0.327244425323562 0.328811385243681
0.041175225401786 0.327912512070465 0.334454923715428
0.0472320518166566 0.327115115745494 0.34092715650354
0.041993422338256 0.32780479440026 0.357729702586335
0.0429358959755197 0.327680715392004 0.367253330164545
0.0402931374744113 0.328028641149195 0.367925244293006
0.0474683222581062 0.327084010151771 0.385591021984863
0.0460038433222854 0.327276812461336 0.391102703810956
0.0433372918288604 0.32762787062539 0.400999040058029
0.0441898782268722 0.327515625496683 0.405903020923237
0.0455683651879659 0.327334144245364 0.410087794187966
0.049026266289938 0.326878902928878 0.427854935066046
0.047813383621675 0.327038581961436 0.435295516305937
0.047897575187516 0.327027497931517 0.44305104760235
0.0441294563452267 0.32752358018831 0.450240951378082
0.0446619792383491 0.327453472219408 0.460889786324125
0.0463677203227203 0.327228907145414 0.474213873168424
0.0408366502159966 0.327957086339295 0.476745023219107
0.0438559498925099 0.327559587995917 0.485197326193269
0.0423412321169525 0.327759004374209 0.491639888540525
0.0433844953654956 0.327621656161897 0.501741553479501
0.0402522933978876 0.328034018373881 0.51547689301225
0.0485357250217761 0.326943483912002 0.526858386354878
0.042286473467885 0.327766213487124 0.53722347903876
0.046380576072997 0.327227214653781 0.536619828465099
0.0478268452134125 0.327036809709262 0.544655991531094
0.0448946160296829 0.327422845004799 0.555833407474893
0.0450498884554859 0.327402403002135 0.568899720344601
0.0441146020016908 0.327525535799737 0.575031331897455
0.046030696015083 0.327273277237262 0.589313892303106
0.0429238420101398 0.327682302326652 0.597606378846501
0.044133561498178 0.327523039734672 0.604369395315431
0.0430927356241174 0.327660067060545 0.607758084889847
0.0433107679792086 0.327631362556443 0.615930160348472
0.0402982667686831 0.328027965864794 0.636607880842815
0.0451433993045239 0.327390092065308 0.639624976086743
0.0427015548985944 0.327711566980069 0.646175119161164
0.0481781613573972 0.326990558061464 0.654923268733232
0.0414694139511159 0.327873781413184 0.667399271643063
0.0418361912080044 0.327825494271256 0.675498998287683
0.0453168954975572 0.327367250858173 0.684304975615086
0.04433212389325 0.327496898499433 0.697190681358016
0.0450295507253612 0.327405080515102 0.703157369510564
0.0400364470302289 0.328062435087278 0.713867981862295
0.045077280358869 0.327398796789641 0.715270834281264
0.0435234549878904 0.327603361780545 0.722316130591604
0.0452571194971675 0.327375120517921 0.731670749225974
0.0440946829995249 0.327528158186122 0.743697481314546
0.0403295610153291 0.328023845899062 0.748330775549897
0.040786603069551 0.327963675171122 0.767414176409223
0.0458554467381598 0.327296349242269 0.769673123594236
0.043845796667809 0.327560924693308 0.780486322904724
0.0403450660632464 0.328021804620779 0.788720385985388
0.0427125206639275 0.327710123309675 0.802025880669965
0.048425863763964 0.326957947420981 0.812132373299089
0.041043199754916 0.327929893576621 0.813014163874627
0.0487166120305901 0.326919669685511 0.825702263703919
0.0460285419185228 0.327273560829454 0.829601280159678
0.0428947774649641 0.327686128746616 0.842013241795767
0.0455776409083977 0.327332923073602 0.849794482414305
0.0435697049477077 0.32481417201722 0.858349302521805
0.043976807499265 0.321489931212725 0.868161236732232
0.0467332722679721 0.32015650879067 0.871072817584461
0.0420125902626757 0.317987577670245 0.879444079674675
0.0418481284872933 0.314834042147333 0.888969641653871
0.0437030936728619 0.313041171448932 0.893615621350221
0.0422038217107861 0.31070998504136 0.901201329268046
0.0433687583440575 0.308517819823871 0.90731772446861
0.0415868418266954 0.305333740902379 0.917573742513094
0.0483445140955499 0.302923544922818 0.922135337155562
0.0463074831823476 0.30112493699785 0.928335701552623
0.0426305981306115 0.29868944944437 0.937094377514272
0.0424760839732761 0.295255345421964 0.947457716105668
0.049521294059246 0.292217676248902 0.953788165113317
0.047882969706107 0.290556043399689 0.959420132139803
0.0483115068580394 0.288832622996446 0.964421139390448
0.0493541861194237 0.285314015693966 0.974565147311058
0.0466159982324743 0.285529554071832 0.984765891102272
0.0449523454461503 0.28574857811627 0.987183623871658
0.0479195984708318 0.277800260153726 0.999999999999999
0.0426295875261453 0.215238586715484 0.9625
0.0466795042984915 0.21279429593927 0.962499999999999
0.0472272107945904 0.188337324847855 0.962499999999999
0.0450925265381191 0.177285180607359 0.9625
0.0509893537347287 0.168264284935024 0.9625
0.0506876137944927 0.156333893835707 0.9625
0.0491288404618208 0.14751739490067 0.9625
0.0443781357719692 0.130416042385632 0.9625
0.0477044802893074 0.112168431033692 0.9625
0.0466825608491209 0.0987074994494445 0.9625
0.0506917278538572 0.0914103971671566 0.9625
0.0505728144283608 0.0762783220408446 0.9625
0.0448611191162026 0.073010142749169 0.968115484583153
0.04931145039004 0.0695952834265767 0.982052964950424
0.0505465834915186 0.0660921095212256 0.987499999999998
0.0454849734037063 0.0578252525668805 0.987499999999998
0.0490081863593301 0.0486048979897426 0.987499999999998
0.0472924147765873 -0.0134802657027639 0.962736287126415
0.0512624604895263 -0.00832590066733728 0.974712537204688
0.0547010373687992 -0.00334486294649531 0.979620986073191
0.0481252336227883 -0.0225979425576654 0.987499999999998
0.0494942311157587 -0.0353155561031858 0.987499999999998
0.0512543602933346 -0.0581104716921981 0.987499999999998
0.0541763185700738 -0.0660981134347108 0.987499999999998
0.049701011733447 -0.0890137343402986 0.987499999999998
0.0546992262019229 -0.0964808045431634 0.987499999999998
0.051665681796723 -0.145775399855701 0.962499999999999
0.0478842203763339 -0.169961493296149 0.962499999999999
0.0513034800880311 -0.174939311024231 0.968116416383446
0.0556176611480021 -0.168128929495386 0.980066812867853
0.0547906866475708 -0.17924415707554 0.987499999999998
0.048694815062035 -0.192538315745589 0.987499999999998
0.0524454838128082 -0.247141909388387 0.962499999999999
0.0561064559318257 -0.259922278249511 0.962499999999999
0.0534544871734119 -0.274212583256367 0.974785509779785
0.0586035677216854 -0.273534693941908 0.983767559799582
0.0556938170707587 -0.273917769882459 0.992873198642896
0.0519644193922667 -0.276777257890723 0.999999999999999
0.0530530370027525 0.326348768507325 0.313091638731613
0.0490634079711225 0.326874013133786 0.331341383424182
0.0566455988612347 0.325875798765918 0.331567891283902
0.0567589776966786 0.325860872159059 0.344447107336317
0.0499483197799809 0.326757512284005 0.360608400696372
0.0548932997113028 0.326106493325527 0.363387355060078
0.0556486460937991 0.326007050087728 0.363734616629954
0.0491096819474027 0.326867921049235 0.37536684824996
0.0524615235492666 0.326426642730833 0.385617731901225
0.0499961800576977 0.326751211358908 0.403059579500187
0.0523987729561041 0.326434904003148 0.405377839192789
0.0494740796577207 0.326819947180557 0.414847924004805
0.0518610590214261 0.326505695385636 0.418497331374432
0.0543791601619285 0.326174181081311 0.43742722734223
0.0517916898662956 0.326514828008164 0.437966236321771
0.0495647643284098 0.326808008317168 0.446149907813706
0.0541091992689779 0.326209722107119 0.460851408313992
0.0547030987020894 0.326131533763434 0.466611380032682
0.056120355639099 0.325944948347954 0.478779878292678
0.0495230121955542 0.326813505089738 0.489757914252635
0.0517582801739138 0.32651922647761 0.497569345141114
0.0520058572680932 0.326486632334816 0.506933706984892
0.0552316063637425 0.326061954409783 0.511341184012805
0.0545285285866239 0.326154516355139 0.52008403997072
0.0493283792005276 0.326839129009646 0.529214478357326
0.0503409086047281 0.326705826984703 0.537840165696301
0.0546075069148424 0.326144118660974 0.548839434077936
0.0558691832521605 0.325978015820019 0.558234534007072
0.0494191958866923 0.32682717276609 0.567588861825951
0.0526086641312564 0.326407271305717 0.575969257232803
0.0544120213526357 0.32616985482348 0.577095700419294
0.0525676529967954 0.326412670523998 0.587248569615604
0.0527343012137088 0.326390730870022 0.606597683346889
0.0544690074376032 0.326162352463067 0.610858058232219
0.0558521200457403 0.325980262233761 0.615436908919489
0.049946124838233 0.326757801253569 0.634550403201989
0.0522831973381767 0.326450119821908 0.63881543673648
0.0549984050436829 0.32609265594601 0.648041172312555
0.0573676753563329 0.325780735591889 0.649662002914918
0.0555485183581022 0.326020232154211 0.663505214200151
0.0512207330776218 0.326589995895407 0.677209191485919
0.0568313783909598 0.325851340426829 0.676920104439086
0.0532571716177666 0.326321893675414 0.69117160546442
0.0514870107767746 0.326554939771262 0.700124653103215
0.0562228810489816 0.325931450621676 0.708050639086278
0.050377455943342 0.326701015436293 0.721424573432578
0.0536212301057245 0.326273964466207 0.725441591968052
0.0511301279199985 0.326601924290703 0.735117827128501
0.0541972367872842 0.326198131747952 0.750314460055112
0.0494290020926802 0.32682588175458 0.755811233000145
0.0534000145397402 0.326303088047974 0.758095822610955
0.0553458989328231 0.326046907507608 0.767056248448414
0.0490229547700167 0.326879338898747 0.77346974107363
0.0499600521723439 0.326755967685248 0.784423023836105
0.0521093923451341 0.326473001683335 0.804395662262724
0.0566506709399941 0.325875131014082 0.804951005547281
0.0559654083024549 0.325965347551817 0.82092083488464
0.0494880368888338 0.326818109676222 0.832222482394977
0.0506377077243434 0.326666752639323 0.832509028415191
0.0492997661286774 0.326842895992019 0.845957322920801
0.0578331470496183 0.325719455080912 0.844943139293529
0.0554287584035576 0.322888396426163 0.859442807275521
0.0562859853358149 0.318882265931953 0.871122630558259
0.0494309101334754 0.317959464975308 0.876598496742808
0.050837283990393 0.316871224415403 0.879307760530107
0.0578984763065206 0.314347068139759 0.884091358543952
0.0544967529646041 0.310296683253759 0.897586049324142
0.0542309186011934 0.30959898158358 0.899784147608343
0.0554683118002547 0.30528421977013 0.912239715333231
0.05505344526004 0.303914799618537 0.916511830436564
0.0497272268415888 0.302062910156923 0.924171128693859
0.0546978701901087 0.298670798053872 0.932384272168668
0.0499660838909429 0.296633267387769 0.940365718619982
0.0504896020892635 0.296296773297766 0.941168433454967
0.0554785256873114 0.292559355959991 0.950410272712425
0.0520882190323944 0.290867214445525 0.956825724271945
0.0586032608251274 0.28660959628777 0.967025414173509
0.0509066088294567 0.284964684470565 0.976221586780154
0.0507372015838683 0.284986987357556 0.980959279990002
0.0566959825537095 0.2842024989603 0.990838245223421
0.0526398920592146 0.284736493404341 0.999914194517801
0.0554209576210745 0.279321972307161 0.999999999999999
0.0534535931221141 0.206174635411845 0.9625
0.0522090384661395 0.194498104022604 0.9625
0.0549584670011407 0.193672036767674 0.9625
0.0552522361231769 0.165709945841793 0.9625
0.055133858878095 0.161675108362845 0.9625
0.0550257962100237 0.145022247533393 0.9625
0.0612239056005849 0.128701662524541 0.9625
0.0556334384532738 0.11841116098593 0.962499999999999
0.0594239660385216 0.103070223104477 0.9625
0.0563817895328158 0.0919106207148116 0.9625
0.0540426128962223 0.0770178156547272 0.9625
0.0583649070816373 0.0618727793659506 0.965554052662075
0.0620024285091718 0.0571322691168628 0.970078515263372
0.059582762286212 0.0602856395527006 0.980152860036982
0.0557867326274953 0.0562402295025648 0.987499999999998
0.063219913465811 0.0423218334023416 0.987499999999998
0.0604662237060969 0.0283897926507321 0.987499999999998
0.0647001733097396 0.019234724520255 0.987499999999998
0.0582711373789075 -0.00112443764291475 0.987499999999998
0.0566398232812577 -0.0202600718276246 0.987499999999998
0.0619543570820986 -0.0337538424380303 0.987499999999998
0.0583722411281121 -0.0380034869298137 0.987499999999998
0.0564224467783677 -0.0655820834962365 0.987499999999998
0.0569349597652833 -0.0801623777527772 0.987499999999998
0.0589361094273063 -0.100662000461653 0.987499999999998
0.0591018476330549 -0.158988245438697 0.962499999999999
0.0595409362106367 -0.160071143670315 0.970402889662234
0.0592259144951531 -0.16071814839802 0.979684928938064
0.0661868423784181 -0.150452969970114 0.987499999999998
0.068070530065434 -0.169375583413944 0.987499999999998
0.068474595844051 -0.235419263922911 0.962499999999999
0.0600706026710474 -0.245428181984796 0.962499999999999
0.0605005720618341 -0.273284948582594 0.962431801830433
0.0631560955923845 -0.272935342277394 0.975695927189148
0.0664727004919065 -0.272498702958861 0.981600398295567
0.0700868689020145 -0.272022888660969 0.989567518139097
0.0677719838713651 -0.277573783898514 0.999999999999999
