ply
format ascii 1.0
element vertex 854
property float x
property float y
property float z
end_header
-0.2993222452356 0.140077155492542 0.389936422397841
-0.295549774020715 0.145742982889941 0.392756875251906
-0.297219441728132 0.143235329815238 0.401082372592157
-0.294972272962331 0.146610324516224 0.419316295134718
-0.295099255100724 0.146419611628647 0.426876989830249
-0.296532596250252 0.144266894459389 0.425146160006615
-0.299554595044301 0.139728192217031 0.441385999888318
-0.297145387745977 0.143346550566062 0.454404978599167
-0.296835714808164 0.143811644483377 0.462971046083054
-0.298135919279692 0.141858883627859 0.467711582316885
-0.299297107444864 0.140114909626463 0.478899961199924
-0.297020440475827 0.143534207310442 0.489285875477087
-0.295517134415713 0.145792003905007 0.492823338133663
-0.29590765778082 0.145205481740805 0.504056491578081
-0.294515733076458 0.147295996068382 0.513739976221313
-0.295323219419535 0.146083242415664 0.520075738961285
-0.294509985260593 0.147304628641238 0.528717811402152
-0.298548068808357 0.141239881398729 0.540802533181916
-0.299466079617173 0.139861132431427 0.550563769941979
-0.293946753713542 0.148030914882687 0.558390901920931
-0.299236522744809 0.14020590103074 0.568257813504161
-0.297111978873411 0.143396726934474 0.577890332917694
-0.295236491613347 0.146213497824499 0.588288670360011
-0.296227598550473 0.144724966695098 0.599662195172895
-0.298091426282829 0.141925707104105 0.600238429521657
-0.295767522530023 0.145415949123609 0.615030987560397
-0.296412865155879 0.144446717094522 0.615977105748234
-0.297180311157295 0.143294099530816 0.631117521930244
-0.297493142148182 0.142824262573033 0.642419750974603
-0.293207887428595 0.148681012011074 0.644585628116081
-0.298841901207547 0.140798578188514 0.652713018372801
-0.298354137224343 0.141531144822448 0.672273922952652
-0.296997071643663 0.143569304667578 0.680497779238594
-0.299226302223424 0.140221251104147 0.689597091076253
-0.298339375983295 0.141553314546002 0.697698051045214
-0.294530271597462 0.14727416084528 0.703510027525681
-0.294007914621418 0.147977101992061 0.706775593090335
-0.298517030954026 0.141286496764469 0.722609114896964
-0.295687449752908 0.145536209427407 0.729072720519568
-0.29529013004824 0.146132938929106 0.738276763173283
-0.295817626541125 0.145340698535164 0.746000075868629
-0.295469605139531 0.145863387531239 0.755915775654366
-0.297839101740052 0.14230467018323 0.767980864743916
-0.296370197309168 0.144510799400551 0.773618029398667
-0.294716987262217 0.146993734920567 0.785537319231163
-0.298487827529142 0.141330357023537 0.790288185009048
-0.29940076049577 0.139959234403992 0.804998572624536
-0.294664776685983 0.147072149332872 0.806156654304604
-0.29413906631033 0.147861707179655 0.814437155304378
-0.298401014436094 0.141460740523643 0.831413513362701
-0.297019086900991 0.14353624022758 0.839077963130583
-0.296013426110001 0.145046629608313 0.843874211167414
-0.296889424593043 0.143730978428334 0.851806738687377
-0.298977844649388 0.140594406431222 0.870376116021167
-0.294615064218933 0.1471468118662 0.866337225648622
-0.298337620603524 0.141555950928956 0.883411686427914
-0.296368998141539 0.144512600415435 0.886627406614486
-0.295403762943207 0.145962275103493 0.90320599374974
-0.296123324355609 0.144881574805922 0.909472839874397
-0.298807007138339 0.140850985155212 0.914403799232748
-0.295084027157842 0.146442482285856 0.929748076598085
-0.293746276200715 0.148207306549286 0.934276739639802
-0.293799936897202 0.145310444370849 0.94075138912443
-0.285189645915118 0.146758710436661 0.947211974957502
-0.286376832520752 0.142675092556596 0.950134644528567
-0.27843812011048 0.142219919694757 0.95728980504848
-0.271357404265771 0.144334747576677 0.961247391028297
-0.265118949091699 0.142248413121463 0.968532551703267
-0.255723005485025 0.151131437153334 0.967940209791954
-0.253966322685303 0.145016079106317 0.975307790195622
-0.24408147277678 0.148085496141662 0.980720092735714
-0.240830486676905 0.146169224248022 0.988587378529883
-0.236331323690331 0.149642968838159 0.99279564684418
-0.174434101783482 0.151849728627729 0.958849193955348
-0.16781429123849 0.151727509679148 0.958849193955347
-0.147738108697716 0.156812339261023 0.958849193955347
-0.137463021718348 0.153329221288016 0.959586307154426
-0.12231181050216 0.153243217546916 0.959586307154426
-0.108322537249618 0.154551382752996 0.959586307154426
-0.0979697687820037 0.15046716363962 0.959586307154426
-0.0847265980571215 0.15099319383479 0.959586307154426
-0.0452293877004809 0.160087235992117 0.944844043172862
-0.0371372590180053 0.156440967988677 0.945849127710646
-0.0467051080244263 0.162394790774007 0.960802416374098
-0.0329247781805584 0.153636176810285 0.956462121870658
-0.0388643931546205 0.157590943686422 0.977770195377711
-0.036235547089345 0.155840582192147 0.977764636170809
-0.0407386950674801 0.158795439295512 0.992476290848247
-0.289008418263284 0.152375946941433 0.273950312571772
-0.285850916033804 0.155154099327159 0.280534478985424
-0.287616090154903 0.15360099743226 0.297060225130949
-0.291630212438794 0.150069141367213 0.313514666725206
-0.284416620695886 0.156416075004538 0.313163975009353
-0.283545786290379 0.157182285288933 0.320024364950245
-0.292406413839729 0.149386194652663 0.329705117301497
-0.284027462962497 0.156758478400279 0.33699878984775
-0.286845025140397 0.154279424858091 0.347612451017835
-0.283562381952903 0.157167683468861 0.351552158959013
-0.292187348418727 0.149578941031843 0.377266080342636
-0.283590111915842 0.157143285049763 0.369931414183703
-0.283053502597658 0.157615424845454 0.384257532079927
-0.285158630683858 0.155763211865101 0.390556237611683
-0.292274682447032 0.149502099521859 0.408009178931786
-0.287707086163393 0.153520933901119 0.417600268987039
-0.28564068448895 0.155339073153127 0.422624549545959
-0.28344467829479 0.157271245928941 0.434116955244222
-0.29214370402023 0.149617341888278 0.442147241975939
-0.284685801134836 0.156179234545114 0.453433211314076
-0.292078521030774 0.149674693638017 0.463208761355875
-0.287617592216092 0.153599675832283 0.467649997142591
-0.291035637485824 0.150592282668164 0.480467586861754
-0.288880252062529 0.152488714949345 0.483596199610235
-0.288834064425157 0.152529353493874 0.49637243653318
-0.283208399390986 0.157479137722072 0.497786406355985
-0.284158506325256 0.156643178899465 0.508403421715164
-0.285353993945192 0.155591320011631 0.519629783959447
-0.284752355850347 0.156120675871758 0.531430262293144
-0.292704006198148 0.149124355749495 0.543725411125307
-0.292461407583679 0.149337807988188 0.550198545592395
-0.286612542437391 0.154483976535034 0.562951241987106
-0.285123090349596 0.155794482298894 0.567841883324235
-0.283255444252121 0.157437744942685 0.575841329558704
-0.287201685488274 0.153965614534507 0.586279047445886
-0.283219506938069 0.15746936466217 0.58772606934862
-0.292252481246943 0.149521633416852 0.61454588465832
-0.287210609968818 0.153957762262327 0.609198848947157
-0.288351025753775 0.152954358747955 0.625206324475767
-0.286818398502435 0.154302852508303 0.630684794675167
-0.288827666463067 0.15253498278955 0.641613726084481
-0.287799514341211 0.153439610264887 0.650625393729755
-0.286562136691576 0.154528326414405 0.654531571609533
-0.289032679770913 0.152354600269158 0.672362166262415
-0.291597405882842 0.150098006465338 0.678625462470652
-0.292013065742068 0.149732284972325 0.688487782956561
-0.291169809960747 0.150474229994179 0.697621898735249
-0.292730898744368 0.149100694137876 0.707208628932486
-0.284085249916358 0.156707634108791 0.716307888441514
-0.287287958127972 0.153889706895373 0.718487775468066
-0.291588639401197 0.150105719720984 0.737192479183047
-0.292198788638483 0.149568875267356 0.738778985606025
-0.281957603166467 0.158579660306905 0.748172920698654
-0.282758358582924 0.157875109554782 0.754387117396697
-0.287422120274445 0.153771663308953 0.772175643130294
-0.28529910705367 0.155639612661183 0.778298615326161
-0.283380725292081 0.157327515465473 0.784938267586187
-0.284910931360698 0.155981152001185 0.792606934345332
-0.283837458392714 0.156925655368173 0.803670052021258
-0.285265674922074 0.155669028176804 0.811834333553277
-0.292568667946434 0.149243434141069 0.829349377354256
-0.288476700657924 0.152843782726336 0.824716327857958
-0.288952847833832 0.152424841007039 0.841338421169354
-0.282618503758972 0.15799816188684 0.844676199455504
-0.287382500179387 0.153806523351357 0.860167532875767
-0.283297543155706 0.157400703901719 0.863828622884383
-0.290477358104443 0.151083489034009 0.878304624205463
-0.282989317758578 0.157671898364982 0.88102095391363
-0.288493880520929 0.152828666893021 0.895838872690061
-0.284343176293424 0.156480695621433 0.892769992675823
-0.287755992170725 0.153477903578075 0.912098140807639
-0.292253249960169 0.149520957058666 0.91823964479066
-0.290669107097096 0.150914777222365 0.926140417906673
-0.285751623499822 0.154654482854976 0.939143079993769
-0.277511441356408 0.154146723851268 0.946603904265865
-0.27795226668822 0.150518731668284 0.949719939161708
-0.265423770673776 0.158746745394628 0.952408161625992
-0.264535067565969 0.153684540228325 0.958028474240189
-0.257327234408793 0.153397801920466 0.964403210347631
-0.247758425413008 0.15946037836299 0.966669567404538
-0.242604633142416 0.157297768516273 0.973110283912042
-0.243476890997237 0.152780645888621 0.976716335512075
-0.230827731512858 0.155449330145279 0.984853071153013
-0.222905520142167 0.159407012877662 0.98526099984421
-0.223558502760972 0.155780434393975 0.994807495913653
-0.214122097905364 0.161324133972927 0.994513372646306
-0.135949939022539 0.165026463513094 0.944844043172862
-0.134097656055629 0.15772131782102 0.958849193955347
-0.118840497774774 0.158525701507989 0.958849193955347
-0.10254593232888 0.160283051390968 0.958849193955348
-0.0728814788051427 0.162046552279118 0.944844043172862
-0.0651452867522334 0.168620961796326 0.949061586522226
-0.0714706106526062 0.170756654131883 0.95466968467339
-0.0618142568411627 0.16749626760475 0.964035477428022
-0.0633615431292291 0.16801869578683 0.972438503585442
-0.0565316159684829 0.165501714676541 0.986454456413886
-0.0575067661718657 0.166206998758985 0.992758748600205
-0.0509386650433854 0.167848865560898 0.994875108362433
-0.27955073244772 0.160697363840728 0.273107896420792
-0.273812072405017 0.165746567587808 0.278935086004873
-0.281358514282814 0.159106773224148 0.289360385193051
-0.276285277595962 0.163570499163386 0.295492344100267
-0.281371704817446 0.159095167431787 0.304934969742403
-0.273606241662608 0.165927669334227 0.307967712785155
-0.280283150738267 0.160052940029326 0.324943719628526
-0.275199946650569 0.164525435862114 0.330810309155688
-0.271642911852355 0.16765512002148 0.334482177230367
-0.281018794497345 0.159405678264869 0.360021335871207
-0.281360893344839 0.159104679988305 0.363103659112821
-0.275060404213511 0.164648213338184 0.365301889916037
-0.274283647488273 0.165331648659053 0.38072983239833
-0.271941687090691 0.167392240352409 0.384678737686428
-0.271950931638114 0.167384106466947 0.390843587603288
-0.276768207821233 0.163145589326443 0.407197704459555
-0.279981538090352 0.160318316214826 0.412743691113827
-0.272899277393278 0.166549697231191 0.420070532116829
-0.275684208766716 0.16409935415084 0.435228233248502
-0.273304892086912 0.166192814053632 0.432033667292377
-0.2737483032739 0.165802675343519 0.450180108820146
-0.272662743401354 0.166757813465546 0.451244697400076
-0.280857840336525 0.159547295009174 0.469043654301162
-0.27343538507447 0.166077998804629 0.478443229576954
-0.281128415327529 0.159309227542505 0.486025241150769
-0.271569775502692 0.167719469595774 0.49704934708408
-0.278143336428369 0.161935671947786 0.508062727281965
-0.276271594721814 0.163582538144421 0.509023222587991
-0.271497659023882 0.167782921828931 0.521090615838446
-0.272866302358184 0.166578710566972 0.522348903849347
-0.279155775381488 0.161044869823642 0.546862081341516
-0.28094904519584 0.159467047719044 0.55914558070698
-0.272661236723365 0.16675913912765 0.555124259838425
-0.280798711618127 0.15959931986241 0.571866501095688
-0.279615646697669 0.160640248543491 0.577390539886119
-0.271841400275303 0.167480478470762 0.584279366776207
-0.27864088880732 0.161497896697558 0.589283854226941
-0.275581099634171 0.16419007550644 0.602870426714016
-0.278484836180085 0.161635200790205 0.620050843517881
-0.271057328212219 0.168170350247353 0.620646794597178
-0.278348282104405 0.161755348933757 0.631540400638472
-0.280813774953233 0.159586066272288 0.647396640824031
-0.28068302372481 0.159701108736482 0.658994193402896
-0.275179445460942 0.164543473989954 0.648784885945833
-0.275426539264436 0.16432606662496 0.671152271498233
-0.27194160814916 0.167392309809716 0.673243098012166
-0.277097204739002 0.162856118882539 0.686441533402128
-0.275200731534099 0.164524745276362 0.691952436368355
-0.275483594978231 0.164275865720613 0.704207896814933
-0.281782957318961 0.158733323786024 0.713938637221589
-0.279005542171904 0.161177053657346 0.723973524716897
-0.277649445182467 0.162370225922216 0.732102572553805
-0.280847651361929 0.159556259856076 0.737520433644908
-0.276242097214625 0.163608491750788 0.752133950615937
-0.278390140185815 0.161718519782016 0.7589803744748
-0.277674994666429 0.162347746014154 0.76553146349464
-0.278680301762677 0.161463218908599 0.773403207020739
-0.270929934878102 0.168282438242667 0.776166449183619
-0.273971209899503 0.165606549251213 0.789195455059139
-0.277399219819131 0.16259038861399 0.805946157249416
-0.278858096214305 0.161306785106162 0.813683325028292
-0.278160010808197 0.161921000867694 0.82326366801526
-0.270627197167845 0.168548804322839 0.822078998021959
-0.276801089035119 0.163116658539966 0.834204045084941
-0.272659554716823 0.166760619053917 0.842311907639883
-0.279782928307305 0.160493064545152 0.856229970890597
-0.278029372724975 0.162035943780222 0.861263967711395
-0.27058754965817 0.168583688486201 0.8707149379971
-0.27602041998205 0.163803536152275 0.889338566052926
-0.272635551061534 0.166781738852847 0.885774954125413
-0.270943438328088 0.168270557129347 0.897593273520788
-0.279536845679619 0.16070958221941 0.915942864702979
-0.282183779456745 0.158380657375232 0.933288838869505
-0.279952833210042 0.160343572422398 0.933441046667318
-0.274814149722204 0.164864882227958 0.938176770901753
-0.271368067136977 0.160640006858292 0.945557584749735
-0.266202727065255 0.162680988479334 0.947965474521642
-0.256727906354098 0.167426523298909 0.951418902674017
-0.257034761166403 0.162682643104377 0.955721448646331
-0.246012110360957 0.163427219546047 0.964332314183933
-0.242413792407037 0.16201910016467 0.968731256435418
-0.228740570262412 0.170400119382908 0.969324871651465
-0.230735571963238 0.163166971002394 0.976494048181623
-0.214415197882142 0.17005049001939 0.977869068492514
-0.212130926790325 0.164791164645899 0.985204855632248
-0.204424390586028 0.168415262715951 0.987797910398168
-0.127185089471679 0.169087235639397 0.944844043172862
-0.125282733534709 0.169489556771299 0.944844043172862
-0.0986932694845086 0.16959207325729 0.944844043172862
-0.0976598133778503 0.174560672155081 0.944844043172862
-0.0984799339993536 0.177572879643114 0.961010132748575
-0.0866244823419514 0.175873231263853 0.964992681917786
-0.0749368435790369 0.171926998482755 0.968146028186352
-0.0965941628867523 0.17760333355827 0.992604639597155
-0.0846858071468257 0.175430618227616 0.992981105038177
-0.0807421101818597 0.173756785176122 0.992141544724804
-0.265895591086732 0.172711943971586 0.257290268587184
-0.26541707161734 0.173132972971375 0.265526351177959
-0.260316587186011 0.177620673046122 0.270470825382806
-0.262176842699904 0.175983913063586 0.286115597195611
-0.263393584658578 0.174913353383931 0.295736648926303
-0.264963302466629 0.173532225214761 0.297302537472039
-0.26356646928034 0.174761239532698 0.307104242230613
-0.262500246804985 0.175699363498524 0.321307091378574
-0.264208041894591 0.174196746981511 0.32114030784626
-0.263714889529403 0.174630650846117 0.336646590487666
-0.261450110351303 0.176623334055661 0.343510643680743
-0.267140740446781 0.171616389823467 0.361970617574023
-0.268395383174055 0.170512482863887 0.367025356787814
-0.268276187604221 0.170617357993859 0.381245146224894
-0.270747232675361 0.1684431901673 0.383506186068336
-0.263522255732302 0.174800141159691 0.392079967626897
-0.265640869748249 0.172936062481336 0.39934456923431
-0.263250249113696 0.175039468254811 0.410298158201711
-0.265335807873517 0.173204473495323 0.420591140817478
-0.262033186964568 0.176110309656476 0.432240555538033
-0.26137472238912 0.176689664728379 0.435051287052476
-0.270038672482812 0.169066622249463 0.454515876549694
-0.265848659235976 0.17275323731793 0.460324971189129
-0.267784650718363 0.171049840466672 0.471477663794598
-0.261562697308911 0.176524273563491 0.469309492873778
-0.262836786511218 0.17540325647474 0.488742113246954
-0.263494546116933 0.174824521675825 0.498165182473832
-0.262496194983054 0.175702928524909 0.499360197328706
-0.26987884344545 0.169207249045324 0.513669602927684
-0.269752199179908 0.169318677966947 0.527326576333544
-0.269575186717009 0.169474423730645 0.525450121819559
-0.267148102804151 0.171609911997259 0.537656374001439
-0.267287384891535 0.171487363591832 0.543599781770849
-0.266627466670179 0.17206799766516 0.55203143661592
-0.264965853630239 0.173529980554028 0.566827934013129
-0.269355053432718 0.169668109677474 0.579454840831243
-0.259747213877396 0.17812164048834 0.578343080168979
-0.267698284366963 0.17112583055876 0.596984183594559
-0.271146677627104 0.168091735484136 0.609729847488401
-0.262242046942857 0.175926542613796 0.607567709705916
-0.26079217471753 0.177202223734203 0.615484306560455
-0.261686088052626 0.176415707277828 0.619561600167113
-0.26750162922283 0.17129885908515 0.642303039419718
-0.27049618290416 0.168664078220612 0.653009149149654
-0.259999886002011 0.17789932499502 0.648870552565745
-0.260873005201864 0.177131104416916 0.656827468540024
-0.265384890947421 0.173161287378907 0.677715281402243
-0.265459821221262 0.173095359406762 0.677883440845458
-0.263593921687608 0.174737085323072 0.688934370900145
-0.269316171437839 0.169702320296812 0.701407212223892
-0.269480423699643 0.169557801693237 0.716875930234911
-0.268270599476724 0.170622274750399 0.727387551557487
-0.271268169244507 0.167984840159222 0.738441331747959
-0.261228155780967 0.176818622474888 0.740566941854687
-0.268863868096706 0.170100282836477 0.748855421192259
-0.259585765023578 0.178263692492047 0.751125483644972
-0.266015339630838 0.172606582302989 0.769998334156255
-0.261599110541271 0.176492235103657 0.774801083714745
-0.263733206451178 0.174614534562983 0.787057616715982
-0.261948622695883 0.176184714172362 0.79014387092455
-0.264040366338459 0.174344277596676 0.800730607484268
-0.262246564907795 0.175922567447934 0.816310505214918
-0.261161917543454 0.176876902692668 0.816977779861022
-0.265264341124186 0.173267354059048 0.828888709323062
-0.260547125457484 0.177417832192073 0.835987268658334
-0.269809374353768 0.169268371954752 0.848585480384022
-0.265546748921985 0.173018875407195 0.861058081692854
-0.260996312744552 0.177022611336311 0.865971316060799
-0.266352454158125 0.172309969518523 0.87972561988701
-0.262529899094841 0.175673273705447 0.880039292040731
-0.265424922437991 0.17312606536703 0.897093502058937
-0.266108844160451 0.172524311630433 0.902898303326143
-0.269745411754639 0.169324649934767 0.914241322702104
-0.266314755619641 0.172343138864739 0.926062432113146
-0.267969975752636 0.170886780823739 0.93527959875806
-0.264966770837747 0.17163618881871 0.94039906623888
-0.262900005372153 0.170496449579619 0.943243968699628
-0.249397192034378 0.173902105806253 0.951394285361352
-0.250678231670588 0.171975617431279 0.952163026705737
-0.239508627146468 0.17631210692273 0.95641750763955
-0.238858275830594 0.171345115212011 0.962488960353891
-0.226299909736892 0.176952453202444 0.963190547306689
-0.217056341826706 0.177588408559526 0.967714752424915
-0.215423770855813 0.176084263518907 0.970369399783702
-0.202470517447184 0.178770366652784 0.974648834210802
-0.193518320192697 0.177801165775616 0.980850031673907
-0.183154034777692 0.180433568526509 0.982642429278209
-0.170887087361944 0.180583699497077 0.986175331015003
-0.177841335351978 0.176238060077874 0.994818859634082
-0.158867138008889 0.181900725656459 0.993859274614653
-0.116749484962828 0.178740493285204 0.974902369963627
-0.136322171547069 0.182833279623967 0.99484080274543
-0.104105257084308 0.187240309150192 0.982847829507875
-0.105835948363921 0.179966698350807 0.994533110388136
-0.0560720516825767 0.185869115244485 0.970095438280154
-0.251975749134987 0.184959422933315 0.246223408999126
-0.247060977981601 0.188112444713408 0.242193549289497
-0.253587003757336 0.18354174828172 0.262886158313671
-0.249486080561225 0.186911609490759 0.273178187905106
-0.250369249064257 0.186372914256455 0.285547014355548
-0.257178849571446 0.180381435384878 0.291936993025231
-0.25453976637969 0.182703452831724 0.299941777036546
-0.250308515708661 0.186426350961953 0.306697984826627
-0.258406386215064 0.179301377919457 0.315878160175825
-0.250380900388893 0.186362662749732 0.328605598330589
-0.247868535654159 0.187712567320313 0.328435668301693
-0.251471368311852 0.185403206242167 0.338893215147326
-0.254283075000371 0.182929304696908 0.357645604385605
-0.248047829462209 0.187623786613996 0.359758728967167
-0.249915851659545 0.186698800236059 0.36636043910828
-0.251332908946305 0.185525030769519 0.372876542819524
-0.251935974151688 0.184994419255317 0.391604244337743
-0.250535757224979 0.186226410783036 0.394655857227093
-0.25696885196764 0.180566203376034 0.411282128785407
-0.253743742717153 0.183403840314122 0.419097158350696
-0.258815579189991 0.17894134636385 0.429167647325175
-0.252114593965024 0.184837259252096 0.428854964371711
-0.254155667286077 0.18304140534473 0.44883924594935
-0.248303958016813 0.187496959735628 0.444184504824296
-0.254266990460494 0.182943456801826 0.461722634038404
-0.255146704140868 0.18216943401981 0.471296776677433
-0.250981388486433 0.185834318723494 0.481710010804112
-0.254505416596683 0.182733675749928 0.496892406138591
-0.255354113260816 0.181986943525892 0.508078855826533
-0.254259205400106 0.182950306546504 0.51555702513335
-0.252989012595928 0.184067895359684 0.52357705167089
-0.255298977039581 0.182035455550091 0.529831754322868
-0.254285590019833 0.182927091837878 0.540236766254138
-0.255005350778088 0.18229380485267 0.551290669505598
-0.253232530372202 0.183853634389476 0.551313031128919
-0.256738560871747 0.180768826750768 0.564132063769075
-0.254149318200977 0.183046991635614 0.577053147934629
-0.251996196317821 0.184941432323763 0.582308268325252
-0.25798120717576 0.179675474935566 0.592364609732126
-0.256040333140796 0.181383167737897 0.598063977752193
-0.256191759991076 0.181249933670335 0.613968210337671
-0.25058865272331 0.18617987027595 0.617115294328284
-0.254890797409435 0.182394595506575 0.627971794421375
-0.254520479540554 0.182720422504036 0.640270409549631
-0.258846759138166 0.178913912448966 0.653284132651548
-0.252044576605306 0.184898864559331 0.652611374037546
-0.255790670633575 0.18160283519643 0.664122077545826
-0.252364134010755 0.184617699542237 0.672405892053489
-0.249622758921588 0.186843930626089 0.679167495942593
-0.257921922558132 0.179727636957927 0.699972408302128
-0.248045304117201 0.187625037086145 0.704316535477021
-0.252139402694602 0.18481543110242 0.705899411730562
-0.255969985002789 0.181445064082929 0.718411626324011
-0.247317847583553 0.187985250891487 0.726599233785494
-0.259753800410693 0.178115845276852 0.751263689451009
-0.251702021660374 0.185200264136698 0.744650912311521
-0.250502545287721 0.18625563255899 0.750624679255823
-0.253911379683209 0.183256343652731 0.760975944984124
-0.25928659250718 0.178526921709247 0.778454256057407
-0.256273145912656 0.181178325647358 0.789780532345584
-0.256217688363141 0.181227120394691 0.787822304610943
-0.257222762241881 0.180342798487335 0.808869040845505
-0.257739495477663 0.179888146814133 0.810415640419742
-0.25935419573994 0.178467440490004 0.829717300733025
-0.249759243927552 0.186776347504491 0.829902725872558
-0.253670230418035 0.183468520670408 0.837572562649491
-0.24997111562662 0.186671435241785 0.850047083406391
-0.256038137910893 0.181385099227647 0.858405865156559
-0.255230636942699 0.182095585104845 0.869255003775099
-0.252283676910521 0.18468849033468 0.869953069177467
-0.257266144651157 0.180304628144112 0.885874432472504
-0.251245249221831 0.185602158845759 0.894578276671103
-0.258717867225774 0.179027318979789 0.903988524657331
-0.259160954623643 0.178637465157998 0.918249364770396
-0.25313539357088 0.183939100943962 0.92167303679066
-0.253563665325435 0.183562282778785 0.928153573992739
-0.252110097514523 0.178462319439617 0.944713171544029
-0.239659827479276 0.18700677363112 0.944054789391106
-0.233558701830386 0.18530096924394 0.949480949608408
-0.225981691024616 0.188529452676638 0.950081796911886
-0.225702981330254 0.183047657273024 0.956532961371668
-0.21576260419056 0.188314000037208 0.956137867953803
-0.210176802839565 0.183596748195908 0.964728050186131
-0.1954835901583 0.189755682728235 0.966009932710515
-0.193037896575429 0.185446241111083 0.97234707184628
-0.186855061902892 0.190686787353608 0.968832570701609
-0.175594369990253 0.191659866845981 0.970447524455962
-0.162588106987032 0.190693721834333 0.974937811664898
-0.152771578174417 0.191189261986044 0.976788674554052
-0.143359534601725 0.193757800829787 0.975934072530485
-0.109480706889685 0.194036808367562 0.974598693418213
-0.102922539539437 0.198145797481529 0.968810162937941
-0.0935364307325142 0.18966588859567 0.978883616694807
-0.0893903149841112 0.190013061663513 0.978101070689197
-0.240604380867626 0.191309550393826 0.229621635797252
-0.238223180495841 0.192488646611301 0.229961150028005
-0.245408231668637 0.188930833182162 0.253318020360655
-0.234094446974498 0.194533066785119 0.25986301549601
-0.226733931956282 0.198177764442436 0.245911806044845
-0.227634588270992 0.197731787503031 0.257900780252359
-0.244852946473974 0.189205793105907 0.286616960499019
-0.231093840841834 0.196018873432505 0.290448067287439
-0.231993160088635 0.19557355856746 0.297546288937978
-0.243501740576281 0.189874868158085 0.322173319041009
-0.242427400991935 0.190406847640029 0.326190404889458
-0.232454799612232 0.195344969061697 0.320378186202987
-0.232154613093324 0.195493612070985 0.329215590061757
-0.22811432303386 0.197494237798691 0.337417092092603
-0.230837401563532 0.196145854171565 0.356372445530361
-0.233846186869484 0.194655997452458 0.366045402022123
-0.229129809333454 0.19699140062928 0.365729488237468
-0.226350092708744 0.198367829676027 0.367792169854012
-0.225465886804349 0.198805660884897 0.377229518307252
-0.229691995835856 0.196713023393012 0.390976362370346
-0.233291633852991 0.19493059482439 0.40901292720463
-0.242942293797184 0.190151888768752 0.428901050767811
-0.236690875348909 0.19324739636801 0.433646482088857
-0.242080005928922 0.190578866849173 0.450365589573594
-0.232653186821581 0.195246733898075 0.445119777646319
-0.231689879070482 0.19572373387634 0.459276631675687
-0.244534349612796 0.189363552342956 0.472943436644128
-0.245004601311116 0.189130698356656 0.478905350837069
-0.234612994393154 0.194276298263173 0.479978801689049
-0.237885546339538 0.192655832523627 0.492902024906928
-0.226808762922875 0.198140710479777 0.49500777556048
-0.242143283048603 0.190547533991446 0.523024517848148
-0.242848867959198 0.190198150332243 0.524951744800756
-0.233256466898954 0.194948008404102 0.534487987826788
-0.238845966033284 0.192180262621362 0.54385882703382
-0.245595257999002 0.188838223571768 0.554696110238945
-0.245302085611972 0.188983393401535 0.563006599379599
-0.235037277154891 0.194066206661714 0.566824949422256
-0.241776103478432 0.19072934987198 0.581069956978931
-0.236620024626647 0.193282479437714 0.590704755320293
-0.228230492506951 0.197436714295869 0.586990079100303
-0.230861583044806 0.196133880255618 0.602766408895079
-0.246365656936965 0.188456746026046 0.620751463925214
-0.23005959822689 0.196530998144764 0.612349078707247
-0.24503597482908 0.18911516316827 0.645691149664705
-0.240117831819357 0.191550474319939 0.644248980591789
-0.239712570655766 0.191751147018776 0.658505023078931
-0.246237014210433 0.188520445895262 0.669437160477158
-0.24639461533209 0.188442406731226 0.682891635235062
-0.237665565555823 0.192764760152343 0.679109667027203
-0.228715518855392 0.197196544363259 0.676565891361454
-0.239490787951978 0.191860966902158 0.695477216620974
-0.229574869745385 0.19677102058295 0.699786714499013
-0.238679895104139 0.192262495770116 0.71273574192955
-0.241823237510521 0.190706010568152 0.727229320290913
-0.239690761949095 0.191761946010683 0.738748350086822
-0.234132362011761 0.194514292440233 0.739668955939268
-0.235588506284834 0.193793255174817 0.75025279552771
-0.226985801538947 0.198053046474248 0.753094005231692
-0.239413593146282 0.191899191364275 0.774037279329905
-0.234021946778527 0.194568966622801 0.774854339369677
-0.230925691990133 0.196102135503754 0.791902132166456
-0.234122409522753 0.194519220602635 0.792395171106513
-0.23162176571976 0.195757461484964 0.798793251851687
-0.226361769552433 0.198362047666924 0.807561332957741
-0.233422293453825 0.194865896261873 0.824213671341041
-0.225392773531183 0.1988418642993 0.822327591657148
-0.2394074862525 0.191902215307764 0.848003002987898
-0.225529228013713 0.198774296291957 0.850551868055402
-0.235346681626298 0.193912999209612 0.868690344327932
-0.245405160426202 0.188932353965704 0.883453516239258
-0.241539934723866 0.190846293279386 0.878345066309677
-0.22824701055301 0.197428535074221 0.885028343601045
-0.240550208500375 0.191336374861886 0.907791620611329
-0.244768892128138 0.189247414198534 0.919929191704456
-0.23677938132286 0.193203570967869 0.919104865385416
-0.238903365614029 0.192151840137751 0.926799346183399
-0.226096301878688 0.19849349898605 0.928506326948317
-0.228790665587836 0.193142309021577 0.943189861047812
-0.227874842955502 0.190415525004807 0.946840602447771
-0.215375569457708 0.190389221322836 0.953975649389296
-0.206285071463379 0.192850358096965 0.956317658305676
-0.203877336629188 0.196589213485324 0.953394306175666
-0.194733281258831 0.197960414325955 0.957017932882337
-0.184703680294371 0.199520953984807 0.958279440989992
-0.164559807444861 0.199327988469967 0.963596951844526
-0.160853016893873 0.201424319867649 0.961897999972929
-0.159529914389611 0.194330588185993 0.971140632924455
-0.138267265493486 0.203612021586855 0.964710070591571
-0.124049983313217 0.199405387356852 0.968926074492756
-0.103820078308392 0.197539579153175 0.969658451356561
-0.100608585904095 0.199161346871806 0.967322884973243
-0.212268847779657 0.205340423343472 0.201653640848322
-0.221841368810074 0.200600409242851 0.2241028758062
-0.220088865357966 0.201468194338124 0.22845839700767
-0.207171814680981 0.207864315292342 0.223788028491097
-0.211382944027077 0.205779095273853 0.242260244614736
-0.217044163369306 0.202975835879216 0.253562888393799
-0.222936615798601 0.200058077065906 0.269408055106748
-0.204029214666256 0.209420432885094 0.262369900147007
-0.219163799970491 0.201926257889689 0.282483409311341
-0.223568232175047 0.199745320319692 0.303029314600535
-0.21439221711992 0.204288997017879 0.303992071754619
-0.220880724160012 0.201076090536474 0.308625098469516
-0.220146549990574 0.201439630705714 0.317292905902278
-0.211150213646782 0.205894336105473 0.324530640258875
-0.209994301401144 0.206466707827195 0.33711334810298
-0.221941091717643 0.200551029566741 0.356525334306122
-0.20305971275516 0.209900500018357 0.337595593657401
-0.218611910801252 0.202199536207476 0.370274741486044
-0.211659886097516 0.205641962191067 0.371059177811077
-0.218214224943561 0.202396457850906 0.382504676094195
-0.209876948351219 0.206524817400382 0.380265876876079
-0.219665821671333 0.201677672388206 0.401905910609451
-0.209419562869112 0.206751300437371 0.409931226728914
-0.210478785222263 0.206226806537208 0.41232606768783
-0.216862223592923 0.203065926786594 0.429766161457061
-0.209319695356687 0.206800751717298 0.44139154219442
-0.221879207844903 0.200581672532002 0.4531803732245
-0.216125883843457 0.203430539283576 0.453832004898001
-0.205663053832461 0.208611406646201 0.456114096780007
-0.223351250890124 0.199852762690081 0.482815321522518
-0.224107958514325 0.199478064656265 0.489485315970108
-0.211840822949118 0.205552367900786 0.486653829996331
-0.205347531866997 0.208767643290717 0.487068830799891
-0.210427112096985 0.206252393458528 0.505493163496458
-0.209002301681682 0.20695791517405 0.520321466920871
-0.215948287638807 0.203518479389592 0.528928416013016
-0.209208776920026 0.206855675070521 0.533998989673619
-0.208584977184212 0.207164561259889 0.543164290661321
-0.207612937093212 0.207645885220742 0.556380191056069
-0.212088057642323 0.20542994498542 0.560973898287797
-0.20792602518072 0.207490853756741 0.565649096747403
-0.21516398221125 0.203906842995585 0.590689368640418
-0.205655181114555 0.208615304970766 0.587427280375721
-0.219622820203009 0.201698965375242 0.616165948527151
-0.208615360067522 0.207149516602912 0.611231538458673
-0.20860800591075 0.207153158152164 0.615910907181073
-0.223578813924903 0.199740080566928 0.646099271086299
-0.224903881545918 0.199083948374799 0.655688054991175
-0.223061870234532 0.199996054972604 0.654453516147304
-0.222185625938248 0.20042994384125 0.667542517928305
-0.205750340095478 0.208568185208904 0.658102107905637
-0.216566044788674 0.203212585300478 0.679546725184078
-0.220343862409972 0.201341927744581 0.695574415414442
-0.207640576970632 0.2076321988148 0.690233288709299
-0.214881976110582 0.204046483628327 0.710731378658381
-0.210253732886135 0.206338245440632 0.705881595641315
-0.219588405146213 0.201716006638872 0.723602781892838
-0.214757389526253 0.204108175022328 0.738846017330122
-0.212313492651298 0.205318316594328 0.74064621487651
-0.222877995670965 0.2000871039263 0.763273479728338
-0.219191581435233 0.201912501374118 0.770932678749863
-0.225140395049153 0.198966834258595 0.784820047834221
-0.203976436374001 0.20944656705066 0.768676660659931
-0.209971204815102 0.206478144536832 0.789292213784551
-0.214045863411273 0.204460500580794 0.800901455081022
-0.21883982311831 0.202086681130624 0.81053145252239
-0.211922246705048 0.205512049394303 0.820381225476777
-0.213705180996019 0.204629195895957 0.832103202651806
-0.211790886911363 0.205577094670499 0.832961271130761
-0.218032085697926 0.202486647529241 0.851015778224366
-0.203427323702307 0.209718470533388 0.841919180704067
-0.223619817068047 0.199719777088246 0.875726447411403
-0.220291661109185 0.201367776201953 0.879397231536809
-0.21823212772181 0.202387592953031 0.886848933294609
-0.222998860614957 0.200027255372615 0.890946991515803
-0.218233308380555 0.202387008327614 0.907037642338644
-0.210636808448383 0.206148558360197 0.905854937879293
-0.214368534389447 0.204300723967972 0.923677273290116
-0.210096651857766 0.206416027070679 0.933439448101059
-0.206675679180857 0.208109986130666 0.931868337013821
-0.205112810680191 0.207964724323413 0.939633699554446
-0.204947744604507 0.20016996823824 0.948675393047378
-0.17628937386623 0.210893890323809 0.946115691109299
-0.173143235333853 0.211959348191067 0.94557019814582
-0.174433314629323 0.207482199208069 0.95086818750537
-0.154213805165979 0.211266173370035 0.951209967220739
-0.149536764921468 0.211834495761242 0.951674549121931
-0.122844842952724 0.213705787982599 0.95054668745157
-0.126851805794836 0.206875309940059 0.959605802179943
-0.0970780390088205 0.209410973775723 0.953931821997307
-0.0668412899074009 0.211003765949561 0.944003849493222
-0.174808469777434 0.217192147701179 0.185174377407824
-0.168456541892168 0.218466366967436 0.185256073002749
-0.176436500557648 0.216865558951484 0.198693864260059
-0.179012840474578 0.216348736024984 0.213740536938881
-0.201641282706762 0.210602862375022 0.25160540883077
-0.154697306450548 0.221226518405765 0.216521081963481
-0.147761545575073 0.222617856640914 0.209579907459047
-0.202038404781981 0.210406219899103 0.27568283454192
-0.201470648928754 0.210687354904339 0.285324704953948
-0.150286388963225 0.222111364100763 0.250922525444102
-0.176480612255035 0.216856709988508 0.273562458938622
-0.146301917996952 0.222910663110886 0.262863590688574
-0.180316526239275 0.216087212035964 0.307411792687697
-0.163654901291083 0.219429593105084 0.297685514059741
-0.152722083165369 0.221622755203568 0.291262078550274
-0.167225892137067 0.218713239673848 0.322182456972364
-0.15944838944711 0.220273434302929 0.323065495704224
-0.182931722729217 0.21556259434308 0.349718149662335
-0.200377617950793 0.211228589781911 0.369515200979695
-0.199424152567274 0.211700716126473 0.383242104444245
-0.14899482834927 0.222370455741532 0.350802614741278
-0.20302555389802 0.209917414419901 0.410469880357478
-0.148524184157423 0.222464868635953 0.364723279859013
-0.147695068203572 0.222631192237455 0.374695621620398
-0.150264481170233 0.222115758881752 0.388750335744301
-0.163482591425512 0.21946415907536 0.409349191286332
-0.146321912279444 0.222906652186892 0.406792616742205
-0.201664845868654 0.210591194631564 0.458800606101564
-0.189442132072183 0.214256583134221 0.454665404999408
-0.167609250759321 0.218636336574318 0.446587973959047
-0.200300218724725 0.211266915466626 0.486365262435911
-0.188068104294444 0.214532217980584 0.488171143793393
-0.197661435026602 0.212573558920095 0.506241150763285
-0.198924057608748 0.211948347565206 0.518386148046048
-0.180645500039204 0.216021218724715 0.510114027798699
-0.203594055714652 0.209635910036834 0.542486023441907
-0.16948814511806 0.218259423700871 0.519264393497179
-0.198776750583954 0.212021289413275 0.555806720713412
-0.199337683077441 0.211743533123143 0.568383164013273
-0.199598564767055 0.211614352640443 0.569478360725838
-0.15507227426254 0.221151298532539 0.541436722076115
-0.186615429733133 0.214823629650719 0.579221683030199
-0.195143414199105 0.213112885715152 0.599350738165846
-0.166877785280106 0.218783071144208 0.590494891186741
-0.162023899103956 0.219756777929548 0.590799729429216
-0.142211115195522 0.223731292664337 0.584928796105731
-0.176450036982265 0.216862843496687 0.621308341460319
-0.181873728396411 0.215774831759311 0.631560881049084
-0.171678017816901 0.217820127469252 0.630393057115001
-0.1554000076576 0.221085554050907 0.632466027346614
-0.155386216324987 0.221088320641152 0.640562186365554
-0.199524291688946 0.211651130354111 0.683067458090856
-0.157074406487588 0.220749663705943 0.660712794832144
-0.159920472111289 0.220178732845856 0.668981412601098
-0.183847144203757 0.215378957547973 0.698033517108742
-0.179190359424297 0.216313125093949 0.710488357783259
-0.194441049334664 0.213253782598488 0.725657331062566
-0.151045209891464 0.221959141930759 0.69909611161093
-0.194075198449242 0.213327173583903 0.744809874094957
-0.187547523442007 0.214636648346262 0.74350501725894
-0.176447783887603 0.216863295475469 0.746560627271016
-0.19149840017773 0.213844088457958 0.774293907088762
-0.157371383673629 0.220690089028943 0.756846241474281
-0.161466284871953 0.219868637322537 0.769953008426973
-0.183240837399465 0.215500584843692 0.792584338763729
-0.196184077798921 0.212904124905437 0.81176333129933
-0.184012765924258 0.215345733243323 0.806132697188106
-0.161185416985723 0.21992498041685 0.801487345440337
-0.194650326473003 0.213211800862159 0.841455436049756
-0.200703100416234 0.21106742100821 0.846843502004281
-0.199571580159498 0.211627714577169 0.860652616873522
-0.155401093979442 0.221085336130892 0.837605671251274
-0.174036612091696 0.217346985090983 0.861155335964163
-0.167147917335722 0.218728881695601 0.86625936234668
-0.188331202301337 0.214479439587102 0.890487317194535
-0.197247685169087 0.212690761494001 0.907376625283686
-0.182172818304035 0.215714833262867 0.904894529365059
-0.158849919008392 0.220393489595917 0.899512196770783
-0.196805140066382 0.212779537611463 0.929346671357944
-0.18873833089571 0.212959532662628 0.940384914775539
-0.141831622305274 0.223807420284313 0.910141260382342
-0.165237568603292 0.218940007855578 0.938794723509608
-0.146841214601729 0.219301526411966 0.942975557537644
-0.140211907434576 0.221862692772233 0.941429116960136
-0.131305604753368 0.218290860357564 0.94537659998122
-0.112481251062403 0.220888009379461 0.940518585665337
-0.0895640090708848 0.219520240492016 0.940394738566386
-0.140168372634569 0.224141074068375 0.180918386333323
-0.140039784325842 0.224166869339252 0.249428579906865
-0.141182394469883 0.223937657691127 0.49558560148456
-0.141182304601712 0.223937675719 0.602851986875642
-0.00326071058562262 -0.188290604131406 0.182418300631658
-0.00256142248232578 -0.187944338454946 0.1943561933659
0.0124969601015475 -0.175735783824977 0.190636903010689
0.00485911204685745 -0.182456002609571 0.2212510200421
-8.85079716761055e-005 -0.186719828254042 0.240538169620575
-0.0131738177440415 -0.193199265868744 0.291829933196989
0.0332488407102017 -0.15747708361474 0.241663867148243
-0.0110887326548975 -0.192166796711232 0.304324040946651
-0.00439551744512527 -0.188852525123632 0.308652431997377
0.0435328246587562 -0.148428642009633 0.263069247627994
0.0377879209089242 -0.153483339329986 0.280224880658331
0.00902034599014671 -0.178794709230527 0.35736349833757
-0.00112085921175129 -0.187231016416408 0.398889302218434
-0.00511060661834099 -0.189206614997499 0.4359450418283
0.040919172462237 -0.150728283801624 0.389085019845862
-0.00844226517931806 -0.19085634849062 0.468087137341063
-0.00226294051080429 -0.187796539484403 0.49282942592664
-0.00946446529931702 -0.191362510134669 0.52365640118148
-0.00335033753524577 -0.188334984603766 0.533381024537114
-0.00579902659568502 -0.189547499116676 0.538397800809584
0.0314062862022199 -0.159098269232405 0.506099416371275
0.014403225904247 -0.174058541339397 0.542371336951528
-0.00601820540939858 -0.189656029634839 0.586835932153419
-0.00279437412173603 -0.188059688847184 0.598269751076171
-0.0108537621678857 -0.192050446648576 0.668802724563848
-0.00679234185856563 -0.190039357879635 0.69680587647977
-0.0102035132192664 -0.191728463633279 0.716149638874872
0.0079039031869976 -0.179777019934265 0.726508228899642
-0.009922637114756 -0.191589382539419 0.766450986374028
-0.000611038427021552 -0.18697856905163 0.783362627103683
0.0275188500637618 -0.162518659527487 0.76382676870502
-0.00427669697905403 -0.1887936889317 0.862944622049272
-0.00161813918391991 -0.187477253961622 0.877155463056666
-0.002914587731663 -0.188119214880538 0.891097467867706
-0.0002508641204746 -0.186800221959335 0.897045660298688
-0.00920615196935689 -0.191234601423631 0.915895751368116
-0.000347395437777368 -0.186848021259406 0.925769368404294
0.00127382703615374 -0.181028890821192 0.942984760294243
0.0425352471399495 -0.149306368187605 0.929333975740733
0.0316737228709399 -0.157114803802429 0.940259787430133
-0.0406026480399999 -0.206781167851856 0.185965757615627
-0.025629183933968 -0.199366775052695 0.178246316131664
-0.0374708304945197 -0.205230389401854 0.198329230746382
-0.0333033562045096 -0.203166786006693 0.199723057409607
-0.0372730569200291 -0.205132458091092 0.21930265610443
-0.0311688940645905 -0.202109866872401 0.224839473131729
-0.0280264847405395 -0.200553843703729 0.22070766019822
-0.0128158050922627 -0.193021989160525 0.225377398643878
-0.0373557091120961 -0.205173384880868 0.255580850502441
-0.0250469919691035 -0.199078491734856 0.250888591985219
-0.0200153975724349 -0.196587002991918 0.255592902747416
-0.0130161569320782 -0.193121197147929 0.261942535254836
-0.0266826567227549 -0.199888421947761 0.286014400203986
-0.0358946034694235 -0.204449890899841 0.299914592847009
-0.0153109785912263 -0.194257521318773 0.295863819417182
-0.0222534792064627 -0.197695231270543 0.298767439162031
-0.0199710422191853 -0.196565039603259 0.311769535849384
-0.0229919535238505 -0.198060900739039 0.330884617749048
-0.0406781760252197 -0.206818566956417 0.356956256037523
-0.020495832539909 -0.196824899415757 0.341854263955358
-0.0244435806877087 -0.198779701272741 0.352729905869897
-0.0221908643956165 -0.197664226367511 0.356699223083135
-0.0220742323965977 -0.197606473836263 0.374124751278283
-0.0163767397333935 -0.194785253023484 0.377816885634224
-0.0256537506366083 -0.199378939718257 0.388306896849564
-0.0405536347908733 -0.206756898018314 0.423299060913889
-0.0203715089587959 -0.196763338252753 0.407134452460045
-0.0258170964806633 -0.199459823489798 0.428464543844115
-0.0278249611665928 -0.200454055510099 0.439041600507589
-0.0377221919446333 -0.205354855758638 0.453005037209553
-0.020108026431292 -0.196632869916181 0.445932270698423
-0.0117360481501707 -0.192487327171849 0.448652257109309
-0.0168419973006694 -0.195015634071726 0.467469900340766
-0.0330568194321438 -0.203044708679976 0.494133225366248
-0.0182163084644319 -0.19569615013162 0.48559989981698
-0.0279324917992368 -0.200507301328349 0.499807223367698
-0.031170044978308 -0.202110436769007 0.510738689095164
-0.0397298102894945 -0.206348965798519 0.532719019307662
-0.0106907684100147 -0.191969737219141 0.511163888477352
-0.0268091405945562 -0.199951052819391 0.53679431486481
-0.0261569092808155 -0.199628088198664 0.557217046814387
-0.0251733503989909 -0.199141060491561 0.551075980471139
-0.0232568057015042 -0.198192047283682 0.562584765133275
-0.0230674551370267 -0.198098286784987 0.578009586259163
-0.0211160682318797 -0.197132020801682 0.584085382656004
-0.0233320353299036 -0.198229298651244 0.592715254247333
-0.0276687056139618 -0.200376682629912 0.60815322636291
-0.024145240133652 -0.19863197232772 0.60614884509671
-0.0309311380016651 -0.201992137479361 0.623552993677366
-0.0101439611020784 -0.191698975280702 0.618361716885481
-0.0318703143916553 -0.202457188359623 0.648910391609245
-0.0340742272022705 -0.203548497301715 0.664332916421999
-0.0100831880657895 -0.191668882367035 0.648849902378328
-0.0425912728920697 -0.207765872906011 0.686455983540285
-0.0380468808141603 -0.205515631568374 0.694496208716029
-0.0217166496371778 -0.197429409997342 0.690112231851921
-0.031464302490067 -0.202256143918725 0.703457713144004
-0.00661504840748329 -0.18995156768775 0.696802209581111
-0.0363556486589618 -0.2046781861099 0.723530139989475
-0.0290942057939403 -0.201082545895405 0.730229108057337
-0.0231663604287868 -0.198147261603227 0.738450001607245
-0.017074262652558 -0.195130644635771 0.738263042760143
-0.0294139608379788 -0.201240878628515 0.76141525563331
-0.0151355307502796 -0.194170645015512 0.754631961582767
-0.0274611435063618 -0.200273904342599 0.774404267920301
-0.0257763852513966 -0.199439664557771 0.780880697022899
-0.0236426274340253 -0.198383094182056 0.784009239104814
-0.0208358889819834 -0.19699328476851 0.799696928839734
-0.0362778061941594 -0.204639640947176 0.821499653222437
