ply
format ascii 1.0
element vertex 854
property float x
property float y
property float z
end_header
0.333645695212225 -0.0753736244970989 0.713344224579638
0.333321637385985 -0.0778350880635223 0.721065221036535
0.333118273199808 -0.0793797924170564 0.734933870300143
0.333579298615359 -0.0758779567208147 0.733308363945592
0.333391016767085 -0.0773080993441895 0.752529527004741
0.334020162430159 -0.0725292635863958 0.755791650428042
0.333141426012252 -0.0792039293467084 0.764457180323569
0.333131259885133 -0.0792811487485847 0.776064757052597
0.332814843589666 -0.0816845691262169 0.793032403875131
0.332980030976127 -0.0804298463561373 0.799070762782419
0.333919319026571 -0.0732952452839413 0.801136593553111
0.333915206023154 -0.0733264866465591 0.815202530952017
0.333276542818526 -0.0781776153097579 0.821434251208291
0.33323168732441 -0.0785183266136666 0.83042904213005
0.332804895622768 -0.0817601314366912 0.841423663762906
0.333372517149068 -0.0774486178938298 0.842567945573144
0.333306414968226 -0.0779507138058172 0.863008582530624
0.334149081217426 -0.0715500281778025 0.862052934799469
0.33398675355445 -0.0727830291914609 0.877121870262339
0.33312951996121 -0.0792943647828826 0.889172089501854
0.333416506864889 -0.0771144828289661 0.890355569479981
0.334263860868364 -0.0706781901721392 0.89767198487204
0.324301356603643 -0.0596822224364643 0.901868155464892
0.314368363456635 -0.055610237753702 0.901868155464892
0.31285830134258 -0.0554252485518321 0.90311702336646
0.313069625255126 -0.0538200840739961 0.921670503684079
0.310694711338685 -0.046530149506105 0.923341206785484
0.30207344403356 -0.040858261136046 0.923341206785484
0.286543502971496 -0.0242148496009907 0.923341206785484
0.283783459761114 -0.0240756297414116 0.923341206785484
0.275147404180338 -0.0145397137649695 0.923341206785484
0.277086666404667 -0.0129519320324658 0.923341206785484
0.257074013037148 0.0122610112982348 0.923341206785484
0.257462750441375 0.0102269886963617 0.923341206785484
0.248995079716775 0.0192677828269892 0.923341206785484
0.242794916321075 0.0255823402291762 0.923341206785484
0.228196024523662 0.044021835894469 0.923341206785484
0.21470916213133 0.0578309293683204 0.923341206785484
0.206681861275652 0.0681763881735455 0.923341206785484
0.200216464225372 0.0786816468407337 0.923341206785484
0.188017578374664 0.0813780936993411 0.923341206785484
0.186311140675971 0.0934256959376713 0.923341206785484
0.166875953045522 0.107496905540376 0.923341206785484
0.161066475605382 0.121513167496928 0.923341206785485
0.156185006320073 0.11912066517533 0.923341206785484
0.149955765439006 0.133020104585951 0.923341206785484
0.137982529230873 0.142558663261761 0.923341206785484
0.125316814044991 0.157390594455544 0.923341206785484
0.109058960131917 0.178796220053698 0.923341206785484
0.110251465418449 0.177395341294166 0.923341206785484
0.101284671709172 0.185782066406757 0.924844320377926
0.0904092832164793 0.2056880547333 0.924844320377926
0.0724088140185514 0.21563503615315 0.924844320377926
0.0726702858336143 0.219994196537784 0.924844320377926
0.0511379984133582 0.247930723484041 0.924844320377926
0.0391433020621739 0.249500741365142 0.924844320377926
0.0386757979000486 0.26220939780232 0.924844320377926
0.0264310229229368 0.268346553475414 0.924844320377926
0.0105427638933723 0.291161868054372 0.923341206785484
0.00761921609932865 0.295365683280711 0.923341206785484
-0.0130785668649497 0.313189309128702 0.923341206785484
0.330365179994504 -0.0925357911809705 0.295736838147017
0.329061184471764 -0.0956839148572455 0.301141095239758
0.332637915990026 -0.0830284676688359 0.307010081712518
0.332075928801742 -0.08729718416554 0.318114433439845
0.331986355241489 -0.0879775629042271 0.32632318323865
0.331446948431511 -0.0899241711490024 0.327507794925921
0.330787143216919 -0.0915170818465947 0.344089212272465
0.332344211298459 -0.0852593762877352 0.345190515161206
0.331861997436656 -0.0889221542117317 0.366564889922057
0.331861997436656 -0.0889221542117317 0.369698575775087
0.331985992759236 -0.0879803162302878 0.385782451940628
0.331902795882978 -0.0886122592452925 0.381105965795806
0.331039784233859 -0.0909071524770861 0.39847499021076
0.332326596518784 -0.0853931738228907 0.402251232516106
0.330452425823175 -0.0923251611181355 0.412834786939924
0.330632804720193 -0.0918896879385866 0.430147181429027
0.330473780703675 -0.0922736058760092 0.431291462743766
0.331476665294115 -0.089852428296272 0.438004081730919
0.330342109073629 -0.0925914893110442 0.451162077694598
0.331650180618164 -0.0894335252476731 0.455082377432671
0.331499165933557 -0.0897981069473699 0.471496398760129
0.332229353452601 -0.0861318082427846 0.473180004437147
0.331739128714137 -0.0892187855480298 0.490202571336224
0.331901893782432 -0.0886191113792269 0.494045077646628
0.331685688849932 -0.0893478007929644 0.503273525353626
0.330107179305967 -0.0931586599423387 0.510560077271699
0.332269640714064 -0.0858257961108368 0.519179376516778
0.332252434968803 -0.0859564867211657 0.528143790233429
0.330569678331534 -0.0920420885222317 0.54238892881438
0.33043515093468 -0.0923668663882278 0.551175974151748
0.330245325152608 -0.0928251463657925 0.557660602146328
0.331861997436656 -0.0889221542117317 0.564732164710439
0.32985624903042 -0.0937644592167738 0.576628564515373
0.33089769399843 -0.0912501886505411 0.587663609110942
0.329310613294662 -0.0950817404101587 0.596173843717467
0.331948840640286 -0.0882625145906027 0.610620462915664
0.33143681335176 -0.0899486393959918 0.613383538847766
0.332439659034258 -0.0845343787559863 0.623354455966492
0.330530449263197 -0.0921367958710491 0.6296754411692
0.329973749788888 -0.0934807872920913 0.640849917486763
0.330154548925206 -0.0930442995651293 0.64756995554757
0.330774971175676 -0.0915464677536447 0.660469800431293
0.331404018804348 -0.0900278124371259 0.660741854065814
0.331037602462514 -0.0909124197390566 0.669327917708869
0.331661802443749 -0.0894054676787275 0.68636322780165
0.33075295784937 -0.0915996126245672 0.691899818276514
0.331593857682078 -0.0895695008438459 0.703534720772953
0.330685909563757 -0.0917614815050273 0.712464804696929
0.329813061118685 -0.0938687240590173 0.718647012311957
0.329610085003027 -0.0943587517502747 0.730179610628099
0.331979754573529 -0.0880276999550266 0.74363571135614
0.32955776255192 -0.0944850693213535 0.750374501070617
0.332176360563688 -0.0865343291966908 0.756367650403228
0.330547554031623 -0.0920955013071336 0.76350363898644
0.332450041887066 -0.0844555131590679 0.772095413345336
0.331375521775743 -0.090096610350073 0.780292648776626
0.332297781876679 -0.0856120427591655 0.790689128520403
0.329371943711782 -0.0949336756853596 0.804268306560944
0.330352961017421 -0.0925652904011645 0.813829610470628
0.331341514083189 -0.0901787121826621 0.817519912011103
0.332412591455461 -0.084739977428956 0.822538875234701
0.330978441718955 -0.0910552464085188 0.839338758222549
0.330961431808481 -0.0910963119650797 0.843126556214835
0.33178294606524 -0.0891130011047271 0.858365361388099
0.332088864483863 -0.08719892790487 0.865716242514647
0.331861997436656 -0.0889221542117317 0.878528786513701
0.332504165392976 -0.0840444043164587 0.878462554801064
0.33247572613217 -0.0842604219486861 0.889524631065125
0.331699137213689 -0.0893153335707899 0.898547309509602
0.323184641224888 -0.0810136938696475 0.901868155464892
0.319294532418357 -0.0764094421436505 0.901868155464892
0.311539212544459 -0.0654447227152089 0.90295402756307
0.310933479350669 -0.0700457231131513 0.911778095328713
0.311778679687444 -0.0636257891790198 0.918336835291194
0.302548853770446 -0.061747318686042 0.923341206785484
0.299481427389696 -0.0481326936823934 0.923341206785484
0.293578660507585 -0.0371475995870025 0.923341206785484
0.276236926447989 -0.021908782777839 0.923341206785484
0.267924735973722 -0.0223133624443198 0.923341206785484
0.260521125206794 -0.00592954078400082 0.923341206785484
0.24708622159885 0.00592800390517695 0.923341206785484
0.248612614045252 0.00323575109549077 0.923341206785484
0.230078825910771 0.0193417873903159 0.923341206785484
0.22906538605407 0.0212618843823476 0.923341206785484
0.225363185007258 0.0357403135100351 0.923341206785485
0.209514965120007 0.0440257019694242 0.923341206785484
0.205240954928763 0.0547638012730136 0.923341206785484
0.188616168962403 0.0656390149314035 0.923341206785484
0.180876738113109 0.0829455555473396 0.923341206785484
0.177298277696914 0.0911948753626956 0.923341206785484
0.173371862316006 0.0954151981064582 0.923341206785484
0.159186282995371 0.113051712370324 0.923341206785484
0.146461474518702 0.119723952321086 0.923341206785484
0.142677940622726 0.125442011159995 0.923341206785485
0.131884619988554 0.140940180961313 0.923341206785484
0.119057808560711 0.152436585501592 0.923341206785484
0.112339112274703 0.1629608757449 0.923341206785484
0.101075878706705 0.171037281477854 0.924844320377926
0.0825709396110276 0.184680933590393 0.924844320377926
0.0727739487026787 0.1968007395102 0.924844320377926
0.0671501150482623 0.205891865925414 0.924844320377926
0.059295674714347 0.224123614276136 0.924844320377926
0.0420518397566762 0.229948332008178 0.924844320377926
0.0301805216878063 0.245656001519075 0.924844320377926
0.0225085341487077 0.260103809159786 0.924844320377926
0.0132685514006791 0.271064087685097 0.924844320377926
0.00294263728746284 0.27840550102023 0.924844320377926
-0.00400098053104462 0.287381515023058 0.923341206785484
-0.0181448605584752 0.303815053867912 0.923341206785484
0.326512374011617 -0.101837287638049 0.294266577985267
0.328056403357533 -0.0981096710504363 0.304959201405947
0.327403967895782 -0.099684789590769 0.308028392858683
0.328889690198761 -0.0960979386569976 0.32456164386777
0.327621639891615 -0.0991592829062806 0.333617176285359
0.326676390379279 -0.10144131709879 0.342945502748068
0.327855186807418 -0.098595450774699 0.349384611807949
0.328483684612351 -0.0970781228501096 0.357116404036841
0.328726921023684 -0.0964908982070046 0.365553574667208
0.327311188439473 -0.0999087790125002 0.372850934741419
0.327216100734765 -0.100138341038823 0.385173746397282
0.325625764903381 -0.103977751371677 0.391437691390975
0.330091833331645 -0.0931957084016749 0.396472729685005
0.329150831075278 -0.0954674888112207 0.410925633668188
0.327226987816983 -0.100112057297277 0.415660085128066
0.327987888991241 -0.0982750793627586 0.425323415264509
0.328984063699063 -0.095870100872641 0.434359830566297
0.328686958411188 -0.0965873764880806 0.43994622117728
0.327241076249188 -0.100078044813174 0.448484503105413
0.328643044063869 -0.0966933951009603 0.459324104849436
0.330026842464336 -0.0933526102349625 0.466629687272895
0.327588745925322 -0.0992386959658271 0.473055810269577
0.326798949831114 -0.101145432407972 0.48838037970352
0.328097608309496 -0.0980101934965704 0.492553345128492
0.328142403198399 -0.0979020490682567 0.509245450099463
0.327519583565638 -0.0994056686725813 0.51829287850289
0.330049958883332 -0.0932968022627093 0.525263545493595
0.327923247599633 -0.0984311374870666 0.536347729486734
0.329975394136642 -0.0934768174854439 0.542630565120222
0.326947010528023 -0.10078798226544 0.556971948879299
0.328052113854901 -0.0981200268258671 0.562514255033402
0.326496804866778 -0.101874874878675 0.567764523642015
0.328727443810932 -0.0964896360869421 0.57937832629169
0.327568890407461 -0.0992866314263336 0.58787600609929
0.326583026837832 -0.101666716626781 0.60265249508745
0.326852326936462 -0.101016568676319 0.603627475459575
0.329435055040846 -0.0947813114587949 0.616281435117037
0.326944742778988 -0.100793457095916 0.624352642981271
0.327864253584543 -0.098573561638396 0.636127302705884
0.327192316630784 -0.100195760945222 0.643424176418903
0.329418405399394 -0.0948215072489964 0.652540542767472
0.328318566098625 -0.0974767542053445 0.655604166071669
0.327845690029307 -0.0986183780252151 0.661409534625898
0.327809187784592 -0.0987065022394621 0.682685056722511
0.32634411603309 -0.102243498331789 0.687925077035759
0.328609819599154 -0.0967736060542796 0.695413660466166
0.328588710028016 -0.0968245690672131 0.709833673302898
0.326004171602078 -0.10306419678759 0.713555436720558
0.328220834787961 -0.0977126984610177 0.721200194949099
0.328947891657703 -0.0959574279054691 0.729704220343206
0.328376796350387 -0.0973361739417993 0.745101896208429
0.329111174206451 -0.0955632289617843 0.750707645551043
0.327770846706469 -0.0987990657902608 0.762624001828492
0.327907759009541 -0.0984685302513292 0.766378571895387
0.327792768360213 -0.0987461422364821 0.773195079624537
0.327285368632545 -0.0999711135405638 0.792082971243102
0.329024127883395 -0.0957733773754613 0.796357547752069
0.32684357564465 -0.101037696163703 0.803673346000838
0.328042763674787 -0.0981426001575086 0.814137454442701
0.32724044610413 -0.100079566117919 0.819021153094132
0.328223730780212 -0.097705706917249 0.837305848970886
0.328163422435035 -0.0978513041420999 0.836243026435695
0.327958535429273 -0.0983459451301646 0.849453688023879
0.327667241459613 -0.099049190982355 0.86005289347939
0.330198142867529 -0.0929390544783345 0.865398715772219
0.328408774864814 -0.0972589709785665 0.87154305382755
0.326941179972987 -0.100802058470484 0.88594733633359
0.327866128671604 -0.0985690347777849 0.896840578830643
0.321928000917832 -0.088738713901743 0.901868155464892
0.316853574562949 -0.09335994643462 0.901868155464892
0.310078825799441 -0.0765374613398437 0.902345506861912
0.310175209376932 -0.0758053553847167 0.908773032439149
0.309423310257143 -0.0815165962162102 0.922068156473798
0.297148765484763 -0.0715110661897523 0.923341206785484
0.291094170236144 -0.0582563232957322 0.923341206785484
0.286494632841233 -0.0479431426503623 0.923341206785484
0.280584053742831 -0.0449476445225732 0.923341206785484
0.267797742371613 -0.0336010819719597 0.923341206785484
0.258604360711716 -0.0195292856424966 0.923341206785484
0.253224443582511 -0.011039673744096 0.923341206785484
0.245800071485803 -0.0143845078443766 0.923341206785484
0.244698484034263 0.00164031787765358 0.923341206785484
0.222570056902547 0.0133475175097085 0.923341206785484
0.222062005845437 0.0154642025964474 0.923341206785484
0.217572303046539 0.0272983770532856 0.923341206785484
0.206460358700068 0.0406452554789962 0.923341206785484
0.201998060584876 0.0489278663336484 0.923341206785484
0.194035553405266 0.0561767189645742 0.923341206785484
0.176341790257383 0.0705852721774421 0.923341206785484
0.174033073721526 0.0791443115619977 0.923341206785484
0.15711222500125 0.0915145315861745 0.923341206785484
0.152113718072188 0.0984024461204649 0.923341206785484
0.138014582348382 0.12138332649244 0.923341206785484
0.127881303622269 0.123237563464213 0.923341206785484
0.123471591973701 0.128177120693421 0.923341206785484
0.113730006669763 0.142564037560857 0.923341206785484
0.0968640017169365 0.155973666347019 0.924844320377926
0.0988707853552791 0.16706577023508 0.924844320377926
0.0810996140113754 0.178666368798308 0.924844320377926
0.0817118572882753 0.180309782114552 0.924844320377926
0.0576308796989488 0.197835178595818 0.924844320377926
0.0445291623827935 0.220091510418848 0.924844320377926
0.0418594435554044 0.225410237883048 0.924844320377926
0.0306063484730441 0.23512608701367 0.924844320377925
0.018229080617096 0.250936998232905 0.924844320377926
0.00512787484764019 0.259251700080134 0.924844320377926
0.000416683941771531 0.275138398329696 0.924844320377926
-0.0146703579612741 0.289122643192858 0.923341206785484
-0.0219373838542346 0.295268691692516 0.923341206785484
-0.0336699526974631 0.305161741803618 0.923341206785484
0.324181324652176 -0.107464938616174 0.29262728823311
0.323896809945765 -0.108151817879087 0.306972637010337
0.324497446875929 -0.106701752056222 0.32018786291233
0.324045401505974 -0.107793086119175 0.321512414124142
0.324297980807017 -0.107183305745021 0.333692286771537
0.323305879312906 -0.109578450627354 0.338219268886281
0.323572676050065 -0.108934346326109 0.350727992454306
0.323506422887185 -0.109094295610485 0.357726567659939
0.322885861218652 -0.110592464006945 0.372393558041581
0.325395840390621 -0.104532838248702 0.370912079692378
0.32221559927742 -0.11221061947581 0.388599059011553
0.32276131130666 -0.110893154093667 0.397103409218698
0.323628631833142 -0.108799257115712 0.403700761567427
0.322214574263153 -0.112213094079155 0.416809114460145
0.324786422329745 -0.106004103596426 0.427410172852616
0.323675062467755 -0.10868716364792 0.426669209362244
0.322707598820341 -0.111022827506608 0.441801778945182
0.323225420419802 -0.109772695578299 0.455568246702644
0.324431644223169 -0.106860613712955 0.4533440700447
0.324829051428454 -0.105901187848172 0.471955272203161
0.324313792993801 -0.107145131749237 0.47280813718627
0.324403169955914 -0.106929356675141 0.482738517531794
0.322918555157389 -0.110513533856638 0.495594549110686
0.323361138754543 -0.109445042533905 0.500553638449552
0.324873942937496 -0.105792810158208 0.515028143106385
0.32455217109225 -0.106569636110989 0.520361306533978
0.324732745579165 -0.10613369073566 0.530636489653474
0.324026910327615 -0.107837727772753 0.546676739665013
0.321593388878603 -0.113712768259284 0.549148345211628
0.32463322666101 -0.106373950657582 0.556839811171784
0.322856071401176 -0.110664382988317 0.569494551714232
0.323725497183795 -0.108565403472439 0.576286415419597
0.323733303317208 -0.108546557799287 0.586837853808655
0.324035627378717 -0.107816682949759 0.590919703322965
0.322854181301514 -0.110668946092555 0.605698310366796
0.32208946499276 -0.112515134576518 0.615417327092701
0.325745786694868 -0.103687993134887 0.617899858981557
0.324108020379425 -0.107641910785628 0.626168574611819
0.325270577335703 -0.104835250014752 0.633402184377936
0.322163134291767 -0.112337281155724 0.646585088603502
0.321813651926294 -0.113181006222259 0.657203937029748
0.325240485108954 -0.10490789907669 0.668202384400385
0.324376578432723 -0.106993554291073 0.670693155593174
0.326058134600107 -0.10293391858588 0.675704808655897
0.324955107612464 -0.105596861299114 0.688368870386055
0.322473657113174 -0.111587612748856 0.697162957529798
0.325474703974382 -0.104342444715212 0.711608950652865
0.32372950570418 -0.108555726048162 0.720850472704038
0.324806582330346 -0.105955433049558 0.724617727698207
0.323268258356378 -0.109669275650833 0.742619613762102
0.322818584652834 -0.110754884004573 0.741402103961487
0.324550027456463 -0.106574811305579 0.755073690913765
0.323245241917262 -0.109724842250307 0.76081182589448
0.323672717652732 -0.108692824532149 0.768652254244509
0.324495365267185 -0.106706777504282 0.785651077968389
0.322681140284839 -0.11108670406186 0.79817289312327
0.323400157486204 -0.109350842982744 0.804614617934623
0.324729486100721 -0.106141559812726 0.805166834340298
0.322702289246262 -0.11103564595236 0.814905985732392
0.325517834663656 -0.104238318020211 0.823567056559439
0.324358048780472 -0.107038288828843 0.832650779816729
0.324095884458246 -0.10767120949113 0.842699428872848
0.323482392950706 -0.109152309009035 0.851253526141582
0.321489930313492 -0.113962539330319 0.861400404545312
0.324089755016001 -0.107686007273729 0.875941338119019
0.324422696028316 -0.106882216566328 0.883485806646446
0.324889662823281 -0.105754858996744 0.886211898829675
0.324606761124409 -0.10643784411498 0.900560388910199
0.320823503448846 -0.108628104557176 0.901868155464892
0.312630725414087 -0.0885359022014279 0.901868155464892
0.3076556287706 -0.086702116060927 0.902706804210649
0.306324760814834 -0.0899151155294649 0.914117220405543
0.303895378305957 -0.0869577431340783 0.923341206785484
0.290967708685323 -0.0738409541071328 0.923341206785485
0.296260279575423 -0.0717155088164421 0.923341206785484
0.284268087608771 -0.068882179994628 0.923341206785484
0.277084966070988 -0.0508239117077887 0.923341206785484
0.268916279175972 -0.0434845432186772 0.923341206785484
0.254000431302442 -0.0342371448200081 0.923341206785484
0.254544504347231 -0.02896527983665 0.923341206785484
0.244067901478121 -0.0140043205190589 0.923341206785484
0.233882373878863 -0.00620316649976516 0.923341206785484
0.221323318951728 0.00881261398571881 0.923341206785484
0.221148298719986 0.00692543842752585 0.923341206785484
0.210548379856109 0.0279845630976532 0.923341206785485
0.195597684702056 0.0425590845118311 0.923341206785484
0.185663159210557 0.0388672254496779 0.923341206785484
0.178063890057289 0.0518161984837146 0.923341206785484
0.169469899799475 0.0714259703965884 0.923341206785484
0.160221223088747 0.0704222240379971 0.923341206785484
0.149057166582943 0.0887648077543334 0.923341206785484
0.133737766808428 0.0976973193666909 0.923341206785484
0.132911068998377 0.0978774410773458 0.923341206785484
0.121555622693873 0.122102911498915 0.923341206785484
0.10831778654524 0.132645528053287 0.923341206785484
0.106988607161493 0.136738691590152 0.923341206785484
0.0927913851116584 0.146835835031876 0.924844320377926
0.0906852988899194 0.155779149595779 0.924844320377926
0.0772273993375136 0.164946515305548 0.924844320377926
0.0638845035297771 0.186706781781596 0.924844320377925
0.0589708114717837 0.189800461847865 0.924844320377926
0.0465178566992438 0.207849377008867 0.924844320377926
0.0384031284671477 0.212286496455112 0.924844320377926
0.0312665347337735 0.219152319958204 0.924844320377926
0.0168597175972986 0.240894522912685 0.924844320377926
0.000714481071332204 0.253569663719658 0.924844320377926
-0.00445718288289507 0.259405471351883 0.924844320377926
-0.0202112597016467 0.278073034079844 0.924844320377926
-0.0282755934512505 0.293882198499638 0.923341206785484
-0.0495045718971155 0.307620280415893 0.923341206785484
0.318826766068919 -0.120391986568395 0.300148393309357
0.321934900678448 -0.112888285840386 0.304687290856498
0.320999363013712 -0.115146873558705 0.316390291039362
0.322240299959703 -0.112150986753644 0.321868565061013
0.319328581629361 -0.119180496636565 0.33420365374993
0.319453455555199 -0.118879024311222 0.343785191912192
0.32265606683137 -0.111147236733279 0.348498380364598
0.320092568362774 -0.117336069503285 0.368142980776974
0.322037121514126 -0.112641502912536 0.369531377750667
0.319661653219519 -0.118376390686364 0.382232876746907
0.320180127265602 -0.117124683612571 0.386469525838142
0.31940248857256 -0.11900206949194 0.399587248827453
0.320847224499135 -0.115514168423955 0.413448256596528
0.319851766817975 -0.117917415858581 0.420348835510344
0.320322670830963 -0.116780553003849 0.422834540711275
0.321668270844452 -0.113531987201755 0.433184310217746
0.322722135079284 -0.110987733873122 0.442610763521917
0.321398179219415 -0.114184046066003 0.45595580697135
0.320243601861332 -0.116971442382693 0.466362935532596
0.318764885220544 -0.120541380151791 0.468398163939777
0.318928900072886 -0.120145413270837 0.485417334439117
0.318348918303178 -0.121545613125196 0.494423537464901
0.319084541488997 -0.119769661653195 0.496475521348521
0.32149821395155 -0.113942540858972 0.502746884607745
0.318490252665173 -0.121204401791636 0.519163696399895
0.318874675960453 -0.12027632185848 0.519390784949058
0.319885971688413 -0.117834837996469 0.537552052441753
0.320589654066361 -0.116135998456025 0.545085123999465
0.3210660058865 -0.114985983431384 0.548064732805946
0.320449976673965 -0.116473209511105 0.559881975730557
0.319869909520858 -0.117873615499221 0.568279338061716
0.319027865933853 -0.119906488547077 0.582776874961927
0.3203909030313 -0.116615825900404 0.589568836763198
0.321231484419365 -0.114586482913061 0.59595543146748
0.320370815567049 -0.116664321329034 0.599965431596846
0.320751852829019 -0.115744416003415 0.60869295910523
0.319414023943525 -0.118974220642911 0.630511017206991
0.3197073114326 -0.118266162009109 0.630886445076719
0.319820189288218 -0.117993650759187 0.645460264221999
0.320614580441024 -0.116075820864253 0.645311800395011
0.31857193433379 -0.121007204799465 0.656761080554714
0.320742027369379 -0.115768136761336 0.664138378109167
0.318780108930973 -0.120504626863604 0.679772647530694
0.319688896036028 -0.118310620709271 0.691244365392728
0.318755846376415 -0.120563201851877 0.696827632063348
0.320634833259606 -0.116026926234956 0.698464831921156
0.322505167512824 -0.111511539914665 0.714995279939447
0.320321669551194 -0.116782970307045 0.717298597127216
0.32251529793023 -0.111487082923572 0.72588692254384
0.321806890244602 -0.113197330365904 0.732055861534221
0.320831984879836 -0.115550960119552 0.749953982545247
0.319503071873197 -0.118759239923394 0.76331097607434
0.321506581021261 -0.113922340965799 0.770793867555293
0.320044650587615 -0.117451753245954 0.778973145103956
0.319663553575616 -0.118371802820903 0.783366982658303
0.321081139054074 -0.114949448732984 0.794723730861908
0.319366401883364 -0.119089190466418 0.806970826263897
0.319993737080646 -0.117574669324987 0.817091379967196
0.31901918942309 -0.119927435497036 0.82582594888044
0.322324241043778 -0.111948335050029 0.823108251938322
0.319721164915614 -0.118232716742533 0.836699883214395
0.319940038988492 -0.117704307987337 0.844129712236415
0.317794180799694 -0.122884867929664 0.863203794385051
0.319286561746633 -0.119281941607336 0.865374627235827
0.321773879172221 -0.113277026144555 0.869747232165425
0.321429049488876 -0.114109518642795 0.881265211700439
0.319161104400262 -0.119584822434444 0.886308476058182
0.320700935402397 -0.115867341545327 0.90143103458756
0.314243497820897 -0.106288427304013 0.901868155464892
0.304146314877621 -0.101377158195601 0.901868155464891
0.303615697019695 -0.0964553740850246 0.909018648192447
0.300585910440119 -0.103769925936533 0.922019915288299
0.304015255816279 -0.0919655705704053 0.923341206785484
0.296515289547643 -0.087495617560249 0.923341206785484
0.285211186031262 -0.0818579684962722 0.923341206785484
0.278249900419873 -0.0728869705644194 0.923341206785484
0.271304359591449 -0.0655013488234347 0.923341206785484
0.252213132272969 -0.0466033561360398 0.923341206785484
0.251393782906986 -0.0362210960982253 0.923341206785484
0.249546315726071 -0.0348024522294593 0.923341206785484
0.230501668351881 -0.0244255755627975 0.923341206785484
0.23008160342712 -0.00940039024907192 0.923341206785484
0.223993679056533 -0.00334148156132383 0.923341206785484
0.204652042474715 0.0120553900561551 0.923341206785484
0.200576697203761 0.0144092541012324 0.923341206785484
0.190727310071529 0.0264341989124114 0.923341206785484
0.187124748398428 0.0332651094015533 0.923341206785485
0.17131123614521 0.0486871542356322 0.923341206785484
0.156030107291749 0.0638067773399739 0.923341206785484
0.155925050640269 0.0634631074033389 0.923341206785484
0.151719629302867 0.0768129718289047 0.923341206785484
0.135508272575631 0.0830335024437862 0.923341206785484
0.134527343346983 0.094225372016056 0.923341206785484
0.114115415176797 0.109624644120199 0.923341206785484
0.102669218990743 0.129861624892734 0.923341206785484
0.0960389304653108 0.136316707715391 0.924844320377926
0.0961952158483027 0.13879651861395 0.924844320377925
0.0746507156800809 0.147267173465975 0.924844320377926
0.0652012828831798 0.164123137200998 0.924844320377926
0.0586443626275528 0.177836352989183 0.924844320377926
0.046686092873986 0.188192206170553 0.924844320377926
0.0447151010107795 0.189149574203654 0.924844320377926
0.0266588112544677 0.210678013651873 0.924844320377926
0.010170154689747 0.22495604045228 0.924844320377926
0.0101483097618173 0.227129104554948 0.924844320377926
0.00149064984117062 0.241901753397303 0.924844320377926
-0.0110835030448644 0.257976677800842 0.924844320377926
-0.0306273601423615 0.266138040506972 0.924844320377926
-0.0358515660866636 0.286855394122268 0.923341206785484
-0.0528124090654552 0.297190981668752 0.923341206785484
-0.0572724510592588 0.300782097947944 0.923341206785484
0.317955995962356 -0.122494211569366 0.303768085432029
0.316912207623791 -0.125014139532577 0.317075562479367
0.315054902836228 -0.129498069940174 0.326292847771035
0.317816729784608 -0.122830429864467 0.327815682627526
0.317558955715748 -0.123452751517536 0.340531074633498
0.31660664215866 -0.12575183982269 0.350163437502287
0.314183164467032 -0.131602632533928 0.354917989089247
0.316226891216291 -0.126668639698082 0.366417983631648
0.316890705871299 -0.125066049355058 0.373173755386718
0.315735893783785 -0.127854012358728 0.387192035558287
0.314480943258083 -0.130883730937985 0.401232894128755
0.317355490990816 -0.123943958815932 0.407617231693733
0.315800339253154 -0.127698427232544 0.410894496908223
0.316514309265897 -0.125974751144651 0.421875092824166
0.31694081088983 -0.124945085139776 0.425592223329418
0.316665536960688 -0.12560965519288 0.437801073970332
0.31633996190634 -0.126395662904657 0.453605778032998
0.318045310380464 -0.122278587489857 0.452726190864239
0.317333492605035 -0.123997067617234 0.465711568664463
0.317246343760392 -0.124207463539918 0.477345321787104
0.3182332250613 -0.121824921318813 0.477299172177114
0.316450464883809 -0.12612888511777 0.500972037151459
0.318801140182426 -0.120453852931114 0.502355447091798
0.31679827489575 -0.125289197469813 0.505124351147906
0.315774327677147 -0.127761224732118 0.523482006702737
0.317001267662038 -0.124799129580375 0.530887638759873
0.316490051172878 -0.126033315361815 0.529113495612003
0.315006897741766 -0.129613964490286 0.544781346420578
0.315073113852231 -0.129454104658353 0.551628360509254
0.316394107407191 -0.12626494410216 0.564375251570382
0.31861508601722 -0.120903027420088 0.570651694294262
0.315785905924751 -0.127733272369725 0.580037283383211
0.316284391648139 -0.12652982137567 0.599111145534119
0.315124922721467 -0.129329026983593 0.59501676599346
0.31674402499058 -0.125420168326632 0.615897112392336
0.317647379246824 -0.12323927822958 0.614328783036701
0.315250003130416 -0.129027056163922 0.630483466226606
0.316204025754288 -0.12672384180656 0.629006628622296
0.317582531024078 -0.123395835688429 0.643762334751607
0.314458582233825 -0.130937715226017 0.656527583092441
0.317740978118961 -0.123013310563043 0.658135505662704
0.31602522801616 -0.127155497730868 0.680202658760587
0.316660913920757 -0.125620816198582 0.680271057369846
0.315385675963851 -0.128699512969396 0.696232208280752
0.318015469243178 -0.122350630368208 0.694241773787095
0.316857527840617 -0.125146148206703 0.707470443552221
0.315144723088854 -0.129281224668109 0.716797055025026
0.316090146701646 -0.126998770159916 0.724874991420059
0.315064109627679 -0.129475842779386 0.728718464753966
0.31718584922396 -0.124353510270222 0.736338000895725
0.315933407698953 -0.12737717158597 0.752045057565265
0.316560671675381 -0.125862822386892 0.769008539045924
0.315638731133714 -0.128088583746283 0.772773236638989
0.317830486617126 -0.122797217932826 0.776502460077521
0.315905732580177 -0.127443985233061 0.787024872731074
0.316982810804244 -0.124843688376782 0.798282719631126
0.316948296402869 -0.124927013512678 0.80501524889856
0.315059763032257 -0.129486336389005 0.812628412805214
0.316791664347874 -0.125305156744149 0.828481691089737
0.316088631758069 -0.127002427557248 0.829691133951327
0.314015596611065 -0.132007177124421 0.842342807595918
0.314525981840732 -0.130774998180923 0.854357922204157
0.31650870020689 -0.125988292610979 0.865756465889399
0.317548674183934 -0.123477573331083 0.868557901410973
0.316417207879289 -0.126209174629127 0.878344518593348
0.316964851078562 -0.124887046990101 0.886084214694765
0.316115592117702 -0.126937339491374 0.888456856409429
0.315709186612639 -0.125877705096239 0.901868155464892
0.305450340490872 -0.115114757018181 0.901868155464892
0.298666812993573 -0.108403037019501 0.909839020563899
0.298590028667494 -0.108588410780896 0.912096440441877
0.29962535213754 -0.106088918818069 0.918430495674726
0.299572394319591 -0.105169577298056 0.923341206785484
0.290381620579378 -0.093442301544145 0.923341206785484
0.278690961615751 -0.0770909153127694 0.923341206785484
0.266369609859147 -0.0720392937628881 0.923341206785484
0.259071756715411 -0.0676654940888655 0.923341206785484
0.258700049779429 -0.0562738051856278 0.923341206785484
0.243136878102066 -0.0401413346839681 0.923341206785484
0.237979571617273 -0.041082445410478 0.923341206785484
0.232187358429826 -0.027670431786855 0.923341206785484
0.218055997578917 -0.0193916619368531 0.923341206785484
0.204158392658795 -0.00502271662026249 0.923341206785484
0.208367036443365 -0.00856530461867166 0.923341206785484
0.191701771061023 0.0120021902480344 0.923341206785484
0.183675964331026 0.018145313433076 0.923341206785484
0.179932502441862 0.0305833727867555 0.923341206785484
0.17054825304501 0.0396253527471653 0.923341206785484
0.152832459715962 0.0530467084147195 0.923341206785484
0.145869599256263 0.0545761379463065 0.923341206785484
0.141039422664229 0.068017267898043 0.923341206785484
0.128583214682953 0.0817202589130844 0.923341206785484
0.120977109457572 0.0936315636029763 0.923341206785484
0.110247582488218 0.109378133240444 0.923341206785484
0.0972211893952166 0.112105566160348 0.923341206785484
0.0928621714401538 0.118384973631312 0.924844320377926
0.0877402460643191 0.129424679996567 0.924844320377926
0.0677801983537958 0.142271619881487 0.924844320377926
0.0525362091859959 0.163184539729596 0.924844320377926
0.0446314261874716 0.173298437754399 0.924844320377926
0.0425509092929726 0.184204068748645 0.924844320377926
0.0212956372406676 0.197084475163296 0.924844320377926
0.0154799476813141 0.203245181423929 0.924844320377926
0.00157913031280237 0.214560517461085 0.924844320377926
0.00113543455990105 0.229063909617527 0.924844320377926
-0.0041617066653616 0.225895551326963 0.924844320377926
-0.0257672079040167 0.256144812761637 0.924844320377925
-0.0305653832167088 0.254867475922502 0.924844320377926
-0.0537102158405642 0.283148700040727 0.923341206785485
-0.0536850161176578 0.287917341290692 0.923341206785484
-0.0634745079162469 0.291679755090884 0.923341206785484
-0.0809148036336879 0.30442820575142 0.923341206785484
0.312205976603826 -0.136375986288637 0.311951838021858
0.314369341732201 -0.131153160855349 0.311194168606496
0.311976143500945 -0.136930852482697 0.327351516133358
0.314394072781478 -0.131093454820774 0.338163417252531
0.312106985028628 -0.136614973092043 0.339901151014078
0.310454624504491 -0.140604124279343 0.357481875352014
0.311296661939695 -0.138571266083248 0.366113310919847
0.311884014199536 -0.137153272291649 0.37061253430921
0.31075640746017 -0.139875555774851 0.376591403743164
0.311458154071096 -0.138181389589402 0.390395520350514
0.312818850267778 -0.134896378377105 0.397290514364981
0.313699466710266 -0.132770382218401 0.400458341782364
0.313356366521064 -0.133598699348425 0.416639348318959
0.31239698564389 -0.13591484967358 0.422138521016593
0.31413946022238 -0.131708143914097 0.429357267963668
0.311244717625496 -0.138696670751076 0.441603269274795
0.312881906595841 -0.1347441469347 0.455209865471838
0.314793723089321 -0.130128613627372 0.456512004590961
0.312291882590992 -0.136168590889334 0.462879645467232
0.312962637149265 -0.134549246137727 0.482957495342825
0.31232034215461 -0.136099883424867 0.489938521430601
0.312903397117891 -0.134692264224905 0.492228170741279
0.312160119535237 -0.136486695045557 0.503097567777805
0.312618930556177 -0.135379027256237 0.505287271422188
0.312405118227157 -0.135895215880759 0.530151335954774
0.31504466049952 -0.129522797128365 0.525561705275942
0.310501886745922 -0.140490023135094 0.537913429548861
0.311901698498277 -0.137110578617787 0.551141844805853
0.312244228556521 -0.136283637905656 0.556283296949266
0.311055596332918 -0.13915324994055 0.572093966507458
0.314760240613935 -0.130209447473551 0.574719929792073
0.313253329805066 -0.133847451985609 0.579955368207453
0.313736346666933 -0.132681346126835 0.590775189427969
0.311669422730091 -0.137671341927553 0.602091191949738
0.312396262760418 -0.135916594868661 0.611486468252139
0.313976990876643 -0.132100379612047 0.613473195504964
0.313614304441307 -0.132975982123124 0.635748325417569
0.312275163983612 -0.136208953178013 0.634939698809948
0.313372950735489 -0.133558661513038 0.648879608937581
0.311619313437261 -0.137792316461904 0.660960229749925
0.312992642310083 -0.134476807271538 0.661563351814168
0.312818393400745 -0.134897481351692 0.676865669621384
0.311771658421778 -0.137424523134123 0.685700616383442
0.311959479106001 -0.136971083890978 0.689885494035589
0.311355307196445 -0.138429683909032 0.703711561259935
0.312773359226854 -0.135006203465069 0.708302249051577
0.312781156521943 -0.134987379129515 0.720505078671019
0.311481786783906 -0.138124335173622 0.725431933937691
0.313827829102988 -0.132460487988992 0.736261784861963
0.310604463595343 -0.140242380714035 0.748871800649598
0.311162198218516 -0.138895890222564 0.754322238266128
0.311188265532157 -0.138832958160438 0.762496626026547
0.311993429965853 -0.136889119264669 0.773238097836079
0.312088818752113 -0.136658830363182 0.778881698811338
0.312960950691566 -0.134553317606775 0.789380556926322
0.311405489945264 -0.138308532036237 0.807395430274336
0.310980876230807 -0.13933364022445 0.809485916459291
0.313400773652199 -0.133491491050174 0.811821648638238
0.313632321768267 -0.13293248444802 0.827870314755223
0.313082331743833 -0.134260277824177 0.829264646956396
0.311395375882913 -0.138332949542735 0.840158185691016
0.313213427586713 -0.133943784462326 0.854156063939239
0.313241442667312 -0.133876150074794 0.858185196101275
0.314440065047324 -0.130982419668803 0.875606001823836
0.310946574301912 -0.139416452406403 0.8845597360373
0.3135998897707 -0.133010782216402 0.884215553200549
0.309572700197383 -0.137483231413912 0.901868155464892
0.310543784773251 -0.131354770254141 0.901868155464892
0.300063967511858 -0.124710140138904 0.901868155464892
0.293694677649152 -0.120406833601957 0.910141381251996
0.294060216484365 -0.119524344788409 0.914511002029439
0.295823794733075 -0.115266690262068 0.922426147688575
0.287940059083868 -0.102854578541147 0.923341206785484
0.276114011329808 -0.0988248243143007 0.923341206785484
0.277835762082053 -0.0900596658840373 0.923341206785484
0.261955906721435 -0.087579007904976 0.923341206785484
0.254779306354557 -0.0778004955611688 0.923341206785484
0.242609441663396 -0.0628770000092544 0.923341206785484
0.236877261118582 -0.0541089369484732 0.923341206785484
0.235147891482298 -0.0468920553523416 0.923341206785484
0.220923503253364 -0.0402668789740935 0.923341206785484
0.209034756138802 -0.0206945330794538 0.923341206785484
0.203338488958359 -0.013462110318358 0.923341206785484
0.192941196670136 -0.00604368845506731 0.923341206785484
0.179146838550833 0.0101673382221178 0.923341206785484
0.176350711754451 0.0185680218206505 0.923341206785484
0.168839586257679 0.0150735208819213 0.923341206785485
0.160986640580619 0.0302255332341507 0.923341206785484
0.152343552956318 0.0427684707537882 0.923341206785484
0.1436342650531 0.052820877336018 0.923341206785484
0.138288499070008 0.0647081634273864 0.923341206785484
0.117346469179774 0.0751766949818363 0.923341206785484
0.111688005407185 0.0897441714019117 0.923341206785484
0.104766060578277 0.0928836220583406 0.923341206785484
0.0966695053105443 0.106653751477464 0.923341206785484
0.0832897947295275 0.116213365379418 0.924844320377926
0.069883322400378 0.126749959285731 0.924844320377926
0.0612192791768359 0.137460356956216 0.924844320377926
0.0564782681314051 0.151560728438971 0.924844320377926
0.045742289351097 0.156466742681533 0.924844320377926
0.0386770903804123 0.162724364964195 0.924844320377926
0.0278688342437729 0.175734704364586 0.924844320377926
0.0142349749961353 0.185484602255961 0.924844320377926
0.00816410659324869 0.201632742464664 0.924844320377926
-0.0058565695117885 0.214836473341724 0.924844320377926
-0.0286896900332194 0.235733031803681 0.924844320377926
-0.030241042428437 0.241980556394493 0.924844320377926
-0.0428775284626796 0.2493178117711 0.924844320377926
-0.0467793765961713 0.264851844713636 0.924844320377926
-0.063260135468328 0.283259624112034 0.923341206785484
-0.0712176849514125 0.286771731399478 0.923341206785485
0.308388012376083 -0.14559336730791 0.314879791676881
0.308221988400472 -0.14599418464151 0.32613076802255
0.309346597911597 -0.143279137107377 0.327261626928106
0.308230976959093 -0.14597248434138 0.343399683889608
0.309041892672331 -0.144014760628541 0.351615892505226
0.309057154796243 -0.143977914602001 0.353045750886415
0.308734044250427 -0.144757972463857 0.363572224362104
0.308299031081408 -0.145808187156311 0.377547766676758
0.310437418300616 -0.140645663730095 0.377857213065675
0.306494369419866 -0.150165025815102 0.394477370975578
0.310984944191713 -0.139323819298059 0.397584712886576
0.309647597815152 -0.142552459057943 0.406652494532211
0.308541446428722 -0.1452229447371 0.416394128075831
0.308457889311122 -0.145424669463642 0.432484741143836
0.31054802906936 -0.140378625712049 0.435609386064412
0.309107229517815 -0.14385702353005 0.444566229812031
0.309084409029195 -0.143912117063177 0.463729062249836
0.307398111328649 -0.147983199842032 0.465073043670436
0.308846873957447 -0.144485577454928 0.474792196062023
0.308129086028034 -0.146218470809025 0.479555768680709
0.306678949180623 -0.149719410853342 0.496086325854729
0.307529473102483 -0.147666064466066 0.503933137710224
0.309765397950463 -0.142268064373625 0.506867607124087
0.31047917516516 -0.140544853741391 0.519690746457413
0.308529671722659 -0.14525137139217 0.527569107942704
0.309419422793548 -0.143103322289693 0.534110190819418
0.309517494588556 -0.1428665560321 0.53727716946904
0.308907035466772 -0.144340334723184 0.552266399516504
0.308614137606977 -0.145047452708691 0.559482394133689
0.30884319109007 -0.144494468683298 0.576561322477547
0.309328634953244 -0.143322503525053 0.580936422815013
0.308676947544553 -0.144895816105543 0.585174006702236
0.308172356584757 -0.146114006444134 0.590082523078352
0.308572844464592 -0.14514714317307 0.610508703135084
0.307988819938057 -0.146557103105791 0.616592876828415
0.308901363182237 -0.144354028829438 0.622741487072791
0.310714049946758 -0.139977815858198 0.634740446259772
0.310197029642289 -0.141226013289271 0.641748205497962
0.310160910413758 -0.141313212820651 0.649561391371965
0.30675315296414 -0.149540267072796 0.659716171580923
0.308739375439722 -0.144745101834357 0.669930002175901
0.310114252353209 -0.141425855343222 0.673056607495234
0.308448021957969 -0.145448491361448 0.687247662408043
0.308230499121387 -0.145973637943652 0.702806748689568
0.308024323918214 -0.146471388915378 0.70628771132259
0.30997948202432 -0.141751219699032 0.707648164109868
0.307149937215128 -0.148582345152726 0.72147540775698
0.30888715634625 -0.144388327165558 0.734751783799553
0.308812612048977 -0.14456829301903 0.739445162945759
0.310593587326981 -0.140268638348622 0.747624457962987
0.309690033212559 -0.142450010945999 0.757513514833822
0.307463956291579 -0.147824236039514 0.772182344102373
0.30979998281981 -0.142184569112996 0.775886122845817
0.307840955262194 -0.146914080011655 0.79124254757871
0.308623430115089 -0.145025018609578 0.799307486644763
0.308058292856446 -0.146389380643996 0.804463859346244
0.308527398037024 -0.145256860554866 0.814726156457615
0.310106960219488 -0.141443460111352 0.814893654721399
0.309774641975994 -0.142245747321819 0.834562796050252
0.307741888225279 -0.147153248995758 0.846158429005773
0.311349932736011 -0.138442659004304 0.844003842891347
0.308522714555943 -0.145268167478413 0.862411926039403
0.309275804439701 -0.143450047667357 0.866341575079413
0.309221071143758 -0.143582185532737 0.875137180956152
0.308893655888531 -0.144372635882432 0.883389193377413
0.308858416853662 -0.144457710438339 0.894872500068777
0.304493707334083 -0.138647960576278 0.901868155464892
0.297907873638071 -0.131556603953646 0.901868155464892
0.300529737297562 -0.126976762180273 0.901868155464892
0.290899598238109 -0.127154752224003 0.90907480309594
0.289566435744376 -0.130373291197222 0.918760629873179
0.287525168969899 -0.121145978037807 0.923341206785484
0.28803093838247 -0.117176300237697 0.923341206785484
0.280844167278426 -0.111675459996594 0.923341206785484
0.265055500089485 -0.0976123294897229 0.923341206785484
0.257967983887686 -0.0898406080677949 0.923341206785484
0.245759878344482 -0.0728804541010797 0.923341206785484
0.239138011576791 -0.0733600448452168 0.923341206785484
0.232993358012834 -0.0645358007559763 0.923341206785484
0.228738455412203 -0.0524494921437803 0.923341206785485
0.214555599612557 -0.0444313520087568 0.923341206785484
0.208475843320581 -0.0351834474050221 0.923341206785484
0.202313274617966 -0.023800466430862 0.923341206785484
0.192799126097968 -0.0145291356115071 0.923341206785484
0.184365311508136 -0.00431652586780789 0.923341206785484
0.167430467219817 0.0126020805326701 0.923341206785484
0.159554369153 0.0244806645267882 0.923341206785484
0.149833123875115 0.026261752292481 0.923341206785485
0.144798070959932 0.0410794999628233 0.923341206785484
0.128040371422503 0.0494307894074153 0.923341206785485
0.119355140650592 0.0579123312752057 0.923341206785484
0.119311518155364 0.0700755646592756 0.923341206785484
0.105597119312347 0.0797791779220598 0.923341206785484
0.0959411476080188 0.0940837074903016 0.923341206785484
0.0840041930553268 0.100781928196199 0.92429223431834
0.0819343840706176 0.106259200627445 0.924844320377926
0.0652349527470699 0.124045318057536 0.924844320377926
0.0621623006673303 0.126579332527003 0.924844320377926
0.0447742774048333 0.141786800204375 0.924844320377926
0.035311439043102 0.154367610792417 0.924844320377926
0.0251665884343336 0.159963587125413 0.924844320377926
0.0147420867765861 0.172807853695828 0.924844320377926
0.00253664897712473 0.184271450216898 0.924844320377926
-0.00281005421116805 0.191909133200161 0.924844320377926
-0.0188573617314092 0.218533411876529 0.924844320377926
-0.0226704400748215 0.215175625660118 0.924844320377926
-0.0366988581623623 0.238452333006935 0.924844320377926
-0.0495567978301132 0.25444272291547 0.924844320377926
-0.0648583313512155 0.257906004198292 0.924844320377926
-0.0778648770516909 0.269638710886966 0.923341206785484
-0.0830968318087877 0.288609081182259 0.923341206785484
-0.0959296636458234 0.300604165456814 0.923341206785484
0.306928942046976 -0.149115874684898 0.317706623436449
0.306360890342766 -0.150487272813331 0.319966785130444
0.303764761731522 -0.156754881716259 0.333861477243578
0.30559494319709 -0.152336432800483 0.34305848110955
0.303782194603624 -0.15671279504 0.3457736557535
0.306105928282908 -0.151102805676129 0.364677922565379
0.304895025765341 -0.154026182956752 0.359830113655989
0.305648877958536 -0.152206222767917 0.37487867450028
0.304045948025053 -0.156076037952865 0.390067055823071
0.3035784534477 -0.157204669701845 0.399036294990067
0.304200863432727 -0.155702039074636 0.405844235819992
0.304311876788059 -0.15543402912659 0.415466677864814
0.304727187972841 -0.154431379231684 0.425320383960771
0.303551040126256 -0.157270851314263 0.434933296094262
0.305776659060347 -0.151897731898908 0.442600512108538
0.303997606751513 -0.156192744111068 0.452374020991444
0.306285024628257 -0.150670428850217 0.456606867833395
0.303980256483287 -0.156234631363929 0.464525613495883
