ply
format ascii 1.0
element vertex 844
property float x
property float y
property float z
end_header
-0.129106096894158 -0.0275602684820158 0.974358974358974
-0.139039143038815 -0.0142159312201115 0.974358974358974
-0.154765805792689 -0.0123438422433444 0.974358974358974
-0.160025788451458 -0.00141333309363077 0.974358974358974
-0.175616127652863 0.0114796834314846 0.974358974358975
-0.19317313370127 0.023375319648055 0.974358974358974
-0.197596210231242 0.0328658154697237 0.97845420024616
-0.197565168372073 0.0331016017991619 0.983355659248326
-0.197041315793768 0.0370806571752897 0.993447105108279
-0.197054821321522 0.0369780725073032 0.999850146762955
0.102849924618697 -0.260076474915446 0.243768058718717
0.0996961727551247 -0.261382801709696 0.257746204385107
0.104604571730211 -0.259349676284678 0.265005711942813
0.107612380644356 -0.258103801039412 0.278549448055088
0.104777314106913 -0.259278124049451 0.28824807385671
0.098676210904002 -0.261805283741535 0.292581942262004
0.103297195761886 -0.259891209141878 0.309926646557423
0.103079183393597 -0.259981512821589 0.306121764656112
0.106180590671106 -0.258696867864802 0.321176193567334
0.106959740261579 -0.258374133537311 0.335665614628183
0.102068041196361 -0.260400341633172 0.338530051205453
0.103595678972904 -0.259767573347734 0.348109413564567
0.104016603928361 -0.259593220522442 0.36550307919462
0.100863667126455 -0.260899209707097 0.367289166517875
0.103745651131908 -0.259705452845497 0.365935651701965
0.105730474703488 -0.25888331200323 0.386791918717947
0.103863305354916 -0.259656718870656 0.388205351388796
0.103513189749399 -0.25980174150286 0.407149925137709
0.104620919414165 -0.259342904852271 0.416446797719321
0.102512073783017 -0.260216417313643 0.420630352813687
0.106909111429226 -0.258395104686319 0.431057578229359
0.0978174807992147 -0.262160981397356 0.435900754781716
0.105822903399317 -0.258845026783865 0.452678078983462
0.109195220501858 -0.25744816730337 0.460495633049566
0.105268366721199 -0.259074723396775 0.471778906750341
0.102887179414345 -0.260061043473825 0.478791791572619
0.108656308720997 -0.257671391871925 0.493636668058573
0.100318083181544 -0.261125197976493 0.493076913190663
0.10887041430889 -0.25758270643364 0.507777348644286
0.108255177038828 -0.257837546054978 0.514799720542043
0.105962194595466 -0.258787330481302 0.526543802404338
0.100348549136554 -0.261112578564736 0.526585204679651
0.1059356753935 -0.258798315094419 0.541787516079405
0.106067332536076 -0.258743780920381 0.55574668768038
0.107078306389425 -0.258325021839119 0.557228581806475
0.105253637345459 -0.259080824503972 0.568997227065524
0.10519593782661 -0.259104724427222 0.579488856473581
0.102828270845016 -0.26008544420218 0.585724991130799
0.103911004053126 -0.25963696142295 0.596572691163528
0.102043680595981 -0.260410432124237 0.605707940450612
0.108524940447834 -0.257725806392335 0.611671399374966
0.10629816409151 -0.258648167359496 0.627047775172441
0.103448668666783 -0.259828467010339 0.631594673880065
0.102921795275248 -0.260046705114765 0.637390069719593
0.101668777409691 -0.260565722108575 0.650476844636136
0.10510744885745 -0.259141377758369 0.656825454280381
0.0996678778758969 -0.261394521832418 0.661665090120046
0.105427123103232 -0.259008964350224 0.670194459628316
0.101259570289589 -0.260735221247541 0.691520942312996
0.104562287833198 -0.259367190848291 0.698293052140823
0.10023980825185 -0.261157620513966 0.699892527246392
0.108482949141524 -0.25774319976091 0.713691206842909
0.102006078609482 -0.260426007377016 0.722415046404597
0.100632851850671 -0.26099481652473 0.73560682260706
0.10517302326107 -0.259114215951045 0.739058272080742
0.103477852587972 -0.259816378634378 0.754681483604254
0.10418529215219 -0.25952334757232 0.766936497306608
0.103410893563285 -0.259844113970527 0.777206757069236
0.10292961844633 -0.260043464651202 0.780165348617909
0.109525877400927 -0.257311204731284 0.79269846328614
0.102290558910984 -0.260308171777907 0.793213768693766
0.106118523710069 -0.258722576841839 0.811615995904507
0.102121967497128 -0.260378004628026 0.81282683727986
0.10306339390737 -0.259988053040927 0.821061410925303
0.101510254324509 -0.260631384520407 0.831810480408829
0.102715696048655 -0.260132074209615 0.841282025280538
0.101218156016216 -0.259226842310177 0.848996987590541
0.102380326070215 -0.254392227096901 0.85711011414865
0.0943936287032944 -0.251672967576655 0.868343507336568
0.0990729898057599 -0.249298855713706 0.869155815525943
0.0937746578558446 -0.247664698044409 0.876291560170506
0.0913690796308658 -0.247527005514274 0.878405215267524
0.0857186205002519 -0.242871201932147 0.891444243423879
0.0842337366732942 -0.243245330203116 0.891893266856555
0.0808372803285068 -0.239401785104942 0.901678460989623
0.0799184636857732 -0.234062846043425 0.912337959337305
0.0742311544013043 -0.237173143015983 0.910931727478661
0.0726366757340206 -0.233698724176759 0.918637904939437
0.0707864387813707 -0.228565684154274 0.929632698208144
0.0695135616042175 -0.225761488396759 0.935841511612837
0.0638303617198834 -0.224829538309179 0.941965656621939
0.0651093255750946 -0.220227442476916 0.949555274591992
0.0583512946096244 -0.219009977507581 0.956872267895619
0.0566538808653901 -0.215880985406554 0.963577189615409
0.056515231565249 -0.213230952604842 0.968913762272137
0.0553958652385045 -0.210354783740848 0.974960834745387
0.048160437116824 -0.208348028606148 0.980879469381453
0.0458766260752995 -0.205784262986599 0.986608339475821
0.0393926450136393 -0.201822086294196 0.996239957462781
0.0408128832128778 -0.200510341457135 0.998489491324705
-0.00149757905856937 -0.162746030849689 0.974358974358974
-0.00414479267479544 -0.160502657529693 0.974358974358974
-0.015189708477403 -0.145679799564712 0.974358974358974
-0.023446095454589 -0.135248669674235 0.974358974358974
-0.0359972189176566 -0.131779061193105 0.974358974358974
-0.0425867165805563 -0.119366418335561 0.974358974358974
-0.060080673323634 -0.104413231523568 0.974358974358974
-0.0638636495134796 -0.104950522486928 0.974358974358974
-0.0801243858201419 -0.0817028629517464 0.974358974358974
-0.0868894255463003 -0.085495986657393 0.974358974358974
-0.109460745828389 -0.0668921630680622 0.974358974358974
-0.115822608052353 -0.0560126917151406 0.974358974358974
-0.130496262774775 -0.0482363451911927 0.974358974358974
-0.14091135231743 -0.0391893752599794 0.974358974358974
-0.146495903121465 -0.0247632951807439 0.974358974358974
-0.152933135444142 -0.0270303389300921 0.974358974358974
-0.17420504190868 -0.00296323284413347 0.974358974358974
-0.181073796352814 0.00401454478936728 0.974358974358974
-0.192216060187794 0.00745324144305225 0.974358974358974
-0.19882521656218 0.0235305855769311 0.978541202854522
-0.198673883933939 0.0246800710102854 0.989945770734443
-0.199356324267221 0.0194964220420663 0.999752371227236
0.098182648830694 -0.262009723846172 0.243747301449947
0.0924465113487813 -0.264385709786817 0.245144895100881
0.0971563589235728 -0.262434827044628 0.264158017337157
0.0932374066112392 -0.26405811024269 0.272860252830014
0.0937142469274831 -0.263860596516616 0.28841455700498
0.0897728336256682 -0.265493183361145 0.287221224320585
0.095231496205706 -0.263232131288075 0.30158164311479
0.0917313599143942 -0.26468193521009 0.310493559222361
0.0906617616633248 -0.265124977311974 0.319484081334027
0.0919223325208983 -0.264602831766435 0.318443046359563
0.093561939082859 -0.263923684491515 0.335168918449346
0.0944675988023807 -0.263548547952794 0.350815192926647
0.0965618273069844 -0.262681090103479 0.358369641279537
0.0941862757973034 -0.263665075756905 0.362955784974858
0.0934276800446334 -0.263979296406019 0.373313841740873
0.0970099297080935 -0.262495480011608 0.37714431964753
0.0963477299530881 -0.262769772131131 0.394307761782671
0.0970872556665024 -0.262463450550911 0.407068728588319
0.0981976125774104 -0.262003525659338 0.403817015025807
0.0977309028081887 -0.262196843175442 0.421237785083547
0.0952209843916436 -0.263236485424025 0.420822519796778
0.0906063802931767 -0.265147917026592 0.436510583365705
0.0951363854619551 -0.263271527448064 0.440477748046229
0.0956683222822691 -0.263051192002764 0.455406723687801
0.0945622742256537 -0.263509332108451 0.465684437743974
0.0944296828213528 -0.263564253266367 0.472713952384998
0.0967730892440199 -0.262593582543946 0.489851984652296
0.0995616409308476 -0.261438526615883 0.493733422182886
0.0937304127276566 -0.263853900422937 0.499938853068173
0.0971370919439109 -0.26244280768891 0.515363581214646
0.0965870490868693 -0.262670642900183 0.518835220491687
0.093308523321153 -0.264028652736933 0.5223732121156
0.0965028075878484 -0.262705536871592 0.540745180803184
0.0947851498307501 -0.263417014010097 0.548074946369723
0.0907263050683033 -0.26509824255827 0.55528746262476
0.0987093641275535 -0.261791551226704 0.560162642840977
0.0954848925963766 -0.263127171066403 0.576881160005617
0.096057281112002 -0.262890079980284 0.586779318791072
0.095029223198244 -0.263315915511068 0.596199372551021
0.0961718173720741 -0.262842637507979 0.600810973054576
0.0969621216051334 -0.262515282776245 0.607144376843348
0.0966725106478898 -0.262635243562547 0.616315813258394
0.0965352503957866 -0.262692098620543 0.629126209125245
0.0957720903453343 -0.263008209863701 0.633614144161876
0.101190246835869 -0.260763935962262 0.649221707348385
0.0967998186096195 -0.2625825108782 0.657765662364007
0.0968282463033702 -0.262570735741902 0.663395510115381
0.0958222367442124 -0.262987438545182 0.671581965697659
0.0988366163039897 -0.261738841649382 0.681899110257362
0.095318796287818 -0.263195970410068 0.690151971286525
0.0970706964869578 -0.26247030958766 0.703219957527107
0.0934326029691306 -0.263977257263926 0.711191528920438
0.0955080988015104 -0.263117558741505 0.717799664953048
0.1009035934494 -0.260882671682638 0.732578573154445
0.0952219127836927 -0.263236100871447 0.74089189449397
0.0963459019672969 -0.262770529307637 0.75069199363726
0.0975145903324956 -0.262286442736585 0.764118140986391
0.0974382415661183 -0.262318067431089 0.760311034394313
0.0930378596668363 -0.264140765293392 0.770826982058595
0.0972371013514519 -0.262401382435942 0.785504609279822
0.0965242299875526 -0.262696663423096 0.792638386924067
0.0986392803465256 -0.261820580879308 0.802395218835043
0.0907347121856415 -0.265094760216248 0.810369184680079
0.0910584198338741 -0.264960676118106 0.818047232183331
0.0997578361658393 -0.261357259888676 0.831515707023438
0.0963896697639173 -0.262752400092682 0.839303953565746
0.0914201187530995 -0.264810855520268 0.841045626817509
0.0944517617924397 -0.25680495310875 0.858734131868659
0.0880857059407253 -0.259262831278825 0.859067787880543
0.0871234188883043 -0.257523553027203 0.86305214438307
0.0826079232086887 -0.253963310223972 0.873173213214328
0.078322536486889 -0.252769046289533 0.878707161922992
0.0797779616687864 -0.248821750093807 0.884940204586705
0.0829629030626998 -0.243649353964873 0.892121333365013
0.0773838799671581 -0.241618814801306 0.900212500986923
0.076118898755426 -0.239453696920072 0.905224167383553
0.0647420556084786 -0.241124143545754 0.910893545574569
0.0626756572348674 -0.235188849780625 0.923375897069357
0.0678546471047401 -0.23265586930165 0.924273065325752
0.0571126929724371 -0.230436494351975 0.934345364204932
0.060324472348974 -0.227031402513874 0.940309870327894
0.0565613680525549 -0.224948548636607 0.945466422241039
0.0504282378323264 -0.223177116274604 0.950624170788089
0.0471569259556037 -0.221715464026995 0.954408828041222
0.0464161015707045 -0.217792751351779 0.962449316152746
0.0436215627769682 -0.215433324624432 0.96790398563104
0.0459629136317632 -0.209361477757692 0.979431189988997
0.0390256313845784 -0.206197375739509 0.987586015093983
0.0314409401280553 -0.205755788305696 0.99046627705631
0.0336404965843878 -0.198712986214114 1.0
0.025156761434769 -0.201900948426404 0.999830612455407
-0.0129946853354662 -0.165330969068086 0.974358974358974
-0.0327645524017456 -0.145141838288122 0.974358974358974
-0.0361080232963715 -0.138271898879383 0.974358974358974
-0.0471812867346733 -0.136124903549954 0.974358974358974
-0.0581946970770448 -0.124101005959098 0.974358974358974
-0.059209586775286 -0.116542842100927 0.974358974358974
-0.0731850424377941 -0.104014277210954 0.974358974358974
-0.0907132913650344 -0.0974898225054093 0.974358974358974
-0.107334688054057 -0.0822696421477704 0.974358974358974
-0.109921803118948 -0.0779509957084459 0.974358974358974
-0.122407349521864 -0.0637022769096769 0.974358974358974
-0.131519357769583 -0.0593101615024581 0.974358974358974
-0.137892555668755 -0.0469509135349296 0.974358974358974
-0.149739991222896 -0.0411811357111266 0.974358974358974
-0.166227012487204 -0.0229540631116321 0.974358974358974
-0.174430712256401 -0.011741618874268 0.974358974358974
-0.190641726629591 -0.00531188565366051 0.974358974358974
-0.200240997588031 0.00530799076055775 0.974358974358974
-0.201753340724565 0.00128927442792481 0.984581725034894
0.0854696510856268 -0.267275619930597 0.249395062707291
0.0833882903580205 -0.268137747772162 0.245638017075437
0.0840022390659538 -0.267883441890735 0.262457224104996
0.0882351327805517 -0.266130119906065 0.269597470295577
0.0854210204759214 -0.267295763388684 0.272795986439697
0.084184641265138 -0.267807888426026 0.282483838433105
0.0866271565514892 -0.266796165468116 0.293283964935479
0.086561362790857 -0.26682341813609 0.310160623910261
0.0895435171382373 -0.265588169360315 0.314762571195829
0.0890655316890181 -0.265786157415998 0.317420703937392
0.0843235195692458 -0.267750363148946 0.336451223403651
0.0829325238799044 -0.268326532428673 0.336199922548369
0.0866413656646815 -0.266790279860722 0.348680770137927
0.0863905414737545 -0.266894174642376 0.359564323835781
0.0873806020566613 -0.266484078121365 0.368565868314992
0.0865414402590842 -0.266831670318947 0.380074879458459
0.0845660334242976 -0.267649910621119 0.392938751499028
0.085337422862572 -0.267330390653915 0.397200524895409
0.0865632429937526 -0.26682263933055 0.400633126882531
0.0876138777563509 -0.266387452162782 0.416091594527381
0.0863966687638753 -0.266891636635707 0.422687943352561
0.086878805416981 -0.266691929095074 0.428005822768801
0.0883916456547209 -0.266065290150898 0.438428520209162
0.0798290860356535 -0.269612018473744 0.445820471186976
0.0886331776130571 -0.265965244338009 0.463372179429315
0.0879659652078873 -0.266241612765214 0.463761294572193
0.0871752544109572 -0.266569135901217 0.486647313218501
0.0894828699514383 -0.265613290247607 0.486624358728667
0.0862420957612461 -0.266955662869773 0.494338694461078
0.0869663393516454 -0.266655671352168 0.506711714793893
0.0806599783740992 -0.269267851598288 0.510437313636769
0.0897490422289995 -0.265503038080313 0.528027208388599
0.0868629760177228 -0.26669848584693 0.529714925937217
0.0895007218206463 -0.265605895761267 0.549093334739769
0.0862805662056612 -0.266939727889946 0.549243432228184
0.0857149774809295 -0.267174002410455 0.557282840989365
0.0842135791791744 -0.267795901949566 0.572390515796112
0.0817807121034912 -0.268803628487765 0.576306072076345
0.0848325949370671 -0.267539497227324 0.591482350701743
0.081243530753694 -0.269026136288305 0.596799774339256
0.0858737267244265 -0.267108246320782 0.611393305288435
0.0846174181288756 -0.267628626379585 0.613532762053244
0.0884782788010608 -0.266029405526733 0.620143505797153
0.0880755529738737 -0.266196220026272 0.630882820290411
0.0856351421839997 -0.267207071273199 0.643734391243381
0.0872272452845183 -0.266547600576268 0.652084857275442
0.0883779344916577 -0.266070969500595 0.656616444137819
0.0821182903270664 -0.268663799009198 0.674964479989255
0.0841876425438506 -0.26780664525568 0.675529142853959
0.0864167781098057 -0.266883307071893 0.692555980924845
0.0854009936605371 -0.267304058767227 0.698954490934097
0.0829825849118847 -0.268305796470281 0.701575013191159
0.0816668222855998 -0.268850803194952 0.716194209688364
0.0839421630940969 -0.267908326173051 0.725042439276114
0.0823020344182617 -0.268587689714619 0.733427709891133
0.0851997852344357 -0.267387402026182 0.73938472263966
0.0845894720556299 -0.267640202022138 0.75759184664999
0.0849687249203544 -0.267483110342 0.760759557494255
0.0898160113692366 -0.265475298554167 0.771955814504614
0.0821687695863829 -0.268642889815371 0.784069980748748
0.086581249013403 -0.266815180993007 0.792986602613307
0.0884782186636456 -0.266029430436466 0.799340527507362
0.0885866310906769 -0.26598452453886 0.808990122167723
0.0856332953610363 -0.267207836252318 0.810252561405478
0.0868632454957217 -0.266698374225489 0.820691714278579
0.0821173356414712 -0.26866419445292 0.835966166113589
0.0843300817688607 -0.266427491391852 0.848614220790825
0.0852088028174694 -0.26690693102633 0.847042340230041
0.085402102475056 -0.260265494397383 0.859270785860623
0.0772850110739021 -0.259435019019767 0.867084706236347
0.0773919766058646 -0.256462043765118 0.872542875736096
0.0776158645091548 -0.255251616807944 0.874625917446768
0.067788977718327 -0.254019128671534 0.884368976462314
0.0642881813951668 -0.252907027501351 0.887514955961658
0.0636795808149618 -0.247051312039398 0.899386634458398
0.0630979066162786 -0.244357383907599 0.904927648444073
0.0596848939347591 -0.240947854577031 0.912645370392848
0.0541360526255556 -0.240310648244227 0.915380820692602
0.0557605227583052 -0.236053507657201 0.923467370766189
0.0507364461264836 -0.233016553594472 0.930864143364947
0.0481115943859042 -0.230725839226884 0.936136708675012
0.0448880726898474 -0.22900447340181 0.940428209689785
0.0366494806582448 -0.228541975793384 0.943522467341767
0.0421047720373119 -0.22347642462081 0.95221716421667
0.0376905542504686 -0.220478827905327 0.959374643240703
0.0314123226606435 -0.216862985021114 0.968259418747593
0.0243722717350622 -0.215970183077566 0.97189870320968
0.023718686213068 -0.212681909433264 0.978647342830998
0.0263520796181761 -0.206393574888194 0.990530626283313
0.014906607297593 -0.206784162572433 0.992763100948978
0.0150254448087898 -0.204779495971349 0.996741143640835
-0.0141902124858184 -0.17137199335584 0.974358974358974
-0.0287743912906095 -0.165034716497182 0.974358974358974
-0.0464419784403814 -0.147203555882258 0.974358974358974
-0.0543793402546187 -0.139164975536974 0.974358974358974
-0.059113827791134 -0.129063669031436 0.974358974358974
-0.0689802718086123 -0.125382080515758 0.974358974358975
-0.0850573344105485 -0.10631387053824 0.974358974358974
-0.101417831939543 -0.103574850871396 0.974358974358974
-0.110302958907363 -0.0947645931893195 0.974358974358974
-0.117532268676315 -0.0822804033697262 0.974358974358974
-0.118924937930314 -0.0789609469031169 0.974358974358974
-0.139455416265119 -0.0633413751180378 0.974358974358974
-0.143782544077055 -0.0542799792677758 0.974358974358974
-0.160328958840846 -0.0427571492626319 0.974358974358974
-0.180401052232464 -0.023200910658245 0.974358974358974
-0.19138009138782 -0.0146960414310101 0.974358974358974
-0.196676725469909 -0.00938949673468595 0.974358974358974
-0.200996030490551 -0.0070416167525458 0.976582693995209
-0.201527166753085 -0.00300723630198582 0.997789703110411
-0.201087738848789 -0.00634502261328419 0.996691809597366
0.075729852497208 -0.271309976600702 0.228727730937333
0.0760871331091085 -0.271161986125681 0.250904749567678
0.0730250392308644 -0.272437353250121 0.250039764885695
0.0720822581344361 -0.272561472736144 0.255367105108993
0.0773654690381212 -0.270632482046615 0.269693905252213
0.0774947474037219 -0.270578933194262 0.284241833039998
0.0767785408377121 -0.270875595667363 0.290120454925067
0.0755088394307755 -0.27140152321028 0.299774196236698
0.0792041978231078 -0.269870855646347 0.313418399111157
0.075234177148549 -0.271515292052652 0.310454171243788
0.0789288606728592 -0.269984904028206 0.330824326439797
0.0774402637196892 -0.270601501075116 0.334016646208386
0.0703172375519684 -0.27279384210412 0.341418686219633
0.0732104558099919 -0.272353544877546 0.359249021281032
0.077466782075226 -0.270590516812601 0.369471129740474
0.0795124206090521 -0.269743185588177 0.378404548522428
0.0728834073549539 -0.272455999440323 0.38634218399396
0.0806050647346696 -0.269290597572499 0.392344080753492
0.0764357858392943 -0.271017569436279 0.404704529315678
0.0777306925224932 -0.27048120152609 0.408165447525999
0.0740211460101843 -0.272017746001743 0.425795234588418
0.0794784582848377 -0.269757253243476 0.431940751466367
0.0767116807551471 -0.270903290020343 0.438899600065374
0.0757533372965746 -0.271300248878296 0.447026121124291
0.075519473702293 -0.271397118350792 0.461913297816055
0.0754883961099245 -0.271409991111037 0.469486693988958
0.0815576366540031 -0.268896029364375 0.481681625632543
0.0773780816134778 -0.270627257746846 0.490637578011582
0.0796430845967344 -0.269689062792365 0.490779377971148
0.0766570718715362 -0.270925909760561 0.499486654906303
0.0746893906011723 -0.271740950029173 0.51076567081781
0.080657461703835 -0.269268894037243 0.518147633766185
0.0747538133975257 -0.271714265233197 0.533826493948002
0.077816651602148 -0.270445596109488 0.53968030454503
0.0750712564132241 -0.271582776030815 0.551746138771393
0.0762356333922085 -0.271100475294404 0.555792764547658
0.0695166118914212 -0.272899246471963 0.562361123360046
0.0777452956802333 -0.270475152700101 0.572091777931233
0.0779099814096893 -0.270406937637431 0.583823750569508
0.0806332402451689 -0.269278926893923 0.595452831955083
0.07805143126088 -0.270348347190673 0.605446942944964
0.0718184229915348 -0.272596207291659 0.609047988365197
0.0735527227318312 -0.272211773276568 0.620727608649234
0.0751382961493849 -0.271555007262879 0.632700551591124
0.0730096291330791 -0.272439382027983 0.636363352366835
0.0781859395972515 -0.270292632013495 0.645881521887135
0.0733651834880129 -0.272289454574835 0.661912792452299
0.0785466214756745 -0.27014323268775 0.663883002703505
0.0786977143723714 -0.27008064796076 0.676601512669978
0.0812738412038316 -0.269013581288776 0.683480923571657
0.0755525005264548 -0.271383438192303 0.691769386191892
0.0744932326892984 -0.271822201296638 0.704834023207626
0.0765222426096255 -0.270981757869449 0.714117427940092
0.0768436527598674 -0.270848625426135 0.729653220159441
0.0762876522174322 -0.271078928391498 0.731928658143777
0.0808838382781275 -0.269175125789968 0.743821762663035
0.0796109531260842 -0.269702372083287 0.756578581391629
0.0763477164263605 -0.271054048981546 0.760452467343663
0.0779214665285575 -0.270402180345431 0.773671739157005
0.0775104296997896 -0.270572437374541 0.781738420758254
0.0761481186423735 -0.271136725090694 0.7858259028649
0.0758181260914291 -0.271273412480777 0.801947448215168
0.0723121988065267 -0.272531200472367 0.805301334605776
0.0764637991778292 -0.271005965931531 0.812220332076507
0.0809647557877815 -0.269141608660036 0.820777542581813
0.0741829053246566 -0.271950743099848 0.834343428345782
0.0735742713374672 -0.271457365659982 0.84754320321968
0.069710977091901 -0.271294452967946 0.849312255833706
0.0712523240073361 -0.269300762012399 0.852893793402669
0.0636661550303145 -0.26548440083219 0.862523991948976
0.0683880878634221 -0.261187725880615 0.869874033350289
0.0642062317069235 -0.258007730679868 0.877335127366891
0.0571527194847767 -0.256787805077672 0.881632203572902
0.0533605897501023 -0.25551164810482 0.885183004220096
0.0548529374012857 -0.252043635300629 0.891726087237383
0.0570974618719415 -0.246707786659024 0.901806790015678
0.0419955060632693 -0.247457542184564 0.90428369936593
0.0498855927528038 -0.242344934518751 0.912431415459839
0.0450496046539735 -0.237522448298874 0.923349727722622
0.0408629151953884 -0.237462264060431 0.924572472447199
0.0355294363581141 -0.236215646593911 0.92847003899975
0.03345322708359 -0.23122947070598 0.938989067048626
0.0272233216808557 -0.229289359121069 0.944509655430451
0.0321272708947755 -0.22402215162724 0.953752836094002
0.0184762605526992 -0.224666697185809 0.956058124189116
0.0244967654914963 -0.219510338130796 0.964785613275282
0.0151710997821004 -0.218409273645741 0.969443236610006
0.020239559037713 -0.212585489041413 0.979756255178821
0.0150103549058236 -0.21199272308776 0.98231866265484
0.00190903549714493 -0.21117767340856 0.987398404856927
0.00415318365558479 -0.205241221085215 0.998680414083587
0.00163099522858215 -0.205338287803137 0.999150385459344
-0.0307747479311644 -0.169229484171067 0.974358974358974
-0.047854894632706 -0.156078379324678 0.974358974358974
-0.0522667750484857 -0.15636036435719 0.974358974358975
-0.0642175272869193 -0.145449853098746 0.974358974358974
-0.0824726126052094 -0.127492998725675 0.974358974358974
-0.0987499024515013 -0.117566837912033 0.974358974358974
-0.102560505346967 -0.104162500481664 0.974358974358974
-0.115858236952963 -0.102519935336819 0.974358974358974
-0.115982341799381 -0.0940307760797423 0.974358974358974
-0.130587127986541 -0.0823559979001078 0.974358974358974
-0.15164909675674 -0.0650255792558117 0.974358974358974
-0.16038305831861 -0.0590040103051409 0.974358974358974
-0.172259789882788 -0.0526143423588883 0.974358974358974
-0.179412402160096 -0.0422916879812837 0.974358974358974
-0.194664027772992 -0.0288433152142489 0.974358974358974
-0.199422064954618 -0.0189970719453973 0.97796623242448
-0.199448068472258 -0.0187995556193295 0.990585744874269
0.068250151975045 -0.273065979083048 0.229666503972458
0.0670284991918551 -0.27322681272314 0.237628989325492
0.0628294715196251 -0.273779625203627 0.241817573966885
0.0707764396516462 -0.272733387000799 0.262343678308386
0.0668192927684202 -0.273254355271297 0.265936931782873
0.0588846091543932 -0.274298976186649 0.269345323949283
0.0607743316862176 -0.274050189495587 0.285438494593132
0.0662856203957629 -0.27332461457205 0.29084600378818
0.0670492192108541 -0.273224084880889 0.299227722679873
0.0630714570188853 -0.27374776720827 0.312341238078419
0.0622652620157258 -0.273853904793978 0.319782847950568
0.0642525576312956 -0.273592272362744 0.328136375351466
0.0703215311654172 -0.272793276839185 0.34753554408867
0.0613494425754973 -0.273974474710624 0.349835737792456
0.0616730229227766 -0.273931874549734 0.356857308646989
0.0648707552122757 -0.273510885107206 0.371001056153535
0.0650465121351043 -0.273487746269347 0.375014618992598
0.0673333390073775 -0.273186679800062 0.384255142385244
0.0710984368382113 -0.272690995266972 0.400384675627792
0.0638143634482664 -0.273649961721368 0.406593344411666
0.0632205333767671 -0.273728140933423 0.416955749588498
0.0662436909577316 -0.273330134687289 0.421160754222069
0.0683003667484436 -0.273059368182715 0.434459192352395
0.0589441203427385 -0.274291141390068 0.43270410582014
0.0708130520884861 -0.272728566882047 0.456832518691716
0.0572971065608148 -0.27450797486802 0.451743330119464
0.0627803184838861 -0.273786096323547 0.470644858115153
0.0617317089901134 -0.273924148382396 0.47392518367464
0.0667972424748948 -0.273257258247511 0.481626145895703
0.0644108309488352 -0.273571435285188 0.498111976214506
0.0621068752215651 -0.273874756811015 0.505590089142637
0.0573689599444542 -0.274498515190603 0.512481812983157
0.0683016296740539 -0.273059201915404 0.528561100837167
0.0676757434579023 -0.273141601398965 0.528401979045709
0.0664818993153014 -0.273298773962069 0.538807078217751
0.0629340652030666 -0.273765855183971 0.555577653086867
0.0671814051364479 -0.273206682273638 0.563680882014954
0.0639218729037248 -0.273635807833043 0.569641575830164
0.0670469869447601 -0.273224378764295 0.586920030177871
0.0655739562608308 -0.273418306932857 0.591219302286246
0.0668187053713622 -0.273254432603586 0.59606943935816
0.0588563809093126 -0.274302692505616 0.607128132738262
0.0686466298536627 -0.27301378178009 0.616594136098601
0.0650374122771775 -0.27348894428837 0.625713605692537
0.0601384740723879 -0.274133901738557 0.628883962456933
0.064376108855777 -0.273576006535461 0.645988998631083
0.0652852496846474 -0.273456315874682 0.655109646308321
0.0635173801840218 -0.273689060309847 0.653583173927115
0.0607412920091282 -0.274054539251595 0.670500247040623
0.0601600730540116 -0.274131058178682 0.684277976191643
0.0656331956144173 -0.273410507924003 0.688926502088027
0.0594139908052795 -0.274229281770133 0.69381033287751
0.0689900655613557 -0.272968567611411 0.714165346043414
0.0697889717291732 -0.272863389619081 0.720661208265088
0.0640210388441069 -0.273622752389316 0.727723612769386
0.0589756063316318 -0.274286996180992 0.73315393898388
0.070398712748122 -0.272783115691055 0.747755749704069
0.0614577601492498 -0.273960214431506 0.755487180574359
0.0619856287795396 -0.273890719207931 0.760948382449739
0.064046740304787 -0.273619368727826 0.772146202087325
0.0597756949798807 -0.274181662512159 0.782623377174134
0.0646301853793279 -0.273542556726557 0.791347406318086
0.0709615778029003 -0.272709013100788 0.80202432459149
0.0632204514405267 -0.273728151720535 0.806394987054489
0.0696905669992805 -0.272876344847545 0.823571142966297
0.0615705919532758 -0.273945359842699 0.825608121300336
0.0671511307755316 -0.273210667968866 0.836681888657697
0.0628751823781128 -0.273773607254941 0.843228179274994
0.065634648193067 -0.270458507358444 0.852057464813748
0.06218919199597 -0.267549057466712 0.858783570424566
0.0600416479756603 -0.262541706440342 0.869363731545209
0.0549001621153512 -0.261339181201145 0.873122560933242
0.0536383838704819 -0.257631572170611 0.880870011508988
0.0454084407188934 -0.258060070473983 0.882180000044061
0.0379534208618363 -0.253695842809334 0.89287139934085
0.0362074611749952 -0.250974973555779 0.898772857754879
0.0424971426069491 -0.247498901799289 0.904068896728767
0.0307495273467998 -0.246584888410245 0.908990129286245
0.0325018631839716 -0.244287310732909 0.913123885861765
0.0351617108969194 -0.240557142732382 0.919883870673597
0.0247953289091974 -0.237012148950711 0.929703378396193
0.0234742654796284 -0.234373150564932 0.935329217767701
0.0213515020397975 -0.232116694590344 0.940401063934158
0.0203890462131521 -0.228515933370625 0.947856005800389
0.0120418675435485 -0.227870172343971 0.951345381693019
0.0047337578122755 -0.224984908096636 0.959040171985221
0.0130197629650469 -0.22017367117281 0.966480899286102
0.0061703176437627 -0.218493578954176 0.971644576890641
-0.0020584608673315 -0.213385487511468 0.982943432204735
0.000289076904449323 -0.211994228663128 0.986191837537223
-0.00558748051788209 -0.20828741454067 0.99221036964427
-0.0104176778104676 -0.206330513818281 0.994852356014231
-0.040892953835911 -0.172678587315579 0.974358974358974
-0.0513606380199706 -0.170173100858561 0.974358974358974
-0.0697768820019866 -0.154745953558269 0.974358974358974
-0.0822761917538857 -0.146102619132982 0.974358974358974
-0.0831854704842668 -0.139955017919536 0.974358974358974
-0.0897620055472612 -0.130140005604079 0.974358974358974
-0.115063740318853 -0.116707404932837 0.974358974358974
-0.122556279178835 -0.101838784513758 0.974358974358974
-0.130226602505943 -0.102585593636955 0.974358974358974
-0.144076466013101 -0.080254287471349 0.974358974358974
-0.162394075266376 -0.0685912703628082 0.974358974358974
-0.169509942270641 -0.06422206730162 0.974358974358974
-0.170960090150567 -0.063319232183076 0.974358974358974
-0.195039229740819 -0.0382976048417559 0.974358974358974
-0.190018325473269 -0.036294703191184 0.974358974358974
-0.195550704946445 -0.0484029706493153 0.987715389241451
-0.199532584796378 -0.0385490369310509 1.0
0.0506256639471899 -0.275386286950615 0.220574935171983
0.0482633870543857 -0.275697286603546 0.226942250563826
0.0561273711936191 -0.274661973450627 0.239820937474197
0.0605830281130813 -0.274075375088788 0.25945372611029
0.0574689204280962 -0.274485355143272 0.265436538294397
0.0555942113771546 -0.274732165272078 0.268800548055068
0.0529359312482506 -0.275082134490335 0.281353769206234
0.0611219546955392 -0.274004424058191 0.296039515916216
0.0500856507720438 -0.275457381033853 0.294796593602673
0.0486801025651754 -0.275642424965766 0.299713934157052
0.0556741240270566 -0.27472164457213 0.312359139149283
0.056711534089715 -0.274585066946359 0.324318128071446
0.0560672678632053 -0.27466988620419 0.339079342491196
0.0559482945670482 -0.274685549335775 0.342180801878933
0.054408969317751 -0.274888205349445 0.354546656576533
0.054624290886544 -0.274859857727129 0.361620743286431
0.0508905371830434 -0.275351415727571 0.366299867695462
0.0596810927110217 -0.274194117137132 0.385307637774012
0.054428100821308 -0.274885686639219 0.385280191361862
0.0602774934747355 -0.274115599487025 0.405785902733838
0.0559438162862293 -0.27468613891263 0.415282579962925
0.0537512891689378 -0.274974790583649 0.419500770513803
0.0567311811759589 -0.274582480358384 0.425589255071157
0.04760776575853 -0.275783600784616 0.434717994773944
0.0568006090637061 -0.27457334000356 0.440794975021279
0.0589800698982546 -0.274286408541298 0.451440487708057
0.0574548334134802 -0.27448720973393 0.469088276401098
0.0576197063188557 -0.274465503804153 0.477687426692922
0.058266740952304 -0.274380320078633 0.484386674421505
0.04839233287336 -0.275680310564424 0.489761168187846
0.0571360264701638 -0.274529181464266 0.503048367589929
0.0523501470024856 -0.275159254449338 0.512274217577919
0.0552698344601744 -0.274774870303358 0.517226900604478
0.0504616516638573 -0.27540787957735 0.525061757939208
0.0552132907354162 -0.274782314425946 0.536269921112653
0.0517347342061775 -0.275240275081019 0.542156669817494
0.0525681789712986 -0.27513054999609 0.558077251789186
0.0476328626294627 -0.275780296718877 0.562995418569276
0.0580929657372575 -0.274403198019714 0.57813758707762
0.0467001608293065 -0.275903089240371 0.576039989002958
0.0494471487325684 -0.275541441422064 0.589941125427879
0.0527163985533011 -0.275111036517928 0.607622303195967
0.056163008010867 -0.274657281774631 0.61650045652849
0.0456489382580668 -0.276041485317395 0.617782639799589
0.0493617379753927 -0.275552685961567 0.629891691755506
0.0535553960089784 -0.275000580407419 0.636220420768972
0.0564469377891285 -0.274619901710183 0.653588974477332
0.0466170509640422 -0.275914030861708 0.655103634422167
0.0588574835079114 -0.274302547345757 0.667420422233476
0.049297304919659 -0.275561168734282 0.673062449022701
0.0504880418930473 -0.275404405237766 0.680363376453316
0.0511135791104487 -0.275322051700761 0.698460517768987
0.0529765341236454 -0.27507678902038 0.701290277077299
0.0560617352852499 -0.274670614581896 0.717302688327518
0.0486922197914753 -0.27564082970266 0.719383218201579
0.0574323002070367 -0.274490176286836 0.736031897526128
0.0498567443977239 -0.275487517129745 0.73878166081251
0.048826892710015 -0.275623099676577 0.74579914245355
0.0461641022568418 -0.275973662690289 0.753574057097446
0.0470683032666049 -0.275854622369033 0.760021567286
0.0554366820152866 -0.274752904406011 0.781896696217355
0.0564304545326141 -0.274622071772072 0.788854165061029
0.0465453012832382 -0.275923476886386 0.789253193641602
0.0515470966592174 -0.275264978032718 0.803972559468919
0.059848426159089 -0.274172087270764 0.813770193916119
0.0474691828837759 -0.2758018455662 0.821402275931864
0.0513925324445758 -0.275285326797613 0.83366574209272
0.0582858138247877 -0.274377809087335 0.840632645535853
0.0483575230280207 -0.27536664348636 0.846790345916132
0.0471722679944726 -0.268885979946823 0.860063756566096
0.0479839191437942 -0.266938370546104 0.863745263565579
0.0454686377801057 -0.266451867112815 0.865380556579486
0.0421264013570367 -0.264008820093335 0.871146678163696
0.0390574670540069 -0.260280936446482 0.879410511189251
0.0357540332852821 -0.258258310111774 0.8843255744712
0.0280810356600189 -0.257017728696839 0.888827075903768
0.0248776129574764 -0.25358057538102 0.896544859734642
0.027717272870798 -0.248711868041214 0.905534577774478
0.017401081544318 -0.247909249684699 0.909856119194949
0.0211048875788672 -0.243341595450791 0.91801619703271
0.00827301648607092 -0.242792931532148 0.922492220626169
0.0123986796882574 -0.239807837996549 0.927376099967822
0.0133008979625918 -0.235154838027248 0.936444541328054
0.0070938943087428 -0.233074714726428 0.94223912299682
0.0030041662113911 -0.231983668849573 0.94549806058747
0.00270418828189052 -0.226966051795033 0.955612280383829
-0.00278188947956081 -0.221782261423967 0.965959402012485
-0.00609087406644369 -0.218000433188948 0.972651786311839
-0.00995506585719011 -0.218420370979543 0.970794449729831
-0.0236743155218198 -0.214829471861885 0.974363900998402
-0.0239030714048543 -0.209055582996459 0.985851446162573
-0.0199304393767451 -0.207665255516613 0.989678114979259
-0.023694661767937 -0.203610794425524 0.996795898602889
-0.0394354261742602 -0.198191506404494 1.0
-0.0780712073690536 -0.158702557803638 0.974358974358974
-0.0790143340367564 -0.151375293782081 0.974358974358974
-0.0865824431616551 -0.149149773920677 0.974358974358974
-0.10343618457556 -0.131702962042263 0.974358974358974
-0.117527537565181 -0.12149042842196 0.974358974358974
-0.124214845547491 -0.114746923180248 0.974358974358974
-0.13217439590934 -0.107900833274463 0.974358974358974
-0.157010702723921 -0.0953383602482389 0.974358974358974
-0.159841413322433 -0.0838053115293455 0.974358974358974
-0.168613975467742 -0.0775360700442044 0.974358974358975
-0.180531639039784 -0.0690613329208509 0.974358974358974
-0.191693145686976 -0.0543396859801603 0.974358974358974
-0.190924951392259 -0.0622026985177759 0.98513353315365
-0.195424873393192 -0.0493587561874485 0.992727736092373
0.0354669748199927 -0.277381966234361 0.206351124202842
0.0423195018977162 -0.276479813929793 0.228219388339098
0.0356944187285197 -0.277352022675743 0.232572049013688
0.0417593704126366 -0.276553556638781 0.240295194119447
0.0392450026517957 -0.27688457943435 0.24827843572028
0.0461661563021456 -0.275973392270095 0.264446569717939
0.0371450355121453 -0.277161045353136 0.273874669815969
0.0430823999470219 -0.276379376496198 0.285200182853257
0.0479575803968988 -0.275737546813782 0.296391675093839
0.0405998964739743 -0.276706204278694 0.298170964848445
0.0474757978629815 -0.275800974687667 0.310118994909228
0.041908577614368 -0.276533913138015 0.319804537797081
0.0404669172174438 -0.276723711329943 0.323196441617711
0.0375511231638235 -0.277107582899553 0.327943750537136
0.0423028958000204 -0.27648200016403 0.354074370568117
0.0412507371814455 -0.276620519474024 0.3579786777547
0.0446068280959803 -0.276178681722995 0.367424696651879
0.0429176114425369 -0.276401071314387 0.373550333721492
0.0432197633277569 -0.276361292264047 0.376328293106532
0.0335240305854716 -0.277637759695509 0.39161039541665
0.0490359513649117 -0.275595576582518 0.405593844301495
0.0430634186244406 -0.276381875434723 0.409500060573966
0.0443400956253837 -0.276213797718937 0.415414855407161
0.0407346542537186 -0.276688463080421 0.433219431898505
0.0368030310973936 -0.277206071088524 0.438486371661452
0.0406121902779789 -0.276704585768692 0.44439862609764
0.0370828280673935 -0.277169235118606 0.456689953418607
0.0380234350492313 -0.277045401860199 0.461030048782264
0.0420672080269763 -0.276513029048002 0.476236896745379
0.0434818626469271 -0.276326786234062 0.480360414289609
0.0454177734139624 -0.276071918746475 0.494725391948654
0.0418807662899906 -0.276537574568331 0.505872016367707
0.0399519802645472 -0.276791504065892 0.514822275304156
0.0402647231492413 -0.27675033068402 0.525019551632529
0.0475953899688946 -0.275785230088231 0.536080519459925
0.0431159844684862 -0.276374955010067 0.540178935084384
0.040463611243389 -0.276724146569684 0.543692429131425
0.0415483492193266 -0.276581338105924 0.559545733418052
0.0398135032053173 -0.276809734916598 0.565958396112613
0.0461321012571316 -0.275977875701827 0.579447595110725
0.042275294104794 -0.276485633996144 0.587209048999505
0.0361168497403252 -0.27729640857798 0.588368522139652
0.0481513892693462 -0.27571203139167 0.609068927224746
0.0447140036794317 -0.276164571789753 0.617225935173986
0.035024259046859 -0.277440250871616 0.621391218161341
0.0441156567081171 -0.27624334566295 0.631943599903987
0.0478392692495736 -0.27575312277182 0.640572302739443
0.0366202092650934 -0.27723014003936 0.645277076785163
0.0359630034021432 -0.277316662832646 0.653971593783796
0.0359022851694093 -0.277324656539635 0.664310263202703
0.0414889629331734 -0.276589156458819 0.680809312767624
0.0475570840613882 -0.275790273156627 0.69015113974825
0.0439946199557867 -0.276259280453694 0.698459080326196
0.0391147664340537 -0.276901725357692 0.704018386033939
0.0409879773731873 -0.276655112459047 0.718484671670279
0.0431777324862475 -0.276366825729307 0.725960635334984
0.0447388340609145 -0.276161302808014 0.730589542943783
0.0436665801857356 -0.27630246770873 0.743455883826461
0.0458505750649723 -0.27601493932816 0.759082914596226
0.0447716322273371 -0.276156984847489 0.76022801555135
0.0380272009775522 -0.27704490606633 0.767710445523845
0.0408722752735531 -0.276670344929439 0.775739403584671
0.0348058937479938 -0.277468999208598 0.781507904690895
0.0360248335174781 -0.277308522743536 0.79309299815287
0.0462429082007331 -0.275963287690951 0.809927551405887
0.038177472328909 -0.277025122467608 0.811110321077968
0.0456861090596479 -0.27603659168853 0.830003060647104
0.0412022653286982 -0.276626900914501 0.841372074325826
0.0438176141984751 -0.276282583703732 0.843261243464719
0.0363111874968757 -0.274957146019509 0.850781201168735
0.034418025775299 -0.274031157264448 0.853131657616823
0.0318440668448254 -0.269451419970447 0.862968868448594
0.0256253037805155 -0.269463645806981 0.864581848154167
0.021984458690207 -0.262568146170206 0.879331500126654
0.0214323174797751 -0.261793604907775 0.881025964190265
0.0211176952336752 -0.257906104120772 0.88888380737326
0.0173742640433849 -0.257191307983325 0.891299063779651
0.00980936231869648 -0.253859245863177 0.899955064432065
0.00843891189470161 -0.250246608309967 0.907541185980762
0.0110881548659514 -0.245294077105087 0.916748689482759
0.00571771988350335 -0.245801202035908 0.917148501978259
0.00278642728911444 -0.240983267224717 0.927556195583062
-0.00122291403244031 -0.240876041626639 0.928182327629722
-0.000902709368634976 -0.233433358318525 0.943152005733408
-0.00725542507608484 -0.231062727242736 0.94622056610629
-0.00851921594956999 -0.22965660303563 0.948700052070656
-0.0154913527642817 -0.223552892716827 0.959071674257906
-0.0222131875962409 -0.220536938326855 0.963333690349856
-0.0236998479398095 -0.217863387887449 0.968289346134078
-0.0300616553549488 -0.216573460068187 0.969194106101856
-0.0364508850939235 -0.212770204011587 0.975118302109463
-0.0309934149295677 -0.206661503018771 0.988772683250388
-0.0379272374365261 -0.204658759812443 0.990952459561306
-0.0405381174091083 -0.202220751732081 0.995141017983449
-0.054700265293101 -0.195946225156539 1.0
-0.0904040338885696 -0.161327758546462 0.974358974358974
-0.0930157547186936 -0.158565561621016 0.974358974358974
-0.114345127296307 -0.14338386086648 0.974358974358974
-0.121920656894696 -0.127865740240549 0.974358974358974
-0.123346426065461 -0.131284740157002 0.974358974358974
-0.152096862120292 -0.104940731757537 0.974358974358974
-0.154240057532978 -0.100385409659027 0.974358974358974
-0.167379368548698 -0.0906579651154917 0.974358974358974
-0.17728013217361 -0.0868019083785523 0.974358974358974
-0.185745162078154 -0.0747078161301227 0.979944022297137
-0.188482635777038 -0.0680989699996373 0.987134485313857
-0.183719112204173 -0.0795991332139323 1.00002525605569
0.0298561371052545 -0.278120647033064 0.208403220380979
0.0301169378063689 -0.27808631196939 0.214287025152646
0.0262692559944331 -0.278592868889853 0.221358607967153
0.0247248801320976 -0.278796189829343 0.229679541978786
0.0325124285079508 -0.277770939635579 0.244465775720708
0.0267900532571002 -0.278524304629486 0.252683296544423
0.0238082292467768 -0.278916869207811 0.258381685025616
0.0290186919038714 -0.278230898785419 0.275946642878829
0.0247541447437843 -0.278792337070123 0.273160280795568
0.0281873242842191 -0.278340350408959 0.286590307681779
0.0267538378099779 -0.278529072483551 0.298692069254071
0.0356362415714443 -0.277359681843774 0.308097029802766
0.0291025270089242 -0.278219861684453 0.312368665910986
0.0281567139789791 -0.278344380332096 0.321592777577124
0.0329793065367679 -0.277709473977017 0.340953556310381
0.0235963547483121 -0.278944763014709 0.343432148880913
0.0318506286400909 -0.277858067241086 0.358731877964881
0.0293152338024428 -0.278191858303833 0.361649123661492
0.0338095593464464 -0.277600169120994 0.373719343979388
0.0274737134842696 -0.278434299053078 0.3822150868266
0.0327036768993614 -0.27774576130719 0.391984849473519
0.0255634587174015 -0.278685788864164 0.405770512829215
0.0321463000271975 -0.277819141364508 0.416688101963348
0.0285485114559039 -0.27829279921571 0.420685962296783
0.024553046484699 -0.278818812158192 0.424325894948381
0.0317340809865432 -0.277873411030763 0.444058168423728
0.0282772964748084 -0.278328505345354 0.447229766399257
0.0328788897155935 -0.277722694102324 0.463594513022701
0.0263411252403166 -0.278583407124132 0.464100392977096
0.0318224818384181 -0.277861772837825 0.472164303688018
0.0230534731768674 -0.279016234729484 0.486225234140785
0.0265632914341618 -0.278554158389833 0.495033703346666
0.0273545228998188 -0.27844999079121 0.503060128880016
0.0269844748101501 -0.278498708546442 0.511624208567596
0.0251068332705248 -0.278745904744708 0.516430210097027
0.0319890075905074 -0.27783984930665 0.536377742755725
0.027052288709396 -0.278489780677235 0.544653794101046
0.0272033657335897 -0.278469891009672 0.552381971859884
0.0278265393211635 -0.278387848650437 0.563076234000081
0.0338657536763229 -0.277592770997115 0.571074029691481
0.0240045874578344 -0.278891018158903 0.569500890259183
0.0245967999858468 -0.278813051900488 0.590020730010135
0.0370208093097787 -0.277177400042943 0.599942060989451
0.028351085761269 -0.278318790801497 0.605874176565835
0.0259742785928593 -0.278631703401502 0.614686813173028
0.0271265092728028 -0.27848000935469 0.631159627743583
0.0282652779905594 -0.278330087608823 0.632940982870645
0.0350947928585979 -0.277430964919136 0.648155530107425
0.0274296088401608 -0.27844010553963 0.646607688787218
0.0287347341222992 -0.278268282536572 0.661641703987829
0.0275186658963195 -0.278428380955759 0.672002564539253
0.0342795230082732 -0.277538297231138 0.679431767880442
0.0276847974128753 -0.278406509326676 0.683837062613444
0.0265318868646006 -0.278558292879851 0.70006397824779
0.0235898731189455 -0.278945616337403 0.703259338816304
0.0271247218142654 -0.278480244678071 0.717065670438503
0.0231924263839387 -0.278997941192725 0.722048552332375
0.0319711547218661 -0.277842199681396 0.734599337657592
0.027905097009374 -0.27837750633458 0.742085520042052
0.033490764396056 -0.27764213927243 0.761117768486553
0.0280568664121069 -0.278357525513653 0.766460360138674
0.0302435468543162 -0.27806964357201 0.776921075290836
0.0309510036009607 -0.277976505124379 0.778583617595211
0.0273765006917958 -0.278447097360004 0.792229254344495
0.0244861789844397 -0.278827615431609 0.802564086135594
0.0294750458033721 -0.278170818654765 0.812148229782402
0.0312360227532633 -0.277938981641119 0.824450019899608
0.0313406700740115 -0.277925204559976 0.832736794646478
