ply
format ascii 1.0
element vertex 850
property float x
property float y
property float z
end_header
0.281357065597908 0.00527309748084101 0.511174349031484
0.281100723524067 0.00722020884248298 0.512695369076162
0.279166700427969 0.0219105727287701 0.509588110842044
0.279720587349823 0.0177033838641131 0.528049124474701
0.280623787643857 0.0108428965160926 0.539696484541394
0.280649179162902 0.0106500287808765 0.549766577959661
0.281474047529226 0.00438453149491346 0.565696084471831
0.280720985589215 0.0101046048228887 0.573494182387793
0.281387115962312 0.00504484230183054 0.575168501408065
0.281109057443243 0.0071569064416223 0.586289072046885
0.280413505692781 0.0124401465108103 0.58687665189102
0.280535085482012 0.0115166563267351 0.602581681235007
0.279989691846951 0.0156593322733017 0.606615474249071
0.281684445852865 0.00278639756281848 0.628568390893454
0.281473035002374 0.00439222239991452 0.638016830080651
0.280678292356616 0.0104288921199885 0.637778838498373
0.281235022057924 0.00620011020160647 0.650443597466802
0.280877765919476 0.00891373998451228 0.660849894886196
0.281507945596681 0.00412705010963243 0.672945607633258
0.279404974834725 0.0201006989236939 0.671250324339522
0.280943586637308 0.00841378199634346 0.685851017417782
0.281829337006691 0.0016858399852508 0.698947723776832
0.280110705629777 0.0147401413347005 0.707809954118998
0.280005831803288 0.0155367371335737 0.719234819559188
0.280240164160978 0.0137568061639069 0.720460107247846
0.280076610260473 0.0149991213763201 0.731103059067613
0.280718134702294 0.0101262594589471 0.749607962769031
0.279449767808172 0.0197604625114186 0.750997072196778
0.280305516004914 0.0132604096265523 0.759813782534788
0.28082442019085 0.0093189410221211 0.777017989893758
0.281148621940027 0.00685638425245361 0.781701220854633
0.279934689003372 0.0160771203486337 0.782838501364792
0.28151524276201 0.00407162263607018 0.807271593783368
0.280775121964957 0.00969339822420045 0.808088623168492
0.280564021705452 0.0112968638885283 0.822825050340366
0.280007126498474 0.015526902947291 0.825535988835395
0.281022983456452 0.0078107032807869 0.836661540320682
0.278257787062688 0.013042950387428 0.850306562142208
0.275019926570621 0.0151764921513227 0.856220510922495
0.27681394389275 0.0166978424554844 0.852231897143741
0.27074219914422 0.0224991472018638 0.862847874122546
0.266008207216616 0.024249313870091 0.871855030351622
0.262000026872358 0.0309281446466194 0.878112821534751
0.261413101075987 0.0372107990970412 0.877632418827739
0.259810553471829 0.0366174950321826 0.880993733959989
0.253405881733957 0.0461935723060404 0.891281648455348
0.248549550959957 0.0469329702847978 0.90079962282212
0.247737538359296 0.0459952311856925 0.902670559412406
0.243789892291733 0.0567212415771819 0.907741639433155
0.238142469946178 0.0568887006531913 0.918992391313066
0.237864395613423 0.0566191440708264 0.919619515573194
0.235558060615416 0.0608034216175305 0.923130444389963
0.226523362547214 0.0807012239455214 0.925785051282893
0.22484152548145 0.0743566978856572 0.93381728788328
0.217793982468046 0.0765016871878133 0.945295947156689
0.212589498923154 0.0930715703947081 0.9422040879625
0.208738957449589 0.0975469703480486 0.945925475027042
0.203469545970732 0.092628321974795 0.959543149430871
0.20310969974854 0.0981355026132177 0.955962411259772
0.197220883296579 0.103686313190921 0.962652352124063
0.186851171082591 0.122299512117594 0.9610327869257
0.184296116001206 0.116672492826196 0.972032034590931
0.17323507660723 0.132627227545268 0.970141229376742
0.163888892473374 0.145842842914965 0.968869690190507
0.15635443018965 0.155902907870871 0.96857378125174
0.1518763371921 0.154757185020652 0.976074754539048
0.117297463955539 0.198282151725 0.948881324100002
0.28163199578326 -0.00318479539473633 0.187271151906118
0.281146080529105 -0.00687568818492384 0.212324712701391
0.281693036708338 -0.00272114353703203 0.216796433383344
0.281555440555961 -0.00376629007734738 0.219376978376754
0.281413662350345 -0.0048432024657498 0.233703016913123
0.280879261603507 -0.00890237913638224 0.243864997708901
0.281018498403248 -0.00784477064211511 0.246909795867313
0.281422300496498 -0.00477758923158062 0.256153979924415
0.280817111272013 -0.00937445777244291 0.2646027966433
0.281976078325999 0.000571229005612977 0.270315747922306
0.28075591440334 -0.00983929413934673 0.287202776106525
0.281653992996997 0.00301770996802823 0.293262850107568
0.281438484783216 -0.00465465736918159 0.304738570675116
0.28141954921118 -0.00479848731834548 0.31327999458885
0.281780851882224 -0.00205412106883113 0.317676619278731
0.280805990825732 -0.00945892594800862 0.337923092073153
0.281989757942929 -0.000467321999054639 0.337552811182763
0.281796896792359 0.00193224787668062 0.348258760600132
0.281833269246656 0.00165597165736792 0.354915898831132
0.2813754165038 -0.00513370851193714 0.374900449920467
0.281724925945662 -0.00247892073147707 0.386108133125241
0.281925095106187 -0.00095848500717575 0.386660787588
0.28135960604287 -0.00525380088557236 0.394491667670573
0.281866980767627 0.00139990723330554 0.404384154518444
0.281463346720974 0.00446581220320402 0.413395231606454
0.281878458851327 0.00131272253183228 0.418009016991095
0.280808324601928 -0.00944119915787059 0.438089536156195
0.281333680525775 -0.00545072473866273 0.441083901850379
0.281583284920917 -0.0035547911277072 0.456543068779162
0.280345190115857 -0.012959054835193 0.471879966025439
0.281661186876042 0.00296306703168384 0.466712040412126
0.28182489691177 -0.00171956585450494 0.481989073955765
0.28136376946393 -0.00522217656292711 0.487120884742119
0.281236443860577 -0.00618931053825921 0.497458365436933
0.280951110081881 -0.00835663576128323 0.510893219749158
0.281831507928331 -0.00166935019827549 0.515783647626314
0.281282893038457 -0.00583649400433885 0.528878345936994
0.281455523117101 -0.00452523837449637 0.545009801379617
0.281671732400646 0.00288296581980159 0.543628550189406
0.281772229990226 -0.00211961084043156 0.548239589733499
0.281674843078925 -0.002859337872468 0.566036262851872
0.281685220636722 -0.0027805124951533 0.577048437475364
0.280585906165845 -0.0111306349084995 0.584496061910532
0.28114403254324 -0.00689124418198194 0.596408199503693
0.280865681472401 -0.00900553047308342 0.610524043408666
0.280922313445268 -0.00857536793226447 0.614548885243587
0.28159174470971 -0.00349053265219516 0.628878137280092
0.281236249036052 -0.00619079037744092 0.62849111022818
0.281380683264534 -0.0050937034924368 0.636583315658289
0.281007671460982 -0.00792700943335071 0.648628049044825
0.281351908672474 -0.00531226821840724 0.659233456040044
0.280993689296098 -0.0080332145197817 0.670342266468166
0.281545932714997 -0.00383850929944686 0.677439930855553
0.280801984331837 -0.00948935829049739 0.691437341231672
0.280512233895016 -0.0116902313626385 0.701795177279147
0.280753849780966 -0.00985497650323368 0.710856341754443
0.28163964297426 -0.00312670921225226 0.715054570475116
0.28186002789384 0.00145271955296735 0.72039502919916
0.28185569365291 -0.0014856413813347 0.738281584477964
0.281403324201692 -0.00492172850089247 0.745608669550294
0.280679596377907 -0.0104189870949022 0.753177380740251
0.281619843354065 -0.00327710225877376 0.754862747721457
0.281765051932923 -0.00217413359871286 0.770384370830879
0.280534980638651 -0.0115174526911288 0.78401241805827
0.281981776683308 -0.00052794568464428 0.794439421178468
0.281343956725622 -0.0053726692514156 0.804629567589876
0.281229320037501 -0.00624342134668218 0.815113617903752
0.281354745759725 -0.0052907184012602 0.815849969404066
0.281902163255192 0.00113266970868349 0.827966276939122
0.281569717154153 -0.00365784854791366 0.831062292270552
0.281580064363417 -0.00357925369059363 0.843404854193493
0.280169337628567 0.000461889689908787 0.849796117136702
0.276150877721389 -0.00335166240626011 0.857072145359924
0.270818253740473 0.00441249639977116 0.867458070432214
0.270149520687461 0.00858236980514784 0.867697588041356
0.264838670427495 0.0177877193998855 0.875895474030664
0.262859037232284 0.0203349190743453 0.879184050023091
0.259538099278265 0.0168900595721518 0.886732974645732
0.257730441988467 0.0275573500345045 0.887539538361611
0.250895851322001 0.0285020070943974 0.900959986771946
0.247339673584456 0.0315645545235886 0.90726595821097
0.247264548330655 0.0331202841001547 0.907006577349921
0.243530738314901 0.0448921881117876 0.911374596252448
0.238399109802042 0.0452911684996333 0.921532799749069
0.235307605924123 0.0453774187654003 0.927693097379096
0.234329284862792 0.0494776290107627 0.928570133662887
0.228425479816396 0.0607064881136034 0.937421129063787
0.221433469117865 0.064479523738644 0.947793787625297
0.218868227116779 0.0725189418367477 0.946368438503452
0.219791560193568 0.0676152624470689 0.948433118786944
0.208663661203864 0.0801441006067483 0.959500318869751
0.207754686430809 0.083364388272923 0.958708408872144
0.202716233528965 0.085104415532274 0.96675533929244
0.198476384827742 0.0895737401854141 0.971206969480588
0.191464948809625 0.100653284737773 0.975721116821493
0.185137119812965 0.108268359251002 0.981006611705374
0.175217343107027 0.119030248169798 0.983666295887373
0.172472549831289 0.114076441130097 0.99414247619465
0.169718940882268 0.126400980723491 0.983414457553616
0.155916632261152 0.143566281252412 0.984424165281081
0.151720344775958 0.142995896451072 0.991840345652132
0.121718869341025 0.184412128516439 0.965649272587254
0.279751713569544 -0.0174669567526547 0.20458824968834
0.279641677682774 -0.0183027622921377 0.213849814616864
0.280364802443271 -0.0128100844185761 0.218334624941553
0.27992940844926 -0.0161172301392437 0.23131349042164
0.279405211340213 -0.0200989024861642 0.240621075287305
0.279266161251464 -0.0211550927696587 0.249600543601641
0.279146630997368 -0.0220630151887984 0.261549267827165
0.280112451678771 -0.014726878775877 0.259864654075866
0.279679894061485 -0.0180124800763658 0.282021477802243
0.280052087761926 -0.0151853882455111 0.27557128671608
0.280085803153634 -0.0149292944202814 0.293471629631013
0.279655358086651 -0.0181988493081257 0.29591795973333
0.279379695039129 -0.0202927180350624 0.315951917267834
0.279879047517662 -0.0164997593925489 0.324837090222825
0.279665191585725 -0.0181241564670878 0.331068813528999
0.280043155982555 -0.0152532318454035 0.33254255972366
0.280388059877015 -0.0126334266705649 0.347542460995984
0.280066487965499 -0.0150760078399997 0.357759982607219
0.279866583091706 -0.0165944361072633 0.367893074740648
0.280481130671154 -0.0119264838032058 0.374954179074631
0.280329347724292 -0.0130793897460787 0.38467298808808
0.280154493242653 -0.014407541394118 0.391700776291678
0.280256630483562 -0.0136317320264196 0.406564189676737
0.279421803769866 -0.0199728704703858 0.414965399672145
0.279197613112551 -0.0216757675777248 0.43108140733207
0.27957874323798 -0.0187807968600157 0.43570038575823
0.279582859595015 -0.018749530024132 0.441215238737276
0.280340448372294 -0.0129950719533607 0.448380712528901
0.280295752002434 -0.0133345745885516 0.455074218914237
0.279359315368312 -0.0204475170034883 0.468831372284059
0.279771903819269 -0.0173135965802699 0.472692931698144
0.279821868469364 -0.0169340773838188 0.494837661840659
0.280192953079896 -0.0141154099272052 0.502267653894926
0.280214380477855 -0.0139526526810269 0.500739687197057
0.27928571278809 -0.0210065841049185 0.520937610120171
0.279602891044503 -0.0185973760593003 0.526311708978071
0.280578312791782 -0.0111883123107676 0.537917145397264
0.279471125453519 -0.0195982350889366 0.54782125058965
0.280296464204003 -0.0133291648805548 0.558442668375725
0.279777868873118 -0.0172682874979648 0.55915999538007
0.279996195798405 -0.0156099298572958 0.56965506060332
0.27983110900526 -0.016863888545287 0.578245485721669
0.279190325966562 -0.0217311189468434 0.597996188457976
0.279754936491765 -0.0174424762279404 0.605991431505944
0.278777911602207 -0.0248637170510321 0.615882547821905
0.279938245718573 -0.0160501044145114 0.6228561904758
0.28045975663714 -0.0120888357099802 0.622399808793856
0.280385427185722 -0.0126534239462804 0.637572723364335
0.280137331501986 -0.0145378977563701 0.638746355025376
0.280299976246779 -0.0133024882671905 0.656300445693424
0.279753158814289 -0.0174559790289404 0.659008705990998
0.279850309891857 -0.0167180433319476 0.672465707984388
0.279379752342092 -0.0202922827758517 0.687945705800187
0.279758059331174 -0.0174187559076554 0.697955976375269
0.279623631609171 -0.018439835829924 0.703589572195734
0.280056050364064 -0.015155289294023 0.712463471412575
0.279841219820074 -0.0167870892820725 0.714120919550532
0.278855868559433 -0.0242715751725652 0.739152992220547
0.279821914840656 -0.0169337251588819 0.736924153582277
0.279097081045449 -0.0224393844398814 0.749138986977266
0.280163699176796 -0.0143376153819915 0.762845603798191
0.280156152728224 -0.0143949363497648 0.769256922854892
0.279392948027349 -0.0201920515952821 0.776394811820289
0.279828463992114 -0.0168839794147642 0.794204310304433
0.280863779616728 -0.00901997650113246 0.788450594554958
0.280543521437854 -0.0114525788804508 0.804604037430118
0.280263489055861 -0.0135796359976702 0.814972211198796
0.279576691302253 -0.0187963828592543 0.820985696377987
0.280179634446045 -0.0142165749950454 0.832036947589885
0.278978289520277 -0.0233416956557511 0.845329608077942
0.278628889753432 -0.0136995956920254 0.84939145877196
0.273000591290863 -0.0118167862893216 0.861143808817792
0.275433080940038 -0.0072202836359871 0.857489111628401
0.27000631461439 -0.00936537707781181 0.867777830461347
0.268599300898038 -0.0035867213228139 0.872113406819737
0.266510621505422 0.00449745487831892 0.876050964910533
0.261088064216547 0.00996048528322063 0.88545763629388
0.259392663510825 0.006849211340522 0.889667651675792
0.254665273157632 0.0108526194798626 0.898068315021367
0.253166223221147 0.0113227225749558 0.900942634401152
0.248228564592252 0.0245032060495521 0.907347464521262
0.243039920952784 0.0239713294134292 0.917864797575305
0.239450025498544 0.0306742868511762 0.923279666307984
0.240121847852114 0.027509074947278 0.922769437705928
0.233640378948218 0.0398440441780943 0.932484516499916
0.231136191058323 0.0324110066602859 0.939450048187466
0.229407403927896 0.0499176715456449 0.938298030135156
0.225177153638348 0.0443539591195617 0.948223483987755
0.221579004222344 0.0475662753780384 0.954573963902827
0.217357489674488 0.0491328784284504 0.962604498589908
0.213010573302713 0.0642028760635416 0.963705130428624
0.205460992528939 0.0673723746495994 0.975328547489171
0.205272185582356 0.074494905650302 0.970182038921067
0.199160746564061 0.0729616735470895 0.982755559022683
0.194124905480975 0.0785227297901257 0.987847897514374
0.18880669255573 0.0806785875626597 0.996095208440815
0.182396741147621 0.0979603835567913 0.994700407529415
0.182421382047648 0.0905257232537384 1.0
0.14253715939578 0.136542657822481 0.974358974358974
0.134347189671364 0.147135383676002 0.974358974358974
0.151887216610592 0.13117680580668 1.0
0.136345030610028 0.150729176149452 1.0
0.136109145738583 0.148005010835996 1.0
0.106554485414606 0.17057889508628 0.993439212959346
0.277343402531815 -0.0357598952222084 0.210837788715703
0.278216248238947 -0.0291299738524835 0.215246985891445
0.278520062944847 -0.0268222720506391 0.220264070153787
0.279056141825449 -0.0227503486885645 0.23769281743982
0.278853099634578 -0.024292607244924 0.241945338455383
0.278850012295286 -0.0243160579150454 0.24747039893891
0.27802783726103 -0.0305610973128748 0.262956199163385
0.278315402887404 -0.0283768195236766 0.27375268580741
0.278813690718906 -0.0245919476782204 0.28111053822684
0.278383141325989 -0.027862295000199 0.292230787806012
0.278538128340882 -0.0266850517444087 0.294366250166286
0.277851614417414 -0.0318996427020331 0.314253201196097
0.278241699013299 -0.0289366560285253 0.317171010474706
0.278696738931581 -0.0254802846977825 0.328520051952459
0.277872892336723 -0.0317380208589358 0.336375622076987
0.278540656449789 -0.026665848850777 0.345838795889343
0.278294635182461 -0.0285345659039062 0.353543134892112
0.27804397322354 -0.0304385325092803 0.367283291133699
0.277200543202626 -0.0368450195594396 0.376779168052655
0.278551530600312 -0.0265832514772223 0.37886077525808
0.27726786956705 -0.0363336250499637 0.397909164850151
0.278266132212072 -0.0287510674584635 0.40261167883244
0.278713056952303 -0.0253563370247701 0.403552386500446
0.277718325140836 -0.032912075272781 0.422195370446286
0.278419802755589 -0.0275838237955361 0.435128018663552
0.27726713731291 -0.0363391870723643 0.441220139277906
0.279016940326921 -0.0230481136322283 0.442568628220023
0.278114687653067 -0.029901403090377 0.461638033909151
0.278935548735428 -0.023666344148057 0.463094674586193
0.278106564215112 -0.0299631067276292 0.479324245463371
0.278566820905996 -0.0264671100749385 0.490038584619429
0.278328895361908 -0.0282743340049666 0.498579868916181
0.277340859756126 -0.0357792095211046 0.505894422963585
0.27807533835178 -0.0302002907074588 0.508222104813099
0.278138818556449 -0.0297181106817628 0.518196523370113
0.277652647918327 -0.033410943305764 0.539468831206915
0.277889764049053 -0.0316098674806085 0.54217224153227
0.277809437829555 -0.0322200056927232 0.549166498712167
0.278380676619629 -0.0278810163036694 0.556861637670663
0.277922430502494 -0.0313617411325395 0.57088588525914
0.278613602753022 -0.026111766667985 0.576663978320962
0.278232829681521 -0.0290040252918577 0.591904300955798
0.278105789534889 -0.0299689910081196 0.592742611230555
0.278936143039085 -0.0236618299636025 0.606408687019444
0.278209728548705 -0.0291794958164513 0.623539833263098
0.277411103823814 -0.0352456528550665 0.6292128391798
0.277761598829056 -0.0325833789775135 0.634850906542043
0.277706243894347 -0.0330038414504845 0.64300740675258
0.278400319294553 -0.0277318153748321 0.65662826890491
0.277511324686107 -0.0344843998281286 0.660092784332906
0.27860850871754 -0.0261504597089549 0.670627119904286
0.277885161620329 -0.0316448263975232 0.686592192985949
0.277849718358552 -0.0319140446989302 0.687738515224844
0.278862771926022 -0.0242191388974101 0.696216531346194
0.278223994954662 -0.0290711317047315 0.716068607310369
0.277785601770362 -0.0324010585373669 0.717118657706001
0.278343253805056 -0.0281652708013735 0.722307305429397
0.277299930870556 -0.0360900952720041 0.736647963084395
0.27843266803797 -0.0274861022739789 0.744267834048873
0.278125090025491 -0.0298223892272515 0.758445384041862
0.279033047804673 -0.0229257651918513 0.765711010096025
0.277749909717343 -0.0326721665958815 0.772170618862925
0.277708091304393 -0.0329898089780316 0.789379540960843
0.278612405311667 -0.0261208621380832 0.784374494870764
0.277909912162354 -0.0314568273661413 0.799793011246728
0.277897375611719 -0.0315520519221859 0.808697225398708
0.278938306877904 -0.0236453939760019 0.818248340926706
0.278410191628117 -0.0276568275565607 0.828291269779049
0.277133883413437 -0.0373513509273186 0.839405584969562
0.278497793738803 -0.0207489232219372 0.84779752764997
0.274770644685516 -0.0277068679740818 0.853419764147154
0.272190339466293 -0.0245578025950667 0.859409539230025
0.267975904513506 -0.0186936756336706 0.869382463056875
0.26699754689864 -0.0139082139339904 0.872599214256352
0.263736197894916 -0.0167082427617323 0.878384650686822
0.260399350607389 -0.0112392944015266 0.88649834668347
0.256646794509224 -0.0107508714721629 0.894132063076858
0.256311627854866 -0.00374766171431532 0.896646376497074
0.251616380358734 9.58509599083925e-005 0.906998411502407
0.25191384281066 -0.00148254302513577 0.906038363651008
0.246387609212898 0.00445429001335679 0.916308355020139
0.243924995857566 0.00318826760951077 0.921566931753741
0.240556557959519 0.00510049298305032 0.927800309057081
0.235324399033702 0.01969405633822 0.9344220687799
0.231259583700588 0.0219226946059905 0.941964887857784
0.230289748772797 0.0198046996858204 0.944462236355604
0.226161777125906 0.0354986404519788 0.948585886651679
0.225982753217837 0.0307892465694647 0.950183941401328
0.221042785857404 0.0381021045754276 0.958138364080221
0.215862646355258 0.038880632978441 0.968293652667113
0.212400966559683 0.044379627220514 0.973769099605888
0.209589990536645 0.0424083668716289 0.979910094348615
0.203506377851834 0.061761845427571 0.983302536216525
0.200847432949863 0.0584697305121393 0.990799438471754
0.194072434307147 0.0725331024864551 0.992569507903194
0.19344932372016 0.0683483758854978 0.996961289517668
0.185218858433579 0.0806456500397507 1.0
0.151271592256637 0.117057292908273 0.974358974358974
0.143428998279597 0.12804316384989 0.974358974358974
0.12014808563903 0.143867814685154 0.974358974358974
0.117234457436968 0.154255890892877 0.974358974358974
0.111706712102831 0.159906865463523 0.974358974358974
0.100561226496188 0.175036328870933 0.981070498143069
0.0943051567271031 0.17762767781644 0.98659670347981
0.104596244668953 0.172661431038615 1.0
0.0939185782591226 0.180267114164319 1.0
0.277163307785039 -0.0371278506357138 0.210140623320295
0.275714047964663 -0.048136071876737 0.228765577535878
0.276070344272677 -0.0454297327297913 0.238989216550411
0.276892509712471 -0.0391847662091388 0.241638487931139
0.276347887928286 -0.0433215793662357 0.253648772652951
0.276099629252085 -0.0452072912270148 0.265217615780209
0.276117676299739 -0.0450702102905782 0.271799525082635
0.275660217424414 -0.0485449554242233 0.284784535313716
0.276618500919365 -0.0412660696263001 0.289545544453128
0.277108393554799 -0.0375449656259015 0.293512720143648
0.276330311215866 -0.0434550877518939 0.309590645277677
0.276375525611378 -0.0431116503212304 0.318721486328666
0.276480901607363 -0.0423112401663426 0.331781752549234
0.27617978188997 -0.0445984714981559 0.34060649404517
0.276464260960306 -0.0424376384296623 0.340213503980855
0.27682852863794 -0.0396707507191361 0.354483902643599
0.277584165097265 -0.0339311219755027 0.35674766120853
0.277490307740089 -0.0346440393822755 0.371996227152153
0.277276673556661 -0.0362667521096695 0.378288439247466
0.277463653989436 -0.0348464947184192 0.387587905065754
0.277123376241888 -0.0374311608188312 0.39567415263392
0.276169644359965 -0.0446754736833856 0.410121002644245
0.276379870488003 -0.0430786477067314 0.413786745567245
0.277134856522516 -0.0373439594300358 0.424748514377629
0.276951301024674 -0.0387382018576767 0.436431506715224
0.276206757723976 -0.0443935696960577 0.449918558313142
0.27626183556225 -0.043975211979469 0.465387161532443
0.27636297236219 -0.0432070017153723 0.466682202870822
0.276707647234245 -0.0405889361384131 0.474270197408936
0.276955174994759 -0.0387087761334689 0.480497792373063
0.276642208039202 -0.0410859961732893 0.488231095220158
0.277031135395029 -0.0381317996107222 0.502912419611254
0.277633836579018 -0.0335538296136923 0.510788643378127
0.276844886370496 -0.0395465014048053 0.520335016461993
0.277121444751073 -0.037445831948128 0.527725283938962
0.276995541016311 -0.0384021657592583 0.540994351119048
0.277562645667787 -0.0340945782704615 0.547180964824312
0.277193646102394 -0.0368974082368867 0.560564164565545
0.276489850952476 -0.0422432631413948 0.570413691993341
0.276886447244674 -0.0392308152238429 0.568930876734522
0.276842345080138 -0.0395658044214894 0.583475941587549
0.276672993498355 -0.0408521573953177 0.588823109668251
0.275806229134753 -0.0474358863749091 0.604787215098238
0.276356825694466 -0.0432536902920189 0.609311880268777
0.277651003161913 -0.0334234364710633 0.614359861419397
0.276482173497627 -0.04230157920064 0.63331356978241
0.275917859220548 -0.0465879716916327 0.643521747587171
0.275700237322441 -0.0482409741191943 0.656099769664258
0.276210600674499 -0.0443643795888179 0.661136499404327
0.276546890318785 -0.0418100061401665 0.666996534504329
0.277307844089375 -0.0360299884076167 0.676851459297637
0.276824134729586 -0.0397041257665987 0.687719853823777
0.275844837555014 -0.0471426263079302 0.69599021761229
0.275666482473829 -0.048497367649363 0.706165932674643
0.275664092501233 -0.0485155212935426 0.718080241366766
0.276479043606417 -0.0423253530846685 0.726175094849862
0.277360772290741 -0.0356279588044072 0.73357110106767
0.275824225255768 -0.0472991922647013 0.742066072864861
0.277024694865656 -0.0381807202881914 0.747478945988617
0.276438535944355 -0.0426330393253757 0.75648775134651
0.27681230399898 -0.0397939890872541 0.765275499833545
0.276221541618619 -0.0442812748675223 0.77938328752611
0.276559012322609 -0.0417179303797577 0.787038178815734
0.276910080257718 -0.0390513046678127 0.796695683589291
0.276537904137227 -0.0418782629656906 0.802971674466087
0.276245354899232 -0.044100395043369 0.822158718890195
0.277178306460492 -0.0370139243849571 0.825152353360523
0.276452948285248 -0.04252356672776 0.834787946980764
0.27753022569315 -0.0343408324261415 0.839994666752588
0.274928452907953 -0.0392998398946147 0.850051660286681
0.271890357259967 -0.0362351704152857 0.856934794365121
0.269678902230599 -0.0352564723079936 0.861615400524276
0.267252033142957 -0.0269851194810164 0.868647027215755
0.26351928173187 -0.0206066733093058 0.877792006776395
0.259126249738097 -0.0262756284711169 0.885085406552413
0.256775919728853 -0.0262764184621131 0.889785858562326
0.257795020992574 -0.0168391390350408 0.890232538848892
0.250226997583063 -0.0134721658407752 0.906255126528584
0.250554405806548 -0.00487644631458633 0.907863605969982
0.247794395234749 -0.00550129400394874 0.913219101595745
0.243278365283836 -0.0028548819026017 0.92294797502315
0.242588687873538 0.00396812129698225 0.924034208350379
0.239756750845977 0.00640845784020975 0.929055529603761
0.237776520132414 0.00923602762853358 0.932271477781416
0.231883020203128 0.0084166762139884 0.944274216960242
0.227894188523081 0.011948210868911 0.951322009605063
0.224279112308175 0.0144367105843069 0.957896927629318
0.221434501983758 0.0202376935899906 0.962058720475831
0.21934917000254 0.0261083733288981 0.964683605137943
0.213549088685046 0.028965822299578 0.975531387185494
0.210456056368714 0.029253722974223 0.981641646132411
0.209174104509165 0.0387257591718829 0.981711515406186
0.206201546615862 0.0405768672641009 0.987169225185504
0.17129248387408 0.0720562035796314 0.974358974358974
0.200083175921747 0.0466247687000211 0.99781352391533
0.159261220600197 0.0888895638958599 0.974358974358974
0.154214436991731 0.0977037145551815 0.974358974358974
0.142255894630312 0.119429975570652 0.974358974358974
0.130434492290049 0.123746933592754 0.974358974358974
0.113122694701261 0.137427664610516 0.974358974358974
0.107753718133857 0.154149856285745 0.974358974358974
0.106215886528407 0.155108260127277 0.974358974358974
0.0905998933858533 0.168492148779237 0.974358974358974
0.0871625348484246 0.174954639254144 0.974358974358974
0.080317407278335 0.183421593345196 0.984481246727204
0.0841110357755212 0.181850220971057 0.992292470332109
0.275552756477575 -0.0493612023531348 0.218464067641932
0.275588774720911 -0.049087616633181 0.226912298725621
0.27526877841823 -0.0515182298653276 0.239715673204132
0.275850369322248 -0.047100608364205 0.251066662647315
0.275391702778391 -0.0505845266510802 0.250735959632338
0.274371949218117 -0.058330323950496 0.26654456772978
0.27531932311145 -0.0511343048039292 0.275981757481108
0.275481836121674 -0.0498998959381454 0.285046378188165
0.275332297627194 -0.0510357535726011 0.291311087680233
0.275085960962896 -0.0529068663035568 0.304443155827074
0.275568472236907 -0.0492418293095584 0.316232948737774
0.275578782168143 -0.0491635176069668 0.318506641057474
0.275548330261717 -0.04939482280044 0.327347350710757
0.274830390899654 -0.0548481136625211 0.34402700378819
0.275601086563406 -0.0489940989049113 0.352673311128684
0.275830852271215 -0.0472488550848651 0.357470203162072
0.274653855946691 -0.0561890297575305 0.370488134498904
0.275625203602544 -0.0488109118056928 0.37368465544311
0.274545042389872 -0.0570155507792531 0.393637590056322
0.275339657745258 -0.0509798479255519 0.401171020820192
0.275131718712872 -0.0525593016859884 0.407064590081138
0.275020135422632 -0.0534068609217406 0.416309805665152
0.275326423036612 -0.0510803755181745 0.41913576158521
0.275493986859526 -0.0498076019211327 0.429294899375554
0.2746677246662 -0.0560836863742812 0.445124350299279
0.275006771099109 -0.0535083730371061 0.451111657989024
0.275457589200409 -0.0500840695900667 0.464198717737422
0.275170180843387 -0.0522671527999494 0.46648584136511
0.275910952801768 -0.0466404311504807 0.478659339487385
0.27508164835851 -0.0529396237860599 0.490227108820149
0.275314007848727 -0.0511746782326137 0.503619287891827
0.275127835346504 -0.0525887987820481 0.510558891333272
0.275411642646322 -0.0504330683172408 0.514651400628494
0.274928081792141 -0.0541060776641366 0.525317877918682
0.274986249441672 -0.0536642505009783 0.540280496662975
0.275497628380666 -0.0497799418219575 0.539876161841334
0.275089181915605 -0.0528824007387768 0.558508311752098
0.274495896237268 -0.0573888528700217 0.569300541355024
0.274393557115488 -0.058166195675178 0.576325178519971
0.274984294867374 -0.0536790969667476 0.580928327296221
0.275225491833677 -0.0518470241179685 0.591740177256026
0.274875286257019 -0.0545070995671751 0.607910917173592
0.275153324614548 -0.0523951885694783 0.611044930711111
0.275817389354992 -0.0473511160861328 0.613713242660524
0.274764482350547 -0.0553487387954652 0.624653381949108
0.275680537926695 -0.0483906058854537 0.639687857419422
0.275431461612551 -0.0502825283229961 0.646951409701711
0.274250449711717 -0.0592532043259327 0.662027051095087
0.274665088749821 -0.0561037081469519 0.66750427747825
0.274943794414452 -0.0539867284485926 0.672668501411565
0.274795536390018 -0.0551128599474313 0.689159209614225
0.274893351440578 -0.0543698808748585 0.691529921455321
0.274065151640218 -0.0606606829145976 0.708412272314908
0.275436865864675 -0.0502414789526985 0.705940532682724
0.27471434236283 -0.0557295898133779 0.726404610835422
0.27510103190555 -0.0527923911289168 0.729793199039728
0.275169644164011 -0.0522712292845207 0.742737407889493
0.27463515398977 -0.0563310852237264 0.750566419834059
0.275113631878857 -0.0526966848298458 0.761005996220406
0.275457685069134 -0.0500833413948046 0.764429826826168
0.275431448128347 -0.050282630745693 0.77660665488257
0.275271980197865 -0.051493909934496 0.789034521861774
0.275620436620977 -0.0488471206255372 0.791783511909072
0.275333949840644 -0.0510232037654915 0.808193662877608
0.274706937786919 -0.0557858331513019 0.817687237372448
0.275456735134638 -0.0500905568636573 0.825131180523811
0.275915605997419 -0.0466050866204739 0.826097503780082
0.275131864424273 -0.0525581948980192 0.844922225446085
0.271876208639285 -0.0500932042129348 0.853314202084263
0.271150400054115 -0.0480349457677952 0.855307768984569
0.267116606033608 -0.0420076359640031 0.864962377804388
0.264516049002922 -0.0443912812392567 0.869535866158062
0.262650685174073 -0.0420292193541525 0.873888536509018
0.261642611272844 -0.0342433255547382 0.877954749040762
0.257463658386221 -0.034866209229055 0.886148646431146
0.25431305790208 -0.0308849448047227 0.893498134209467
0.252908774688516 -0.0246245621832854 0.897955090652526
0.248304167402342 -0.0277754188094973 0.906334668936114
0.247548565514424 -0.0175022586439645 0.910550847099765
0.244106301805497 -0.0199234582960068 0.91679786055492
0.243888346084281 -0.0151034295749023 0.918502909636506
0.239098069258126 -0.00974524932083681 0.929494298914757
0.237245165823447 -0.00199201591219165 0.935241570869368
0.233898705678863 -0.0056331066850382 0.940975773770162
0.229121107809849 -0.00461737626046542 0.950798416402729
0.227228532569681 -0.00517412019833829 0.954436973423191
0.222704857550703 0.00568444586781864 0.963349952163209
0.221983980455247 0.0108725334368441 0.96342565698179
0.218327453108568 0.0155148818818821 0.969516358140229
0.21449600383431 0.00509133860586675 0.97992382770074
0.210269986082046 0.0180864485989088 0.984954185831255
0.207226283988646 0.0233773943142547 0.989648457582006
0.204037982321103 0.0191235669651005 0.997145114906734
0.20015869006941 0.0380895741616345 0.999909854976751
0.16804995003949 0.0737788889862616 0.974358974358974
0.156358676750652 0.076227557495292 0.974358974358974
0.151627335346426 0.0897536413463856 0.974358974358974
0.132102212646113 0.101636524899758 0.974358974358974
0.124157080382123 0.110386675420252 0.974358974358974
0.114098946528269 0.134629707941147 0.974358974358974
0.108645805371273 0.13291674334004 0.974358974358974
0.10058095996308 0.142639245886242 0.974358974358974
0.0780002473278687 0.161051044450232 0.974358974358974
0.0706802092970781 0.174958216907328 0.974358974358974
0.0679860918195282 0.187532631109236 0.974358974358974
0.0630598044739002 0.190569926480841 0.983721384466748
0.0517011613595507 0.195116489901923 0.983180701541637
0.0562188470783715 0.193403543813686 0.997100256500125
0.273408629454847 -0.0656474640042298 0.230394016216585
0.273898641808592 -0.0619254506529824 0.23458679027539
0.27353652651031 -0.0646759894191877 0.248539758464449
0.273936497427695 -0.0616379086784908 0.24993805119371
0.273327252613102 -0.0662655824845924 0.260668287361565
0.273386268089579 -0.0658173154364293 0.269783458847694
0.273505655830638 -0.064910475511274 0.292455491515568
0.273528373818407 -0.0647379152622396 0.289620721490106
0.272499398134524 -0.072553761544987 0.306153419351544
0.272939522863398 -0.0692106823255311 0.321409117684645
0.273484119389318 -0.065074061023996 0.314891053760536
0.272685843825835 -0.0711375659184129 0.338773003805037
0.272504126321463 -0.0725178473996 0.343173554654117
0.272705042675574 -0.0709917361765517 0.357329051142687
0.273609834036537 -0.0641191634753547 0.354320731065055
0.273425005009953 -0.0655230793141784 0.373459082754488
0.273203460045689 -0.0672058803876462 0.375065952199416
0.273969426894087 -0.0613877845487142 0.385834520378216
0.273622778748472 -0.064020838626439 0.39517293458949
0.274189154755875 -0.0597187857388586 0.401871735242177
0.273830175943993 -0.0624455005255879 0.41563456431569
0.273928507418366 -0.061698598824708 0.416606765022003
0.272783822195272 -0.0703933463158026 0.434474372213463
0.273416746267935 -0.0655858106878344 0.450859534524594
0.274529556756153 -0.0571331758452623 0.443321505948114
0.273437408687139 -0.065428864032189 0.462411322620463
0.273502343954357 -0.0649356317091475 0.470308083646442
0.273138815321653 -0.0676969058161016 0.476163047278861
0.27253299554425 -0.0722985638818878 0.493852945290991
0.273504417693335 -0.0649198800977813 0.505606670483598
0.273643861927221 -0.0638606959847425 0.507238523802264
0.273337511346028 -0.0661876596717745 0.507868466532764
0.273189376693415 -0.0673128540685953 0.52824021451504
0.27312239872751 -0.0678216022285818 0.536544786919531
0.272791593726653 -0.0703343156743529 0.546537309380632
0.273643762917212 -0.0638614480404328 0.550488412095765
0.273671639140742 -0.0636497071009018 0.55347213056506
0.273974091214509 -0.0613523555176857 0.573416261030569
0.273429845504909 -0.0654863121047142 0.580350868556505
0.273419263929616 -0.0655666871487626 0.590008034728698
0.273538270481955 -0.0646627426393939 0.595427425030882
0.272762595303565 -0.0705545805657903 0.613711632498873
0.273272232447124 -0.0666835021366031 0.613758828963811
0.273800706905974 -0.0626693400923193 0.618673808762253
0.273068193144933 -0.0682333345053804 0.631759366874549
0.273252666633075 -0.0668321192491353 0.645101640207311
0.273766517541878 -0.0629290340952648 0.649277408018003
0.273471137677927 -0.0651726669116911 0.661636016412027
0.273952587368079 -0.0615156934476461 0.673508179891524
0.273271127299828 -0.0666918965637196 0.687255900153475
0.273979812959815 -0.0613088945472396 0.685432847702472
0.274464201698781 -0.0576295967910867 0.695542785261113
0.273770573522461 -0.0628982258640748 0.702558848898712
0.274083454691003 -0.0605216574413192 0.710483040270896
0.273489179173793 -0.0650356281452577 0.72511501032412
0.273678939776265 -0.0635942532686033 0.733246016424748
0.273973651262572 -0.061355697284421 0.74352215710042
0.272854001163808 -0.0698602841269182 0.755370196480133
0.272839740130434 -0.069968607429824 0.763984726426266
0.273794411920718 -0.0627171552524627 0.772659094008679
0.27382324165124 -0.0624981717082893 0.774706252234571
0.273641012862818 -0.0638823367774034 0.786573115658275
0.273243327513085 -0.0669030569082037 0.800801992988927
0.272591353188331 -0.0718552935668508 0.809631342574759
0.27422457920324 -0.0594497103470944 0.815121619222068
0.273267004285254 -0.0667232139686266 0.831645773535158
0.273280856522869 -0.0666179957777902 0.840589672553247
0.272839236008116 -0.0661901521362473 0.847149740551323
0.270707969916218 -0.0649031682809711 0.851751142012924
0.266553859894177 -0.0578658266055792 0.861912329272889
0.267074650167544 -0.0540630386016675 0.861872041803176
0.261647201035625 -0.0566372459628187 0.872049138410206
0.262027126445404 -0.0511258898270948 0.872740455191371
0.25889671577698 -0.0407308465833317 0.881738343339359
0.252864601095193 -0.048154307706828 0.891847938307633
0.254047570387753 -0.0382365703925607 0.892093389498191
0.250620469335294 -0.0358978018947585 0.899563401031138
0.246013232734151 -0.0346910547747666 0.909095616778028
0.242226715941314 -0.0336740347336172 0.916936436820731
0.242622788455506 -0.0314193304844377 0.916737966683797
0.238905991284878 -0.0247175855971647 0.925936163930259
0.235542693132638 -0.0227338669444635 0.933185083265018
0.232049302195467 -0.0216873973881657 0.940447405800831
0.22867659998088 -0.0172319867751803 0.948365942099959
0.227491599075917 -0.0157867440972055 0.951116483526235
0.221283595022567 -0.0140242900534585 0.963996554586419
0.220681361725949 -0.00628172388307921 0.967239677527788
0.220451521834159 -0.00201091387960479 0.968823882918726
0.21462192247329 -0.00707971651895602 0.979148440585967
0.212705601832767 0.00609153166175913 0.983241275876069
0.208940358120884 0.00192458222213157 0.99186894190193
0.207565247543392 0.0103454881846092 0.992401896453096
0.172432803073701 0.0411949752856923 0.974358974358974
0.164604914645901 0.0548201669250159 0.974358974358975
0.164296757509289 0.0579161827369542 0.974358974358974
0.155178146374196 0.0667628193579938 0.974358974358974
0.138077233684112 0.0821594998378788 0.974358974358974
0.131404577282619 0.0979619209611755 0.974358974358974
0.117548889313754 0.105936116497723 0.974358974358974
0.114450497247851 0.114241779015159 0.974358974358974
0.0972829470771906 0.132431748403188 0.974358974358974
0.0947226253223241 0.135614242325942 0.974358974358974
0.0765129509393649 0.153005941766708 0.974358974358974
0.0658152808214384 0.158033893336678 0.974358974358974
0.0590620227174014 0.170435621639817 0.974358974358974
0.0401919435639931 0.189564049883886 0.974358974358974
0.0415249863499263 0.190812947147572 0.974358974358974
0.037099488272108 0.197038836632839 0.995080004831663
0.0429850896963019 0.19707612689769 1.0
0.272573015893537 -0.0719945791491927 0.239851392087572
0.272487375413585 -0.0726450831770076 0.246003745396273
0.271950169846045 -0.0741842892817615 0.253471174885174
0.271352483981984 -0.0756272306008188 0.260888164597184
0.272550994781479 -0.0721618461016794 0.270644899672778
0.270617402820009 -0.077401873511502 0.279957189975744
0.270816309734874 -0.0769216697399858 0.294036249861479
0.271611220911379 -0.0750025843967856 0.303807800672854
0.270217551423342 -0.0783672001762719 0.305334433873977
0.271347558796958 -0.0756391210493054 0.319301234667601
0.271923376847958 -0.0742489733011198 0.320430185601518
0.271714476160004 -0.0747533041751685 0.339889346831684
0.268661115059875 -0.0821247699539229 0.351599141485801
0.271239519623117 -0.0758999506880585 0.360724290501479
0.270084666549837 -0.0786880126401195 0.363742802951334
0.270859839105559 -0.0768165805429164 0.379108448781784
0.269257022514513 -0.0806861220950147 0.391560271539559
0.270097303255776 -0.0786575049332582 0.3963817012583
0.272130747880732 -0.0737483353413537 0.398601689252904
0.27108369891713 -0.0762761351497518 0.408243773494277
0.272568339398487 -0.0720301006557021 0.419353937647919
0.271548623041057 -0.0751537090242916 0.423811553140913
0.271365114873614 -0.0755967369309392 0.439568973491257
0.271729373535129 -0.0747173387300972 0.449825579079199
0.271821240747793 -0.0744955516593474 0.454596829351866
0.271890257060942 -0.0743289315401192 0.460213120669951
0.272716614372849 -0.0709038404093789 0.469244475548105
0.270728797688479 -0.0771329425092632 0.48718450123934
0.271020820827347 -0.0764279362868827 0.495631519461142
0.272426913842257 -0.073033327460328 0.505574532188469
0.271981861257967 -0.0741077794452923 0.508244626149043
0.272437994375317 -0.0730201694015187 0.51455101308958
0.272046855211651 -0.0739508701608329 0.530654098641291
0.271136933052683 -0.0761476165777168 0.537705042250402
0.272791424892684 -0.0703355980956706 0.546797721613243
0.26998931275649 -0.0789182170612413 0.556811860653968
0.271143823057348 -0.0761309826350114 0.566498453901794
0.272148252117817 -0.0737060763747857 0.576377231265176
0.270212414992312 -0.078379600617725 0.584625673449569
0.271328382133014 -0.0756854176114794 0.593159479471187
0.271299793169073 -0.0757544374759617 0.60884007179851
0.272612120679446 -0.0716975488108021 0.616382191074471
0.270887538970765 -0.0767497071526606 0.630803614831043
0.271768629154909 -0.0746225672804272 0.630539835745499
0.270909451746388 -0.0766968050325636 0.64129217262279
0.270271242449044 -0.0782375785738426 0.654179692152595
0.27049359798938 -0.0777007648126946 0.664568018121286
0.271141888727188 -0.0761356525211184 0.671027926245496
0.272300318926974 -0.0733389546217318 0.676602095803548
0.271783589645409 -0.0745864494613617 0.688939261565469
0.272123521137713 -0.0737657822423635 0.699288903966968
0.270607434872412 -0.0774259382657796 0.704941024205745
0.271334975854586 -0.0756694989594338 0.715893428320189
0.272877132315663 -0.0696845855850791 0.723151080328306
0.269241069316753 -0.0807246365214106 0.731304730478407
0.27075720098101 -0.0770643708952189 0.736021140558375
0.269454950833262 -0.0802082808635143 0.752436695553425
0.271108883538904 -0.0762153340943009 0.7586593165931
0.271013206229295 -0.0764463195527703 0.768838113430203
0.271722691418652 -0.0747334707863216 0.773434372483098
0.271851974875788 -0.074421352910714 0.779917231755114
0.269383712963738 -0.0803802642942746 0.793930369764453
0.271937014834388 -0.0742160482893184 0.80308868018585
0.268872930385014 -0.0816134025232542 0.812807879763499
0.27128752953216 -0.0757840445145201 0.825921756197563
0.270569876901692 -0.0775166112280669 0.839888204589462
0.271585586399065 -0.0741678008544576 0.846846050119757
0.271855343294455 -0.0744132208286846 0.846041080251623
0.265568782006298 -0.0764166419130914 0.856323547855594
0.26311720289013 -0.0705267006910346 0.865451971891002
0.2622831382897 -0.062500941179437 0.869233323661337
0.259216084812461 -0.063080919428394 0.875214719445772
0.257764991448453 -0.0640392507593097 0.877864572747327
0.255632782686358 -0.0576480407666941 0.883811827787783
0.248996621144402 -0.0582854623641648 0.89691631458105
0.249064462550972 -0.048971324547825 0.899233090780698
0.246529394049458 -0.0480200923488176 0.904553691973294
0.24470422456627 -0.0421774133524536 0.909742437504616
0.240169178528137 -0.0452076475553153 0.91801465377872
0.236068264981425 -0.0439695106268442 0.926542488510121
0.234517074721668 -0.0413468609943323 0.93033542577847
0.231921518480268 -0.0350906665796276 0.937173825501445
0.227884329333995 -0.029263372461421 0.946782559443668
0.223735413854145 -0.0281006756536716 0.955386534280722
0.225051602989306 -0.0265459457172871 0.953163524168797
0.221165367145057 -0.018349462482893 0.963094170835776
0.219521543291575 -0.0148632308765338 0.967299760739033
0.21375860848659 -0.0184182637205901 0.977889572443151
0.210048526606111 -0.0105302370450422 0.987386693029852
0.210724323465663 -0.0105725072527109 0.986023969353923
0.205559834997833 -0.00893542421768428 0.996783998430223
0.203693256598624 -0.00491577499244007 1.0
0.168749268731306 0.0436195671015858 0.974358974358975
0.166058024416669 0.040995279083166 0.974358974358974
0.151785764332037 0.0516275568801983 0.974358974358974
0.136408245574199 0.0680871626060962 0.974358974358974
0.138031691658195 0.0762227414900046 0.974358974358974
0.111700710611026 0.0937817351626289 0.974358974358974
0.103624473716955 0.102447062646232 0.974358974358974
0.104767889727876 0.105391339984191 0.974358974358974
0.0924400979288019 0.127950740703961 0.974358974358974
0.079737747982198 0.134462254288425 0.974358974358974
0.0685390695459503 0.147034081471618 0.974358974358974
0.0657015123254099 0.149468495435079 0.974358974358974
0.0564039657974089 0.169573063887588 0.974358974358974
0.0299439550784804 0.189777345675792 0.974358974358974
0.033495898689519 0.184309723951584 0.974358974358974
0.0246011394262557 0.198684275474114 0.982134567673789
0.0283282699630338 0.198193589430113 0.998791087687224
0.0236437607522539 0.200596507453167 1.0
0.268581573120424 -0.082316801182924 0.238029339650707
0.266901172310098 -0.0863736476094345 0.258598924457371
0.266958941915875 -0.0862341794436744 0.25838135628231
0.268125506054622 -0.0834178444785342 0.259569630010032
0.266302878149631 -0.0878180574859224 0.280042177044007
0.266218418503199 -0.0880219611098135 0.289328556228519
0.265393215685062 -0.0900141769450672 0.293852647347234
0.266195428705553 -0.0880774633910838 0.303587854198329
0.265829955312322 -0.0889597942137102 0.315026199162331
0.265259564288218 -0.0903368399599572 0.32591006154643
0.266954533545923 -0.0862448221902006 0.326473037135158
0.268358037079228 -0.0828564649252582 0.344863802435411
0.267274563983855 -0.0854722003665731 0.353774429327335
0.268649265673085 -0.0821533769042161 0.361590651626245
0.2674476027105 -0.0850544479258927 0.367431693939982
0.268663421344688 -0.0821192020898492 0.37485176321016
0.267432773562224 -0.0850902486567769 0.389039601816542
0.265375248212088 -0.0900575542620036 0.396899653590025
0.268549561839614 -0.0823940832512046 0.40337813290534
0.267550078606597 -0.0848070492277171 0.410888980567772
0.268767799857041 -0.0818672100697065 0.42210761285297
0.26720040890962 -0.0856512265525121 0.441918819873413
0.266100595996527 -0.0883064098033712 0.442528372938383
0.268413595677997 -0.0827223346026031 0.44477373563453
0.267216415302806 -0.0856125837009959 0.457784173977636
0.269281043953815 -0.0806281292104664 0.472245360343501
0.269551467031706 -0.0799752701482419 0.47848438679021
0.267769222655247 -0.0842779886933553 0.481705464312255
0.266369484091356 -0.0876572565180751 0.498324739615248
0.267509268333248 -0.0849055739431211 0.511967938038052
0.266217242715849 -0.0880247997115796 0.512113737340593
0.266662176331213 -0.0869506349430112 0.526692592521695
0.267579309002564 -0.0847364808093417 0.538292339811774
0.264966800938535 -0.0910436332093294 0.544533948338071
0.266379621530904 -0.0876327825740303 0.556006777149519
0.268366652751154 -0.0828356648532431 0.559474348441997
0.265979312839993 -0.0885992132447639 0.572447174196866
0.266037031792942 -0.0884598673657485 0.577743962827285
