ply
format ascii 1.0
element vertex 840
property float x
property float y
property float z
end_header
-0.18192558587163 -0.0839290888104294 0.977077513612985
-0.179392333647693 -0.0900449006863713 0.992617333472425
-0.181342902835567 -0.0853358100986589 0.997441059064338
0.273629967655263 -0.063966233458107 0.261451581769556
0.273265943606117 -0.0667312706265452 0.271231184503432
0.27360482103244 -0.064157241021844 0.279926713518622
0.273587080101789 -0.0642919967687983 0.29018705691368
0.273426111867701 -0.0655146718948907 0.298664842585687
0.274022977659393 -0.0609810261029028 0.307218888510809
0.273781466925736 -0.0628154822513484 0.320212304822609
0.273426639417106 -0.0655106647593242 0.326811116244129
0.27328936817568 -0.0665533433559424 0.342386599243607
0.27427788469344 -0.0590448149506771 0.34943596746239
0.27329498372296 -0.0665106890395967 0.348360455225273
0.274274056478282 -0.0590738931317072 0.367894376020846
0.27366856384249 -0.0636730663102509 0.375766006202548
0.273453838699287 -0.0653040656998389 0.382630390745614
0.273264395679325 -0.0667430282978462 0.391800279002023
0.273371378162365 -0.0659304156622971 0.402607511479434
0.27392144628341 -0.0617522334695925 0.405562680604239
0.274134773976004 -0.0601318487712089 0.425556192757931
0.273577357783813 -0.0643658451055448 0.426408181084173
0.273090467146262 -0.0680641466681733 0.432491277941493
0.273864992913398 -0.0621810393870408 0.453369769813008
0.274044725786038 -0.0608158326804929 0.455203219486696
0.274086769061792 -0.0604964822957701 0.470391273195734
0.273674775427358 -0.0636258846389408 0.474596871887116
0.274092884143524 -0.0604500336385606 0.485104142581831
0.273272790020014 -0.0666792669500287 0.495284395161506
0.273722805844742 -0.0632610573985597 0.500358656178082
0.274273525678602 -0.0590779249555543 0.506246739117611
0.274101433090966 -0.0603850979358649 0.515199921485168
0.273399633548106 -0.0657157946998508 0.528865536442563
0.273391112619874 -0.0657805175755162 0.538347191670486
0.273263399959444 -0.0667505915412239 0.544930916769194
0.273425064172158 -0.0655226299326188 0.556172812935356
0.273617619851921 -0.0640600243361302 0.564644751937868
0.273825922093685 -0.0624778117265587 0.573758960541851
0.273784710694736 -0.0627908433796189 0.578623986443869
0.273789446277527 -0.0627548730571622 0.58853736972759
0.273321336020948 -0.0663105234637791 0.598435121912372
0.273838051527249 -0.0623856795316831 0.616256112342272
0.273743482205736 -0.0631040048445031 0.621069837234821
0.27408925075394 -0.0604776319724288 0.631522324847351
0.27344810096571 -0.065347648113255 0.641946964644229
0.273626390983049 -0.0639934009807927 0.650945440764419
0.273202322464687 -0.06721452117322 0.653318784562468
0.273468222308408 -0.065194811341704 0.65752162543942
0.273123365180956 -0.0678142612858508 0.670843884752304
0.273765336614788 -0.0629380041270669 0.685995101798803
0.274133598657032 -0.0601407762051271 0.692116258476717
0.274226065094004 -0.0594384238862109 0.704234451004758
0.273957772975979 -0.061476304845117 0.712516934010416
0.273185746573796 -0.0673404275646311 0.717192629705563
0.273410155416394 -0.0656358731755322 0.726853711303646
0.274042345396545 -0.0608339135337711 0.736724797511762
0.273338995871915 -0.0661763835781698 0.749769083396597
0.274230824400317 -0.059402273365705 0.754959118023907
0.273973404163821 -0.061357574185775 0.762403277889221
0.273828380479459 -0.0624591384327116 0.767333551683662
0.273382759431968 -0.0658439663369052 0.780421927166015
0.274060236202337 -0.0606980193721023 0.793373459537933
0.27383722362761 -0.0623919680537684 0.798370211291399
0.274011324001371 -0.0610695444237505 0.817090920518795
0.273940658021067 -0.0616063058342757 0.813716901765688
0.273447004801815 -0.0653559743046648 0.828178010811661
0.274267756919835 -0.0591217430286876 0.836686639590622
0.273492766994133 -0.0650083759441592 0.844757986094703
0.271619932754149 -0.0600635571800612 0.851201510114636
0.265768042120421 -0.0648791033974708 0.861637334008552
0.264798679713183 -0.0666658550750562 0.863105598181183
0.259660883949468 -0.0644864705217689 0.873955032547901
0.257051898472454 -0.0625439833817991 0.879684470068945
0.254918962498056 -0.060467233706051 0.884497160581093
0.2505938754013 -0.0623955870245182 0.892639589713391
0.245886438950729 -0.0687198618026983 0.898947288125796
0.24460685760779 -0.0640521913998625 0.904177433093355
0.24044917996605 -0.067255243268324 0.910211368972432
0.238626401145473 -0.0641079023163678 0.91603814440993
0.235490083407121 -0.0632842546544948 0.92251914240667
0.229436512623197 -0.0670155601037668 0.930920741994516
0.225705824541957 -0.0668865084514796 0.937973261859005
0.221394885648732 -0.0631100314509529 0.948922904348743
0.220044561750865 -0.0640153809423567 0.950740603740298
0.213602038718323 -0.069408008945147 0.958584601778747
0.21173560802355 -0.0617306395561991 0.967989782780115
0.207969114534512 -0.065664496000807 0.971972585322395
0.203668683113329 -0.0663932385422429 0.979424745332209
0.202721355974142 -0.0659440141884166 0.981537070309436
0.197745764088858 -0.0656581267499328 0.991030794215877
0.150034701316193 -0.0640992067643826 0.974358974358974
0.148343273562542 -0.0640531270409452 0.974358974358975
0.134043308587259 -0.0654242688698881 0.974358974358974
0.12782766366859 -0.0658363116241962 0.974358974358974
0.107349540225993 -0.0642143909925757 0.974358974358974
0.0964748690143426 -0.0635335878421819 0.974358974358974
0.0779147008118568 -0.068534058333428 0.974358974358974
0.0722381209845392 -0.0715750969003672 0.974358974358974
0.0538361039488056 -0.0653500386042422 0.974358974358974
0.0336127383054848 -0.0648366514352396 0.974972166337482
0.0213174949827636 -0.0693551854819034 0.977584380126998
0.0133613637833936 -0.0687421306083205 0.974358974358974
-0.0129487439715761 -0.0672256676347111 0.974358974358975
-0.0194820194458709 -0.0695492568515602 0.974358974358974
-0.040277586378571 -0.067169680435442 0.974358974358974
-0.0561349172809995 -0.0743825836533795 0.974358974358974
-0.0570408348942371 -0.0709484209502958 0.974358974358974
-0.080013135919512 -0.0750907214847657 0.974358974358974
-0.0953571458047732 -0.0746109210861448 0.974358974358974
-0.118204223147207 -0.0703512951715853 0.974358974358974
-0.130823246925066 -0.0697214415382719 0.974358974358974
-0.146563248031893 -0.0709017325645753 0.974358974358974
-0.174384840307251 -0.0691865932155262 0.974358974358974
-0.182810776664355 -0.0784152680056107 0.974358974358974
-0.184654184242449 -0.0773416696173282 0.980064822254676
-0.185039693082263 -0.0764109689478364 0.98976238553143
0.275298419715629 -0.0512930818587068 0.260987746190708
0.274974943451159 -0.0537501280249263 0.273486115244284
0.274413397526777 -0.0580154927895309 0.281912816591352
0.275021394430029 -0.0533972978111246 0.29189182550722
0.274795343804872 -0.0551143227768497 0.305245533238959
0.275383036876062 -0.0506503507143355 0.305586585199648
0.275084309156308 -0.0529194130202424 0.322107522306123
0.274678523074697 -0.0560016643185297 0.3312723614127
0.274327830124087 -0.0586654417404327 0.337054991445988
0.274359762413009 -0.0584228919255184 0.352633981950534
0.275390660828166 -0.0505924410487879 0.359915205687225
0.275209686080945 -0.0519670807292921 0.363923355367091
0.274947609608689 -0.0539577491712792 0.369356361654981
0.27481723690458 -0.0549480281747023 0.378814970779551
0.274263266909338 -0.0591558480443865 0.394343037580138
0.274647419201045 -0.0562379216947435 0.397972743808894
0.274844146336602 -0.0547436307457539 0.406456483880528
0.27504832308891 -0.0531927543396829 0.421767255672853
0.27491787763579 -0.0541835859267111 0.425555339112674
0.275341014238561 -0.0509695443359611 0.439374104303572
0.275231671309216 -0.0518000863412327 0.448686305047143
0.275341556066 -0.0509654287479617 0.450332211224112
0.275439156265567 -0.0502240816307035 0.465758971099828
0.274706584334789 -0.0557885178867803 0.482382527093916
0.274960217442571 -0.0538619831652171 0.485258965948508
0.274685210199322 -0.055950870564158 0.496299607495165
0.274696225097186 -0.0558672041084017 0.5012324737041
0.274674593886108 -0.0560315094689138 0.511189539010937
0.275128676826911 -0.0525824071037867 0.513003734915888
0.275273664103268 -0.0514811194031066 0.532672764741989
0.274680568927355 -0.0559861245247817 0.539161296468964
0.274410640139733 -0.0580364372235101 0.544762263170062
0.274291722359339 -0.0589397074430108 0.558338137181617
0.274452409108268 -0.0577191704089752 0.55797881714143
0.274528734617394 -0.0571394206091326 0.571461710561565
0.274884345798639 -0.0544382855166468 0.584150645753191
0.275016853959387 -0.0534317861096835 0.589508022755185
0.274809613562426 -0.0550059332072236 0.597471012697878
0.274790760316044 -0.0551491378309651 0.608665972284209
0.274851088856733 -0.0546908970699107 0.624230802148502
0.27489216759135 -0.0543788731025013 0.621758156483255
0.274304442408994 -0.0588430890735311 0.641655964709132
0.27447174319318 -0.0575723134539841 0.642068233092715
0.275088543709458 -0.0528872483957408 0.659303354519906
0.274844398567687 -0.0547417148604473 0.666836929103557
0.2746588514908 -0.0561510848328188 0.677177753998516
0.274800166964865 -0.0550776872394903 0.688325441053729
0.275238058385151 -0.0517515716829307 0.69315779534619
0.274656517760695 -0.0561688112728592 0.702401619400224
0.275087906420994 -0.0528920890822122 0.708599758358534
0.274422387928117 -0.0579472039115753 0.722818498026988
0.274841300761463 -0.0547652450348141 0.729057176135307
0.274489724914546 -0.0574357287199669 0.742452081136548
0.274601202706106 -0.0565889708262452 0.749146394566938
0.274727071750282 -0.0556329005162798 0.757868794610417
0.274624840680384 -0.0564094225859148 0.767127098924634
0.27437917591321 -0.0582754317515298 0.7774555946833
0.275027705132656 -0.0533493632656942 0.783028533405868
0.275264305832067 -0.051552202530071 0.798484369754297
0.274727446521698 -0.0556300538447645 0.800378420340375
0.275002844162955 -0.053538201078552 0.816923351259293
0.275336999821817 -0.0510000368584547 0.817034935645368
0.274287762905195 -0.0589697824831139 0.827179660339561
0.274524023922309 -0.0571752018906853 0.841702514099843
0.275202743684699 -0.0520198134641263 0.84475245163024
0.270047077303526 -0.0503495692029248 0.85690496257333
0.266758875443413 -0.0569887235225135 0.861733243797472
0.266526146295006 -0.0536195926154902 0.863085811091502
0.262097501676209 -0.0533448708382988 0.872015435945315
0.259357322248205 -0.0507821240237501 0.878170578838962
0.255148161292092 -0.0531163417307216 0.885974289569116
0.251438182595062 -0.0512877530158083 0.893875723505932
0.246203167042028 -0.0526065357190849 0.903998512538678
0.244179024913979 -0.0506379499965843 0.908565135248941
0.241190482557395 -0.0581733994678492 0.912558098475438
0.239404534744786 -0.0586962174901723 0.915992333503809
0.235666567148874 -0.0531740548914634 0.924922281692041
0.232874814085191 -0.0591488849780137 0.9289325852123
0.228532015140567 -0.052466068881514 0.939377801961589
0.223844219749939 -0.0569337247824114 0.947577036627417
0.221797735954124 -0.057435551327365 0.951537870783048
0.214728471785359 -0.0600968930503834 0.963673177921817
0.213531542638758 -0.0515554782069044 0.969618510038391
0.212307488258543 -0.0517883136778127 0.972005312056277
0.208852043707954 -0.0521771202490188 0.978813826445101
0.203552643609255 -0.0572865241452381 0.986671129646134
0.199034858457573 -0.0523643546989575 0.998398897179924
0.194164242462778 -0.0550393196022029 1.0
0.145494254828467 -0.05290230180109 0.974358974358974
0.125306509102138 -0.0558885297467503 0.974358974358974
0.120723712082875 -0.0550467066900796 0.974358974358974
0.110708221253749 -0.0533280253087707 0.974358974358974
0.0867519248053023 -0.0549275460423 0.974358974358974
0.0686130315575976 -0.0564987889601903 0.974358974358974
0.062953082480771 -0.0591448906968712 0.974358974358974
0.0457352045429258 -0.0631212957440496 0.974358974358974
0.0420882298586029 -0.0627816355616047 0.974358974358974
0.0319455396499718 -0.0623260988567065 0.977003262468333
0.00579198938644218 -0.0583799552101819 0.977564102564103
-0.0116548067913271 -0.0565184193681219 0.977564102564103
-0.0222523419587652 -0.0607728925541838 0.977564102564103
-0.0412112121986187 -0.0624246735176981 0.974358974358974
-0.0606744401394712 -0.0622455872468509 0.974358974358974
-0.070438564994226 -0.0623597028947813 0.974358974358974
-0.0892591863511117 -0.0618179994088807 0.974358974358974
-0.0992045531102397 -0.0656021525055826 0.974358974358974
-0.110209199077567 -0.066891774418321 0.974358974358974
-0.1251994617329 -0.0594472215292619 0.974358974358974
-0.154113414370853 -0.0665104646523552 0.974358974358974
-0.160866235712231 -0.0640500149981202 0.974358974358975
-0.176139128873954 -0.0615308663937495 0.974358974358974
-0.191538110188684 -0.0597524092085675 0.974358974358974
-0.191145166715805 -0.061671051697028 0.984593447969657
-0.191712845247452 -0.0616814251978798 1.0
0.275758368492227 -0.0477994240472116 0.268605708672323
0.276435903710479 -0.0426530331266669 0.270956315340754
0.275590542580541 -0.0490741884061248 0.283611689256665
0.276510984116427 -0.0420827408243948 0.293914198873925
0.276322406051548 -0.0435151334362725 0.310915876107496
0.275569088165558 -0.0492371508669665 0.312903074843957
0.276509904436946 -0.0420909418042547 0.315190183157467
0.27625953809917 -0.0439926629441086 0.331509495567771
0.276240606597374 -0.0441364619767321 0.338959577657504
0.27665649576332 -0.040977470134061 0.352520908861978
0.276600012366268 -0.0414065041295235 0.359459519825413
0.276097148526679 -0.0452261342072218 0.370019865699593
0.27660240796727 -0.0413883077333558 0.375362391661021
0.275498052403 -0.0497767210525728 0.388725684452982
0.275748010265766 -0.0478781025884555 0.393629200530906
0.276531921489123 -0.0419237056896289 0.406179669095065
0.275784328634837 -0.0476022371872181 0.412215690988072
0.275918516469716 -0.046582979388555 0.427060625462087
0.276324295382965 -0.0435007825393914 0.424989926867901
0.276144236808901 -0.0448684631938682 0.444772272738987
0.275462055510449 -0.0500501445972126 0.441073918205696
0.27604401655976 -0.0456297115634556 0.460987128189978
0.276343012800292 -0.0433586096397502 0.467499285069851
0.275635001758224 -0.048736487424389 0.474928117157731
0.276288781775587 -0.0437705351686872 0.492166127288163
0.275831613032006 -0.0472430765329594 0.495675901239947
0.276030410427202 -0.0457330604007945 0.499346011362901
0.275523707146966 -0.0495818539255765 0.509721776413701
0.27604817093834 -0.0455981559252729 0.520573194851834
0.27557807469774 -0.0491688913781933 0.529873293411513
0.27605552043501 -0.0455423309557147 0.539833206067894
0.275880563689464 -0.0468712593752472 0.550177899652931
0.276593335338657 -0.0414572211894607 0.559406690984702
0.275581874920533 -0.0491400258202851 0.57306732198346
0.276310937435874 -0.0436022462209461 0.57784272792547
0.276609119054847 -0.0413373319622966 0.581616890741717
0.276397829825063 -0.0429422329983991 0.587522474913122
0.276626811233364 -0.0412029465245603 0.601859558958159
0.276081330427627 -0.0453462845981518 0.610889890919039
0.275534879072675 -0.0494969947249297 0.620364138406429
0.276228869813463 -0.0442256117013964 0.634451361727596
0.275993942671618 -0.0460100605052581 0.642935819177137
0.276605483343465 -0.0413649479319732 0.652001647575325
0.276551456358531 -0.0417753236249844 0.658208626356578
0.276606287299892 -0.0413588412766379 0.671117220194797
0.275592152542689 -0.0490619595295135 0.67502439540737
0.275661684644343 -0.0485338107824237 0.685653340592443
0.276281192928749 -0.0438281781832679 0.695483062132459
0.275811641350233 -0.0473947765169206 0.701119152022969
0.276202422448843 -0.0444264993799785 0.709020180697747
0.276672801010155 -0.0408536194883533 0.716912645467983
0.275985927248357 -0.0460709436894575 0.728722653267096
0.275874130693022 -0.0469201228344249 0.736083051714367
0.276364432827924 -0.043195908376769 0.749423157818838
0.275571931845368 -0.0492155509743587 0.761426962710279
0.276187023601418 -0.0445434652386377 0.769607864054535
0.275493360399581 -0.0498123603568324 0.771933867698709
0.275551456221308 -0.0493710787800177 0.776841397043629
0.276033990726073 -0.0457058653309243 0.79290746062886
0.275490817290874 -0.0498316771852549 0.800721984986404
0.275705913591365 -0.0481978585761726 0.809396981211403
0.276415683619293 -0.0428066199674447 0.817125429793116
0.27623431882706 -0.0441842223339509 0.823976221939999
0.275992881347105 -0.0460181220652933 0.839351216527695
0.276176278709262 -0.0446250807974222 0.843614555700621
0.273367051232221 -0.0415944486941058 0.852570281679269
0.267007159653737 -0.0496163664353861 0.863177853824077
0.26751819027474 -0.0438291902099223 0.863679584990191
0.263409951705089 -0.0416353957539387 0.872473699168142
0.261100287746719 -0.04549196237471 0.876077573829407
0.2567139717624 -0.0432489684016597 0.885440797315295
0.253492086989918 -0.0484947968127748 0.890503314035784
0.248930583617631 -0.0425679583231036 0.901186886960285
0.2462062311672 -0.0475572251297443 0.905321892988697
0.244455933730677 -0.0458473211602427 0.909272714118183
0.240310288901615 -0.0478557872548279 0.917035164620963
0.234719735424992 -0.0452930796230269 0.928891045294835
0.231196745476287 -0.0495787123354278 0.934808596691585
0.22953853052588 -0.0484651710927741 0.938418227563922
0.227537008338195 -0.0479512911159318 0.942556579104116
0.221768050868409 -0.0506553129848591 0.953382511578538
0.220259489751899 -0.0453161479636264 0.95780546263171
0.213908904918005 -0.0489357670859488 0.96955356850396
0.214029044911445 -0.0494556948429378 0.969176388941535
0.208820452263707 -0.0500329781392333 0.979441572661466
0.204543395744216 -0.0428244048998445 0.989893739042461
0.201155586559361 -0.0504160429506701 0.994670441191832
0.20003389147605 -0.0497452521283616 0.997090453932684
0.142546534615148 -0.0474991212388513 0.974358974358974
0.135872037405946 -0.0434794739471478 0.974358974358975
0.125275897148683 -0.0458328939404417 0.974358974358974
0.106264575967959 -0.0496777723551362 0.974358974358974
0.101990146396756 -0.0460428072586674 0.974358974358974
0.0850791206417933 -0.0516384500495568 0.974358974358975
0.0663424910146301 -0.0497381043462025 0.974358974358974
0.0448149175348804 -0.0520143212190987 0.974358974358975
0.0374565506159302 -0.0497973718525585 0.974358974358974
0.0161076229485117 -0.0481810878832329 0.974358974358974
0.00439633532682807 -0.0511714630553224 0.977564102564103
0.000573203192211824 -0.0514533833981386 0.977564102564103
-0.0315816865395822 -0.0531187119382607 0.974358974358974
-0.0300465625336806 -0.052820060161349 0.974358974358974
-0.043778160130252 -0.0497287647276936 0.974358974358974
-0.0720801823320605 -0.0476449291534857 0.974358974358974
-0.0881379759021102 -0.0464689707197959 0.974358974358974
-0.0891449848149219 -0.0529114828017091 0.974358974358974
-0.123207480246491 -0.0472419215358505 0.974358974358974
-0.13170753994553 -0.0554674607427877 0.974358974358974
-0.145236911603935 -0.0498977652440575 0.974358974358974
-0.169050732391268 -0.0501862017547157 0.974358974358974
-0.173602106259319 -0.0563253327878548 0.974358974358974
-0.193750516166937 -0.055381181717385 0.984474948841178
-0.195053766456533 -0.052177593227836 0.984569733320153
-0.196920502445686 -0.0536167188352456 1.0
0.277079509205841 -0.0377643640382929 0.265155989580946
0.276972686523522 -0.0385757628668454 0.28149805344417
0.276846709959946 -0.0395326498677364 0.280736789074617
0.277740510170855 -0.0327435632397755 0.290175355975939
0.277614832507674 -0.0336981798667585 0.308037391082106
0.277663797409713 -0.0333262545107197 0.318680780171244
0.277245892882355 -0.0365005545431215 0.321973688800069
0.277702969515385 -0.0330287128279503 0.325095729453016
0.277041892204559 -0.0380500935304933 0.339555205766336
0.277600174631122 -0.0338095174928599 0.354895245115412
0.277045518739597 -0.0380225472620619 0.361674020251795
0.277315979870099 -0.0359681910177171 0.369025833530303
0.277842260373715 -0.0319706937179284 0.376758779131695
0.277052311083218 -0.037970954290066 0.377610898399752
0.277816762116895 -0.0321643722070362 0.397106316551864
0.277643841143562 -0.0334778374014055 0.407398772827356
0.277292044725368 -0.0361499964917502 0.417721327882344
0.276973810605058 -0.0385672246199015 0.417596239929157
0.276790932419393 -0.0399563223507908 0.434570353974209
0.27694039200434 -0.0388210640937473 0.439055628400962
0.276811191499821 -0.0398024393573108 0.441890811057219
0.277798393579147 -0.0323038951031756 0.452483197023644
0.277130076100887 -0.037380270337279 0.472639098337998
0.277456325098071 -0.0349021631751486 0.473588993806498
0.277152378923093 -0.0372108635837871 0.483112075003621
0.277624774468896 -0.0336226631739162 0.493709359281046
0.277577429730974 -0.0339822821617076 0.503239178111422
0.277273975979304 -0.0362872422439774 0.506313544545693
0.277350298127279 -0.0357075179746007 0.516685270617698
0.277425888492321 -0.0351333521484538 0.53443469468053
0.27688027313037 -0.0392777122779555 0.537962857116607
0.276823279398035 -0.0397106226547375 0.546279907416596
0.277805552700589 -0.032249516177042 0.563384577383009
0.276918335968131 -0.0389885963214943 0.567689717378699
0.277025018142446 -0.0381782647571867 0.578815859971144
0.277106879055984 -0.0375564693865019 0.585319476819676
0.276914039371141 -0.0390212322157434 0.599200599690158
0.27673231574416 -0.0404015602027669 0.605838270037844
0.277306840035345 -0.0360376149551402 0.613158140838726
0.277745719446841 -0.0327039948602782 0.620166823371664
0.276689605406384 -0.0407259774265828 0.628903378889361
0.277643549988077 -0.033480048946882 0.643936548403936
0.277409348600947 -0.0352589850963803 0.653788402376639
0.276688354999057 -0.0407354752131868 0.66370033022725
0.277069627446266 -0.037839423454227 0.670528345342462
0.277253856630922 -0.0364400638671907 0.674558336798718
0.277239962478885 -0.0365456004296678 0.685845261608319
0.27694235754249 -0.0388061343492583 0.696782038491108
0.277441872381276 -0.0350119424581842 0.698630425020735
0.277254225964783 -0.0364372584979948 0.711285956312413
0.277199703224196 -0.0368513998290508 0.72223489275013
0.277769573267379 -0.0325228071048278 0.728278718945546
0.277784558874437 -0.0324089801183794 0.738074083363903
0.277257478107492 -0.0364125560216446 0.75006024444106
0.277816147572488 -0.0321690401352472 0.76145393021855
0.277049107701106 -0.0379952863929186 0.768114666942399
0.277503266193211 -0.0345456101586896 0.780531191141316
0.276688009381671 -0.0407381004378631 0.784856906656084
0.276824818165754 -0.0396989345535049 0.786549392815884
0.27694076860049 -0.0388182035619911 0.800806453356498
0.277362511610191 -0.0356147473615387 0.813672318285918
0.277648245933408 -0.0334443797008178 0.822847334964254
0.277008224137914 -0.0383058278861732 0.831036139693703
0.277237678924136 -0.036562945750043 0.845137747230621
0.275822709706065 -0.035304722862564 0.849315080961305
0.271930558522865 -0.0359972489610593 0.85691703774668
0.27080427554478 -0.036235435642551 0.859106887959833
0.266283052030524 -0.0392110186356984 0.867365849122692
0.264492326097378 -0.0358937576174183 0.871820752385393
0.261804090665112 -0.0337952917961784 0.877749759782863
0.254533964160818 -0.035995541555881 0.89171067603909
0.252902076415329 -0.032215781442056 0.8959696812486
0.249976307948233 -0.0402091772647317 0.899716517134273
0.245889743115746 -0.0412879287778665 0.907605606137287
0.244412410060714 -0.038135041800468 0.911390443137718
0.242631974143833 -0.0321439729768812 0.916528793319168
0.236148899288546 -0.0334492811261281 0.929151248873805
0.230681480377925 -0.0398458655695438 0.938401834059036
0.230358855874124 -0.0393434525379906 0.939179370927487
0.225488737178435 -0.0334499449705054 0.950471398300484
0.224139679181657 -0.0376824756113032 0.952055067834088
0.217882563330415 -0.0338376343981555 0.965581665433648
0.216907849120266 -0.0356069500127262 0.967065224214589
0.212023132240343 -0.0363389511696378 0.976641918413348
0.210303143582616 -0.0410321279432269 0.978846158841077
0.205481247830181 -0.0353634243458148 0.98998254831931
0.20437497329104 -0.0405352079645449 0.990833340936818
0.160310304982019 -0.0351542014046825 0.974358974358974
0.154672028191943 -0.0374965157100956 0.974358974358974
0.13144000155678 -0.0362305854668942 0.974358974358974
0.124213238725819 -0.0407556551049578 0.974358974358974
0.103133285011508 -0.0378002873130008 0.974358974358974
0.0930060372961861 -0.0411766037294549 0.974358974358974
0.0722715929535026 -0.0385783358507486 0.974358974358975
0.0719237535314678 -0.0390876567492461 0.974358974358975
0.0549875787940016 -0.0411420744852964 0.974358974358974
0.0389225229288189 -0.035943299177278 0.974358974358975
0.0246792102974647 -0.0412822238915696 0.974358974358974
0.0101479190845978 -0.0354363472848709 0.977564102564103
-0.00711886711104518 -0.0373751246230977 0.977564102564103
-0.0288352404267106 -0.039335458056771 0.974358974358974
-0.0482252674418538 -0.0418699608030515 0.974358974358974
-0.0539797741810915 -0.0416177334890403 0.974358974358974
-0.0686323487404585 -0.0416400029618634 0.974358974358974
-0.0883004191714174 -0.0439803594607155 0.974358974358974
-0.0968125947506876 -0.0381447183574444 0.974358974358974
-0.109321008956338 -0.0442474363246445 0.974358974358974
-0.129036928515011 -0.0379666898044064 0.974358974358975
-0.15089268312774 -0.0431124756193044 0.974358974358974
-0.176493001416684 -0.0384163707958208 0.974358974358975
-0.179990414627815 -0.0415089443787385 0.974358974358974
-0.194541776162806 -0.0403836381532059 0.974358974358974
-0.195833777376392 -0.0462528220753466 0.990731512108588
-0.196324502771285 -0.0425253926388727 0.99305879358147
0.277919685885248 -0.0313825885702746 0.266497993727083
0.279067151508154 -0.0226667218458768 0.278709142636608
0.278358049680401 -0.0280528849703709 0.287580909908264
0.278154133454416 -0.0296017824825419 0.295743435321874
0.278631106584061 -0.0259788118713906 0.304420948517583
0.277897066289324 -0.0315544014590396 0.312499424875767
0.278205947549101 -0.0292082153597508 0.31755328643385
0.277911410116307 -0.0314454492762411 0.332974233183345
0.278649457006824 -0.0258394265722146 0.3424508162169
0.278423346867832 -0.0275569035903931 0.349704845262693
0.27878725857727 -0.0247927197267615 0.360233354473595
0.278451750786679 -0.0273411544069896 0.373694816290061
0.278805149680847 -0.0246568233031798 0.384209663022303
0.277882716000373 -0.0316634027253587 0.391262146134589
0.278493915871406 -0.0270208787912667 0.391847116467412
0.278701223964077 -0.0254462174937616 0.399386699522734
0.278459004109546 -0.0272860599499914 0.419457905132625
0.277962014229978 -0.0310610728717082 0.419529658457961
0.278439118767164 -0.0274371041211752 0.428140484958136
0.278805375818771 -0.0246551056151161 0.442276431455697
0.278711581129292 -0.0253675470134766 0.456836892186021
0.278917785862433 -0.0238012665636584 0.459503980899473
0.278815992731491 -0.0245744621566579 0.466723312976623
0.278844318412397 -0.0243593072494245 0.475828229680658
0.278645669559527 -0.0258681950905937 0.47923228201159
0.278757620247985 -0.0250178451883239 0.496693963576504
0.278839086383885 -0.0243990484515091 0.503761451692378
0.278482158510789 -0.0271101848115229 0.514188936022591
0.278449256554961 -0.0273600999778186 0.520213552763824
0.278000970722513 -0.030765168933318 0.52658401031329
0.278086814830783 -0.0301131181948704 0.541470591041027
0.278669964796804 -0.0256836544421282 0.550876403999281
0.27864388247035 -0.0258817693805657 0.557165435496537
0.278515034917322 -0.0268604637113917 0.562886292851615
0.278698750821231 -0.0254650028786983 0.580628910044062
0.278953101826896 -0.0235330151813413 0.590643118621767
0.278490317993064 -0.0270482073904788 0.601263122286235
0.277895322926087 -0.0315676436175237 0.602934780688387
0.278084003005434 -0.0301344761288254 0.612529591640232
0.278268343272393 -0.0287342727879344 0.621732613974634
0.27848506131294 -0.0270881358401434 0.631224417395132
0.278045897146577 -0.0304239188629576 0.638632825417858
0.278347043134454 -0.0281364879870089 0.65398949565656
0.277934065002726 -0.0312733683295471 0.650573586613537
0.277895147296713 -0.0315689776550553 0.67191125845709
0.278225120839768 -0.0290625797583036 0.680904585567306
0.278026827180001 -0.0305687696400099 0.679379765796394
0.27856143578423 -0.0265080141357383 0.694997173964907
0.278128673583261 -0.0297951694035761 0.707038649799331
0.27835599818849 -0.0280684675984897 0.710105815656193
0.27844497481796 -0.0273926229992559 0.721937721862662
0.277989068420107 -0.0308555758957663 0.731342292644378
0.278291300224048 -0.0285598974279876 0.741569945028789
0.278116331033039 -0.0298889203801898 0.756731247510106
0.27851358563884 -0.0268714720743815 0.763006783267317
0.278104064390958 -0.0299820947772275 0.771796085919747
0.279006418398026 -0.0231280356169049 0.775061988979934
0.278690730863196 -0.0255259205079278 0.781582524857282
0.27887473661394 -0.0241282580699457 0.802427555518156
0.278365452556628 -0.027996654542823 0.800420564068331
0.278923337869795 -0.0237590948809073 0.809446064676581
0.278787654585035 -0.0247897117491457 0.825254196033057
0.278761904529757 -0.0249853028374271 0.829157055043195
0.278402512679488 -0.0277151549621926 0.844059476041145
0.277969909992817 -0.0244272688178726 0.847884768372553
0.274794280233631 -0.0260823697568496 0.853800231546174
0.268127295578989 -0.030964670415148 0.865848666704183
0.26762448127504 -0.0277590856497781 0.86769834179326
0.264822916418684 -0.025504445789492 0.873895129443504
0.261431900028393 -0.0249581711044049 0.880820999077408
0.258629302485362 -0.0241646272128259 0.886635138234011
0.252809536028844 -0.0236367303830071 0.898413669019277
0.252177145905777 -0.0254994011004179 0.899187998761152
0.248248035202268 -0.0239570458948865 0.907452329998118
0.244524979692552 -0.0280646951880411 0.913816876440238
0.242965380562648 -0.0250840076024492 0.917720904630387
0.237848810824385 -0.0249788414394468 0.927981734882956
0.234202054548739 -0.0287260613149927 0.934288585722998
0.229967745729725 -0.0308296921960727 0.942203306842034
0.227465618178509 -0.0263307711068302 0.94839215034016
0.224949709327301 -0.024017164207506 0.954033152296037
0.219324607645418 -0.0283999749499518 0.964129339698412
0.216951995177119 -0.0301850437107653 0.96840454711356
0.212664403846082 -0.0233574143922137 0.978777478680411
0.21042573839905 -0.0291189683268286 0.981737763643519
0.2062094034233 -0.0309160842317447 0.989697244000347
0.202679264244446 -0.0295403380108668 0.997119763210106
0.158945188449396 -0.0276538548346979 0.974358974358974
0.139849886406091 -0.0277396924845834 0.974358974358974
0.135162350396164 -0.030219316031337 0.974358974358974
0.124620935776173 -0.0315558376361201 0.974358974358974
0.113416790372721 -0.0329595472153437 0.974358974358974
0.094625798615963 -0.0321721325959745 0.974358974358974
0.0705179668897578 -0.0284340654394939 0.974358974358974
0.065680087489483 -0.0244705925656862 0.974358974358974
0.0545824993326688 -0.0333714906190358 0.974358974358974
0.0318802713858665 -0.0344017986131626 0.974358974358974
0.0198549011691875 -0.0338583366638292 0.974358974358974
0.0225162812020782 -0.0272910375978272 0.977564102564103
-0.0108146863650197 -0.0310844471735441 0.977564102564103
-0.0135784725692291 -0.0315109132266593 0.977564102564103
-0.0318636867694024 -0.0288705388176535 0.974358974358974
-0.0488032307444362 -0.0332699581687113 0.974358974358974
-0.0710379883454027 -0.0354453695912004 0.974358974358974
-0.0757317551911185 -0.0300767909410137 0.974358974358975
-0.100514936816848 -0.0281517300712999 0.974358974358974
-0.106838231394944 -0.0352751921057687 0.974358974358974
-0.12492799122288 -0.0283275564962848 0.974358974358975
-0.158357753394717 -0.0308041876974549 0.974358974358974
-0.172043078750766 -0.0357205473946292 0.974358974358974
-0.193146723088396 -0.0292150861196048 0.974358974358974
-0.194875085484069 -0.0336049909759857 0.974358974358974
-0.197974874394053 -0.0299895755977058 0.986323064545753
-0.19763406460326 -0.0325782829677692 0.999771011233818
0.279509270305674 -0.0193084961713 0.273015542772795
0.279365065842149 -0.0204038378181923 0.276643452625882
0.279110615123707 -0.0223365829092879 0.285405453097101
0.279740294244399 -0.0175536951385837 0.301628283005946
0.279833847427551 -0.0168430881629034 0.309541190476111
0.279584617943635 -0.0187361740403689 0.321483918963344
0.279635449085688 -0.0183500731840638 0.325667273083978
0.280266254649751 -0.0135586292265069 0.328559857898775
0.279191698153152 -0.021720696154911 0.342722636263671
0.279853506317702 -0.0166937640671835 0.356471835897233
0.279137385261967 -0.0221332435214939 0.362115453986697
0.27975910274815 -0.0174108303688645 0.362699502438172
0.279382678433073 -0.0202700569082417 0.375645670210616
0.280216026191399 -0.0139401522456148 0.382920456454208
0.280240428560647 -0.01375479784904 0.392517871930718
0.279763392680065 -0.0173782451008804 0.406029628904345
0.279563855797736 -0.018893878195473 0.42107881978335
0.279508083075818 -0.019317514077357 0.423311250559232
0.279067323773007 -0.0226654133644115 0.429904646723004
0.279737609935948 -0.0175740844855434 0.448100851141205
0.279738229734049 -0.0175693766515702 0.452618170863891
0.279671550797177 -0.0180758534605508 0.466344551725877
0.279531656552594 -0.0191384557441845 0.462292642106434
0.279258370297986 -0.0212142709365796 0.482872127705092
0.280116853717741 -0.0146934419702654 0.494956017167987
0.279425114524112 -0.0199477227952036 0.499916542234124
0.280195400079633 -0.0140968231188844 0.50484395316236
0.279832372835232 -0.0168542888035726 0.515639536026413
0.279307387507791 -0.0208419482636034 0.521069534375526
0.279223624489925 -0.0214781915510562 0.52748834794539
0.27928859814004 -0.0209846676809736 0.541106958014456
0.279524087574329 -0.0191959478419672 0.557570792401095
0.279675273792004 -0.0180475745072784 0.55519208430807
0.280175770511976 -0.0142459244881499 0.57133003034025
0.279227142322905 -0.0214514709567291 0.576682440762433
0.27954889773367 -0.019007495972121 0.586187730804674
0.27923856984712 -0.0213646702926762 0.599761654587452
0.279146808438889 -0.022061667386633 0.605219181589406
0.279317299389624 -0.0207666600464089 0.620106719766645
0.280164063543466 -0.0143348477423525 0.616758341347107
0.279825528037148 -0.0169062802067724 0.63426340460563
0.280157187891549 -0.0143870735036792 0.639410018489017
0.279998198419633 -0.0155947184388619 0.649178279680185
0.280109798086299 -0.0147470348118094 0.666023948415571
0.279802640461668 -0.017080128602359 0.674631911774425
0.279150619113022 -0.0220327224429139 0.678814460157675
0.279269790610602 -0.0211275250500535 0.68989290590355
0.280002771856133 -0.0155599797397645 0.699980223783154
0.279849930489781 -0.0167209251768214 0.710966506885273
0.279864482402465 -0.0166103924262093 0.713845152906426
0.279569066138214 -0.018854301730361 0.721322991302096
0.279821046332687 -0.0169403221318676 0.738509654207751
0.279259635711248 -0.021204659168594 0.744790635028212
0.280254248144118 -0.013649827691048 0.752436864335159
0.279625987120761 -0.0184219439430763 0.76174340125918
0.279840675563546 -0.0167912233208384 0.768349806422481
0.279842191257568 -0.0167797104817368 0.77495238709128
0.280104396524888 -0.0147880637441138 0.792603679618605
0.279692082138299 -0.0179199024417847 0.796554478155089
0.279580029726781 -0.0187710250074099 0.80852553440919
0.279225697632469 -0.0214624444700514 0.812846101530563
0.279355656787071 -0.0204753066869958 0.822986677280563
0.280230483640896 -0.0138303370141352 0.828619556801319
0.280005381872393 -0.0155401546980207 0.84262113068049
0.276484821671876 -0.0221937146828151 0.851443050975189
0.275329311309077 -0.0163099715526113 0.855303290657296
0.271036239943872 -0.0139062928479502 0.864522333997438
0.267974382406448 -0.0137638346923809 0.870683559016252
0.264662598297174 -0.0145089282458606 0.877110940380297
0.260537501813245 -0.0202042100079134 0.883861537211276
0.257089557608361 -0.0220422224331115 0.890273467768297
0.25452757586166 -0.0173357482873583 0.896636669413935
0.251133018210772 -0.0170287025120509 0.903506631402098
0.249121820616053 -0.0154992355270368 0.907931742888647
0.243872731651504 -0.0164562025246763 0.918177946627048
0.24298456376503 -0.0215473664853995 0.918613753497884
0.239496073935368 -0.0158475950965385 0.927091511435251
0.233640949508997 -0.0180916576489062 0.938210887408468
0.229308965754347 -0.021043087428537 0.946097728713884
0.230135265423404 -0.0142720193884702 0.946227985413387
0.225496551344984 -0.018031780270457 0.954515449749338
0.220700652252664 -0.0217976070179157 0.963115686940408
0.216440406436351 -0.0154087095818028 0.973318407181622
0.212943067307009 -0.0232075883829767 0.978259601695196
0.211397233254942 -0.0205224327924232 0.982058284679142
0.208654695706606 -0.0168508379575002 0.988510109036109
0.205639499486235 -0.0142295735811067 0.995230693480828
0.160801290075739 -0.0170094184282315 0.974358974358974
0.146301131171069 -0.0187752186820102 0.974358974358974
0.133317080090223 -0.0175545611346687 0.974358974358974
0.128089145179792 -0.0211339841414615 0.974358974358975
0.110744517649746 -0.0187809785453119 0.974358974358974
0.0878821367170757 -0.0171832651716556 0.974358974358974
0.0787357221480282 -0.0210219626959264 0.974358974358974
0.0674832013230531 -0.021011233196262 0.974358974358974
0.0437936238474907 -0.0217104555113381 0.974358974358974
0.034933063778527 -0.0174909001580833 0.974358974358974
0.0206974445532743 -0.0192279461202336 0.977564102564103
0.017422585751535 -0.0221248726180688 0.977564102564103
0.00255512063983402 -0.0186340138973504 0.974358974358974
-0.0143681264494432 -0.0165628511124487 0.974358974358975
-0.0329035370082577 -0.0159337102193811 0.977564102564103
-0.0550843211746107 -0.0228746614432192 0.974358974358974
-0.0685943203119458 -0.0229834177031982 0.974358974358974
-0.0904763957452646 -0.0251695643800448 0.974358974358974
-0.100762686062286 -0.017494633009464 0.974358974358974
-0.128382234697453 -0.0258562594260549 0.974358974358974
-0.131004111849243 -0.0261735279239849 0.974358974358974
-0.157485402533783 -0.0244906288653504 0.974358974358974
-0.171922784776237 -0.021036074183274 0.974358974358974
-0.17275463243759 -0.0175361145685748 0.974358974358974
-0.196659647772393 -0.0162156016230367 0.974358974358974
-0.199820681121787 -0.0159692815542228 0.98655049746809
-0.199567067746942 -0.0178956663892474 0.997027708119223
0.281405318357817 -0.00490658138130773 0.274130304989595
0.281071144231941 -0.00744488587230267 0.273141753878179
0.281049768405749 -0.0076072513920062 0.293869494026744
0.280375217002946 -0.0127309779840922 0.294107131235533
0.280593485104055 -0.0110730671574194 0.309807355316808
0.280289517475827 -0.0133819305196652 0.31829549209692
0.281004621875548 -0.00795017333445911 0.321265994021967
0.280325342455804 -0.0131098127806684 0.326599221467589
0.280886871028594 -0.0088445798144861 0.340359845002652
0.28092448426739 -0.00855887890120543 0.359731281693527
0.28036808937529 -0.0127851176911684 0.368579874530829
0.281018422989181 -0.0078453434688191 0.370874363049102
0.281170914119559 -0.00668705833809862 0.383930119225515
0.280748383305358 -0.00989649850781453 0.395880890212098
0.280620265130275 -0.0108696526631176 0.396051588997191
0.280464307102379 -0.0120542714949203 0.401842140963567
0.280581335420597 -0.0111653531655103 0.417556334286202
0.281166819893802 -0.0067181570702298 0.419742029615339
0.281221614159332 -0.00630195330247384 0.439035433194245
0.280810415772829 -0.00942531513790342 0.440157327901895
0.281057529812436 -0.00754829765524369 0.453499156709434
0.280915007534638 -0.00863086183298115 0.456420411554414
0.281460041386368 -0.00449091871212676 0.46911093994394
0.28120555886599 -0.00642390536290884 0.483507042045704
0.280274854761195 -0.013493304894636 0.488928221742152
0.281258073218791 -0.00602501925163807 0.495860414055822
0.280958275694996 -0.00830220752599015 0.505835730554726
0.280261953914953 -0.0135912965505335 0.519639006561772
0.280328048720171 -0.0130892566619731 0.522849631816246
0.280307202485025 -0.013247599538318 0.531513263681137
0.281376590928992 -0.00512478786695 0.544110839822336
0.280292159851473 -0.0133618596839833 0.550778079530349
0.28048260856645 -0.0119152580739341 0.561615765913705
0.28137679498204 -0.00512323793017753 0.576340215642379
0.280555817465508 -0.0113591812778247 0.584530711478945
0.280554665629835 -0.0113679303383778 0.59602277935839
0.28097997626808 -0.00813737530874387 0.6016481048306
0.281442770807918 -0.00462210177942721 0.608379206516549
0.280255946414645 -0.0136369280457131 0.621780053052218
0.280692654164388 -0.0103198033595327 0.619844188736132
0.281058562993822 -0.00754044986348478 0.629597904559137
0.280648453047698 -0.0106555441734256 0.640858408928709
0.281293085244619 -0.00575907651246141 0.65489670082951
0.280983765985133 -0.00810858954985087 0.662685003232214
0.280968039312714 -0.00822804548656109 0.670080667434334
0.280596901496312 -0.0110471170818836 0.677172935249261
0.281024763137422 -0.00779718526174278 0.684419345357745
0.280493782662129 -0.0118303823907223 0.694786549085877
0.281195784511923 -0.00649814895301269 0.705213835192976
0.280687487199868 -0.0103590503515378 0.708399832552399
0.281211236585657 -0.00638077880039886 0.729348040806325
0.281177649370803 -0.00663589902576055 0.735504912894581
0.280837263118366 -0.0092213893026195 0.740668288640648
0.281428610143023 -0.00472966270803659 0.749302461373318
0.281137461740044 -0.0069411543873762 0.765009882781975
0.280976631906018 -0.00816277826062944 0.772544497135357
0.280986208197382 -0.00809003910611402 0.77591537944843
0.281133965727814 -0.0069677092366551 0.783359633626925
0.280448564323676 -0.0121738497709986 0.796440849563957
0.281374958174945 -0.00513718986521995 0.812635038303155
0.281437782420172 -0.00465999234616099 0.822482780643215
0.281280692980885 -0.00585320510069047 0.823340996980404
0.280466380847368 -0.0120385198378924 0.831976479209615
0.280335337748408 -0.0130338909957622 0.845134854373689
0.277807177736248 -0.00856378161849294 0.852387168306179
0.276418019413379 -0.00755932124457565 0.855429964385824
0.271780174411555 -0.00643176903734325 0.865002544517956
0.26800739406223 -0.0130822735229335 0.870796994165119
0.265697350751872 -0.00450690272941262 0.877675018751247
0.2629300203916 -0.00817233188575678 0.882244553665464
0.258760880020124 -0.00724587190923708 0.890826775948064
0.256125275259514 -0.00680841092994045 0.896213171130326
0.25254714532497 -0.00864952655673983 0.902884656058185
0.248867513425888 -0.0125841540184725 0.909207912791524
0.245404559694248 -0.00995871624092526 0.916825111136151
0.243501895973589 -0.0118659730593191 0.920128248330104
0.239413613101313 -0.0130807742262046 0.927984950859271
0.236243131346486 -0.00542220595235081 0.936342453651317
0.232750600016322 -0.0098528480621492 0.942160906112303
0.229006764792 -0.00881172618401554 0.949922709152047
0.223424482111069 -0.00745420332817559 0.961444717062914
0.223966147980633 -0.0100326006028925 0.95968248044181
0.221148181764746 -0.0119614326928028 0.964810541749458
0.216771540086141 -0.00719514432477836 0.97481881264241
0.211424755471767 -0.0114670692028526 0.98438756271175
0.210460790864602 -0.0116868313091393 0.986257627465744
0.205777040540261 -0.00626500142764231 0.997052723005213
0.158420885865996 -0.00807639489011758 0.974358974358974
0.141802571452013 -0.00531358246361959 0.974358974358974
0.136160274710364 -0.00796978255001281 0.974358974358974
0.117318632420346 -0.00820102601860302 0.974358974358975
0.0976613718944531 -0.0104880140754402 0.974358974358974
0.0880483338080893 -0.00889974247903003 0.974358974358974
0.0809376723964832 -0.0050787576379699 0.974358974358974
0.071665239365288 -0.0143071607199776 0.974358974358974
0.040829218044891 -0.0141913109682222 0.974358974358974
0.0446768288909786 -0.00888936291190138 0.974358974358974
0.0359532572951449 -0.0128461692102647 0.976995026103924
0.00360109398041552 -0.0147644209830884 0.974358974358974
-0.00872374776745479 -0.0111921768389149 0.974358974358974
-0.0219809734290541 -0.00528362933545645 0.974358974358974
-0.0341275331084981 -0.00743172203617902 0.977564102564102
-0.0474682340394446 -0.00706614837956083 0.974358974358974
-0.0653087602212325 -0.00513718675684308 0.974358974358974
-0.0778129127071214 -0.0124414541486964 0.974358974358974
-0.10202147477366 -0.0119325305362248 0.974358974358974
-0.114637162642902 -0.0120989286700322 0.974358974358974
-0.128567242401745 -0.0071333433366569 0.974358974358974
-0.137411390682409 -0.0151084954558277 0.974358974358975
-0.166134942880203 -0.00649645238335792 0.974358974358974
-0.177716080927782 -0.00599945047046579 0.974358974358974
-0.189556714327888 -0.0157900296468452 0.974358974358974
-0.199863014879807 -0.0156477247376332 0.987183058225326
-0.200282978420554 -0.0124577849458084 0.995718879388851
0.28194791186147 -0.000785174544398472 0.266306608562165
0.281593625959503 -0.00347624314134602 0.281347430490341
0.281632756774932 -0.00317901508911529 0.291823212756291
0.281765706622358 -0.00216916073874636 0.304688197160157
0.281925432329582 -0.000955923541188123 0.310889141177692
0.281879154888069 0.00130743560788667 0.320069770775864
0.281966427808071 -0.000644531966856053 0.32366451402985
0.281448216872222 -0.00458073481408319 0.331372070278749
0.281685408778505 -0.00277908341643325 0.344205243755855
0.28187596457228 0.00133166846216288 0.352991441770199
0.281941585883696 -0.000833225116087682 0.369951381623628
0.281470654785528 -0.00441030194180813 0.37180338522945
0.281466020303167 0.00444550433026921 0.37941506877972
0.281576448239215 0.0036067208808669 0.388474791156779
0.281460727148258 -0.00448570983343352 0.398375770157424
0.281727914676091 -0.00245621907002434 0.407968264591755
0.281840148957862 -0.00160371506267489 0.417123401104027
0.281788974168125 -0.00199242618229105 0.429489122989847
0.281720075465617 0.00251576378522016 0.437090405262277
0.281920795403033 0.000991144495090096 0.444411708428764
0.281560431407724 0.0037283807945434 0.455578416446402
0.281491277933157 0.00425365358339122 0.463910167572482
0.281471717895768 -0.00440222681783797 0.47153808025574
0.282017181544555 0.000259019064219289 0.479110809536579
0.28171707103232 0.00253858472179996 0.487619443675043
0.281970840250993 -0.000611016135381584 0.500832094422588
0.281823675146423 -0.0017288460836689 0.507916371317156
0.281768666489167 0.00214667831825553 0.515799418743377
0.28184047674005 -0.00160122530977531 0.527617081121276
0.282004503189099 0.000355320734813518 0.536005025271229
0.281924730000684 0.000961258258801365 0.547921313267867
0.281821707462065 -0.00174379213022354 0.551759798846095
0.281502184744672 0.00417080812497178 0.560516079974948
0.281897281637414 0.00116974927700245 0.574762800780723
0.281841309833315 0.00159489733818403 0.586041655861667
0.281749612266824 0.00229140950598453 0.595932526500452
0.281474241176071 0.00438306060109862 0.597265777289378
0.281881737495789 -0.00128781875467051 0.607938201359065
0.281672600289944 -0.00287637354609619 0.622657330766954
0.28151803334815 -0.00405042602991904 0.619484095358578
