ply
format ascii 1.0
element vertex 852
property float x
property float y
property float z
end_header
0.188665156329389 0.000854166891534668 0.923341206785484
0.164723347918083 -0.000696843035874048 0.923341206785484
0.151603694549787 -0.00381670622693396 0.923341206785484
0.137457408146717 0.00165460305974762 0.923341206785484
0.128625880744616 0.000759492631087438 0.923341206785484
0.115066958962737 0.000222969062461135 0.923341206785484
0.110408391674516 -0.000206586271969474 0.923341206785484
0.0908236892080595 0.00348779641830717 0.923341206785485
0.0792887018772231 0.000511387383241515 0.923341206785484
0.0848178624862149 0.0027487051484468 0.942013327134573
0.0848178624862149 0.00179526482694137 0.950811204064844
0.0848178624862154 -0.00479413524585756 0.959559517406078
0.0848178624862154 -0.00466759794876069 0.967390690994717
0.0848178624862154 0.000763335243080807 0.97610686564059
0.0659288258242219 0.00261533677897172 0.978453319717557
0.0665755915594572 -0.000928042981613861 0.98061820467258
0.0450295881326784 0.00111624044035275 0.979369216778805
0.024958787441415 0.000774704429580082 0.979577883707353
0.0169133793582088 -0.00268434438084562 0.98169124530965
0.00989841377624553 -0.00295923844648681 0.981859196268097
-0.01541091851545 0.00020762158528789 0.979924352107809
-0.0372770028679348 0.00404386383516814 0.977580538096404
-0.0572609277626223 0.00489141055329482 0.977062715773446
-0.0493338493424101 -0.00377883665685514 0.98235994299994
-0.0817327129045348 0.00305833664033355 0.978182661814724
-0.0922828094308413 -0.00380540050404969 0.982376172610375
-0.198660541998668 0.00358961783797297 0.923341206785484
-0.211020535174544 0.00367652147670892 0.923341206785484
-0.226972304630374 0.000247395350519315 0.923341206785484
-0.233678516323544 -0.00371869160344704 0.923341206785484
-0.266025035259845 -0.00245986335006895 0.923341206785484
-0.287254580708434 0.00431846638368355 0.923341206785484
-0.299101753054949 0.0043982859957304 0.923341206785484
-0.3164382526163 -0.00372050343188926 0.923341206785484
0.341952852238615 0.0122745023488451 0.33460832121828
0.342850037142839 0.00545970642271288 0.344649717310354
0.34243893143065 0.00858236432683261 0.349877643254146
0.342291010395406 0.00970593613864386 0.361714587940955
0.342068415944095 0.0113967088576645 0.368104607308211
0.342837722944576 0.0055532420448086 0.384398683737949
0.342286418678487 0.00974081369132229 0.39163121664734
0.342793378785868 0.00589006937069156 0.394000028990975
0.342798165917129 0.00585370749872766 0.407222155071509
0.342141824288482 0.0108391171238776 0.415455886190021
0.342709778883033 0.00652507367647256 0.42781149273974
0.341914653625612 0.0125646496206581 0.436041490539488
0.342420434324745 0.00872286379508989 0.43855119422809
0.34227653261043 0.00981590583342183 0.452944846320016
0.341888175048871 0.0127657743788444 0.45026007335562
0.342782519606286 0.00597255302866597 0.468351461031988
0.342388347124917 0.00896659027514786 0.481213380350946
0.342176619965438 0.0105748177175294 0.480510666760489
0.342021578377619 0.0117524754958524 0.490971243042613
0.34271996298977 0.00644771770584299 0.500397203941345
0.341900016853345 0.0126758269438046 0.516527800911615
0.342372196600808 0.00908926568506474 0.521290205581012
0.342889623566036 0.00515901768590665 0.531370591772653
0.342612343208731 0.00726517110028317 0.53507650011046
0.342686939534553 0.00669855575162936 0.550946527289636
0.342813385679721 0.00573810192442752 0.553686269813611
0.341826429554748 0.0132347779697698 0.559610789323993
0.341828019129041 0.0132227039542976 0.575006355943172
0.341822226144016 0.0132667060441202 0.5875381009627
0.342725825024021 0.00640319113507245 0.594284123221702
0.342944414860145 0.00474283648833205 0.603148447860317
0.342491566801271 0.00818255899396565 0.608149265984322
0.342684015650293 0.00672076485751718 0.617535560228021
0.342870029139482 0.00530785213198989 0.629451404435016
0.342854455151072 0.00542614831850501 0.639837101069751
0.342183045303492 0.0105260124295798 0.642215682752346
0.34185932613164 0.0129849036605475 0.651893519536827
0.34199971869139 0.0119185162974291 0.658557300183293
0.342961552870905 0.00461266037262349 0.678170188947987
0.341874774315125 0.0128675630573077 0.670934933890612
0.34270077931659 0.0065934321702947 0.686309203373196
0.341829733142938 0.013209684726189 0.69384236415238
0.341886634354368 0.012777477115449 0.703122389956
0.341887757419749 0.0127689465869627 0.715583587948572
0.342637082405905 0.0070772582415992 0.721712004537445
0.342013091487739 0.0118169398245633 0.732982013044194
0.342731316168621 0.00636148175089458 0.749151894043343
0.342383747545297 0.00900152755095502 0.742270992126428
0.34188551125003 0.0127860079398476 0.759979985207183
0.342160967176409 0.0106937124541729 0.769091687188935
0.342175948726009 0.0105799162871874 0.77922851438077
0.34245342212864 0.00847229654797976 0.787439666291527
0.342330058773692 0.00940933425868481 0.800297336586839
0.34180959480608 0.0133626505812002 0.802153827542892
0.342164161269213 0.0106694509106224 0.814277723919232
0.342095135627827 0.0111937527100632 0.821837632948885
0.342764700112189 0.00610790552423639 0.829610705765834
0.342510407409703 0.00803945036498371 0.838561096756361
0.342390203330814 0.00895249099157159 0.845504384436374
0.342779319211184 0.00599686244291618 0.855937436092043
0.342408854684112 0.0088108198980435 0.867432806781091
0.342295746524581 0.00966996166598628 0.872579265898876
0.342865434300641 0.00534275339800567 0.879595461622689
0.342166146379791 0.0106543724987845 0.892099644718361
0.342470566120252 0.00834716156681628 0.901868155464892
0.336634523309595 0.00987947918051147 0.901868155464892
0.319285582845676 0.00660519864104925 0.902491863529117
0.318778927303676 0.0104536295579297 0.907481588080207
0.319523834364266 0.00479549868885283 0.915984129323816
0.310572864436324 0.01339829159672 0.923341206785484
0.301387771576896 0.00926738958646472 0.923341206785484
0.295267217757208 0.00683789218965843 0.923341206785484
0.284680254136647 0.00679890200156802 0.923341206785484
0.2686337577716 0.00488587109748101 0.923341206785484
0.256832091601844 0.00643189016157939 0.923341206785484
0.243809767796969 0.00490276876786953 0.923341206785484
0.226345048136345 0.0125304017433748 0.923341206785484
0.218115046798091 0.00941540748725113 0.923341206785484
0.205712737936863 0.00667142988605573 0.923341206785484
0.183956242609689 0.0119519227463012 0.923341206785484
0.172521894312883 0.0115031447118936 0.923341206785484
0.162700184790385 0.00747989790266551 0.923341206785484
0.151025961882104 0.00950557110620251 0.923341206785484
0.15240827800844 0.0107350358741632 0.923341206785484
0.122105795090878 0.00837563835768444 0.923341206785484
0.11492453857426 0.00845453232872198 0.923341206785484
0.103086336642867 0.00829151494490719 0.923341206785484
0.0848178624862149 0.00770484758156975 0.923504949066037
0.0848178624862154 0.0127335945951224 0.929829268591304
0.0848178624862149 0.012944612844666 0.94398261167823
0.0848178624862149 0.0123690069656502 0.955124329912364
0.0848178624862149 0.00828097578750723 0.961431896890797
0.0848178624862154 0.0107843117811197 0.962547379325236
0.071113673738947 0.0066746014324091 0.975860969331792
0.0639411895146627 0.00562081093428922 0.97661707685871
0.0518857781190213 0.00905335789898814 0.974092148425329
0.0315278430835296 0.0141164629815884 0.970327271168011
0.0328972327723107 0.00582802128708324 0.976490478355135
0.0107619803347295 0.00525346686354711 0.976841511637312
-0.0183374409550443 0.014775216321181 0.96983742838854
-0.0321606392088231 0.00870534099452956 0.974350930518014
-0.0333925810540686 0.00564577112056237 0.976601827030753
-0.0508763375561953 0.00925453349034298 0.973942556150181
-0.0744019786864098 0.0140594715315713 0.970369649473523
-0.0892320433873947 0.0128221486888137 0.971289711086833
-0.102952125842268 0.00882604897222227 0.974261173202576
-0.202776244835908 0.0147541119557147 0.923341206785484
-0.213549429077062 0.0145121140236883 0.923341206785485
-0.215808260856349 0.00559011368171563 0.923341206785484
-0.245925184581664 0.0160071282494937 0.923341206785484
-0.264168739656108 0.0066651651325339 0.923341206785484
-0.267993848927949 0.00892651886760579 0.923341206785484
-0.297351021761805 0.0138743198440026 0.923341206785484
-0.312248039616034 0.0150103301549851 0.923341206785484
0.341299709631774 0.0172356129909535 0.333630382082319
0.341022601782858 0.0193404560740223 0.341827513726925
0.341163381715799 0.0182711263193988 0.354634709460968
0.341559584693905 0.0152616659189708 0.361098688158675
0.341437675048134 0.0161876616122275 0.368595328842152
0.34125013070336 0.0176122023403566 0.376219964505052
0.341189868885841 0.0180699362886173 0.387124965439389
0.340685947233512 0.0218976012517876 0.396688066407114
0.341081594122605 0.0188923647667731 0.401877845977949
0.340852098480906 0.0206355572310621 0.410255754097679
0.341399440229759 0.016478083891143 0.415113933946191
0.340757628474777 0.0213531281686427 0.427739527502112
0.340841343869915 0.0207172466117269 0.441412995032034
0.341047054387176 0.0191547201042114 0.443799794450868
0.34105319382162 0.0191080864697797 0.458141410175506
0.340696063933292 0.0218207572878267 0.466266417788771
0.340994119558301 0.0195568000483372 0.473884491725644
0.340795873206245 0.0210626305923026 0.483941441784694
0.340993133570847 0.0195642893666043 0.495027154294245
0.341427126603929 0.0162677850006764 0.502976797010439
0.340746658424806 0.0214364539708264 0.504418556679207
0.341659327080164 0.0145040472783331 0.523920103780381
0.341196636993005 0.0180185274107943 0.528061065399943
0.341009119990018 0.019442860457437 0.538489167122207
0.340898510747353 0.020283021067314 0.539653890742021
0.341483675806154 0.0158382511652995 0.554935278973571
0.341212117764764 0.0179009392750358 0.563951528188188
0.341564608330733 0.0152235076088804 0.576785248572662
0.341448450125792 0.0161058167717856 0.582259601840005
0.341347037245384 0.0168761240752265 0.589506938625651
0.340680788562034 0.0219367852518805 0.602842344058878
0.341718328651692 0.0140558858487445 0.610768959983855
0.341023140119054 0.0193363670046548 0.612189198173432
0.34071375502577 0.0216863800993792 0.624968532166129
0.341525813191823 0.0155181859448068 0.634974975344475
0.341252358924809 0.0175952773181225 0.64456360294004
0.340779115820687 0.0211899155725707 0.651200311335344
0.34108165367591 0.0188919124145098 0.657050442520011
0.341233548386683 0.0177381575404598 0.666434761979921
0.340673783246264 0.0219899959079568 0.676665707010685
0.341750771639911 0.0138094568875516 0.687479517978474
0.341781642139306 0.0135749721648115 0.697962576214259
0.340819826186624 0.0208806896430834 0.707144083674008
0.34153460593602 0.0154513984219083 0.710023481030263
0.341236155555336 0.0177183541284372 0.721090771575003
0.340804763357281 0.0209951031910105 0.734135816615342
0.341231835323778 0.0177511695450608 0.741027209411707
0.340839808227973 0.0207289109703266 0.7426605165204
0.341045451255816 0.0191668970958238 0.75468814770657
0.34099955092147 0.0195155447492163 0.762047898239657
0.341826509660927 0.0132341695029311 0.778712507655177
0.341417847548669 0.0163382664228271 0.779018647380603
0.341584300034282 0.015073934270662 0.792016236302683
0.34158502858999 0.015068400340646 0.804734117939241
0.340850206468008 0.0206499284958101 0.811443882222789
0.341787267185728 0.0135322456953136 0.819736861293163
0.341397334420741 0.0164940790986576 0.826529559500163
0.341446304359241 0.0161221154868898 0.838279860628366
0.341817566257554 0.0133021013958821 0.846632924763478
0.340651859396508 0.0221565240799025 0.850133160277962
0.341759344359414 0.0137443406181336 0.864698413286039
0.34148573680611 0.0158225963164138 0.876173934120714
0.341283081427759 0.0173619167399912 0.880698252896436
0.341203474433142 0.0179665918967532 0.891841241445084
0.341763800469336 0.0137104931028677 0.899782794257176
0.340957906815586 0.019831863137754 0.901508703659722
0.32374482618522 0.0135354858975076 0.901868155464892
0.317516452501425 0.0200430777293391 0.91033435359967
0.317803058826859 0.0178660865541893 0.922657959113208
0.317362774915523 0.0212103748844884 0.92252474706222
0.300055055913717 0.0152491801055953 0.923341206785484
0.29983169926356 0.0138673752268273 0.923341206785484
0.276514771843819 0.0167973729417471 0.923341206785484
0.271703999557353 0.016763189369461 0.923341206785484
0.257275002884653 0.0199482909125834 0.923341206785484
0.249746343035975 0.0139240333272773 0.923341206785484
0.236019054502326 0.0208140240122085 0.923341206785484
0.216570255520268 0.0229579210932772 0.923341206785484
0.204884732997196 0.0229061700222537 0.923341206785485
0.192150695805731 0.0195541024197257 0.923341206785484
0.184513480098954 0.0208205236946737 0.923341206785484
0.161782458971836 0.0164830787538196 0.923341206785484
0.158000488099696 0.0223063987973715 0.923341206785484
0.143515903343824 0.0221122169367057 0.923341206785484
0.123541563278064 0.019402046296689 0.923341206785484
0.111262356331235 0.0222162333545272 0.923341206785484
0.109917786626587 0.0157572727902277 0.923341206785484
0.0940417811427723 0.0156537838212106 0.923341206785484
0.0848178624862149 0.0214767146714014 0.934247909048657
0.0848178624862154 0.0200442716066262 0.934008459183408
0.0848178624862149 0.0144936992149393 0.954870865883425
0.0848447978775309 0.0192715827628804 0.965885644000966
0.0787364976844468 0.0154257077676945 0.969329664733321
0.0603367606086681 0.0184601772307453 0.966612266025478
0.0452949221312404 0.0194156504211505 0.965756629926779
0.0351436309535438 0.0171419564501169 0.967792746333337
0.0255679575752512 0.0190732303411178 0.966063270640865
0.0048998754153711 0.0196835037274339 0.965516764527819
-0.00815200238917917 0.0184097450204852 0.966657428590026
-0.0219897466840611 0.0174002840206729 0.967561411328989
-0.029576861737197 0.0181486484446593 0.966891243267159
-0.0594653109026387 0.0211330596500537 0.964218672245449
-0.0758403924544151 0.0202664729486279 0.964994709576312
-0.0900458832336318 0.0226233976177059 0.962884059221044
-0.0942391124496999 0.0172323778724908 0.967711773016812
-0.184996172453613 0.0167574800047897 0.923341206785484
-0.190786372430619 0.0225709817506726 0.923341206785484
-0.215062957638985 0.0163833827145792 0.923341206785484
-0.223851796668121 0.0161623795179892 0.923341206785484
-0.234900955469748 0.018410905460915 0.923341206785484
-0.270146110864525 0.0238374806589428 0.923341206785484
-0.277659327795082 0.0231562482463624 0.923341206785484
-0.296021611983224 0.027387724622357 0.923341206785484
-0.308445773038187 0.0253726895457733 0.923341206785484
0.340476645761131 0.0234874037714243 0.325458232885301
0.340649362269058 0.0221754916460011 0.340968634467772
0.340227124868608 0.0253827031170135 0.353316583536654
0.340627188288972 0.0223439197464334 0.354727805168803
0.339952650242157 0.0274675448897178 0.367693821448297
0.339740669604616 0.0290776976891356 0.374746241651762
0.339669702530259 0.029616746136059 0.384669870442484
0.340511743796968 0.0232208077213658 0.395749488149091
0.340507903425062 0.023249978242068 0.405016086569797
0.340417524378545 0.0239364752563474 0.417213443332437
0.340086186683666 0.0264532349149269 0.421293337984215
0.339976940706905 0.0272830404922098 0.43467007917134
0.33981332906176 0.0285257943187122 0.43884722791365
0.339993441601208 0.027157703756443 0.447140630479613
0.340563081301282 0.0228308606618326 0.458321336186535
0.340084701734986 0.0264645142199769 0.462248673366737
0.339928388833082 0.0276518285874866 0.475047301157484
0.34053000118018 0.0230821291277482 0.48220858654483
0.340380618070416 0.0242168064981115 0.495142874811748
0.339764825913869 0.0288942123037858 0.496402448598247
0.340380263164784 0.0242195022740278 0.512941194888082
0.339691603425667 0.0294503923196885 0.518411465789837
0.339813953538738 0.0285210509451399 0.530599018596028
0.340510592050038 0.0232295561078477 0.534575292685284
0.340503541274079 0.0232831120683403 0.54393959164043
0.340205047476057 0.0255503975622874 0.552796476920561
0.339949584282711 0.027490833163796 0.564317061380526
0.340108390208998 0.026284582396077 0.571117330881695
0.339758259044706 0.0289440926272388 0.584590846780202
0.340204476929076 0.0255547312968615 0.584948531721856
0.340280139858011 0.0249800142932255 0.592922247934606
0.339939273574823 0.0275691507656319 0.607681246628833
0.339778664717262 0.0287890961559955 0.610520001407054
0.339663962248972 0.0296603479012536 0.626410908022526
0.339633304339592 0.0298932178425061 0.633846226970041
0.339669204294712 0.0296205306107619 0.644006664414233
0.339973000735273 0.0273129675479415 0.65218816886966
0.339662947545436 0.0296680553398098 0.660207716163858
0.34048357029029 0.0234348067505845 0.669305152460211
0.33961547956124 0.0300286104759908 0.677249380642663
0.339860232111834 0.0281695302832136 0.680154357888105
0.34027662954186 0.025006677791562 0.695337445513908
0.33949236579 0.0309637524102175 0.701234333329266
0.339890308734654 0.0279410756517251 0.710739549209363
0.340481615322081 0.0234496562083984 0.724622473797335
0.340538867100852 0.0230147857743345 0.731053554232371
0.339959843787321 0.0274129044894562 0.732233469424758
0.340579324489382 0.0227074813990259 0.74958993986929
0.340442932127689 0.0237434842412964 0.758229474375466
0.340043328020774 0.0267787787798605 0.762794138719907
0.340253479766487 0.0251825177930596 0.774114115485532
0.340550295764146 0.0229279764581197 0.785236336091605
0.339552221995966 0.030509099387579 0.796679502623708
0.339873373685023 0.028069710124611 0.800884598005397
0.339511919048349 0.0308152306676886 0.814877131415548
0.340022561037941 0.0269365196751268 0.815547723935716
0.339819161034332 0.028481496089063 0.826086329762744
0.339664798388083 0.0296539967941573 0.840285737425671
0.340446858118737 0.0237136633786483 0.846535565895837
0.340354610521029 0.0244143534483311 0.84990194805527
0.339753118307496 0.0289831404030459 0.861545634609235
0.340204377206145 0.0255554887677289 0.873112401650937
0.340397654442434 0.0240874024052857 0.880706756470034
0.339532835261308 0.0306563562570887 0.88439823699204
0.340192362977654 0.0256467458931967 0.898659020154113
0.334776939488914 0.024881969090286 0.901868155464892
0.32680194449981 0.024282553506914 0.901868155464892
0.316502433206107 0.0277453189621314 0.905630887305071
0.316371867633225 0.0287370629493257 0.910837958070524
0.31660244229057 0.0269856745475107 0.922191656471055
0.305160311712212 0.0280738747452551 0.923341206785484
0.289528361559615 0.0232137852297048 0.923341206785484
0.274093914308946 0.0262729608523501 0.923341206785484
0.261982301287597 0.0276393120999089 0.923341206785484
0.252614096128594 0.0269906562011066 0.923341206785484
0.236365297831968 0.0255227215629203 0.923341206785484
0.224643872105631 0.0243373732546417 0.923341206785484
0.224708124030734 0.0261381178497698 0.923341206785484
0.20454492718582 0.0268331431059933 0.923341206785484
0.187940298292332 0.0256006864336484 0.923341206785484
0.18318893861362 0.0266381789430051 0.923341206785484
0.168514795035402 0.0308557235756203 0.923341206785484
0.156863116391753 0.032706962818263 0.923341206785484
0.134564738186485 0.0298408489833036 0.923341206785484
0.128141738611807 0.0313335447690451 0.923341206785484
0.115650375457023 0.0327086596441074 0.923341206785485
0.0993763147051599 0.0260820183105685 0.923341206785484
0.0876272951469709 0.0289637675175667 0.923341206785484
0.0848178624862149 0.0249083478612257 0.933085987753033
0.0848178624862149 0.0303564677620217 0.938053397178917
0.0848178624862154 0.0281222478381578 0.944685798479341
0.0694195802045598 0.0314048124515654 0.953700591826053
0.0703971365693874 0.029807038062688 0.955417320152748
0.0448619121211185 0.0326505670373201 0.952229993621268
0.0403846009489197 0.0262236101033664 0.959267533504057
0.011622650093097 0.0332048606924212 0.951513699539276
0.0137305028601763 0.0256008979604638 0.959936606423575
-0.00975821584205628 0.0340352871587132 0.950440568793758
-0.0327990914089766 0.0345760456081225 0.949741765779264
-0.0238429115758108 0.0282670759268417 0.957071932117395
-0.0561987940315144 0.0339275336719909 0.9505798148128
-0.0653554018426969 0.025910503971622 0.959603950315698
-0.0963491135837501 0.0331817240997359 0.951543598139531
-0.153279443082034 0.036070932909518 0.923341206785484
-0.16305369965894 0.0285560692639653 0.923341206785484
-0.188111995542894 0.0278435241696946 0.923341206785484
-0.196949067932924 0.0301993778183312 0.923341206785484
-0.212828333890461 0.0338539606052634 0.923341206785484
-0.224859325326349 0.0332731756261573 0.923341206785485
-0.243321261812596 0.0363563844641611 0.923341206785484
-0.254046239643558 0.0282153061192639 0.923341206785484
-0.275037276422775 0.0309023668271746 0.923341206785484
-0.296542849192626 0.0344652560613387 0.923341206785484
-0.316090837565565 0.0308716982415585 0.9233851580759
0.338356569594884 0.039590981030486 0.323315761389153
0.338955639756929 0.0350405913833232 0.347866244307611
0.338870324662263 0.0356886238645081 0.351373266625503
0.338313683338611 0.0399167344879488 0.352515776744439
0.338884977586371 0.0355773238559544 0.368337732308473
0.339282376323911 0.0325587807608945 0.374810795662685
0.339407727033732 0.0316066475912362 0.388779136010496
0.338328753841653 0.0398022626524876 0.388642864303089
0.338854760176517 0.0358068478711308 0.399325514298757
0.338694824773469 0.0370216778665979 0.406140314996063
0.338866660549121 0.0357164555669784 0.414648639109872
0.339323838341307 0.0322438454717375 0.423283794395643
0.338990929288864 0.0347725407759865 0.441497467760534
0.33921404443287 0.0330778130032915 0.442350429964839
0.339217213817663 0.0330537391357202 0.453738672386823
0.339050193865716 0.0343223816226296 0.459627609036132
0.338371057374077 0.039480935422098 0.470716206872615
0.338436742506544 0.0389820073070142 0.482887357880283
0.339017553838815 0.0345703072412002 0.49096724454109
0.338586903273059 0.0378414230471878 0.497403540080497
0.33926669625082 0.0326778827405529 0.501360005260727
0.338391906257113 0.0393225724330256 0.521129097919149
0.338490667044007 0.038572409779807 0.521036550431343
0.338669946103963 0.0372106501228189 0.533731045498983
0.339010645929797 0.0346227780195343 0.534790737345312
0.339231499548775 0.032945228234876 0.553171227264927
0.338562931213197 0.038023508919473 0.561958951856153
0.339433186232978 0.0314132657738619 0.568164972086358
0.338537727849976 0.0382149474693203 0.58084874773939
0.338899442005506 0.0354674556848156 0.584759773903292
0.339459061254148 0.03121672547539 0.593689239996729
0.338714005266102 0.0368759875607968 0.606572451288178
0.339434865871218 0.0314005076547818 0.619340997731957
0.339384906351084 0.0317799878853138 0.621558111122716
0.338862035063799 0.0357515896161403 0.63387409127118
0.338699697989091 0.0369846621189963 0.644031737911182
0.339483429846747 0.0310316276379291 0.652819052696419
0.339251211653418 0.0327954999349611 0.663539794097606
0.33839783802803 0.0392775161596925 0.662603747863722
0.338553872644992 0.0380923155761808 0.668339793034963
0.338534259443474 0.0382412926322676 0.679749987718599
0.338592078087861 0.0378021164263761 0.697333730557208
0.338571487048312 0.0379585208997101 0.705335166887712
0.33864825178462 0.0373754348381883 0.711611980424919
0.338837056680978 0.0359413192701729 0.723908402961101
0.338934078476142 0.0352043655705326 0.731180273710451
0.338678146028479 0.0371483655124524 0.732664532767764
0.339466665447788 0.0311589658902737 0.753077250096039
0.339245485109729 0.0328389973527341 0.755243772111258
0.338409454206378 0.0391892825252293 0.766974663091282
0.338549039632352 0.0381290259518144 0.773984072992418
0.339470474804835 0.0311300309508171 0.780779974890326
0.338653170156053 0.0373380760981491 0.787458665400833
0.338980481904597 0.0348518965380044 0.796411727793253
0.338433487238748 0.0390067335207646 0.807366857239977
0.338652764218373 0.03734115950095 0.818475777204301
0.338838044708922 0.0359338144528574 0.827684763971509
0.338846370142395 0.0358705765073156 0.839785510848277
0.338409189382202 0.0391912940645547 0.848722378429512
0.339479937876097 0.0310581517883578 0.852130128162926
0.33904659539666 0.0343497147087542 0.863456613367194
0.33876780686055 0.0364673238784966 0.875985398874662
0.338859065117801 0.0357741485956693 0.885199271470452
0.338722683369108 0.0368100708241969 0.889805843522859
0.338453833094974 0.0388521913996589 0.896607578383452
0.336498010202095 0.0377960412583764 0.901868155464892
0.327819529619275 0.0332480898911089 0.901868155464892
0.315102355033724 0.0383799684981458 0.906292676531301
0.315514999992104 0.035245618858435 0.91935884429587
0.315030954575847 0.0332818481561058 0.923341206785484
0.298091017102411 0.0383986625276184 0.923341206785484
0.296426734921273 0.0350162813341478 0.923341206785484
0.276366815938655 0.0354623398616921 0.923341206785484
0.269229796670291 0.0330530420846099 0.923341206785484
0.261012873908055 0.0378672527290438 0.923341206785484
0.248942799952379 0.0367868249801697 0.923341206785484
0.230138209082336 0.039590065373178 0.923341206785484
0.221726389585833 0.0345436837317162 0.923341206785484
0.206171144548175 0.0352810675676185 0.923341206785484
0.196617279455999 0.0365234280491648 0.923341206785484
0.183833875875367 0.0401078006797402 0.923341206785484
0.170241103209735 0.0388666522043306 0.923341206785484
0.160840305326815 0.0358215322717586 0.923341206785485
0.136944850634729 0.0394149837502976 0.923341206785484
0.134482198134322 0.0370121798375604 0.923341206785484
0.111996066384441 0.0349396651354078 0.923341206785484
0.098087199028746 0.035447726778255 0.923341206785484
0.092782665307877 0.0402749631171265 0.923341206785484
0.0857614758595993 0.0395503221102428 0.923341206785484
0.0848178624862149 0.036099504330244 0.942376863115272
0.0848178624862149 0.0378282137042995 0.945741013419048
0.0742368334397746 0.0349796210604424 0.949220239498973
0.0622197798628193 0.036825543612306 0.946834819085898
0.0373642671522438 0.0395391774503717 0.943246324598642
0.0202053772398927 0.0407044980579721 0.941418781027308
0.00603226216256828 0.0416985673967359 0.939859806597724
-0.0162505752754638 0.0438757453935649 0.936445392035926
-0.0309236424988576 0.0405280252129167 0.941695539038274
-0.0447643098620015 0.0440089256769399 0.936236528681822
-0.0510296082331808 0.0397317097943455 0.942944380871561
-0.0690180538503417 0.0395235370399389 0.943270853068621
-0.0863288680569346 0.0395973140790679 0.943155150357545
-0.0987408274500712 0.0403570426257787 0.94196368681314
-0.146754651508655 0.0393672674696642 0.923341206785484
-0.164802942607137 0.0423114307026344 0.923341206785484
-0.180024690190737 0.0425770726645383 0.923341206785484
-0.195999904891425 0.0389238606572149 0.923341206785484
-0.213835845504105 0.0435515991121554 0.923341206785484
-0.234933421922973 0.0397249273036458 0.923341206785484
-0.239573981268055 0.0386517460274117 0.923341206785484
-0.257613916943145 0.0427649838367358 0.923341206785484
-0.281427496528713 0.0411082788605065 0.923341206785484
-0.298809222320999 0.0472339946111299 0.923341206785484
0.337973554362775 0.0425002705550122 0.334752141407582
0.338131254719082 0.0413024174250157 0.331907127649532
0.33821781613253 0.0406449182128146 0.344373710419474
0.338231510027987 0.0405409027500769 0.354630421931728
0.337915341263678 0.0429424429418952 0.363715108557146
0.337497134575477 0.0461190381137675 0.374614425437599
0.337212126166078 0.0482838919116193 0.382161959055252
0.337659728724015 0.0448840129413014 0.396985574506004
0.337648057013872 0.0449726683816249 0.404875697771765
0.338161521196688 0.0410725207032609 0.40814426055351
0.337199895089811 0.0483767961594758 0.419747213673078
0.337713743731883 0.0444737282231454 0.426612483199699
0.337605743303797 0.0452940729189557 0.430703799872309
0.337302103041052 0.0476004496934858 0.437468830722301
0.337420640050127 0.0467000717192969 0.449457756034854
0.33818339822461 0.0409063481784517 0.463224244822737
0.337619740765314 0.0451877516430656 0.472868092801524
0.337677929865449 0.0447457615464059 0.479915994562714
0.338058518066955 0.041854907149555 0.488244711050588
0.338146734270043 0.0411848385621432 0.498960002316601
0.33826007606106 0.0403239221868822 0.50215407048224
0.337775030641196 0.0440082079296748 0.516503239653617
0.337696837312977 0.0446021452240806 0.519268718368382
0.337423067273276 0.0466816351290791 0.53185220451456
0.337986560837168 0.0424014765736564 0.540224543336056
0.337330756296042 0.0473828066140523 0.547291854845248
0.337451882192157 0.0464627640904812 0.563394944551965
0.337531826101602 0.0458555298115257 0.565647573274769
0.337320829808895 0.0474582057696236 0.576970834995107
0.337167277680553 0.0486245499799964 0.579584567375222
0.337988849667137 0.0423840911840023 0.597024148970665
0.337363687531127 0.0471326690497174 0.602954221498522
0.33808944592406 0.0416199867517549 0.613611425166824
0.337370256240704 0.0470827747469343 0.621271680303135
0.338124128345057 0.0413565476098233 0.625221900624756
0.337626898378776 0.0451333841711761 0.63841197443225
0.338023480210743 0.0421210460899832 0.649729272622456
0.338059953041711 0.0418440074341548 0.656343196208324
0.337688597935793 0.0446647295072129 0.671490880650029
0.337580935443121 0.0454825073287064 0.670606966640224
0.337216368810927 0.0482516658245563 0.681182139430772
0.337366907694913 0.0471082094774004 0.690848084096448
0.337521222221772 0.0459360742753541 0.699349892748092
0.337527767184344 0.045886360348985 0.711221771459279
0.337916504720118 0.0429336056128561 0.720761747632269
0.338131981992063 0.0412968932382814 0.731459188514934
0.337145501589415 0.0487899558138175 0.737202836248583
0.337654317495987 0.0449251152988533 0.746288005066303
0.337858224802781 0.0433762855346594 0.756065776751634
0.337585338010806 0.0454490665071124 0.762542094795109
0.338050136598885 0.0419185707201211 0.771162712396349
0.337671087194055 0.0447977367957862 0.785330233055096
0.338323334183866 0.0398434290404171 0.794891885234246
0.337471068852571 0.0463170269357334 0.801331132388068
0.337691995361364 0.0446389234979589 0.813050057871085
0.337412197678415 0.0467641978989486 0.82201493158824
0.337698633867731 0.0445884990359213 0.823264960762328
0.337852576992387 0.0434191849136853 0.832834784323309
0.338099868804783 0.0415408171126359 0.843282923212203
0.337401093841141 0.0468485399165871 0.851775182408095
0.337742842725391 0.0442526994235234 0.859286885379538
0.337231751347189 0.0481348238614828 0.871192919655307
0.337249427137173 0.0480005629070185 0.882440662991108
0.33740335216269 0.0468313862613901 0.892480626324259
0.337755171168751 0.0412045457897153 0.901868155464892
0.330052848225607 0.0439536614533426 0.901868155464892
0.315475041008417 0.0423949666623694 0.901868155464891
0.3181603027282 0.0436206314638356 0.901868155464892
0.314125349369938 0.0458010632870055 0.911206404040531
0.313846279589046 0.0479208087229547 0.923425289489419
0.30513459639633 0.0410972040014652 0.923341206785484
0.284792908443153 0.0437903194043916 0.923341206785484
0.286657576716302 0.0407015199657145 0.923341206785484
0.270205190924431 0.0458439232885578 0.923341206785484
0.256952920829344 0.0490621557875368 0.923341206785484
0.24415540222701 0.0492684101459922 0.923341206785484
0.238427848442923 0.0454403213067301 0.923341206785484
0.216308102556758 0.0469425179370324 0.923341206785484
0.211905872179785 0.0471111000327942 0.923341206785484
0.201041725118859 0.0475070459257434 0.923341206785484
0.18668855885077 0.0423666867888719 0.923341206785485
0.167315889280752 0.0491331195280733 0.923341206785484
0.157101074231667 0.0504478950244287 0.923341206785484
0.146657926898669 0.0494740364103916 0.923341206785484
0.126358649851009 0.0527285385278607 0.923341206785484
0.110073699190823 0.0482034741239717 0.923341206785484
0.098194663296044 0.045946919755111 0.923341206785484
0.0887443619935801 0.0472853121660603 0.923341206785484
0.0842475167203678 0.0484689753437522 0.928173697120655
0.0787753452358204 0.0460240448982471 0.932908085340489
0.0614269119808222 0.0446660989508853 0.935205900042615
0.0356308805710571 0.0538965419678308 0.923341206785484
0.0212092237319065 0.0495356749230816 0.926108129189361
0.0045596469535473 0.0516068345577143 0.923341206785484
-0.0113875938365389 0.0540016266268794 0.923341206785484
-0.00582632266820725 0.0465366898550774 0.931915394424051
-0.0324931528371004 0.0509149255265454 0.923437334271148
-0.0481946256749835 0.0501630833314961 0.924893209156243
-0.058149384825225 0.0478690536598322 0.929335391580469
-0.0735924752747028 0.0480498065560496 0.928985379831003
-0.10646476919221 0.0504610727394827 0.923341206785484
-0.11662603426852 0.0553089324350826 0.923341206785484
-0.128970950549298 0.0562326378659107 0.923341206785484
-0.146125546738311 0.0555136313527389 0.923341206785484
-0.158747819593446 0.0540772115486856 0.923341206785484
-0.178877566149821 0.0514687778743862 0.923341206785484
-0.182873712416108 0.0579516250322495 0.923341206785484
-0.213116547574156 0.057712992975864 0.923341206785484
-0.233681126254704 0.0519529213060287 0.923341206785484
-0.236132657384553 0.0528471783332957 0.923341206785484
-0.259357030336953 0.0576522903429297 0.923341206785484
-0.282974557862672 0.0504795766955532 0.923341206785484
-0.297307083644788 0.053524985108509 0.923341206785484
-0.312556793831497 0.0500824679222034 0.923341206785484
0.336294361120585 0.055255009530444 0.32927468959979
0.33694015629018 0.0503497082150139 0.331507297911871
0.33625141800084 0.0555811949088552 0.341983802034507
0.33664771558891 0.0525710158744139 0.35520866648943
0.337119992125972 0.0489837194256743 0.360705400275339
0.335997194092197 0.0575122172084883 0.373375942775947
0.336297245424251 0.055233101069008 0.37939708590266
0.336393154569975 0.0545045987809234 0.396586149762576
0.336077722899999 0.0569005401854277 0.399836582003071
0.336863565762688 0.0509314710292025 0.405855647912526
0.336137937914037 0.0564431617449014 0.418202487750401
0.336247851720685 0.0556082834960104 0.420190864029781
0.336572454449172 0.0531426809860968 0.431550877523398
0.336879218627679 0.0508125757155765 0.445813383313218
0.337012899449499 0.0497971690634364 0.449763809216035
0.336331618409304 0.0549720123264244 0.458575419310501
0.336630109475435 0.0527047475832439 0.475248709237154
0.337131003611911 0.0489000788860645 0.480377541543903
0.336539736405376 0.0533911992018226 0.483615367733956
0.336963726209429 0.0501706769039358 0.493660872927375
0.336249523008252 0.0555955888065922 0.501409956397533
0.336473002834654 0.053898090996096 0.509378742585299
0.337015063602009 0.0497807306931125 0.517684840706654
0.336861718172168 0.0509455048724938 0.53367694868194
0.336486126388108 0.0537984077109759 0.53847332265193
0.336885403696568 0.0507655954531179 0.548980367559529
0.33653418882416 0.0534333372646643 0.560550920192417
0.336138755384863 0.0564369524375131 0.571467680878884
0.336908975947108 0.0505865464341363 0.581638777088948
0.336976311199034 0.0500750844173882 0.58632731185716
0.33624655319417 0.0556181467841267 0.58633403014116
0.336774692976853 0.0516065268577198 0.602490949829256
0.336184652964734 0.0560883257064471 0.609529435502426
0.33610654305031 0.0566816294101741 0.624700397507474
0.337105605853235 0.0490929940159893 0.634304444489991
0.336460533402936 0.0539928057333518 0.633682942878772
0.336970614617105 0.0501183542530027 0.649389999622968
0.336903571313006 0.0506275987058417 0.653380636798798
0.336169389112977 0.0562042661712015 0.664678670099379
0.337063987184086 0.0494091191933426 0.677805122213691
0.336975517824601 0.0500811106944943 0.686771659337019
0.336985410781506 0.0500059662264033 0.69218001184914
0.33659011764709 0.0530085156778718 0.702069189026329
0.336506165391204 0.0536461963707903 0.711549323942069
0.336421905779334 0.0542862116641872 0.722650313988084
0.337138424427881 0.0488437121926421 0.727408520503772
0.336634205571226 0.0526736346467938 0.741781984656166
0.336428897329083 0.054233105571433 0.746238543521146
0.336950456978098 0.0502714667223948 0.749783182325986
0.336661376183615 0.0524672533559954 0.766577443813509
0.336873432730015 0.050856523971546 0.772248764273539
0.336647214097489 0.0525748250799353 0.783541776735522
0.336440067285434 0.0541482613295329 0.792804193608693
0.336943566250371 0.0503238069958692 0.796120495213489
0.336208838809797 0.055904615974335 0.802747703555231
0.336044935440121 0.0571495856686423 0.812294864111042
0.336346192877479 0.0548613082498439 0.825084341433448
0.336985677632684 0.0500039392904634 0.829708267522518
0.336987328558509 0.0499913992638423 0.84574215881516
0.336156162404051 0.0563047329999248 0.850581165197565
0.336852747972701 0.0510136403019825 0.859609427380157
0.335965274855715 0.0577546678802611 0.869666754436863
0.336725127431863 0.0519830145499249 0.881788649399895
0.337049660616109 0.049517940280972 0.88078166037103
0.336229714365994 0.0557460503825004 0.899391530405953
0.328239429216888 0.0567098264130235 0.901868155464892
0.323067677022945 0.0492113083822318 0.901868155464892
0.313657954964067 0.049351276267661 0.903507422103429
0.313025903627718 0.0541521828051919 0.914040633356451
0.312495974802885 0.0581773918558662 0.923077703781672
0.305215858894008 0.0512672203063901 0.923341206785484
0.28587542134282 0.0536058638181867 0.923341206785484
0.274123002093632 0.0513957349806021 0.923341206785484
0.262076929125199 0.0557443834289962 0.923341206785484
0.254394294104282 0.0508204923856326 0.923341206785484
0.244860646107468 0.0585845062601731 0.923341206785484
0.234308612369032 0.0509456313702464 0.923341206785484
0.209995621736809 0.0584796991452772 0.923341206785484
0.203229634488159 0.0527893193729622 0.923341206785484
0.193240021775467 0.0587561728552872 0.923341206785484
0.182849264208923 0.0548944080942026 0.923341206785484
0.170915133098982 0.0593849491729112 0.923341206785484
0.15359520364411 0.0586436920958115 0.923341206785484
0.138810655482616 0.0552003462502043 0.923341206785484
0.134520883585055 0.0533035407261746 0.923341206785484
0.10968456934587 0.0616538983090682 0.923341206785484
0.107364468958421 0.0558281865374651 0.923341206785484
0.0888316450040798 0.0579027686759205 0.923341206785484
0.0783439687528754 0.0604264679795394 0.923341206785484
0.0586186906671395 0.0571302273486169 0.923341206785484
0.0492527575374103 0.0570747283544027 0.923341206785484
0.0351193488878134 0.0544690575065391 0.923341206785484
0.0155234088752506 0.0579662069663696 0.923341206785484
0.00790993479814093 0.0580720677032798 0.923341206785484
-0.0161464852103749 0.0616114211852506 0.923341206785484
-0.0202167672172752 0.0570056404360713 0.923341206785484
-0.0379682545110781 0.0572481550950681 0.923341206785484
-0.0549226298996372 0.0621655909797251 0.923341206785484
-0.077093946951392 0.0585933629130576 0.923341206785484
-0.0810472832577923 0.0653462879551871 0.923341206785484
-0.0992244765487767 0.065720883913808 0.923341206785484
-0.112132645492663 0.0575025865331333 0.923341206785484
-0.134574834963481 0.0671305663929521 0.923341206785484
-0.15373949089196 0.0653545743264234 0.923341206785484
-0.152952251974417 0.0602526889608491 0.923341206785484
-0.172831081025824 0.0608273385610319 0.923341206785484
-0.202275067168448 0.0685313865825186 0.923341206785484
-0.212606702803432 0.0623833177366229 0.923341206785484
-0.2333837625679 0.066697048767315 0.923341206785484
-0.24221213914146 0.0673881455990994 0.923341206785484
-0.257240595196695 0.0605382769944296 0.923341206785484
-0.282838142522256 0.0624848666379472 0.923341206785484
-0.294077550645693 0.0652055466770626 0.923341206785484
0.335072690569928 0.0645345186399893 0.328858443523602
0.335920085670342 0.0580979138209152 0.340107167608058
0.335115119677208 0.064212237573862 0.348975167281131
0.335367122328728 0.062298087397171 0.35297759970304
0.335965549799335 0.0577525794761318 0.366500156900685
0.335511850832913 0.061198765266274 0.37103551176158
0.335801426569378 0.05899921917508 0.379848855954811
0.335177922987797 0.0637351990691729 0.392590872786424
0.335253442449854 0.0631615718046552 0.39961620572621
0.334963942582406 0.0653605416134604 0.407866591605483
0.335202654394574 0.0635473453844285 0.408372418697945
0.33515859140531 0.0638820370163463 0.420405376201367
0.335805628457763 0.0589673026640924 0.437791420449045
0.334950647485899 0.065461527897427 0.441607775438233
0.335372111174693 0.0622601933499138 0.454193697410936
0.334848811145198 0.0662350517011375 0.459484301675332
0.335413701617229 0.0619442825749684 0.465815283216124
0.33513594853093 0.0640540267225403 0.478733149188845
0.334976474650772 0.0652653511036263 0.488654125114899
0.335430612268242 0.0618158334279865 0.495362612049247
0.334797148312132 0.0666274698778676 0.502945043924827
0.334903442856081 0.0658200826585127 0.518291291621331
0.335290712915648 0.0628784745108215 0.516609478285543
0.335558606824846 0.0608436182482516 0.52574299061015
0.33523664328879 0.0632891741013961 0.535937409052971
0.335771546230917 0.0592261828788284 0.549869048094301
0.335075748375263 0.0645112923025418 0.564975329613443
0.335891490812217 0.0583151133321155 0.567841884925267
0.3359401132855 0.0579457889807098 0.580261850767834
0.335296682194434 0.0628331333369302 0.586774494175605
0.335789777504124 0.0590877026103856 0.592222738082783
0.335035729880235 0.0648152629507342 0.604391403033463
0.335503407741377 0.0612628969135273 0.605098196502458
0.335212683012364 0.0634711704696049 0.622358183306679
0.334955840983258 0.0654220793685042 0.631018464240758
0.335534917395579 0.0610235573280345 0.639384963255013
0.334860681788185 0.0661448852158481 0.644021194943674
0.335823079142653 0.0588347515525726 0.651558519961101
0.335366563357085 0.0623023332083231 0.659225368388968
0.335187329289175 0.0636637511167948 0.670473336663788
0.335755661414805 0.0593468400361462 0.679754372299426
0.334856599737292 0.0661758914707085 0.686067127318555
0.334819366291812 0.0664587075673439 0.702270027612609
0.334885281173023 0.0659580343372898 0.706693579697627
0.335406681997053 0.0619976018837872 0.721274414712206
0.335236402022834 0.0632910066982765 0.722051394107388
0.334993328919955 0.0651373302191585 0.736706249620723
0.334983829546393 0.0652094851249691 0.742376378845259
0.33585195302006 0.0586154326795041 0.750901192066925
0.335866263839889 0.0585067312109288 0.76405412830908
0.335466599025526 0.0615424868683395 0.766744063068383
0.33533064917211 0.0625751285265528 0.776868449796975
0.334979275078682 0.0652440797418097 0.78889609986086
0.33584446261834 0.0586723279291757 0.797735330207194
0.335346435212533 0.0624552216450801 0.805873548647599
0.335526523549253 0.0610873149207921 0.817836185265829
0.335643932973921 0.0601955018004964 0.824719081767365
0.335474127248382 0.0614853043386255 0.828408832524242
0.335874385601591 0.0584450403060836 0.847760852727099
0.335428005125944 0.0618356366398163 0.851285367522354
0.33513370362068 0.0640710785088089 0.860923919829552
0.3352264429082 0.063366653684215 0.86758169421402
0.335206924442418 0.0635149111509566 0.876393057921105
0.335699757894693 0.0597714694289479 0.879900999630049
0.335384408591572 0.0621667851950719 0.899599547767164
0.334894678289666 0.0658866561499025 0.901471172808815
0.319571003122025 0.0588026188797177 0.901868155464892
0.312488209480896 0.0590784790631687 0.901868155464892
0.311479615231342 0.0658974092514257 0.909199339332096
0.311312929466106 0.0671635133382474 0.918448939470945
0.298705756712442 0.066875349406848 0.923341206785484
0.289897775001099 0.0663366871937615 0.923341206785484
0.27517773018554 0.0648684668823178 0.923341206785484
0.265963555993592 0.0637431655980538 0.923341206785484
0.249707016120043 0.0650096455689258 0.923341206785484
0.242496766617234 0.0663076064978026 0.923341206785484
0.239384445555991 0.0689212072719238 0.923341206785484
0.222169774809153 0.0686492133452476 0.923341206785485
0.20860109397113 0.0609792199975963 0.923341206785484
0.19546528693951 0.0634818247279687 0.923341206785484
0.191324234161474 0.0668110935297589 0.923341206785484
0.170904306543517 0.0697577017902188 0.923341206785484
0.161309538941059 0.063018224310108 0.923341206785484
0.141639436258068 0.0653185281347932 0.923341206785484
0.124441083626989 0.0656804185674118 0.923341206785484
0.114738462494838 0.0711744401878923 0.923341206785484
0.103471956361736 0.066047194195074 0.923341206785484
0.0855039358567369 0.0631984300841662 0.923341206785485
0.0702959777990497 0.0722721643581573 0.923341206785484
0.0499739389528559 0.0642613656033959 0.923341206785484
0.0378447517262983 0.0690268117767852 0.923341206785484
0.0339688160236745 0.0704708118101695 0.923341206785484
0.0227313060186366 0.065490326545555 0.923341206785484
0.00150676020196114 0.0744610689208289 0.923341206785484
-0.00973596278675353 0.0687332282674403 0.923341206785484
-0.0192076716081354 0.0660243933781624 0.923341206785484
-0.0390861147206775 0.0668281083831591 0.923341206785484
-0.0587699391822282 0.0757440270135318 0.923341206785484
-0.0628023884086799 0.0739137382892083 0.923341206785484
-0.0854442342685508 0.0721498997147672 0.923341206785484
-0.103341050387709 0.0675387032322151 0.923341206785484
-0.125468706512321 0.0775184255109453 0.923341206785484
-0.130263466011364 0.0686494432161589 0.923341206785484
-0.151232944821745 0.0722177532310381 0.923341206785484
-0.160934180162308 0.0770794760632774 0.923341206785484
-0.179083724555312 0.0777852315573934 0.923341206785484
-0.189523653293637 0.071382074610142 0.923341206785484
-0.204482664200012 0.0802158601371143 0.923341206785484
-0.227575063684883 0.0728939387794984 0.923341206785484
-0.243622824324995 0.0788183503852258 0.923341206785484
-0.265534083809796 0.0732958511641928 0.923341206785484
-0.286667550944072 0.0803658655366577 0.923341206785484
-0.289765728212458 0.072294869624319 0.923341206785484
0.334619084561604 0.0679799983432722 0.326929076564832
0.334251192895894 0.0707744129761281 0.334269273847919
0.334273565918398 0.0706044729984206 0.344604768762833
0.334703505743091 0.067338755806791 0.350121955046039
0.333812887567796 0.0741036724746538 0.361906243199272
0.333956151073185 0.07301547811439 0.362651921586565
0.334285144277733 0.0705165266278891 0.381034409004521
0.334161834556673 0.0714531569487692 0.388061083289367
0.334211017814394 0.0710795730166583 0.38966267735979
0.334781999489421 0.0667425366102849 0.405166047186607
0.334388768052748 0.0697294259126364 0.409163940231082
0.333769835575106 0.0744306848251942 0.425299866740492
0.333658678388107 0.075275007485498 0.43336759193288
0.334402055313567 0.069628499146635 0.437841265103092
0.33443943751203 0.0693445531589085 0.44650722825682
0.333761903638943 0.0744909338619231 0.457355336481459
0.333909634280478 0.0733688082339083 0.469272361541382
0.334755109243815 0.0669467883039418 0.480379343734181
0.334733318966383 0.0671123018933552 0.491370011412851
0.334427692822278 0.0694337629344006 0.498400951820058
0.334444184359483 0.0693084972728491 0.504799927276067
0.334499178878438 0.068890772429324 0.515887265945134
0.334708605889282 0.0673000163503831 0.525227960240689
