ply
format ascii 1.0
element vertex 869
property float x
property float y
property float z
end_header
0.252933349964877 0.080236949518607 0.385136662306519
0.253397836132013 0.0791155807143742 0.396248629573189
0.252376822981787 0.0815805245090105 0.396241409281618
0.250661169968709 0.085722477281511 0.411694464823955
0.252399483737417 0.0815258166054332 0.410531574019318
0.252655882733477 0.0809068146717664 0.429012901208134
0.251907208689975 0.082714273701387 0.435524337685645
0.252950502388002 0.0801955399060716 0.449909679690534
0.250584787776864 0.0859068802049856 0.450996479948837
0.2501659030526 0.0869181573873731 0.459551220010465
0.253658712850361 0.0784857686028298 0.472341667046488
0.252643886234242 0.0809357767829214 0.487322054428368
0.253310108813096 0.0793273731974944 0.487179181920844
0.253440013852667 0.0790137546891409 0.500718491837348
0.250789573968013 0.0854124826049272 0.509377179700589
0.253691439566748 0.0784067593202771 0.522031600598436
0.250493983731157 0.0861261005636501 0.531452248622337
0.251856223894851 0.0828373618852508 0.534043752393938
0.250455065514827 0.086220057449337 0.543315317024016
0.252924502313587 0.0802583096383468 0.559216583775388
0.252050073583536 0.082369367337767 0.559862407410481
0.251225193840909 0.0843608031997419 0.572992544430539
0.253326431410523 0.0792879669614118 0.575229000226531
0.253933856817395 0.0778215123060132 0.597584171437736
0.253737626917848 0.0782952531908407 0.599825233389656
0.251974823473183 0.0825510371747504 0.613646588581664
0.251310478283494 0.0841549083417925 0.612403014765613
0.253528546704962 0.0788000174764136 0.633200130962816
0.252832597660169 0.0804801870990749 0.642757882764934
0.252242804757425 0.0819040731238707 0.647898329883518
0.252520934614696 0.0812326082503464 0.659209723367079
0.251313488508469 0.0841476410158337 0.666269606354418
0.251090234297046 0.0846866243609088 0.672387646971718
0.253432192333864 0.0790326375059123 0.681132753257938
0.252704544397757 0.0807893350218965 0.690070566525331
0.250885244779405 0.0851815128345412 0.699587622351977
0.251680518305293 0.0832615527025456 0.71348552741963
0.251015395861119 0.0848673003279077 0.724335617067294
0.252564157758523 0.0811282583503118 0.734949247615182
0.250179359839958 0.086885669828829 0.737003907229758
0.251693002954583 0.0832314120929082 0.749096403172721
0.252685432161208 0.0808354760425785 0.755664449103725
0.251180997995074 0.0844675014101576 0.767770493910095
0.25252426504793 0.0812245678732624 0.775924026775972
0.253232699598801 0.0795142555724958 0.791618924986229
0.252820901799115 0.0805084234054529 0.795027054158723
0.251096608646411 0.0846712353202198 0.800827354093575
0.250330252760762 0.0865213820929572 0.811959188066241
0.252771000093725 0.0806288967793926 0.820289626410491
0.252953448334697 0.0801884277616081 0.827674463717478
0.250484415622815 0.0861492000205733 0.840281116297836
0.252178244697579 0.0820599348959376 0.853300717788772
0.251380197697798 0.0839865907862205 0.856937780437573
0.253021263800027 0.0800247067454681 0.863477270000245
0.252613045726381 0.0788836814445513 0.877062613438184
0.248386228780887 0.0833739624305335 0.882604967785956
0.24719920689457 0.0842661145006014 0.884519202078694
0.241624499890735 0.0823287500080534 0.899452202472324
0.239735784739566 0.0857535334036446 0.900553056235025
0.237314327431036 0.0826113980922253 0.909270869392747
0.234226766066135 0.0825978596721922 0.916513918264791
0.232631859042822 0.0811001753111261 0.921701250408846
0.226388000799254 0.0862447865765516 0.931332106408633
0.22648966864906 0.0792469049805422 0.937881519548855
0.221230797155583 0.0854296779045363 0.94419895583708
0.220777820165526 0.0800336164874368 0.950493480982956
0.217780572066395 0.079859317962628 0.957680976507026
0.213945086064712 0.0798547691711026 0.967262374687873
0.212141266562741 0.0842095746768345 0.970115877265444
0.211799122909168 0.0850355825255684 0.982003926389556
0.212997949638666 0.0821413587762809 0.993605573156221
0.212309190330495 0.0838041708392762 0.997153572149515
0.172623952423429 0.0805313503044316 0.983333333333333
0.151926456686829 0.0805108427566849 0.983333333333333
0.145214659049574 0.0810283009666664 0.983333333333333
0.136827419942728 0.0878627219495362 0.983333333333333
0.117177726768482 0.0869915637119311 0.983333333333333
0.110000049624668 0.0818691431170477 0.983333333333333
0.0857203912343225 0.0830436231550173 0.983333333333333
0.0844529173388346 0.0880953398741764 0.983333333333333
0.0580755603300806 0.0926877239077052 0.979166666666667
0.0521249514858523 0.0858734828466193 0.98170751422477
0.0395053267134305 0.0912511849932461 0.991666666666667
0.019750616129899 0.0877447946045393 0.983333333333333
0.0111609811580654 0.0937740596680006 0.983333333333333
0.000716347064761086 0.0898861219689938 0.983333333333333
-0.0286704838764583 0.0911940409102514 0.984175665270161
-0.0289630671176972 0.0893937622400737 0.98803838199686
-0.0608034508668284 0.0956382002262569 0.979166666666667
-0.0743231172981614 0.0915174379055967 0.983333333333333
-0.0850836600604095 0.095852690753308 0.983333333333333
-0.101882793233747 0.0979529709153376 0.983333333333333
-0.123431860083799 0.0957428313320762 0.983333333333333
-0.132649857667662 0.0892263266978099 0.983333333333333
-0.152166101665632 0.0951803908194026 0.983333333333333
-0.166565066702868 0.0951894272181874 0.983333333333333
-0.175715332115479 0.0941220768409738 0.983333333333333
-0.19987476047947 0.100382954388996 0.987165556793112
-0.1999018987856 0.100317436722276 0.994577963222001
-0.20061410920112 0.0985980086778651 0.99939635125016
0.249123780194958 0.0894340645239528 0.247269257970578
0.248156230863816 0.0917699352414618 0.246207288763533
0.246651353158323 0.0954030314077742 0.259021701733454
0.248450666002619 0.0910591059361223 0.272585468223523
0.250046742984424 0.0872058352400568 0.272378418645227
0.247924950450049 0.092328295553088 0.281214539715333
0.24713014584353 0.0942471236135823 0.293106434638413
0.246691700873728 0.0953056234060315 0.300978479402792
0.248180322529274 0.0917117728159711 0.306463618964502
0.247244625512449 0.0939707452442609 0.322465153627391
0.247768698064797 0.0927055221807178 0.326411206964269
0.249294558381162 0.08902176951066 0.333429193853216
0.246739377065265 0.0951905228978217 0.352382682193307
0.246245218727531 0.0963835266587394 0.352941303329787
0.249742536803026 0.0879402539289445 0.370385285790602
0.246435033448421 0.095925273385229 0.370046669213698
0.24951037464757 0.0885007429533199 0.381581325588814
0.248299264129633 0.0914246223912557 0.390059554980506
0.249597337991782 0.0882907948682924 0.401169952711039
0.247544542644799 0.0932466812357549 0.416339588043736
0.248090439448271 0.0919287697691568 0.423789951505898
0.249739499703044 0.0879475861369127 0.433698230691456
0.246982988583497 0.0946023926665564 0.431800209349861
0.249494387427087 0.0885393395178331 0.454680771773621
0.246891701823927 0.0948227783995769 0.456711728293851
0.248532023132366 0.0908626924500928 0.47053510319589
0.250114945210587 0.0870411805006727 0.482269572952203
0.246673327349396 0.0953499810176644 0.48343628844781
0.249912546179105 0.087529814987487 0.497909004136136
0.250065719847486 0.0871600210398834 0.504467214894042
0.248567636544364 0.0907767140678452 0.517369408170727
0.248843212366725 0.0901114151800384 0.517341421864029
0.250061108558613 0.0871711536760195 0.536473860899902
0.246268094973948 0.0963282985143859 0.538788123576955
0.248417650725001 0.0911388118671133 0.554025752108856
0.248300036159767 0.0914227585456357 0.557885237535922
0.2466844279868 0.0953231817082921 0.564061266733816
0.248968913823407 0.0898079450185069 0.581326733872802
0.246601564448012 0.0955232319874592 0.584472722422889
0.246771612666182 0.0951126992728968 0.589885853135823
0.248958119794909 0.0898340041084997 0.60821632153889
0.247071183259408 0.0943894718838428 0.611354294964986
0.247250351023858 0.0939569226369684 0.618408031336996
0.246840182056392 0.0949471581210873 0.628368309340419
0.249437942395381 0.0886756098789065 0.645699544398029
0.247764210749316 0.0927163555186106 0.652717631849013
0.250033456233772 0.0872379122936833 0.660458321341355
0.247626156944857 0.0930496468856736 0.675206581901127
0.247253660043086 0.0939489339578694 0.678963310046607
0.247505435210961 0.0933410949329165 0.682452216578142
0.248214078416214 0.0916302788959115 0.70176369515249
0.246676898850264 0.0953413586518287 0.704133068033693
0.247039587377234 0.0944657510911024 0.716131395910807
0.248007976925 0.0921278519112251 0.723311850792956
0.250154155448596 0.0869465186122877 0.738381404395385
0.249721165799732 0.0879918480949407 0.744341347817534
0.246322561742666 0.0961968041026446 0.745000384781197
0.248451045337868 0.0910581901398194 0.760507816748004
0.247448383365468 0.0934788302720638 0.769599976783866
0.248645166573553 0.0905895400198854 0.782121646754487
0.247887964265275 0.0924175881019914 0.789475469356341
0.248893811610042 0.0899892578005787 0.80229290005237
0.247069409435705 0.0943937542730838 0.812974197861599
0.249463861099051 0.0886130365929894 0.814511702645446
0.249880394955631 0.0876074349072441 0.830865082972095
0.246460138228132 0.0958646650855711 0.834275324889117
0.246471619420085 0.0958369470362458 0.843475093470808
0.248133623588127 0.091824514033039 0.852908006448243
0.248562539729306 0.0907890188678811 0.862033954380054
0.248638840931892 0.0906048114697732 0.874340666089135
0.247291773377362 0.0891941319204188 0.87952259561572
0.244543732118737 0.0946758082722 0.880640620878355
0.239931748853044 0.0921735191911089 0.893867220642607
0.234727224523282 0.0958933119972044 0.902446323608088
0.237229410361243 0.0892879660152806 0.902993885137845
0.232303171366279 0.0914408076609826 0.912441186379449
0.228768540493183 0.0887348369168501 0.923342586250531
0.22892126598024 0.0880048744699809 0.923692975296842
0.221793956661389 0.0922019363721204 0.936311604395194
0.219535754331388 0.0902512850297474 0.943491474783877
0.214513584181088 0.0934363457009893 0.952162226982255
0.210604761108104 0.0958943408895845 0.958931140772448
0.209508377654539 0.0932802058783398 0.964033999727153
0.208312195450535 0.0934537700872118 0.97635565321979
0.207215414310767 0.0961016339897938 0.979151117146847
0.207674259352847 0.0949938840661759 0.989099041284296
0.178593288623879 0.0908047631270588 0.983333333333333
0.171681578784587 0.0940061458552338 0.983333333333333
0.153997020263888 0.0931450163764826 0.983333333333333
0.155657032926934 0.092004118050012 0.983333333333333
0.126712854637761 0.0912446394923923 0.983333333333333
0.111680575747092 0.0983187353887118 0.983333333333334
0.104121479793315 0.0999377754436471 0.983333333333333
0.0943757421547486 0.0955246387356173 0.983333333333333
0.0852371217007271 0.0970316491791965 0.983333333333333
0.0576737754789672 0.0957890297369003 0.979166666666667
0.049270950336584 0.101690283460582 0.983333333333333
0.0424270337256921 0.0961441015154043 0.991666666666667
0.0175364970465353 0.100611393153083 0.983333333333333
0.00453001141588878 0.100248894409688 0.983333333333333
-5.26311163709744e-005 0.100131352257085 0.983333333333333
-0.0226968154770941 0.103006062046915 0.983333333333333
-0.025432072494504 0.0996201265236446 0.98700042213508
-0.0562228105516547 0.106556947679959 0.979166666666667
-0.0716866789008459 0.103021088461141 0.983333333333333
-0.0867843081697753 0.105710143539537 0.983333333333333
-0.106600936555348 0.100345651296159 0.983333333333333
-0.125987156464628 0.104851880351486 0.983333333333333
-0.132687086813008 0.101555650164001 0.983333333333333
-0.149969383013728 0.10547802794693 0.983333333333333
-0.15806937399568 0.101828826570829 0.983333333333333
-0.185871103577436 0.109399119511449 0.983333333333333
-0.197335709901943 0.106512764728812 0.980329370452888
-0.197792129612581 0.105410870073256 0.994461019758416
0.243844679223863 0.102178941685507 0.236464579869432
0.244244806350886 0.101212949348774 0.2465687362573
0.244686309328985 0.10014706687122 0.251667198151338
0.243255648486239 0.103600987680933 0.254439321838575
0.242467718538809 0.105503218846219 0.265430104276537
0.244879401458642 0.0996809012330162 0.281434031748259
0.245136354344128 0.0990605620919827 0.290714302844334
0.245486924339837 0.0982142112537826 0.294940670244941
0.242431599434576 0.105590418077519 0.310768310661348
0.246104745838839 0.0967226582117636 0.32047202311929
0.243897965549454 0.102050297115576 0.327493604705181
0.244873256642928 0.0996957361304489 0.341675379949598
0.243830821999223 0.102212395985171 0.337695663670478
0.245178538686328 0.098958720080924 0.352736739136628
0.243935602761932 0.101959432846761 0.361912334516683
0.243912086149765 0.102016206970798 0.374486562399346
0.243596333442943 0.102778501437963 0.386787401917438
0.24259501846939 0.105195889627321 0.394170892868754
0.245034463294186 0.0993065488466378 0.401150708573419
0.243385622064795 0.103287203704832 0.405576768786827
0.242733212050545 0.104862260809465 0.410745945279909
0.245979264492772 0.0970255969792648 0.428535663157909
0.242738843362655 0.104848665619394 0.436363820219667
0.245343312562549 0.0985609207542264 0.446743290728281
0.242512169279731 0.105395905264627 0.452129705281993
0.242813933473194 0.104667382056131 0.462706571245013
0.24478145023 0.0999173764176551 0.476544578588443
0.24397015338107 0.101876020273451 0.488904452433894
0.245979980433764 0.0970238685448129 0.492062658172086
0.243574854833591 0.102830355387961 0.498697169692604
0.244170446421475 0.101392470098856 0.514271371856848
0.244426372464668 0.100774609974415 0.523670334391281
0.246190704999058 0.0965151344413536 0.526581833486243
0.246082108377884 0.0967773098770204 0.535350145061595
0.243241877367297 0.103634234103052 0.553601961391682
0.243563624466905 0.102857467891525 0.554713842088921
0.243927260167969 0.101979573650253 0.560308627810773
0.243054721451519 0.104086068453201 0.574808616771906
0.244841237294744 0.0997730376750937 0.583902312101285
0.242829542533654 0.104629698450672 0.587153758027478
0.243599060607596 0.10277191748007 0.599680657368375
0.2441723117328 0.101387966838957 0.610410396792952
0.244305249936963 0.101067025623509 0.616382922179542
0.245830972487992 0.0973836055483951 0.632281243610121
0.243599887433657 0.10276992134538 0.644709131639665
0.243149894888349 0.103856299451229 0.647989102650864
0.24327471379664 0.103554959949992 0.663439382997951
0.246053489861613 0.0968464010871379 0.67264959273994
0.246291172275941 0.0962725849789284 0.685723555957673
0.244806857726509 0.099856037294996 0.683254576866569
0.246231894964942 0.0964156930670849 0.693638681073881
0.24617453535858 0.0965541714066957 0.70394828445685
0.245885277052072 0.0972525027332958 0.710145631499556
0.245978447540701 0.0970275692760358 0.726339158357158
0.242990356310849 0.104241459648751 0.731143835477632
0.242884958570202 0.104495912303665 0.739978991726418
0.24290948838256 0.104436692097988 0.747244049881605
0.242954795192528 0.104327311782894 0.755820817550141
0.244301768511969 0.101075430526945 0.767081336850528
0.24591748338995 0.0971747497555947 0.782857158881614
0.244170545668902 0.101392230494373 0.779366686694092
0.245102157048328 0.0991431216673002 0.790209335603265
0.24393897154698 0.101951299880209 0.79932712080141
0.246110143437375 0.0967096272561757 0.814862956810527
0.244568192731287 0.100432225563323 0.825950312541685
0.243383087860695 0.103293321814742 0.832145564919802
0.24568848270299 0.0977276063198479 0.845904661044471
0.24574635168974 0.0975878982271963 0.855107202908036
0.242595742792365 0.105194140956971 0.852803879676611
0.245032871743499 0.0993103911898929 0.86870761247112
0.243203209760746 0.102144182589026 0.876535796326907
0.237874718582748 0.10346205144535 0.887734890463895
0.239771954387713 0.100729827487879 0.885942347754001
0.233454464902677 0.105333465913051 0.896270328467508
0.230395318243938 0.104994355022599 0.903762624410065
0.228455841965348 0.0998080004280463 0.913334574921282
0.22481792065162 0.098353031287769 0.923264453851028
0.223297707944985 0.0974444112413777 0.92770552641285
0.218775533562332 0.103681504631242 0.932245205497602
0.21535241399297 0.105263334100747 0.938726605455921
0.214588451916371 0.097402256690231 0.948140243857278
0.211159085472679 0.0991215520285595 0.954502938884409
0.208002278674855 0.100970204403856 0.960101933094086
0.203078022710942 0.10676305525646 0.966014023141048
0.202755375873114 0.106869119274683 0.970900792540443
0.203269658650403 0.105627530818856 0.990535146127687
0.204643451712671 0.102310900976036 0.996707178305446
0.20325551128517 0.104729602532075 1.0
0.155938450636956 0.102184618478166 0.983333333333333
0.1403686774164 0.104359825440068 0.983333333333333
0.127951760513162 0.101661777775142 0.983333333333333
0.114818875339732 0.103780275323209 0.983333333333333
0.112078574920974 0.108498447594903 0.983333333333333
0.0833085980652593 0.104169106803546 0.983333333333333
0.0829137930822889 0.104873103701662 0.983333333333333
0.0748595840770127 0.110407016712433 0.983333333333333
0.0414536611386713 0.113112718388572 0.983333333333333
0.0413658467450134 0.106040400246432 0.985556515450138
0.0317414933459312 0.110208830165165 0.991666666666667
0.00386187853132829 0.11261528806251 0.983333333333333
-0.0130856584183771 0.112260170125664 0.98531559419286
-0.0161221157734894 0.110072709572487 0.987494349694723
-0.0269809277944568 0.106826767047099 0.991666666666667
-0.0656956552472914 0.109014697756297 0.979166666666667
-0.0692714246835195 0.114810130135858 0.983333333333333
-0.0825621272552981 0.11795282207846 0.983333333333333
-0.109842462903737 0.11055684456837 0.983333333333333
-0.122656351014005 0.119258865399265 0.983333333333333
-0.138800904417019 0.114675611263069 0.983333333333333
-0.1553561436919 0.118822867184526 0.983333333333333
-0.172499346200719 0.120465731078015 0.983333333333333
-0.183880169608061 0.115875429514965 0.983333333333333
-0.187664163431435 0.121872213583945 0.989209100361663
-0.195828549133787 0.116466541653609 1.0
0.239596918576913 0.112433943049088 0.22706207534898
0.241934205328644 0.106791233673906 0.241215287694227
0.241961962957345 0.106724220830236 0.250598014987533
0.241317599627794 0.108279851519534 0.255669907393408
0.238476740480783 0.11513829220104 0.263866238174136
0.239217448647454 0.113350064499301 0.273517081423116
0.241533443056536 0.107758759386517 0.286695120895251
0.241359934028054 0.108177647236269 0.302697683462605
0.238935604185243 0.114030497222451 0.30325886257486
0.240784246480042 0.109567479922372 0.315637449557554
0.240271001975258 0.110806561766634 0.322593901419848
0.240376712336986 0.110551354377666 0.328617676801115
0.238950741994681 0.1139939513176 0.339889963094046
0.241513509347131 0.107806883618109 0.346478450408258
0.238582659648061 0.11488258071088 0.353773586784146
0.239175533145163 0.113451257473405 0.364134740095938
0.24189364474462 0.106889155585952 0.379701038366308
0.238618694455624 0.114795584989744 0.390471925535146
0.239474683150225 0.112729045474003 0.394820587146857
0.241898922351218 0.106876414316529 0.410198450318713
0.239801584222016 0.111939836472928 0.41241863896922
0.239655065880807 0.112293563039411 0.418891841029672
0.241957881452111 0.106734074455525 0.438392188252263
0.239527072161672 0.112602567212047 0.438267196670485
0.240939708983211 0.109192160238779 0.455807855296019
0.240948161669796 0.109171753648188 0.463603690784439
0.238587373396893 0.114871200714521 0.471491100845056
0.241962041510911 0.10672403118515 0.481775411378225
0.239305081550632 0.11313849995594 0.492932919586069
0.240232781956897 0.110898833053315 0.496752346845642
0.238916893093044 0.114075669795003 0.506114934219147
0.241910672378574 0.106848047241125 0.52115346936226
0.241950819935392 0.106751122464961 0.528712143260442
0.240457844211448 0.110355484706 0.539463747076199
0.240104676967669 0.111208105855717 0.545010373294969
0.242394119580752 0.105680902448934 0.558085031256685
0.24139961112534 0.108081858249888 0.560727738750516
0.239252321672671 0.113265873568862 0.573135840535674
0.241014123730935 0.109012507145583 0.577379436018768
0.241430728773182 0.108006733602437 0.592664317233232
0.241499443674684 0.107840841155296 0.593421339934901
0.238709256504739 0.114576948862535 0.606818999175631
0.239028968785722 0.113805095137729 0.615490701399361
0.241988223614603 0.106660821995327 0.634505906422382
0.241211182124872 0.10853676609836 0.633330901867047
0.241120666337484 0.108755290539883 0.643707148080165
0.240356132477086 0.11060103855455 0.656729003144527
0.239205531757852 0.113378834415802 0.662433050168087
0.240149093458294 0.111100874961657 0.676781624164199
0.239459572918761 0.112765524799733 0.676336232347685
0.241726207978245 0.107293383698176 0.693367738845799
0.241725806764135 0.107294352314721 0.697025389979786
0.24178871017568 0.10714249004545 0.706728595692089
0.239117331900253 0.113591767708213 0.719912819758683
0.241845223818318 0.107006054042935 0.731648786859814
0.240071396983953 0.111288450843757 0.741121513285282
0.242045946467982 0.106521466699842 0.746234341497653
0.240722446479728 0.109716678321283 0.760879673420124
0.241855506945257 0.106981228378414 0.768668625746647
0.241519382255336 0.107792705163471 0.781807745213694
0.241950678910707 0.106751462928667 0.785002418921792
0.239476030561223 0.112725792536094 0.790226856257741
0.239851455415996 0.111819436760052 0.808361843263221
0.241957180828725 0.106735765910007 0.813109161913562
0.241962491299816 0.106722945298677 0.822209186482398
0.242312270243886 0.105878504228069 0.833675650702684
0.242211789774861 0.106121085539145 0.834090704825879
0.24157671203691 0.107654298827266 0.848667335808288
0.241787945094332 0.107144337115216 0.861029673063919
0.238705695158853 0.114585546712075 0.862169204785879
0.239075105512436 0.113693711226375 0.866642739901314
0.234980870696851 0.114530133348187 0.883775897358433
0.235201552612321 0.110747814998365 0.886927740706761
0.231380213928069 0.115144539044651 0.891611360182224
0.227578451842678 0.108102369328904 0.907344107355586
0.225697920152418 0.110753557610047 0.909176134492155
0.221509872881073 0.113083439019744 0.916723149118899
0.218632714586299 0.110526718028356 0.925940230985841
0.215477516477632 0.113963772233693 0.929994813747526
0.213200883635421 0.112255830094776 0.936982429683003
0.210320153604935 0.111770300742677 0.944198956609199
0.208607300805608 0.110539599852675 0.949403517512335
0.204812081287235 0.11156919533313 0.957291867179652
0.201948520959745 0.109133191816392 0.966360019727892
0.200653710484594 0.111942988359217 0.975109055795172
0.200304224762781 0.112786721528674 0.9852387857823
0.199812039409274 0.113974962084313 0.995324301632938
0.196200634835429 0.114143142306765 1.0
0.163941858886803 0.110114670344176 0.983333333333333
0.14692920140344 0.114519854202929 0.983333333333333
0.131751748325743 0.119316488262986 0.983333333333334
0.1132538465395 0.119039622185824 0.983333333333333
0.106386727553662 0.110872679830286 0.983333333333333
0.0960837294068336 0.114062751030667 0.983333333333333
0.0795913230024879 0.114104769343615 0.983333333333333
0.0642182621058799 0.122322818982978 0.983333333333333
0.047204878463058 0.113140400390655 0.981876120364216
0.0343342952892873 0.118826351480364 0.983333333333333
0.0284838904454742 0.119764937227868 0.988574584348508
0.0250300282657318 0.121930390870691 0.991677168407201
-0.00547023202559078 0.123582509788713 0.991666666666666
-0.00896424127674749 0.116590507703216 0.991666666666667
-0.0530365920584113 0.121820101484298 0.979166666666667
-0.0614142577454108 0.118590385516416 0.979166666666667
-0.0782398405553234 0.120607705600146 0.983333333333333
-0.0822408742114601 0.124006752887223 0.983333333333333
-0.110045695343287 0.128735757475229 0.983333333333333
-0.113219401398147 0.127603436870072 0.983333333333333
-0.129097553358796 0.126034999852683 0.983333333333333
-0.151979635372008 0.129604452124995 0.983333333333333
-0.172227339228223 0.124829505324451 0.983333333333333
-0.183632373437615 0.127126544601858 0.988186304955844
-0.18194627332879 0.129323913044829 0.995917029809981
0.235046433805463 0.123419785099695 0.230693479764912
0.237294762664402 0.117991839075771 0.241373572313341
0.236165003345207 0.120719319346388 0.240110793787889
0.237560671284145 0.117349878879634 0.260101532913252
0.238363541231181 0.11541157936468 0.259403217406976
0.237515883074405 0.117458007183023 0.277101644002153
0.237544331744245 0.117389326018463 0.28298658270601
0.237949541407196 0.116411063354563 0.298143783663108
0.234518366028041 0.1246946534898 0.297498679285936
0.237607339502022 0.117237211835102 0.312821296458604
0.235780226742864 0.121648252238249 0.317994901077596
0.235508757099385 0.122303637933308 0.32604940008601
0.238258281568353 0.115665698670247 0.342737699881726
0.236566878942095 0.119749105829994 0.346070567496937
0.235972655724102 0.121183687581948 0.353685782823466
0.235245831222206 0.122938397151892 0.36365803547005
0.235165667994076 0.123131928304446 0.376656770370957
0.236559583991724 0.119766717398116 0.384790690990808
0.238564660582887 0.114926034298134 0.39941233713173
0.238078069359325 0.11610076942939 0.404815849833486
0.237353828072321 0.117849242566906 0.413848448509016
0.23821164809722 0.115778281828719 0.424019080226626
0.236864060876142 0.119031645174325 0.428115597145102
0.23534873431322 0.122689967113955 0.439149475498025
0.23792702500196 0.11646542276546 0.444976715437942
0.235038134750509 0.123439820790719 0.455252501027474
0.237893015410203 0.116547529183131 0.467776893131756
0.237014231307658 0.118669101681894 0.478194887574982
0.235276801427257 0.122863628462828 0.486106616880262
0.237001210544552 0.118700536584777 0.499922919518752
0.238067871519023 0.116125389193754 0.509147881414921
0.238287898039475 0.115594198183997 0.508965786989296
0.23597872591488 0.121169032845047 0.516968599424604
0.235754287027041 0.121710876251991 0.535712426429567
0.234724886456513 0.124196069070474 0.534161841396277
0.237837597198805 0.11668132058069 0.554676528791272
0.235187349044911 0.123079585617475 0.558304950916697
0.23835456010206 0.115433261728407 0.565015188310141
0.236951316137182 0.118820992339735 0.574905832354436
0.237370708621446 0.117808489316267 0.584160874784282
0.235099075769816 0.123292696155403 0.595907159187967
0.234573214106454 0.124562238515026 0.598221000749368
0.235320495343839 0.122758142016821 0.613014784257116
0.23587345390347 0.121423181962732 0.624488241164586
0.235207057565175 0.123032005040558 0.63284635503738
0.236852249836487 0.119060159546446 0.63897629198877
0.238148568217729 0.1159305701293 0.651831329658895
0.235682881399799 0.121883264685708 0.664419007669783
0.236295620663242 0.120403981245708 0.676014639765862
0.236483710254893 0.119949892802603 0.685015245998127
0.237840579708657 0.116674120164956 0.683100474212237
0.236528379657244 0.119842051325622 0.6978757363455
0.235911245432997 0.121331945139603 0.708344593761207
0.235696632053689 0.121850067670597 0.715064522263431
0.237176032618201 0.118278478763568 0.725227582484062
0.234935170762893 0.123688397846058 0.731407412872796
0.235201128772413 0.123046318412454 0.742291358649884
0.235892586549458 0.121376991669302 0.749004801509928
0.236825890461766 0.119123796706393 0.763107674620475
0.235393129963163 0.122582786533754 0.766757785326301
0.238348033372963 0.11544901864631 0.779867633423752
0.235582006369351 0.122126798552323 0.786265028800144
0.237135529195337 0.118376262676372 0.795912280244788
0.237090906972204 0.118483990252641 0.808557337932137
0.236926765720341 0.118880262289032 0.814282417830163
0.234648294738804 0.124380977834134 0.821716713372498
0.237068693764336 0.11853761768034 0.836608513334232
0.236572360224684 0.119735872843229 0.846145133435884
0.236958522923931 0.118803593617423 0.854464611704156
0.236726086280957 0.119364745313284 0.864263697846028
0.236598561076791 0.116831494947493 0.877755701433724
0.23427735221408 0.119025662311133 0.881062910198391
0.231163117189632 0.123467452899094 0.884047044991713
0.230407715710304 0.116462199935808 0.892610544675325
0.226744216118774 0.118955980844637 0.898770292565404
0.222611206926301 0.121239756442428 0.906233148114398
0.2187671799927 0.125127082665205 0.911463977136929
0.215182334035608 0.121081428263983 0.923782366366525
0.214289895449435 0.123000820525623 0.92401044150578
0.20858390509095 0.11972005100747 0.940553872401843
0.205723018770163 0.123805717745479 0.94040709861953
0.20205560306235 0.124646578899996 0.946484141346158
0.198832843088537 0.12402624637614 0.953921606666349
0.199063538479421 0.117799965394983 0.963064512951116
0.193458594396844 0.122769869475123 0.969374402099126
0.195422060785674 0.120211030258476 0.980226978419755
0.196815850472962 0.1183946081736 0.994673760369024
0.189807927509324 0.122145998058512 1.0
0.191067358574913 0.125886188670709 0.998891221128953
0.146307501947896 0.127145645572203 0.983333333333333
0.13225457088396 0.126411254874764 0.983333333333333
0.123640245527444 0.121445641801442 0.983333333333333
0.113108421094857 0.127999282672124 0.983333333333333
0.0865361923303576 0.122461363267193 0.983333333333334
0.0781940237503898 0.12183136503864 0.983333333333333
0.048627985793041 0.130981669481201 0.979166666666667
0.0494709424702549 0.125133712988422 0.979166666666667
0.0241062564555768 0.125368239384952 0.983333333333333
0.0219816081488157 0.127668923383645 0.983333333333333
-0.000686722198605339 0.134666013901158 0.983333333333333
-0.00389438066339494 0.125193038265155 0.991666666666667
-0.0281248462779228 0.129331211590061 0.983333333333333
-0.0342575888792054 0.126837428267159 0.983333333333333
-0.0585460337402979 0.132573220003302 0.979166666666667
-0.0780974632480832 0.129457284930412 0.983333333333333
-0.085105259219355 0.13005374452279 0.983333333333333
-0.109031028810825 0.136932947386009 0.983333333333333
-0.121632464910171 0.136587646157642 0.983333333333333
-0.13709176045897 0.134993119677457 0.983333333333333
-0.152922746240153 0.136276293975764 0.983333333333333
-0.17631322576764 0.136665043552942 0.980007603600738
-0.178576343246791 0.133715691432391 0.987588830879558
0.231749098753355 0.131380256102183 0.217788072384041
0.23406341440836 0.125793003860257 0.231689701053922
0.23194344937006 0.130911052207477 0.241923010595881
0.231789257568183 0.131283304146776 0.25413175380038
0.234276741173875 0.125277987489733 0.268441026622451
0.233443922462574 0.127288589717554 0.267249863956561
0.231571597308715 0.131808782497173 0.283829608461917
0.230597633123596 0.133779654859383 0.286302964096778
0.231832286452829 0.13117942322989 0.299730517618998
0.232983862012004 0.12839927389683 0.305320294366484
0.233879764804934 0.126236373223573 0.324057474465581
0.230669165739885 0.133686431738849 0.321063225601578
0.231186657959878 0.132738108293826 0.332289841571093
0.23195858394269 0.130874514116974 0.341779983175454
0.234244898874882 0.125354861599819 0.357590200031468
0.230633075021751 0.133733466078446 0.364404023430899
0.231194074754769 0.132720202567012 0.371124506137313
0.231528224151699 0.131913494561086 0.372124234060024
0.232020174925967 0.130725820329827 0.390254868838539
0.234154723959554 0.125572563103389 0.40736865182553
0.232532903367139 0.129487984373334 0.403913350377925
0.233054561500647 0.128228590232497 0.417720558095413
0.234240497542004 0.125365487357346 0.434419006941187
0.234173724879248 0.125526690825368 0.43639105305425
0.234599106226799 0.124499729406929 0.452743999808308
0.233070528648974 0.128190042126453 0.458741966305336
0.231638070628285 0.131648301707531 0.462441888565229
0.233358129849878 0.127495711406677 0.476836307039176
0.232836302233949 0.128755514714273 0.479290566412366
0.23126059341477 0.132559612315886 0.491771685774447
0.231037407992434 0.133098429589413 0.499719248775255
0.232729901788092 0.129012388113703 0.511891484910635
0.231840339946559 0.131159980376101 0.509832015786171
0.232375985069749 0.129866818655078 0.524244007793911
0.232991379521921 0.128381125022436 0.54230141709173
0.233165289306357 0.127961269662219 0.543912690059737
0.231677207079143 0.131553817957086 0.55292957840258
0.234164696516122 0.12554848722207 0.568992481023652
0.232641096340308 0.129226783430158 0.574880062706888
0.233806173396111 0.126414038600826 0.580273161722402
0.232883360291957 0.128641906512411 0.597963732471813
0.231740503922218 0.131401005860079 0.598307047882766
0.232760068476308 0.128939559285883 0.611651093665472
0.231670180973331 0.131570780477029 0.611121667859077
0.231791859888784 0.131277021589089 0.63029820051946
0.232260248361838 0.130146231784981 0.640453915975477
0.232634027542456 0.1292438490178 0.64450087115166
0.231603371649623 0.131732072452418 0.660532819555678
0.231554878973307 0.131849144129256 0.66375697673508
0.232251801515891 0.130166624275026 0.673126366484188
0.231245272223777 0.132596600942974 0.685403818951299
0.234174997479645 0.125523618496228 0.695957142775544
0.231757909532792 0.13135898499897 0.700794765395381
0.232182420104267 0.130334125819943 0.712485504878456
0.231890530723169 0.131038809122505 0.723434970952492
0.231104695581198 0.132935982980041 0.731655532721123
0.232507491406568 0.129549334273193 0.746551437598616
0.231406815453752 0.132206601086258 0.749745061387293
0.23393685969779 0.126098533958897 0.762075863438437
0.233091738584124 0.128138836813359 0.765825932198445
0.234160767840046 0.125557971885136 0.778081382356526
0.232651561849126 0.129201517456831 0.784693390829676
0.232522657122706 0.129512720995608 0.797851613816563
0.23253801909712 0.129475633908632 0.798985491649024
0.230995859398067 0.13326067627436 0.82046833754627
0.2336552002415 0.126778520038244 0.824526669610808
0.232813086884198 0.128811561526498 0.831142217409598
0.23240498785348 0.129796799741248 0.838893725246477
0.230638096621498 0.133726921802243 0.848256206656872
0.234579675839684 0.124546638511025 0.864205122192011
0.23074453417714 0.133588209679107 0.870597530942942
0.231187179692063 0.125756890265695 0.881770097078387
0.231439079479862 0.127168008521056 0.879811550517124
0.226505078033498 0.131329684876881 0.887009474039145
0.222168594155756 0.130855732059168 0.896460560935336
0.216269297278351 0.13027743070448 0.909215157196971
0.212091354021138 0.132971222240133 0.913459805523224
0.212193302089299 0.128453320690295 0.920225667109721
0.211057553649889 0.127608750774652 0.923812553165965
0.201174924951317 0.132942570168711 0.935454778467573
0.201225125192686 0.135195714251774 0.931877365746011
0.200490758920735 0.130489414000806 0.940615577107324
0.197467841696761 0.129552162602277 0.948140185820902
0.192981512939708 0.129409111280862 0.957382019194482
0.186676857697916 0.131608000813093 0.97047196079872
0.186649947490196 0.131643070878582 0.970411872813487
0.18874012953325 0.128919092606217 0.986257393374046
0.185984569071848 0.132510208915914 0.994210988969343
0.183895408288118 0.135232856257216 1.0
0.137957775135582 0.133733637841874 0.983333333333333
0.128912500491608 0.129961440376115 0.983333333333334
0.125881506749419 0.133703020893854 0.983333333333333
0.10284824460979 0.136555545280112 0.983333333333333
0.0916054376883617 0.133368385015911 0.983333333333334
0.0810789014826825 0.136739999753072 0.983333333333333
0.0673204929442689 0.135235442507157 0.983333333333333
0.0420874716857393 0.141500936502619 0.983346444120762
0.0321548209320359 0.142823697103779 0.983333333333333
0.00863347890008747 0.143861819598387 0.983333333333333
0.0113391582860336 0.13701862867381 0.983333333333333
-0.0179733321534109 0.139620611048291 0.983333333333333
-0.0193366893860955 0.141492974894344 0.983333333333333
-0.0504548802346278 0.146580627430667 0.979166666666667
-0.0586658030672593 0.142083024226367 0.979166666666667
-0.0789741255882374 0.147210764001204 0.983333333333333
-0.0874299463499418 0.141012801228804 0.983333333333333
-0.107652023640122 0.146701677058472 0.983333333333333
-0.109343174589671 0.14050583764146 0.983333333333333
-0.13582775669163 0.144139333144678 0.983333333333333
-0.153855711095741 0.14682264703933 0.983333333333333
-0.162077522823808 0.142278669255465 0.983333333333333
-0.168502173707057 0.149916092429002 1.0
-0.168863909639215 0.150950108367115 1.0
0.2285662980924 0.136426942212779 0.221887277685698
0.225567303348768 0.140335308255698 0.218762690382871
0.223466819262807 0.143072712411772 0.237435169016615
0.224644059711057 0.141538502789677 0.243442395467179
0.224142979109883 0.142191523742966 0.253624370617083
0.229783877815545 0.134840161424119 0.266612842504214
0.227029507909725 0.138429726171574 0.268841229630735
0.224223580662032 0.142086481755115 0.276020007287195
0.229134270210705 0.135686746537137 0.29118094301869
0.226686373185655 0.138876908050285 0.304800957114389
0.225688776976493 0.140177000741915 0.3135232901547
0.228259208705929 0.136827148892959 0.315069828259217
0.226341907700171 0.139325824211036 0.324831531835305
0.223651922471155 0.142831481214057 0.328623391416792
0.224252142069788 0.142049259803843 0.34269935697525
0.225114160048033 0.140925856102749 0.353191796138826
0.226980877237568 0.138493102897427 0.360103114137928
0.227099949378279 0.138337925062455 0.376132481641394
0.226541318272825 0.13906594729314 0.387576623457961
0.223489246205391 0.143043485051161 0.389696846860953
0.224986803244696 0.141091830720261 0.397745776090181
0.225451315109465 0.140486467072108 0.405322216415706
0.229894116816714 0.13469649516072 0.423269175646635
0.229964632834776 0.134604596896789 0.432346233755891
0.223663017433885 0.142817021977118 0.43851965658762
0.229046609765524 0.135800987853492 0.450684208428119
0.225981788784626 0.139795140319014 0.456268454080578
0.223476861655393 0.143059624910949 0.460180193638074
0.227715814711065 0.137535313734514 0.482126854738778
0.226115069680683 0.139621445273558 0.487482901048857
0.226778021077324 0.138757470192496 0.487976618359984
0.224140776814434 0.142194393830274 0.498885536755839
0.228972287699992 0.135897846255055 0.514259276731578
0.227356474814528 0.138003614605155 0.525563124802241
0.225100137971801 0.140944130028275 0.537181823910645
0.226930737064415 0.13855844684328 0.541242481819637
0.224493802806116 0.141734321400641 0.547980295782774
0.23054485578592 0.133848435624953 0.56884799577359
0.225679516851973 0.140189068771146 0.572061432335041
0.224389279644915 0.141870538636366 0.57939204750683
0.227211508776624 0.138192538023952 0.586811159786388
0.223872654384779 0.142543817783628 0.593934252656528
0.227472972978975 0.137851791241359 0.60737668730841
0.22637427267769 0.139283645351142 0.615855458151377
0.227459850050208 0.137868893375094 0.623205519906011
0.224117120226616 0.142225223695752 0.636381777960097
0.229762885207859 0.134867519523097 0.648600912475859
0.223783491042105 0.142660017714127 0.648919318054121
0.224776397839355 0.141366036383085 0.658879746903923
0.225178162618194 0.140842446329388 0.667813377905361
0.223984975539938 0.142397438004317 0.676939096160625
0.228759678950982 0.136174923371253 0.686500878288444
0.230080666373458 0.134453379045079 0.700747849330359
0.227803622543325 0.137420880339579 0.711492278508011
0.224909314231765 0.14119281636803 0.716038969334281
0.229974759713553 0.134591399291418 0.725957373473042
0.224377394468635 0.141886027699657 0.732456763871193
0.229477391857583 0.135239581700955 0.751431243513992
0.224015579351912 0.142357554340048 0.754727991161067
0.230438070477359 0.133987600948518 0.765377102502938
0.224136570332119 0.142199875824756 0.773692639560258
0.224045484207356 0.142318581573661 0.78183433686026
0.229619513678365 0.135054364938078 0.798414444624809
0.228376692946416 0.136674040449847 0.800496528369159
0.225139311881701 0.140893077594938 0.810387746023107
0.225971692870298 0.139808297570729 0.815623072815795
0.229828430884692 0.134782098733969 0.827768968979101
0.227566194871155 0.137730302106165 0.834932850606893
0.227745958862146 0.137496029111983 0.844670994139549
0.224280193962975 0.142012701864885 0.858503166986638
0.224058093953566 0.142302148232456 0.861657018880391
0.223032321169218 0.143638961351787 0.867427355335564
0.221473423934808 0.143346294268404 0.878586200085754
0.220283758805363 0.13952840027695 0.886869167667359
0.218076963729047 0.135735400686769 0.897158970364191
0.214228414270793 0.140346433069033 0.897783082457452
0.21106333159231 0.141020286786983 0.903107716262967
0.206633284268935 0.142386006631486 0.909908432887015
0.204813454093949 0.136467558497265 0.92269956950407
0.198636411662279 0.142840242078934 0.925287692011542
0.199446375759566 0.136561925643878 0.933346091982914
0.192338516643204 0.13886095043423 0.944091319591827
0.186574049212911 0.14367997841787 0.948247036010672
0.18516329290707 0.14209431355317 0.953530374433513
0.180956929498097 0.142220730070277 0.961793480083425
0.179252577092081 0.14128351167371 0.971829526518669
0.177478393632899 0.143595672573791 0.976816700466955
0.182749766941406 0.136725885128426 0.987820221694217
0.181392064058391 0.138495277974353 0.998296147611501
0.140861341572197 0.146312116391381 0.983333333333333
0.137706854803624 0.142781809910531 0.983333333333333
0.121611700877036 0.140486967613475 0.983333333333333
0.0984410835830224 0.148712297746348 0.983333333333333
0.0945732746760213 0.145208620117773 0.983333333333333
0.0695717990381591 0.146512033630071 0.983333333333333
0.0602141541927561 0.144266024134266 0.983333333333333
0.040484086937315 0.150386853342489 0.980659822127342
0.0365376223673834 0.151596061315915 0.983333333333333
0.0134495713545748 0.145361342628974 0.983333333333333
0.0112253804760998 0.147397418717425 0.983333333333333
-0.00658083045769414 0.15304810226053 0.983333333333333
-0.0219789276046679 0.155764807783506 0.983333333333333
-0.0280232957971784 0.150395241449429 0.983333333333333
-0.0581549144318256 0.153583286866363 0.981310893486903
-0.0735758891450122 0.149419397373512 0.983333333333333
-0.0834930569827613 0.151003005841902 0.983333333333333
-0.101732961982161 0.152712074368423 0.983333333333333
-0.112947765172453 0.154526323490368 0.983333333333333
-0.138397722000373 0.154841017354319 0.983333333333333
-0.160541838323401 0.157218715835182 0.981692950246057
-0.16095658772464 0.156678203892117 0.982785659280428
-0.15803780871324 0.159735048754667 1.0
0.219546472856412 0.148181807318912 0.210589902036981
0.216268319163309 0.152453980387838 0.212128097725253
0.21562635154775 0.153290608872976 0.218789238324651
0.221621140872863 0.145478047319651 0.243008826962221
0.21906083569467 0.148814701990089 0.243509201212717
0.221249647008523 0.145962187549513 0.252884211994839
0.220524557345839 0.146907142795509 0.264408503074446
0.219086302797798 0.148781512615119 0.274912289556173
0.223062259953108 0.143599944368989 0.283572758568854
0.218014887829223 0.150177807787009 0.294587967867788
0.219728285166314 0.147944864903552 0.304142883921124
0.222276719085202 0.144623681159449 0.312463370614274
0.217068267826199 0.151411466993388 0.321705797515593
0.217260909039034 0.151160412076968 0.335760088453009
0.221486980434024 0.145652888607578 0.339151286081711
0.216781365330814 0.151785365604907 0.342484723200373
0.223345900149555 0.143230297268223 0.362939433819257
0.219602410432709 0.148108908050186 0.36421010670919
0.219636642318296 0.14806429618833 0.375518571136926
0.220194729388077 0.147336982958736 0.385397881147499
0.221982636860976 0.145006936575762 0.400799630585569
0.220298471137261 0.147201784078976 0.408411586280346
0.21892905074872 0.14898644747541 0.412542420514676
0.222611660879101 0.144187176515214 0.419456105640508
0.222838343266065 0.143891758276947 0.436923677312611
0.221304273215529 0.145890997290521 0.437306796255921
0.220057033110705 0.147516432241153 0.455490308013025
0.218504067229102 0.149540296781215 0.461116289744405
0.215928996923098 0.152896193740849 0.465431834476558
0.216938815905844 0.151580172020557 0.479827592465331
0.216855674909571 0.151688523476424 0.485983387521797
0.218911876782268 0.149008829024243 0.494229037963894
0.222185196841963 0.144742955269017 0.505298234545793
0.223099848173245 0.143550958446787 0.520518183263714
0.216812197818702 0.151745183924382 0.525628462728399
0.219593391836287 0.148120661313872 0.540929170444713
0.216365988012715 0.152326695865155 0.547720264953575
0.215784364174919 0.153084682808019 0.546069585529825
0.215888535360191 0.152948924276254 0.557870475127343
0.220527094646894 0.146903836120396 0.569532626666189
0.217835653556792 0.150411390438524 0.579820435748197
0.222811536331515 0.143926693754222 0.59059467994073
0.221193511770072 0.146035344416573 0.60269271593794
0.218186189623623 0.149954562942132 0.606757747776622
0.222866556995845 0.143854989428435 0.617533075693468
0.221278244746912 0.14592491825124 0.629993658665448
0.216992346643973 0.151510409404402 0.635721943767184
0.216402116384562 0.152279612454285 0.643018922039313
0.220497543843773 0.14694234747681 0.659667223931852
0.219550002205251 0.148177207781956 0.669331710892385
0.216786669412755 0.15177845319074 0.666117924345332
0.218557870089056 0.14947017952899 0.682782790928216
0.221903214144386 0.145110442275202 0.691405737950892
0.216182554500734 0.152565751072198 0.696857378583438
0.219684233567796 0.148002274064456 0.711420754079777
0.217280478777167 0.151134908297693 0.721200508308703
0.222838377937725 0.143891713091961 0.729378843541075
0.218529153956682 0.149507603121311 0.734375987946307
0.221781153874042 0.145269514316529 0.751413854977429
0.217263892912206 0.15115652341774 0.746892772705814
0.220925295504111 0.146384890659784 0.770281910547424
0.221831028440588 0.145204516515947 0.779939475963162
0.218616765239044 0.14939342587519 0.785258756662618
0.219238363446444 0.148583343319594 0.789635731587065
0.218482582004636 0.149568296870881 0.802650064444841
0.216409599208806 0.152269860647869 0.816887704476762
0.221253163569921 0.145957604677475 0.820654583986182
0.222535637277364 0.144286252401933 0.829420224037974
0.216857138778216 0.151686615725664 0.836225155536491
0.22163796085597 0.145456127090895 0.856534938598987
0.216896701756657 0.151635056248335 0.862373627514331
0.218738608881817 0.149234636148409 0.863106030270838
0.221616401841893 0.144608268768986 0.876351546871276
0.213672730099 0.149845106603092 0.884244552842802
0.208268927783264 0.151966659688547 0.891837090148496
0.210108160794716 0.146164064054689 0.897091825871447
0.202756144304895 0.152239311511662 0.90250151378192
0.202613901062871 0.148319009385586 0.908836334363589
0.19768840253449 0.146995496923875 0.920782633428235
0.191252693019749 0.152535467994867 0.925175710801073
0.192674780155428 0.14638585902964 0.93180466514163
0.186726880473246 0.152308192381407 0.934626891385741
0.182272277139226 0.151999132431254 0.944061072894088
0.178629284121358 0.154334788444999 0.947782625085901
0.175697142136487 0.151821960254114 0.957555726060573
0.175244028793375 0.147086423000442 0.965773504795036
0.174003638816064 0.148124061215493 0.969892633761259
0.172593469743004 0.149961829331499 0.985499232511386
0.173462995086358 0.148828641841713 0.993992956686204
0.166736798425063 0.149145286646958 1.00013407440837
0.133669551398006 0.149531319571163 0.983333333333333
