ply
format ascii 1.0
element vertex 855
property float x
property float y
property float z
end_header
-0.0027294735900018 0.00611716616068045 0.959591816446674
0.081917261549525 -0.0835387182743839 0.874225793579934
0.00841795830862731 -0.00571286864555395 0.959592829575979
0.0282378915677177 -0.0234878271221159 0.959586307154426
0.0302138740920212 -0.0311785252831392 0.958849193955347
0.0466578277475925 -0.0508977422979624 0.958117491297301
0.0463629947691238 -0.0517709551921031 0.966338180583452
0.0485235255438769 -0.0453720667756793 0.978894652451923
0.0484964134527779 -0.0450387799453169 0.986313884676829
0.0495034409167163 -0.0493391189610057 0.994634760164465
-0.202052935156806 0.210399024910307 0.284571456888395
-0.199211690034041 0.211805920951845 0.28866585394166
-0.194999892445551 0.213141676688036 0.297760425668499
-0.197990527550774 0.212410602557813 0.313089546368559
-0.198285968766382 0.212264309274838 0.31541651883545
-0.19846595102543 0.212175187669041 0.321927376837751
-0.200833410718388 0.211002895407513 0.340150155092114
-0.199633070934311 0.211597266261751 0.345675285345358
-0.199546424282179 0.211640170983671 0.350457425521446
-0.193616251706416 0.213419239928555 0.355539261633789
-0.192888044501705 0.213565320877022 0.370731462624587
-0.196913774655838 0.212757745127454 0.374140819587701
-0.198561565928365 0.212127842148808 0.395381653529974
-0.19754532194051 0.212631054501833 0.402785488045585
-0.197577723811747 0.212615010104953 0.404949797414658
-0.200515928408582 0.211160102753457 0.40969128841463
-0.200174361280298 0.211329236150943 0.428333572998325
-0.196429445715869 0.212854903230893 0.43066835945297
-0.198742886894217 0.21203805765712 0.448847228650167
-0.198718126263625 0.212050318349761 0.45940651633985
-0.195138801270395 0.213113811085014 0.465540936323009
-0.19419841635869 0.213302455634171 0.471556779540802
-0.196387061833647 0.212863405588017 0.478584882652141
-0.199037898172317 0.211891977265801 0.489945109183558
-0.196280168605314 0.212884848748807 0.492553830793105
-0.201111811365514 0.210865040083006 0.510088309862023
-0.198705905774733 0.212056369555026 0.516245939041834
-0.197934485367538 0.212438352900479 0.526036165484741
-0.196704977997492 0.212799630477792 0.530599375965125
-0.195783743167368 0.212984433452651 0.544053393136598
-0.196071059485271 0.21292679678007 0.550420889408287
-0.1990800120465 0.211871123787723 0.556110942516655
-0.199134039150893 0.211844371249303 0.57010537590926
-0.200863297409558 0.210988096449421 0.582098103819023
-0.198388765923664 0.212213407326075 0.586347425819554
-0.201912400721659 0.210468613183042 0.598722618890592
-0.202431370505088 0.210211635519224 0.605381374268807
-0.199071076085863 0.211875548596955 0.61483721197893
-0.198590405255589 0.212113561812702 0.625040011589161
-0.194990734841721 0.213143513735849 0.629626774479439
-0.196427172551505 0.212855359235728 0.638052535173489
-0.194720556475409 0.213197712474547 0.650695237749066
-0.201946656426033 0.210451650825765 0.657819199880839
-0.199412925591717 0.211706275374896 0.674114060797895
-0.193961404282357 0.213350001097447 0.676798530105385
-0.194395808251418 0.213262858120273 0.686934416921324
-0.199377619562241 0.211723757820432 0.69540387328988
-0.204285555734534 0.209293500776577 0.704184296441113
-0.19943870369018 0.211693510863874 0.711696473432298
-0.201563069254092 0.210641591239375 0.723569386327082
-0.201506008675517 0.210669845859677 0.73003798857859
-0.197261079217626 0.21268807460035 0.739780181379403
-0.201079592372632 0.210880993924224 0.755302805994427
-0.201939210695329 0.210455337719574 0.764726852629465
-0.202300320832902 0.210276527232918 0.76589646097965
-0.19567424998748 0.213006398172947 0.771174120401758
-0.198347836266727 0.212233674416678 0.788625360412217
-0.19791513117631 0.21244793649283 0.799501486803559
-0.202194341828601 0.210329004733167 0.806536153200204
-0.198834514148966 0.211992686695998 0.812612511997833
-0.201058583260562 0.210891396981803 0.828427330111028
-0.202601633838067 0.21012732642274 0.830000392235898
-0.198759192870379 0.212029983445877 0.842796533043933
-0.200645232300214 0.211096075495888 0.84653928840297
-0.200645684331282 0.21109585166419 0.852404361529861
-0.196296602104442 0.212881552130588 0.86636301987345
-0.199348589426825 0.211738132638808 0.884068214328518
-0.20180401611111 0.210522281864538 0.884314419105713
-0.202286370202191 0.210283435150495 0.893966786722734
-0.19236095397739 0.213671057105971 0.899483640581091
-0.195188617592963 0.213103817753992 0.917073227471229
-0.19754532194051 0.212631054501833 0.918620471345161
-0.196250850491019 0.212890730066536 0.930676304691764
-0.197787211475573 0.210880739499811 0.940450332145336
-0.192004482600172 0.211131620495877 0.941857765862081
-0.189737907190256 0.20287685890884 0.95279628350158
-0.188472616743572 0.19854166454469 0.958559800663178
-0.184212953229153 0.195694247119503 0.96320918189994
-0.17937637578717 0.193302751332206 0.967431304952565
-0.175283031310458 0.188208760564147 0.974860338432396
-0.172975924904467 0.186244208912377 0.977908957499355
-0.171599012046715 0.182713026816992 0.982690808313746
-0.170386796378112 0.180458691990394 0.992426617326066
-0.167005846265437 0.180159592042065 0.993931040591575
0.0845698561735811 -0.0756824742385754 0.750134411335872
0.0861004082671307 -0.0711494066347311 0.759656968529935
0.0884366684429044 -0.0642300568382839 0.771370289555465
0.0853612857970661 -0.0733384808507884 0.78189808668999
0.0851379552708257 -0.0739999234620635 0.782029539751002
0.0849676026289501 -0.0745044603839821 0.795937996141841
0.085822850534396 -0.0719714550783987 0.812747908366019
0.0864717088745807 -0.0700497179916506 0.819751564149483
0.0868436690449241 -0.0689480759075881 0.828432576559053
0.0870450148987518 -0.0683517457526055 0.84091104801911
0.0836508504156802 -0.0784043124866471 0.849430664948084
0.0839920351762749 -0.0773938185663831 0.860674776333463
-0.0019976255807928 0.0114743231838566 0.959591626829167
0.00905112227687536 0.0047089708056931 0.959592446508303
0.0266563753450442 -0.00703889517478774 0.959586307154426
0.0311561071366809 -0.0196371468498783 0.958849193955347
0.0512156199137993 -0.0373988355304242 0.952706022534501
0.0522940521611212 -0.0311619288043082 0.95613553087071
0.0509554777169366 -0.0381693040234329 0.968293407169176
0.0520932200101418 -0.0343043323230457 0.980852822473124
0.0525270741070262 -0.0384598400879264 0.994349097289898
0.051897354349452 -0.0477695894374224 0.99486358313579
-0.191223942216616 0.213899145698554 0.281032375603168
-0.183224003028726 0.21550396187818 0.281294566280849
-0.188934737256772 0.214358368334096 0.296601527326958
-0.191934869546226 0.213756531154331 0.303101645008739
-0.187596424811492 0.214626838558074 0.304449511794095
-0.188661113856534 0.21441325815882 0.319735204430033
-0.189641985441194 0.214216491839449 0.327453776400517
-0.188762706956563 0.214392878222568 0.340132074706281
-0.187991548192412 0.214547575406222 0.348332268555304
-0.188485411029196 0.214448504769262 0.3514633093734
-0.18913825724891 0.214317541501718 0.362332605506969
-0.190229749945229 0.214098584194936 0.376687409283757
-0.185632660699155 0.215020776605155 0.383837869034351
-0.185463194105896 0.215054772204918 0.385663901000619
-0.188091744514195 0.214527475668642 0.404812968554461
-0.187957249255631 0.214554455894611 0.419074896954957
-0.18316004482256 0.215516792121219 0.412971163613272
-0.192780210737644 0.213586952712616 0.432645973101428
-0.183367074039277 0.215475261325941 0.434292240740352
-0.193062133932411 0.213530397919667 0.445349796299112
-0.192513923575067 0.213640370862041 0.464183554819666
-0.188928834442543 0.214359552459569 0.466970712203931
-0.189144398689306 0.214316309506988 0.477039072999372
-0.187515294766002 0.214643113532995 0.480975124052887
-0.186208807861363 0.214905199440624 0.48756081920652
-0.182227544471916 0.215703854999457 0.499348552124044
-0.189986710245553 0.214147338820837 0.509972616939848
-0.193130035939399 0.213516776536194 0.524037798288618
-0.186506515914712 0.214845478149049 0.524941949667004
-0.193446069712437 0.213453379040242 0.537374664978278
-0.192972944092993 0.213548289717842 0.556361161249898
-0.183179671962157 0.215512854847391 0.554116245402568
-0.187865012463961 0.214572958922215 0.564735909299001
-0.194535005866578 0.21323493458489 0.576872710103277
-0.186997999473957 0.214746884803603 0.584426528553653
-0.186407082751833 0.214865424794246 0.594717211906626
-0.187831809583297 0.214579619537859 0.598123316785943
-0.185605800918144 0.215026164772506 0.606709643288849
-0.182834398725877 0.215582117883392 0.617327282927266
-0.18615494574569 0.214916004372095 0.630552462841004
-0.190887332443827 0.213966670813046 0.643736610039388
-0.18231360921944 0.215686590105803 0.641363454108495
-0.186836290164929 0.214779324264633 0.655309567872109
-0.19463772147996 0.213214329468478 0.66983317920493
-0.188378940583583 0.214469863118339 0.679559119826196
-0.186525552316145 0.214841659379393 0.688527525942676
-0.190102421800407 0.214124126672464 0.692855899631968
-0.189549207414157 0.214235103440788 0.701555152137804
-0.187958800399033 0.214554144729742 0.711038909338283
-0.187576342325941 0.214630867175915 0.717858056287942
-0.190354982682241 0.214073462063648 0.73609179242059
-0.194642861130843 0.213213298436279 0.736759297916811
-0.187282820110195 0.214689748773617 0.744494891851027
-0.192328138222918 0.213677640062727 0.760080218335751
-0.193088620767731 0.213525084566544 0.764816019132484
-0.189879006035406 0.214168944667456 0.770690314506525
-0.189692141295353 0.214206430397184 0.785514176668509
-0.19515216431718 0.213111130410427 0.798219340832843
-0.187646904207421 0.214616712212182 0.803490533656624
-0.183544345823333 0.215439699977216 0.81144119636766
-0.193352805419683 0.213472088188209 0.825674539358587
-0.192908400357838 0.213561237420073 0.828476031883037
-0.187139137911194 0.214718571932427 0.832317931523834
-0.188217715445159 0.214502205453028 0.847476616789058
-0.189063899520917 0.214332457925725 0.86106929032784
-0.182799079604613 0.215589203024406 0.858509382617819
-0.192637022883331 0.213615676704128 0.876978111246896
-0.188439009302155 0.21445781312031 0.883587996494162
-0.184891008008571 0.215169554765783 0.891748743457607
-0.188390517446103 0.214467540758651 0.89947485628636
-0.188595076978863 0.214426505390736 0.917163302741236
-0.186405248064272 0.214865792839079 0.915780269897958
-0.186945577395417 0.214757400858518 0.926049498458264
-0.192432544922697 0.211607985822093 0.941151632434401
-0.187793619618687 0.212837097968105 0.940776700853362
-0.182358093500298 0.208121200863278 0.948069028977972
-0.175238529133673 0.202291568350438 0.957184424970539
-0.169546113079729 0.202652481570881 0.958165319187246
-0.170436478505093 0.199502774270806 0.961896830948618
-0.163677373060468 0.19475737452708 0.96955968240524
-0.16219193677948 0.192784371022675 0.972411900374902
-0.161193984363805 0.189156781640891 0.977219355329587
-0.162157723257816 0.182349700331154 0.985442212240887
-0.157221920081709 0.182938639053926 0.992864204163596
-0.112409126227398 0.141469307465573 0.959580814415275
-0.109515605204991 0.13340143312146 0.959581293612632
0.0904979329571001 -0.0581251673466848 0.771515331570736
0.089796383533232 -0.0602029606993144 0.788001405411486
0.0877628137576049 -0.066225826114288 0.788019338307567
0.0895851794215416 -0.0608284882592964 0.803743661455641
0.0892708644217717 -0.0617594014564795 0.820024053635372
0.0901793799945063 -0.0590686322054954 0.822016213579319
0.0907779625012261 -0.0572957980883974 0.83741955771389
0.0879667844917907 -0.0656217217971807 0.846594179032873
0.0907287326632175 -0.0574416031117997 0.856636670770764
0.0886697593951965 -0.063539706572497 0.865085240203898
0.0893458042449341 -0.0615374506414451 0.869286571945151
0.014971140318137 0.0209842879089582 0.959592049581635
0.0176606768398539 0.00736251586872147 0.959586307154426
0.0361756609249505 -0.015094808130344 0.958849193955347
0.0525660633185582 -0.0269057934490138 0.950032399277534
0.0529059467617724 -0.0215876662332884 0.9667005762132
0.0523010070858695 -0.0310531056906054 0.970106613235147
0.0525975807265135 -0.0264126432577857 0.984511633311894
0.052605216121892 -0.0239181699259994 0.990649519227324
-0.180253323470445 0.216099890735593 0.270545644830417
-0.181561658007897 0.215837434186268 0.279551417050522
-0.178292053790938 0.2164933283906 0.282789279686037
-0.177820167567651 0.216587990440934 0.303032093673251
-0.177594886053473 0.216633182711829 0.301904721002815
-0.177674089116377 0.21661729429645 0.31452042826947
-0.1762320352617 0.21690657541516 0.317212899057044
-0.179696772213419 0.216211536892031 0.330964884436639
-0.183150454028988 0.215518716068431 0.34637059310132
-0.181685975969755 0.21581249556212 0.349283980145686
-0.171831638829019 0.217789310549275 0.354068408856231
-0.177405689481644 0.216671136215283 0.369654017984927
-0.176561051123683 0.216840573666113 0.381659575901757
-0.180218900061679 0.216106796193503 0.393761487601288
-0.181251818139215 0.215899589163034 0.393420505012036
-0.177577593860024 0.216636651587177 0.40423044392612
-0.181929939181048 0.215763555676514 0.412270187549405
-0.178209490126385 0.216509890954591 0.432129913244068
-0.174512453045875 0.217251529707603 0.426570295001597
-0.173958101171007 0.217362734660179 0.435592361255176
-0.177495999160691 0.216653019773308 0.45539414215025
-0.177726526398149 0.216606775191714 0.461750980590296
-0.180221406591274 0.216106293374775 0.464546553450533
-0.178722142448614 0.216407051080198 0.480902247663696
-0.173037177152827 0.21754747528506 0.485044131943625
-0.183985545407359 0.215351193775573 0.498493565122939
-0.176011096889152 0.216950896436437 0.498490590123696
-0.177940486616932 0.216563854012835 0.516556883294561
-0.176833739688496 0.216785871372691 0.524025893622328
-0.173251505968814 0.217504480164275 0.532055412958163
-0.173755900398101 0.217403296852499 0.538283006611923
-0.178747768499448 0.216401910403496 0.551463413710191
-0.171501852581079 0.217855466840477 0.55895900880932
-0.175065196245867 0.217140647460915 0.568792886275321
-0.177527364859948 0.216646727702772 0.584705898528352
-0.174149000333824 0.217324439610933 0.590363111418334
-0.175130512059133 0.217127544877076 0.595570987216351
-0.182509676363622 0.215647258341162 0.611042071903593
-0.177554753471535 0.21664123345013 0.617128405736745
-0.180064104471207 0.216137848738065 0.619072933931225
-0.177862289767626 0.216579540578197 0.640436793145711
-0.174520028591154 0.217250010026348 0.643149835860016
-0.178513498017436 0.216448905893226 0.656416417799232
-0.183070591613726 0.215534736752232 0.667538821927869
-0.174599939045292 0.217233979705777 0.672802739203816
-0.179756158703395 0.216199623751478 0.68258980366939
-0.176514701208257 0.216849871623566 0.684097715953891
-0.17898432253464 0.216354456824898 0.700428874060279
-0.176051582275491 0.216942774924322 0.706854552828034
-0.174071142827356 0.217340058102918 0.714561775461575
-0.179729625975359 0.216204946310842 0.720923608499387
-0.180233107575387 0.216103946115854 0.73311259610836
-0.181655539478014 0.215818601230332 0.740660004802551
-0.175499469008177 0.217053530804281 0.746548395987557
-0.171961484644905 0.217763263018 0.758648687118352
-0.179170542817961 0.216317100375477 0.772268077564418
-0.176391524076725 0.216874581393104 0.776466788069266
-0.175702532592904 0.217012795528848 0.784086043883368
-0.176069251100849 0.216939230495277 0.789049793232219
-0.175714305935797 0.2170104337545 0.804895980091449
-0.177126925572212 0.216727057244387 0.813367754795725
-0.181913566241965 0.215766840146174 0.822637456569408
-0.177926780477751 0.216566603512976 0.835330932312491
-0.180222976929895 0.216105978359277 0.841830449531572
-0.17577776149383 0.216997704344459 0.847417789391005
-0.176887960249872 0.21677499453574 0.861070180634743
-0.178889585190799 0.216373461472138 0.87184679341022
-0.182315550100672 0.215686200758142 0.879777866085961
-0.178956228792589 0.216360092529212 0.890918107376703
-0.17934176868771 0.216282751858608 0.90060245207943
-0.176841268429045 0.216784361080631 0.902098659958439
-0.175862675016529 0.216980670390588 0.911159190013505
-0.183570649108623 0.21543442344488 0.927091832294605
-0.185275534324821 0.215092417422697 0.932265159037462
-0.173536868876515 0.213759735729874 0.94320984982386
-0.177005433943019 0.211987369416516 0.944561941656448
-0.169726882953304 0.208819978826664 0.950373784303862
-0.166766031416441 0.202770486616638 0.958717541313548
-0.16774592982815 0.201872635222612 0.959598305495287
-0.16418276931024 0.196703336652831 0.966988343397149
-0.15495864379481 0.192622241048112 0.974437921142044
-0.15600998418641 0.192729384315253 0.974038475414175
-0.148369480146195 0.185273746397552 0.98532728088507
-0.151156952871155 0.184575219790143 0.987919104709627
-0.146731538611959 0.184571616036865 0.99359324782674
-0.0943351134175519 0.13905604368697 0.959581791688561
-0.0866780966549607 0.125998159304456 0.959582555898469
0.0948206647868796 -0.0453224436104141 0.789294911509859
0.0940221548229686 -0.0476874069880148 0.804719826268393
0.092582329697909 -0.0519517666639217 0.807986569419949
0.094502397036547 -0.0462650637502086 0.820326586807882
0.0948280304973533 -0.0453006284342665 0.833023231434746
0.0945699207244551 -0.0460650774554334 0.840552767492021
0.0935344477755694 -0.0491318589776262 0.848553482918752
0.0923926035280747 -0.0525136825619203 0.858515756064917
0.00639896157894156 0.0369370301768953 0.959590963906405
0.00815061385957611 0.03517321253672 0.959591122900254
0.0200491069832547 0.0171484848452052 0.959586307154426
0.0329542884900039 0.0134230095779456 0.958849193955347
0.0366277902057149 0.00404398033551825 0.958849193955347
0.0533687127085372 -0.0143468069765932 0.958969773302209
0.0538683416530567 -0.0065291555415027 0.968257907427651
0.0532437818904554 -0.0163015888201625 0.978894629600811
0.0537644337195937 -0.00500230772183666 0.99123610513984
0.0537030688185742 -0.00950331341339569 0.992373432249474
-0.164392736787722 0.219281580687102 0.265657281594649
-0.1633171010933 0.219497357023053 0.271694548388279
-0.161269599331826 0.219908093139597 0.274819565741167
-0.172021771819086 0.217751169197 0.295681351566078
-0.170172454016927 0.218122148908279 0.30713016581469
-0.165376987078462 0.219084136587306 0.305531951291595
-0.168147340291271 0.218528393905421 0.317966100844579
-0.1616523361397 0.219831314778239 0.318612702590501
-0.168547314681383 0.218448157623918 0.333488476230911
-0.163970080394908 0.219366367058808 0.34738743208893
-0.167019318739635 0.218754679030159 0.35883516757859
-0.165191130849574 0.219121420006116 0.355222956627547
-0.167658765918292 0.218626403657781 0.375404228363503
-0.165909116533713 0.218977389530936 0.378215140050277
-0.167254510610025 0.218707498706653 0.395696598364475
-0.169513675285032 0.218254302258812 0.403353309100325
-0.16677820078099 0.218803048147992 0.416757327976235
-0.166192604075534 0.218920520924419 0.41468335375779
-0.166105544266178 0.218937985431007 0.431460365498331
-0.174290597901723 0.217296034636516 0.437237496166985
-0.163521487420652 0.219456356400758 0.444920470203742
-0.16776149370779 0.218605796098797 0.45183904090179
-0.168239203464374 0.218509965827025 0.455384204474913
-0.173721007078719 0.217410296576146 0.473838374539528
-0.169581527209026 0.218240690922165 0.480917973901969
-0.170648715456909 0.218026609173955 0.495583442872817
-0.17054964702786 0.218046482652253 0.506920439122325
-0.165004116705128 0.219158935706896 0.505071608860578
-0.169885390334927 0.218179734901202 0.518025951143369
-0.163957014380242 0.2193689881477 0.530287510566308
-0.166820888840423 0.21879448477184 0.533148407748867
-0.169589739741615 0.218239043458994 0.540535493499832
-0.166875562487847 0.21878351704422 0.563124678566354
-0.168348891513525 0.218487962015265 0.559937438717919
-0.167626141947571 0.218632948142037 0.570101255351132
-0.164351080167311 0.219289937152927 0.583170494302308
-0.165516246506972 0.219056200651946 0.593042749425584
-0.167867108323183 0.218584609432298 0.600381532765864
-0.166802284888732 0.218798216790544 0.60802878768673
-0.169344981628994 0.218288142804628 0.615329705489535
-0.172032825453093 0.217748951798807 0.633296568957523
-0.165238880678183 0.219111841221113 0.638396300432423
-0.166376571470578 0.218883616412378 0.644849508897994
-0.161994313245407 0.219762712957724 0.656194865065966
-0.160722197831675 0.22001790382235 0.662783888140715
-0.164011234305789 0.219358111438298 0.672811286218793
-0.171501552442431 0.217855527049354 0.686024476660695
-0.169512470507671 0.218254543941424 0.693498375647356
-0.169428007717247 0.218271487476802 0.702205891161394
-0.165713905902074 0.219016549476122 0.711980779363336
-0.170930999364989 0.217969982020636 0.715767695776075
-0.16379452082473 0.219401584931356 0.721837898273266
-0.165900711338691 0.218979075642874 0.732330520499123
-0.170578734382534 0.218040647625722 0.748037042380532
-0.166800047283563 0.218798665662079 0.755457389138362
-0.170268634683732 0.218102854725333 0.763924814767805
-0.170955582761179 0.217965050504155 0.775319041780323
-0.167845189143898 0.218589006497418 0.788663418582273
-0.17121476120127 0.217913058389678 0.795120555297569
-0.16592003165322 0.218975199919243 0.79970262742616
-0.167915631268536 0.218574875557333 0.813695583663914
-0.170375050294551 0.218081507376309 0.817596086932382
-0.169902242004995 0.218176354396408 0.832373238801479
-0.167316477772652 0.218695067874011 0.831283391744715
-0.170981602732176 0.217959830805671 0.846181740730064
-0.169910758454316 0.218174645966463 0.858539753799596
-0.169573266484506 0.218242348052807 0.865503881135404
-0.172724613453949 0.217610176671826 0.879046580515006
-0.16222746886842 0.219715941112664 0.876756881015872
-0.165695721640288 0.219020197303542 0.890322858856284
-0.163510797994577 0.219458500737547 0.900702716961752
-0.163794541932196 0.219401580697124 0.912902283896959
-0.174612401590171 0.217231479675066 0.918921712598669
-0.17101137741 0.217953857899679 0.929560165709678
-0.172159804373668 0.216898040837142 0.939615280148737
-0.165566344013798 0.21408272328634 0.944812335578692
-0.158424823361657 0.214103227322359 0.946585857827024
-0.15121213142732 0.211102683169194 0.952171558894524
-0.152924881647718 0.203982558670668 0.960682470121855
-0.15678516647478 0.200156689254131 0.964514941355386
-0.148197164937194 0.195752252099404 0.972210347281917
-0.145662356152158 0.194454109756941 0.974479366536839
-0.13909008079554 0.191806305110087 0.979460698772363
-0.127471728159532 0.187199750631102 0.984808714894561
-0.139653400967603 0.186437061319724 0.992997331123066
-0.0892415751909568 0.14659653030401 0.959586307154426
-0.0793316400101635 0.132435158110617 0.959582796946543
-0.0743166449093821 0.123620313034593 0.959583410336284
0.0956450259829468 -0.0403452709649095 0.798416171954612
-0.0530357127171177 0.114449436382555 0.959584826943199
0.0959557772730048 -0.035482972062246 0.832632003911148
0.0960171264773919 -0.0345230462993711 0.83640707133149
0.0955025400855667 -0.0425747356353549 0.843258505457122
0.0956185446089309 -0.0407596227630827 0.854484955037398
0.00384477548776608 0.0555899426054731 0.95959005641832
0.0141759502038455 0.042418839489997 0.959586307154426
0.0145793808340459 0.0399412131350779 0.959586307154425
0.0195317764545203 0.0341568766104761 0.959586307154426
0.036563026878046 0.0201844849287153 0.958849193955347
0.0542607312688785 -0.000389468726123226 0.95158566912474
0.0548070403251351 0.0081585824316364 0.964575326170542
0.0541347440605971 -0.00236077981693951 0.97587236434841
0.0548543444805697 0.00889874651275321 0.984351143719734
0.0563823442622975 0.00403717236192746 0.994513551946106
-0.159356550378623 0.220291857545852 0.256983064576392
-0.155132875080793 0.221139141793426 0.263504666986978
-0.156745491519324 0.220815645215352 0.286184949333391
-0.153622499838721 0.221442128424806 0.279976296875452
-0.156296190961364 0.220905776501102 0.293428429280609
-0.158794818563871 0.220404542940548 0.305795149206407
-0.15454433052478 0.221257205919132 0.302503677362217
-0.151902882857399 0.221787089691332 0.322260670435185
-0.158596623916936 0.220444301489787 0.327111977211823
-0.156882813202458 0.220788097998588 0.340260933053013
-0.155110791210799 0.221143571896086 0.343579799448016
-0.158415579697901 0.220480619602352 0.363349811503558
-0.158061361024754 0.220551677124721 0.369803066060121
-0.154880813245546 0.221189706291726 0.372837547267471
-0.161171684210275 0.219927735260319 0.385054401480797
-0.158701046082691 0.220423354032915 0.39082800705577
-0.156355607344267 0.220893857363921 0.405207326549187
-0.160261918912934 0.220110237406216 0.415442700474769
-0.155719129415534 0.221021537094231 0.425569413201257
-0.159133914956232 0.220336519001349 0.432849239166197
-0.150296617333195 0.222109312253464 0.440007635546297
-0.158664913852315 0.220430602286502 0.452544250535365
-0.159282386049946 0.220306735173271 0.461065836034821
-0.161925940246942 0.219776428823759 0.466354713844307
-0.153263696666313 0.22151410561399 0.477504754208249
-0.154481744337893 0.221269760930236 0.48153918563856
-0.158444799696994 0.220474757966881 0.493491157231873
-0.15712824583003 0.220738863342863 0.502649603621024
-0.154616046014833 0.221242819537428 0.512474409217642
-0.156555923097388 0.220853673313256 0.524146144914031
-0.157664759571163 0.220631236783193 0.53556781743991
-0.157498676331557 0.220664553670212 0.533933336608332
-0.153485091268135 0.221469693071502 0.54705738669325
-0.156004113473713 0.220964368281224 0.550616977089691
-0.16091241410131 0.219979745763898 0.56364758060305
-0.156171429265944 0.220930804139776 0.579382146235651
-0.153626058719522 0.221441414500693 0.581097295736051
-0.156095927274464 0.220945950107098 0.597336572051783
-0.15557535631569 0.221050378488072 0.605821607943901
-0.157856120815872 0.22059284903868 0.619840937222632
-0.154687101725013 0.221228565509907 0.620805864103867
-0.162219375491771 0.21971756467273 0.630505704230648
-0.154776623459405 0.221210607132423 0.639584466377438
-0.158257593070818 0.220512312280178 0.645658977481779
-0.160647039801546 0.220032980789805 0.66480046322293
-0.15902265496278 0.220358838150712 0.669059109989954
-0.160807785708511 0.220000734590646 0.673593216203009
-0.157861236643119 0.220591822785586 0.679062499665602
-0.152852242347545 0.221596644809904 0.689952977971517
-0.151817088287118 0.221804300386473 0.703293018462621
-0.158835388918244 0.220396404383543 0.711597311576104
-0.15836211805853 0.220491344196857 0.730217705324415
-0.160054784429248 0.220151789318421 0.73472040366651
-0.1516016881338 0.221847510421327 0.737132578711102
-0.155833557344514 0.220998582445763 0.753588344653254
-0.155984964889191 0.220968209555206 0.759233302397154
-0.15948753879172 0.220265580805525 0.768985285574523
-0.157213291718916 0.220721802835866 0.773561880225647
-0.153250402716075 0.221516772427565 0.781717618738312
-0.15631492391471 0.220902018604208 0.791930303579652
-0.154990907390476 0.221167621015712 0.803384861731916
-0.159791072789537 0.220204690808822 0.813052899555736
-0.16093444616084 0.219975326054601 0.819188087085652
-0.155469904368687 0.221071532522715 0.836189794715629
-0.155506674526425 0.221064156298637 0.845350985565925
-0.162620736993231 0.21963705013177 0.855431830879028
-0.160339664581748 0.220094641349261 0.860933137888828
-0.161042375543762 0.219953675037524 0.870661164597225
-0.157001860344028 0.220764216719688 0.87525549826522
-0.16135902332527 0.219890154369295 0.885494886443262
-0.15650366866699 0.220864155737358 0.894560928290188
-0.154916176790874 0.221182612239087 0.902432734249308
-0.160154240595374 0.220131838058691 0.914096703346926
-0.157104390871458 0.220743648732174 0.915333933364446
-0.149797722039515 0.222209392419129 0.927966786589073
-0.152676378577692 0.218872305810971 0.942044488420273
-0.154952472110208 0.215081998912338 0.946231425233471
-0.145503851482644 0.215340542263276 0.948287248464445
-0.150194250326093 0.208480412981958 0.95572141677452
-0.141368135279358 0.204314467644946 0.963177283526174
-0.13172519775098 0.205217966249793 0.962122624089584
-0.138023214720774 0.197225706261553 0.972854082386676
-0.124255129699211 0.190294299748665 0.980590000205201
-0.120052072838569 0.192545251755323 0.977369104967154
-0.119327629682602 0.187585119758364 0.983650706307112
-0.12518345850115 0.18557756956338 0.993529742753263
-0.0775841763063046 0.145517007540974 0.959586307154426
-0.0708519357388716 0.134394822978152 0.959586307154426
-0.0560652265988483 0.129741101340587 0.959586307154426
-0.0436614591125103 0.110740342630891 0.959585437065129
-0.0370817236960676 0.107976350622169 0.959585872053937
-0.0240449395139197 0.0999931233871203 0.959586839244222
-0.0171255103769907 0.088464945308686 0.959587658926033
-0.0123847482718595 0.0757157324728681 0.959588424330485
0.0120872407759733 0.0580226697149686 0.959586307154426
0.0133488995553258 0.0536684471679891 0.959586307154426
0.0187052784144144 0.0442262478655693 0.959586307154426
0.0539430788972709 0.0176552552763277 0.950224820785516
0.0550202350379654 0.0114944219000928 0.951048497061279
0.0535609150252387 0.0195603256357093 0.964329923760409
0.0548780597138575 0.00926981674313042 0.969915264546555
0.0537914316906619 0.0174463487220536 0.988139390283009
0.0548457451778731 0.0120638564985808 0.991131531814152
0.0564273849253777 0.00968583815021152 0.99434971735832
-0.146824002201583 0.222805931167425 0.255032464101922
-0.147500263069391 0.222670270838412 0.262762997482539
-0.147245656634063 0.222721345792516 0.279569935066398
-0.146982253700942 0.222774185355281 0.274630890191943
-0.140128204580998 0.22414913192241 0.28253618616547
-0.143920066365265 0.223388470997449 0.2927293846273
-0.15134554475197 0.221898893692351 0.309143373501369
-0.146986968625026 0.222773239524784 0.317519079156345
-0.141644804063885 0.223844896686244 0.318581819398866
-0.144932693756088 0.223185334350713 0.334365535758844
-0.139321861300122 0.224120986617752 0.337115768799757
-0.140039784325842 0.224166869339252 0.353920081111014
-0.142106301060381 0.223752318751658 0.356169899755586
-0.143562677174477 0.223460164536904 0.36689501090437
-0.145400231723387 0.223091544575954 0.379689141059829
-0.14763400436117 0.222643441860856 0.385635252106826
-0.14338251811306 0.22349630508371 0.388619228131847
-0.143163065987395 0.22354032795859 0.402295579885692
-0.141846960591337 0.223804343369718 0.408629137723475
-0.145022324272411 0.223167354151188 0.4180549689529
-0.142304922907045 0.223712474504637 0.435192471471262
-0.146346026462148 0.222901814796299 0.446167071042317
-0.144332382340809 0.223305758950128 0.450321018313381
-0.142874201642798 0.223598275170818 0.464544693834058
-0.143596775624223 0.223453324266926 0.466233770361641
-0.147547831685761 0.222660728405226 0.487047619678023
-0.145817356693138 0.223007867827337 0.496021734112858
-0.149497678082477 0.22226958230127 0.499895235544652
-0.14403440854223 0.223365533551139 0.507569649225483
-0.146047241973968 0.22296175202452 0.516870114262288
-0.142362706804301 0.223700882849868 0.517111543921152
-0.14322590704194 0.22352772182013 0.532671665160692
-0.141437922019049 0.22388639795832 0.541255561851838
-0.144650926232111 0.223241857915549 0.553314432553891
-0.145267757467984 0.22311811938152 0.560735706410856
-0.150226468584533 0.222123384341286 0.568301084146149
-0.144741840864029 0.22322362011788 0.58033934755737
-0.150074958627223 0.222153777776181 0.592717299021474
-0.149407431404568 0.222287686104994 0.601515224536504
-0.143369131839714 0.223498990417629 0.600433437729938
-0.145513444535224 0.223068833684295 0.614899537130342
-0.144011419864391 0.223370145161462 0.629945914001893
-0.150631370366332 0.222042159607532 0.637569738091347
-0.14059818477612 0.224054852228088 0.643907343651244
-0.14915054636919 0.222339218154351 0.652266936655622
-0.146003181976554 0.222970590616297 0.671231288032374
-0.148222813311428 0.222525324696726 0.666034602325066
-0.151766229572288 0.221814502825081 0.685531079071335
-0.148283978969642 0.222513054648712 0.689689609440512
-0.147028893619161 0.222764829222239 0.696868698917352
-0.137274922053116 0.223990165986521 0.701736618505087
-0.144040320802134 0.223364347530829 0.710678834813289
-0.144104405542738 0.223351491904534 0.719176557092522
-0.149599784219225 0.222249099448033 0.738328188046548
-0.149086016699111 0.222352163035078 0.739412021711673
-0.147844565959436 0.222601202457309 0.753881629167629
-0.14148926862607 0.223876097646808 0.75745378177705
-0.141488806489474 0.223876190353048 0.768757511000859
-0.14844486012568 0.222480781318111 0.788508729885216
-0.143714394253347 0.22342972955269 0.791628806739741
-0.145241514757417 0.223123383762352 0.800100226082083
-0.147207544727855 0.222728991176097 0.812926784124731
-0.14864633077849 0.222440365590471 0.815977829606096
-0.141732229579311 0.223827358817721 0.821733230177324
-0.140337283666859 0.224107189916112 0.832797004442674
-0.140231455793916 0.224128419362832 0.839211061262809
-0.15029398347741 0.222109840614277 0.852686751420496
-0.146451139593345 0.222880728729309 0.85718140820709
-0.150339648828652 0.222100679982827 0.871089284721555
-0.148015938981426 0.222566824421179 0.883153887792867
-0.144521721315069 0.223267776880241 0.897046544449292
-0.145367370525475 0.223098136648825 0.897986073832555
-0.141490644176946 0.223875821706422 0.904460675718939
-0.145501181649963 0.223071293662579 0.918737413909224
-0.142414912893705 0.223690410123141 0.922645037493115
-0.143484455378323 0.223475856106692 0.932442006622971
-0.146853939365648 0.220633565006325 0.941299394445902
-0.142564622906156 0.214463129540062 0.950129749386677
-0.13881286274653 0.21558778927537 0.949445414723169
-0.124234972912352 0.209365906282094 0.956208151710636
-0.128204331604393 0.201396824139995 0.966719729540481
-0.117039733207833 0.201044212751848 0.966258344451016
-0.123553561814111 0.195221929783945 0.974233442870976
-0.112578164146962 0.191038566365219 0.978684560019376
-0.106079460752716 0.185222333848657 0.986463721553526
-0.101878624858973 0.185338418440325 0.98509719730347
-0.102231741276601 0.184397000342569 0.993203681899588
-0.0575269828318301 0.136301542851573 0.959586307154426
-0.0523716478386882 0.137953149410559 0.959586307154426
-0.0381325966221339 0.117093330947068 0.959586307154426
-0.0227064980397743 0.109991303865136 0.959586307154426
-0.0146074996031196 0.0997205547638219 0.959586307154426
-0.0130859387178178 0.0985234142020276 0.959586307154426
0.00356325101947462 0.073936584956025 0.959586307154425
0.0139234657876199 0.0692829405682117 0.959586307154426
0.0188803668460441 0.059724392919536 0.959586307154426
0.0289160267944677 0.0526507468237789 0.958849193955347
0.05062764786731 0.0341825354458922 0.9535470520888
0.0505889865074043 0.0343752606514921 0.967333473684921
0.051244660675211 0.0311067533070875 0.969338479262103
0.0493164405916029 0.0395662854245913 0.985894581362564
0.0521903830687482 0.0326444829160116 0.994131503267454
-0.140039784325842 0.224166869339252 0.249345454326713
-0.136582585907869 0.223945918531851 0.261183188410743
-0.129831264764813 0.22351443914385 0.26169174962643
-0.137910863162335 0.224030809213942 0.271219038082071
-0.134379310136798 0.223805106376548 0.281471679901781
-0.135526214872052 0.223878405475017 0.293420006103734
-0.137488217641251 0.224003797785081 0.29475892058983
-0.134356254715117 0.223803632896169 0.311638989377077
-0.124126536357663 0.223149847877982 0.308045776297925
-0.130797285885358 0.223576177904762 0.324292974883569
-0.136698355590103 0.223953317414319 0.33921298909783
-0.136416549201441 0.223935307065598 0.346901115834424
-0.128399612212517 0.223422941708903 0.353633551072396
-0.131678773330593 0.223632514087761 0.36406422788355
-0.137067519043658 0.223976910784807 0.377804890118291
-0.135382035301606 0.223869190906268 0.381629673008831
-0.134851550737257 0.223835287444957 0.399595951540887
-0.130891280965562 0.2235821851645 0.39508780976426
-0.127390607389287 0.223358455843931 0.404331418033453
-0.133349172269604 0.223739269891055 0.42512646338751
-0.133756442485039 0.223765298678544 0.424834634895229
-0.130373206194957 0.223549074817618 0.428704390586242
-0.135308038671448 0.223864461754741 0.449070862208316
-0.135730818951028 0.223891481796067 0.458027031302946
-0.12942991181795 0.223488788531145 0.458188509804166
-0.141307782442466 0.223912504419032 0.480233019952952
-0.132089011839193 0.223658732579946 0.486309615947569
-0.138833783816633 0.224089793408391 0.495958696175058
-0.128508850533668 0.22342992316971 0.503333848966792
-0.14190062188272 0.223793578724311 0.519541990996137
-0.133855374672635 0.22377162147061 0.510256327073076
-0.136518038456853 0.223941793280797 0.528941989409593
-0.138654524519013 0.224078336881529 0.544607376178252
-0.129495273081327 0.223492965793243 0.540775196943073
-0.133111740956386 0.223724095569533 0.547408390491612
-0.13573590181503 0.223891806643753 0.570779791025964
-0.13053187272475 0.223559215253204 0.569839516528926
-0.129515875890253 0.22349428252625 0.580727502609751
-0.132822185481312 0.223705589973883 0.590488449046324
-0.139351403011714 0.224122874639276 0.610871236159075
-0.142029064968581 0.223767812585656 0.61981972625937
-0.135168421017842 0.223855538739755 0.612574213208403
-0.132844414156912 0.223707010616619 0.62901554901383
-0.136299172069565 0.223927805450439 0.637842084457653
-0.134976644197363 0.223843282213457 0.649383240621223
-0.126438590132394 0.223297612075034 0.645735890051937
-0.134602838116514 0.223819392130972 0.665535222475711
-0.138909809649763 0.224094652247018 0.674479819022348
-0.128469336251906 0.223427397797601 0.676939983595648
-0.127152042543329 0.22334320907792 0.686156051602704
-0.137580809743975 0.224009715380018 0.701058711938872
-0.131167721437278 0.223599852575518 0.707690258516997
-0.141104323200828 0.223953319064645 0.720444743667541
-0.130308917685524 0.223544966115614 0.723631524506929
-0.131451353997513 0.223617979635529 0.736403296492258
-0.131085263183615 0.223594582638558 0.744883815169133
-0.132427946249996 0.223680394001325 0.756496498689181
-0.128979069920806 0.223459975061642 0.760667435521149
-0.141327026059472 0.223908644081197 0.784009948884219
-0.131733590138027 0.223636017449847 0.789925958520978
-0.135424606761822 0.223871911663763 0.791459798982482
-0.13128558786663 0.223607385461857 0.806115030807758
-0.123940725688637 0.223137972650592 0.810192414069389
-0.128900983552543 0.223454984533466 0.820918275578244
-0.138821221002107 0.224088990514349 0.833768934976435
-0.131875292361095 0.223645073690424 0.834982435786142
-0.134286104424373 0.223799149565591 0.8486882133116
-0.127578139102619 0.223370441063887 0.851131204936967
-0.130966269621047 0.223586977716726 0.868529755311606
-0.141313269071048 0.223911403781875 0.883195395820159
-0.133008029345803 0.223717467322807 0.885019678160289
-0.129491978177742 0.223492755214758 0.89255439623048
-0.135339862688158 0.223866495639215 0.907434002697263
-0.129273437442988 0.223478788196972 0.904368556642071
-0.135384410262752 0.223869342690898 0.929673343892036
-0.135262746950471 0.223861567144392 0.932785928660528
-0.138150529050352 0.222593537511287 0.940435498946443
-0.12721761711236 0.217536339889512 0.946007153743809
-0.119634086194457 0.216012654416027 0.947335384744278
-0.126285844677751 0.211118247962301 0.954135600418111
-0.119422756423965 0.206066716042086 0.960032516480073
-0.107666797421958 0.202824498650548 0.963216747189175
-0.113617320081212 0.200539365075513 0.966624106167391
-0.102953964543007 0.195283988138002 0.97247112635272
-0.100184316866165 0.187661371940582 0.981989223332146
-0.0937288952675575 0.185053031596774 0.984796190024008
-0.0972469994247926 0.184613836615236 0.991683462557965
-0.0884403461751768 0.178254900913212 0.994471411219459
-0.0393764423506608 0.137079564887111 0.958849193955347
-0.0319773250901133 0.126811220166764 0.958849193955347
-0.0196541954158894 0.121634720346661 0.958849193955347
-0.00511775247287279 0.107323005728534 0.958849193955347
-0.000243357737912543 0.0970709925828981 0.958849193955347
0.000972685540483174 0.0945418035454976 0.958849193955347
0.040179977190964 0.0663992312016593 0.944844043172862
0.0393621440813002 0.0518085273219656 0.944844043172862
0.044930172779415 0.0600237542939042 0.960332852390672
0.0475473902112788 0.0495374865263495 0.958818215662348
0.0476534150859656 0.0490089571155264 0.970988536878666
0.0465152299757348 0.0534127043652921 0.989361390349275
0.0487567845023992 0.0511794353057171 0.994371261590023
-0.116885860923985 0.222687093679414 0.22727185962779
-0.112245661478945 0.222390536846414 0.240809309384827
-0.12300831968977 0.223078382244325 0.255965467386305
-0.119633329624516 0.222862685402624 0.253986659441805
-0.118929257532952 0.222817687899359 0.276487602476596
-0.11838062756293 0.222782624758577 0.281393546381071
-0.113542168188388 0.222473397061426 0.276859411387508
-0.118953364327776 0.222819228573378 0.294289374485788
-0.123645006570099 0.223119073134249 0.313844578514036
-0.119369694884936 0.2228458364106 0.307465346601831
-0.115834839928729 0.222619922545616 0.322109664050174
-0.123906491298935 0.223135784718304 0.339349727135082
-0.110313195422304 0.222267032238385 0.334136241647454
-0.120986592194799 0.22294917290533 0.356704551627989
-0.120643827673143 0.222927266700174 0.362704033494168
-0.116969404930343 0.222692433007224 0.372354267984388
-0.116708048851255 0.22267572964522 0.371639312625453
-0.111637851684566 0.222351691501548 0.37780157827623
-0.117468250041471 0.22272431437958 0.4013967902492
-0.120727706451223 0.222932627423366 0.414118879991387
-0.126859524999378 0.223324514175371 0.4237876665842
-0.116527897498569 0.222664216106794 0.418133167220051
-0.11788233937116 0.22275077897914 0.433922615884616
-0.121719980868373 0.222996044042006 0.43933976322298
-0.122823983713268 0.22306660126507 0.457818224982749
-0.118030904819159 0.222760273850917 0.462643998213835
-0.112428663525446 0.222402232573717 0.465896617768203
-0.120422412341328 0.222913115965845 0.483716073969718
-0.11362621820546 0.222478768728565 0.486620826995527
-0.122654473062573 0.223055767777776 0.503837258584677
-0.120653478836031 0.222927883509502 0.511533696117951
-0.121648819361127 0.222991496084215 0.518413504166484
-0.125715838022147 0.223251420724987 0.535918948271474
-0.122857563362577 0.223068747352662 0.545574458175259
-0.121123053760381 0.222957894213583 0.539267377249529
-0.111790532293217 0.222361449374739 0.551264635286715
-0.121822405236596 0.223002590020605 0.564117705549539
-0.120610488111245 0.222925135956656 0.566561379141094
-0.121856661370642 0.223004779342582 0.581691387675625
-0.119925671041628 0.222881369048842 0.594300080108453
-0.111233713393659 0.222325862876494 0.598063879939638
-0.12193158273868 0.223009567594443 0.617916749039727
-0.122202387675032 0.223026874836349 0.620909327897331
-0.117262575302025 0.22271116963223 0.633353042754644
-0.12165372448558 0.222991809572501 0.639017262091208
-0.118069696110861 0.222762753016468 0.645387337305037
-0.121614053331204 0.222989274174607 0.658989513893211
-0.112029680197243 0.222376733404203 0.660556003061137
-0.11749044321917 0.222725732753632 0.671745575291576
-0.123506532018112 0.223110223175303 0.684367379283629
-0.115338585337643 0.222588206734337 0.691384875490222
-0.117207125130384 0.222707625791607 0.696458360652071
-0.111264165533755 0.222327809083835 0.704875589523134
-0.117051435508586 0.222697675611293 0.727008979162991
-0.117743111809007 0.222741880895041 0.728538967300397
-0.118088073229296 0.222763927504786 0.739938736678
-0.118002457082093 0.222758455745702 0.745641174945249
-0.117861162134078 0.222749425534221 0.754728139203913
-0.111427243896521 0.22233823148127 0.758622240083187
-0.11095995505364 0.222308366881487 0.772393356593433
-0.122252159154271 0.223030055749676 0.785012176480652
-0.112549902605317 0.222409981007376 0.788473938306072
-0.122582263358674 0.223051152829355 0.801468418938514
-0.111142105139532 0.222320008159678 0.80585170248478
-0.126319316948803 0.223289989282522 0.821701559471426
-0.116648624887683 0.222671931838111 0.825984433550102
-0.123443595795399 0.223106200898435 0.843260827108555
-0.112158424534954 0.222384961501617 0.848025120603688
-0.114275057888496 0.222520236308527 0.853175614740788
-0.124653743388131 0.223183541870911 0.868705139858537
-0.116455038224721 0.222659559644122 0.870086446405923
-0.116784591988658 0.222680621544951 0.883425333716773
-0.124294073139586 0.223160555214606 0.895349474630079
-0.109842629879328 0.222236958223508 0.895882134185194
-0.11268628532041 0.222418697276266 0.91070248809649
-0.113725414393275 0.222485108392981 0.91891517115394
-0.123675146926186 0.22312099941536 0.931696014554877
-0.116195166429841 0.222642951143262 0.933859187049508
-0.11158006511626 0.217565361616032 0.944692468017412
-0.107301865690109 0.217632190479129 0.944257509006277
-0.111092168699621 0.210569356300378 0.953595955287939
-0.10460991468769 0.20450110363296 0.960823711139085
-0.0971120706573507 0.203285061037205 0.961765667255999
-0.0901360652717632 0.195793959305525 0.970771983796575
-0.089138283569562 0.196135329557096 0.970254074270613
-0.0842232645984867 0.191980400281058 0.974214232684151
-0.0741740324238297 0.180486087200344 0.98404631597096
-0.0628124437576581 0.178288853936419 0.982057256855257
-0.0705508575018921 0.177401998426031 0.993083354861907
-0.0115167627546911 0.119212812448063 0.944844043172862
0.00316110904308432 0.110895806191697 0.944844043172862
0.00976479415513655 0.10842571454462 0.944844043172862
0.0139473921707068 0.0929278509667307 0.944844043172862
0.0316765854808556 0.0867895487516239 0.948300036940612
0.0355478970819332 0.0789713838833471 0.949132299540351
0.0360490309077363 0.0779593375086498 0.965768674978918
0.0418756422014115 0.0661924191069803 0.962276550239304
0.0411056565975359 0.0677474151955478 0.976658650878005
0.0381109820545446 0.0813576378769608 0.994915154960286
0.0406470197015787 0.0735820014416614 0.99467323463604
-0.101845642236057 0.221725867836744 0.219012516677424
-0.100022285003443 0.221609336413314 0.226554260172655
-0.106507519743099 0.222023810122565 0.242516576003551
-0.106759513555218 0.222039915138684 0.248319020861918
-0.107739271280244 0.222102531810981 0.259060505807602
-0.111639904655388 0.22235182270766 0.27923210084097
-0.0988325540832719 0.221533300277802 0.269326782935259
-0.102471657557655 0.221765876703471 0.282372902112325
-0.111723174874943 0.222357144537656 0.306004807573041
-0.100329116157671 0.221628946103898 0.303082375660984
-0.0987542897017977 0.221528298372737 0.309405388314953
-0.105295487305382 0.221946348688961 0.323023176422847
-0.0998196972791453 0.221596388958225 0.329385750114513
-0.105747219214248 0.221975219039438 0.345038464967823
-0.10412566086396 0.22187158465592 0.348961854449362
-0.101010313919744 0.221672481700451 0.364352429157249
-0.10564671345189 0.221968795679637 0.374033143453365
-0.106261357427011 0.222008077799477 0.382332465003153
