ply
format ascii 1.0
element vertex 845
property float x
property float y
property float z
end_header
-0.330777856254503 0.0194107755315059 0.822500329085829
-0.329857843057149 0.0263989695590661 0.842079513261436
-0.329928923275613 0.0258590616973313 0.846784211673722
-0.331655056964392 0.0127477746316761 0.846423792773
-0.329067411884801 0.0122725499230594 0.857950628798188
-0.327490500247588 0.0124723147938556 0.862602465077315
-0.323786451142043 0.0146462713660179 0.872855991956834
-0.32058279231059 0.016449696864209 0.881754692038046
-0.319968576500378 0.00675496464061088 0.887426346600713
-0.318566251956069 0.00178290450858834 0.893597072637248
-0.31607335590751 0.00373436436281928 0.900305017091673
-0.312784786278507 0.00613220908197105 0.909223679240372
-0.313103075524237 -0.00501639102860764 0.908709512203913
-0.30713077808534 -0.00699379512957701 0.925845413954708
-0.306368645940549 -0.00355179254709239 0.929491255099143
-0.303516905962321 -0.0166230807932784 0.932883871800942
-0.301671195750657 -0.0163340419005299 0.938535160512321
-0.299355894981807 -0.0117116765989959 0.947306700628999
-0.296694353663629 -0.0157089186953223 0.953712583867203
-0.293671070242444 -0.0166715715333213 0.962402227179461
-0.291536068694768 -0.029430866782414 0.963767852561496
-0.288416104677433 -0.0278368220068892 0.973757324541392
-0.286808186870242 -0.036903817895285 0.98251330760242
-0.287141794896425 -0.0343698133583694 0.988604942410831
-0.283726737894565 -0.0306836794177706 1.0
-0.238624255040762 -0.0880599677388916 0.962499999999999
-0.234888373988446 -0.0913069482211318 0.962499999999999
-0.233824938981907 -0.099888492126646 0.962499999999999
-0.226583237100573 -0.108897028080305 0.9625
-0.208119797100028 -0.120225274369095 0.9625
-0.204135826703529 -0.133737391431168 0.962499999999999
-0.188065024207706 -0.145134047862418 0.962499999999999
-0.179157836523598 -0.155984855574999 0.962499999999999
-0.166702831525254 -0.17264504503488 0.9625
-0.156820725360731 -0.181799316126334 0.962499999999999
-0.15285982415846 -0.196604525202993 0.962499999999999
-0.144716580536302 -0.191623773827021 0.962499999999999
-0.138821708164706 -0.209955639114728 0.962499999999999
-0.123746662321664 -0.218918285497505 0.962499999999999
-0.106487997738743 -0.23902946135321 0.962499999999999
-0.106157830927883 -0.244613893189944 0.9625
-0.09046625561506 -0.264346077010222 0.950189569072022
-0.0910278603919619 -0.264113452694935 0.971777685432089
-0.0874557499276941 -0.265593069295529 0.980174580410522
-0.0984987652611334 -0.261018902574925 0.991999460623991
-0.084330031793732 -0.26957550577698 0.999999999999999
-0.330097788401452 0.0245764037232516 0.237300380985602
-0.329372809322012 0.0300831665475385 0.256489269398761
-0.328550566313958 0.0363287222576276 0.268986136253557
-0.329018407032496 0.0327751191956955 0.265942207133102
-0.32944484142498 0.0295360284051743 0.283380962466663
-0.329515774804097 0.0289972358990191 0.294102038901807
-0.329298027012036 0.0306511945861028 0.302927703997635
-0.32949300220139 0.0291702109896862 0.316137732386713
-0.32805834038398 0.0400675493896471 0.327335535943629
-0.329003321586468 0.0328897045344051 0.328442979330282
-0.329365625139212 0.0301377358335952 0.334184354528383
-0.329376742964767 0.0300532875644062 0.343455915033298
-0.329905105084591 0.0260399788197473 0.350317133223245
-0.328951451352688 0.0332836980759673 0.370348716394403
-0.329317297744801 0.0305048188384499 0.36912179810359
-0.328898705596546 0.0336843418701126 0.387323034021848
-0.329940609954325 0.0257702925594422 0.386064703668382
-0.328780909119239 0.0345790949470741 0.401496874424144
-0.328430950087368 0.0372372977026964 0.41343765430698
-0.329159541521908 0.0317030963172969 0.418335534638894
-0.328714763575835 0.0350815202304268 0.436959510207005
-0.329302034035174 0.0306207582236225 0.436197203625054
-0.329215439222236 0.0312785111301366 0.450502374753697
-0.329317477228664 0.0305034555231619 0.454018153790122
-0.32837270274153 0.0376797302193984 0.467496377826766
-0.329110631591931 0.0320746041190704 0.470298295857002
-0.329598896825602 0.0283658614623143 0.476050489471636
-0.328979321347203 0.033072004450505 0.489405026614897
-0.329535009447649 0.0288511342761484 0.508162269234789
-0.329115826884343 0.0320351419553641 0.510554450206351
-0.329142968587725 0.0318289802502778 0.526110313995109
-0.32931831640509 0.030497081345365 0.527282715714501
-0.329090632013397 0.0322265159999755 0.542429910601618
-0.330016998055893 0.0251900673227981 0.547546478299644
-0.330216383963088 0.023675580998198 0.548696315901281
-0.328630667040347 0.0357202968357281 0.565322664138123
-0.32928622523431 0.0307408379878003 0.567262634495883
-0.328494893668102 0.0367515979863509 0.59170858061852
-0.329142499806282 0.0318325409988556 0.59381627743703
-0.328823804366845 0.0342532731936601 0.607019665203214
-0.329458220059227 0.0294344075890706 0.611098623557065
-0.329282146365139 0.0307718200750838 0.618695528582175
-0.329581336358847 0.0284992464498856 0.634285616985295
-0.328235297658277 0.0387234254456288 0.645186742070944
-0.329009135425641 0.032845544041592 0.646777292975575
-0.330190665936458 0.0238709288047466 0.656093278634718
-0.328192679137051 0.03904714525351 0.668488167333198
-0.329894565004889 0.0261200386734889 0.668660407431241
-0.32845394341638 0.0370626460292871 0.686166027065458
-0.32958745062574 0.0284528039819892 0.691931424739422
-0.329431825852623 0.0296348914924382 0.70779204889976
-0.328919268052557 0.0335281545102934 0.71695054605859
-0.330167372096292 0.02404786308699 0.72101264106231
-0.329305357070936 0.0305955172610611 0.729208451283276
-0.328333013970536 0.0379811963649073 0.743006462321667
-0.328586346989476 0.0360569410444053 0.753003322812164
-0.329400282873926 0.029874484202596 0.762192507639138
-0.329651944900549 0.027962921328862 0.771461355398442
-0.328473436999787 0.0369145775629554 0.778055746240569
-0.329045528732813 0.0325691094289649 0.784078921726472
-0.328803649390735 0.0344063654363359 0.794552881692316
-0.329230580028519 0.0311635052885459 0.809835547242331
-0.328628186464812 0.0357391386775452 0.812259486775222
-0.329149020861219 0.031783008668991 0.8239861955647
-0.330005812290403 0.0252750316470243 0.82547066193653
-0.328662828999264 0.0354760025040084 0.843138453925481
-0.327886252719956 0.0307045625484782 0.854214244799625
-0.328128613271517 0.0227123027295299 0.856643766044541
-0.324187428733683 0.030109706685301 0.865545659538721
-0.323317059469437 0.0267759723369994 0.869473450691198
-0.32217959789863 0.0223349450475609 0.874639852407144
-0.317731022622001 0.0234155843643375 0.887558771641895
-0.316709568379964 0.0240459440642506 0.890374169081393
-0.315431169651082 0.019818689498722 0.895878951132507
-0.312653095494507 0.0141933514216508 0.906434943025089
-0.311417319478228 0.0103271491715187 0.911669256621154
-0.311565931110338 0.00472708629414781 0.913435208518179
-0.309664028787128 0.00497675967002238 0.919042305117264
-0.304796461913375 0.00996144422605494 0.931676267224063
-0.304672227527357 -0.00584321359155419 0.933675496428134
-0.299094945087155 -0.00384414227438605 0.95119689194402
-0.298869696751807 -0.00137318169045541 0.952848561347009
-0.296166150400163 -0.0081519683720665 0.958281867810203
-0.295255888626826 -0.00406801559304203 0.962625640880376
-0.292027646480663 -0.0141533682143283 0.96832708173394
-0.289167467505102 -0.0189833023099773 0.975942140931902
-0.28926299155133 -0.0182577251429776 0.983515232356557
-0.288062355150189 -0.0162138858476027 0.999999999999999
-0.280587028363743 -0.0208222609425653 0.999999999999999
-0.234526599794443 -0.0798840738921438 0.962499999999999
-0.22391303605945 -0.0933865648290277 0.962499999999999
-0.221976559905894 -0.0894764662934176 0.962499999999999
-0.203992449319392 -0.111857181343676 0.962499999999999
-0.201616554998295 -0.117109197457897 0.962499999999999
-0.188461785412128 -0.131209014266684 0.962499999999999
-0.183706852405315 -0.143154582531574 0.962499999999999
-0.172144505785839 -0.144491824160343 0.9625
-0.165392368562611 -0.158830038877478 0.962499999999999
-0.163166179004605 -0.168930894141225 0.962499999999999
-0.149913688691369 -0.183724605705323 0.962499999999999
-0.135272113228655 -0.194828575645402 0.962499999999999
-0.119492122455039 -0.210876273104651 0.962499999999999
-0.114516919250508 -0.210628618479207 0.962499999999999
-0.108925515510018 -0.231240250717555 0.962499999999999
-0.0940160696743002 -0.241078738627412 0.962499999999999
-0.0761569940383383 -0.270273167222844 0.952303265323862
-0.0839250209826984 -0.254573001663603 0.962499999999999
-0.0718323093999946 -0.27179309706002 0.968956644314044
-0.0680073265887161 -0.272296665600354 0.984952509325696
-0.0645613315652326 -0.27275033945187 0.987397421048039
-0.0688570997940116 -0.272989534597693 0.999999999999999
-0.327130880316516 0.0471123080114795 0.253075699095603
-0.32776451103578 0.0422994048696769 0.260317640075955
-0.327103053880707 0.0473236707757122 0.27179903435353
-0.327494650054228 0.0443492025301694 0.283301332747858
-0.32686742560728 0.049113445202673 0.29427617648773
-0.3277137284864 0.0426851366279846 0.303466872183435
-0.327613441943987 0.0434468885449727 0.30400067350712
-0.327478018393748 0.0444755325336638 0.326407398986498
-0.327036584284827 0.0478285574819874 0.326737923829501
-0.32803117015207 0.0402739277904193 0.329195567840102
-0.326711006179933 0.0503015687112555 0.349862800854346
-0.327970623827896 0.0407338227812789 0.357681470405992
-0.327724447995915 0.0426037138694995 0.361569270278361
-0.328028127301884 0.0402970405322415 0.371756228905612
-0.328057598039957 0.0400731880523145 0.382765706029882
-0.327550350073781 0.0439261188775625 0.393933145478743
-0.327757451263814 0.0423530291616295 0.399230611500419
-0.326536691945315 0.0516256167757563 0.410587167293081
-0.327870620509568 0.0414934233977552 0.418096847506943
-0.326967700032387 0.0483517853257709 0.43073229432694
-0.328280778484293 0.0383779642743684 0.429734227979138
-0.326719025850396 0.0502406532663525 0.447480088334864
-0.328340121756812 0.0379272073680723 0.450476179955808
-0.327610200451706 0.0434715101232987 0.460497342826274
-0.327401170992741 0.0450592464959061 0.474662346686615
-0.327371167617998 0.0452871447530053 0.482685159622212
-0.32700178989309 0.0480928471261264 0.50037060095791
-0.326687053582989 0.0504835067480073 0.506535565922003
-0.32740425910009 0.0450357899918114 0.511617157514855
-0.327028383687096 0.0478908472059338 0.519685410589214
-0.328184367714949 0.0391102767721201 0.523898090082711
-0.328064519462503 0.0400206146285473 0.536880245925881
-0.327547330492423 0.0439490548750868 0.541554255345349
-0.327788592808191 0.0421164856478455 0.553696545771707
-0.327700636932865 0.0427845768495928 0.560449697290916
-0.32760901971213 0.0434804787307846 0.567154399875681
-0.327565365701099 0.0438120638646098 0.579432782178331
-0.327475220567833 0.0444967841313612 0.597582686379836
-0.327818227407267 0.0418913885200347 0.602697042083037
-0.327618262698029 0.0434102712826289 0.604873688380559
-0.327895088596601 0.0413075698250407 0.611892251221617
-0.327580406663551 0.0436978164122048 0.620846060214932
-0.327801498738236 0.042018455376624 0.630969128047736
-0.327870706392654 0.0414927710509523 0.644873130870815
-0.328175781901157 0.0391754925025445 0.652621155808178
-0.326684349181314 0.0505040487181494 0.669624319826565
-0.32714381633796 0.0470140491733922 0.671205159691642
-0.327884315840909 0.041389397028393 0.682691739055927
-0.32761261932457 0.0434531369597922 0.692170598708754
-0.327729078341145 0.0425685429056756 0.69324077581719
-0.327538400719779 0.0440168832323685 0.713941109935099
-0.327550307097549 0.0439264453144587 0.722904032384601
-0.328582158152971 0.0360887584165152 0.71969561560011
-0.32732708561791 0.0456219807864733 0.734622400142586
-0.327056480962085 0.0476774272138829 0.753192655002236
-0.327562173842854 0.0438363084350081 0.754544447059707
-0.328102017302104 0.0397357902591797 0.76664985285167
-0.328106170740815 0.0397042417600033 0.768086471076569
-0.327219316072047 0.0464405717576866 0.782009692311447
-0.327332763961185 0.0455788494871923 0.800266381493394
-0.327571544838338 0.0437651286575114 0.807327195777264
-0.32674442601347 0.0500477198732148 0.809711475046536
-0.327711119817123 0.0427049514383751 0.820902913015385
-0.327581335161467 0.0436907637703446 0.826876195631645
-0.327108627293669 0.0472813365012862 0.838641528705718
-0.328119425502997 0.0396035618456522 0.846324691520744
-0.327511633098795 0.044220203499545 0.849511300669112
-0.324370269251899 0.0408268514815124 0.860764321345792
-0.324363999767171 0.0389003515732709 0.861544015373539
-0.32121014864163 0.0347404256092043 0.872648562679007
-0.319523732915105 0.0348998075121358 0.87764486078181
-0.314938851944245 0.0307464155958601 0.893039916952101
-0.313583872890257 0.0317248327401292 0.896718420931891
-0.313340393866866 0.0193593296342439 0.902332706105503
-0.313077471829907 0.0196106925966053 0.903022194530995
-0.308952221751951 0.0187239790390974 0.915748158928332
-0.306069629746244 0.0185325490210932 0.924471541665404
-0.305625523427633 0.0169700215052842 0.926420992571253
-0.303427583525096 0.00630981484295707 0.937225140774544
-0.301305495652708 0.0105902560670557 0.941900812057922
-0.298766091340787 0.00877143700523867 0.950237381210131
-0.295777344224405 0.00825664065340984 0.959406945235677
-0.295509923582212 0.00168304147405433 0.962805499412556
-0.292965020172073 -0.00423739077273804 0.969431350248326
-0.291485989648607 0.00137237820299926 0.985080310128338
-0.291439782495187 -0.00172335637863585 0.982829655390625
-0.290823944390397 -0.00640111119586393 0.996344918677019
-0.288737644683059 -0.00234326718782713 0.999999999999999
-0.279715092763623 -0.0206485907180238 0.999999999999999
-0.233361140239248 -0.0612596670034503 0.9625
-0.222636797063326 -0.0720977188728868 0.962499999999999
-0.220390569169181 -0.0808353455670976 0.962499999999999
-0.202007185905034 -0.100629173846273 0.962499999999999
-0.191489444425731 -0.10742388836595 0.962499999999999
-0.190237614792873 -0.122415081847434 0.962499999999999
-0.177773745412439 -0.132753881462235 0.962499999999999
-0.1634458306457 -0.142730325707639 0.962499999999999
-0.163575407662035 -0.144769528495311 0.962499999999999
-0.146040483559167 -0.163191197170797 0.962499999999999
-0.130215178492099 -0.177500343393339 0.962499999999999
-0.127362258208574 -0.189224222661144 0.962499999999999
-0.118398729700011 -0.198508496218848 0.962499999999999
-0.108560605215833 -0.206712638417595 0.962499999999999
-0.105299653334807 -0.22370828255204 0.962499999999999
-0.088067042910999 -0.229286235632787 0.962499999999999
-0.076781749630832 -0.23882845537872 0.962499999999999
-0.052916511054247 -0.274283409156098 0.952657428193211
-0.0515269490894067 -0.274466348459322 0.955914855297898
-0.0553187031748796 -0.273967154563732 0.968275033358513
-0.0584044574092556 -0.273560907311835 0.978426768914853
-0.0569453155157288 -0.273753006986453 0.992737446663575
-0.0525519714178624 -0.274331401709698 0.999376837797683
-0.325432842353582 0.060010186851997 0.261515162623241
-0.326458868520143 0.0522167443775715 0.265613121597147
-0.326511028247947 0.0518205519105896 0.279331204415507
-0.325498912687789 0.0595083328392162 0.291795280938928
-0.325662505226678 0.0582657241391405 0.299927555241338
-0.325334352132813 0.060758294351464 0.314396855871617
-0.325652431383818 0.0583422425724687 0.321484877777357
-0.325917538470228 0.0563285543305638 0.315901838911827
-0.325324790949933 0.0608309187456507 0.33703636915456
-0.325085749564411 0.0626466183328382 0.347518817306701
-0.326231197891112 0.0539460744943854 0.351491254911017
-0.325936976727351 0.0561809061090685 0.360060453860957
-0.32573985423827 0.05767820006622 0.37691579058098
-0.325789324027039 0.0573024397147223 0.384709327364511
-0.325799295303653 0.0572267003493764 0.384465402006732
-0.325000901940189 0.0632911000234759 0.398059045114417
-0.326347471253907 0.0530628906207359 0.405964645042563
-0.325090761223004 0.0626085510064734 0.422734170957698
-0.326530154324925 0.0516752749327228 0.423058013578817
-0.325759972810747 0.0575253843365876 0.432084440578101
-0.325574939953539 0.0589308484227131 0.44372208725071
-0.326385048858084 0.0527774603792641 0.450135568701964
-0.325758654723637 0.0575353962021752 0.458122948194503
-0.32530609124132 0.0609729571342502 0.472787858410567
-0.326934883474866 0.048601051827525 0.477475156891401
-0.326705332877154 0.0503446617241701 0.491161223824297
-0.326765685635845 0.0498862370091251 0.490148054045375
-0.326859880820385 0.0491707535487567 0.503805669588086
-0.326060638569827 0.0552416011605036 0.511708593396899
-0.32654461950672 0.0515654009686164 0.519615623246491
-0.326353958475068 0.0530136152839215 0.532032117148075
-0.325571675885003 0.0589556414847209 0.541910175448675
-0.32665037059963 0.0507621416697142 0.552701017880821
-0.326432382759623 0.0524179237019761 0.558662137714376
-0.326318845748858 0.0532803229184435 0.570070096821009
-0.3263607154489 0.0529622909721438 0.574312662842514
-0.326364497846508 0.0529335608099601 0.587567008903012
-0.326360175187905 0.0529663946618195 0.597860343506395
-0.325809363074965 0.0571502280340234 0.604679200413377
-0.326638146141932 0.050854995644553 0.610578050330155
-0.326597283482719 0.0511653783563298 0.626299617528815
-0.326665908906937 0.0506441165080863 0.633994570930254
-0.325432837037945 0.0600102272282724 0.644436147991303
-0.325875631383041 0.0566468702604113 0.654468424425778
-0.326600101120053 0.0511439762759588 0.661056903918348
-0.326653324114157 0.0507397074995977 0.669800260083557
-0.326070369732121 0.0551676856444892 0.672682535072677
-0.326100090618214 0.0549419331017091 0.687862366285301
-0.326044794869338 0.0553619460136498 0.702584590157048
-0.326484675160999 0.0520207234791602 0.704924903644007
-0.326182969130308 0.0543124083026154 0.711303395507807
-0.326080936275434 0.0550874247796594 0.725296742816169
-0.326067614881001 0.0551886108162047 0.726852892229619
-0.326503625057876 0.0518767847220157 0.740996455813349
-0.325594765372737 0.0587802594133068 0.757977486715079
-0.326651420980775 0.0507541632328185 0.76026635689233
-0.325883674463717 0.056585776997287 0.777456326855608
-0.326234792633321 0.0539187697164659 0.780476590354591
-0.326246270109132 0.053831589632368 0.789609486553291
-0.325721162569571 0.0578201773856149 0.797029353742363
-0.325409802204116 0.0601851941620579 0.808904984801334
-0.325225216258842 0.061587263615022 0.817233464529099
-0.326545666410639 0.0515574489438678 0.822217674139427
-0.325662194706911 0.0582680827709322 0.838195176104518
-0.325576748832296 0.0589171086244541 0.846860922410953
-0.326218262171604 0.0540443310390399 0.846031984032939
-0.324346534212392 0.05082791880598 0.856885529988894
-0.322236053095894 0.0514646246817051 0.862965501582083
-0.320323386748381 0.0488678711505438 0.869729107888613
-0.317496144624289 0.0466638572788711 0.879081326053658
-0.317156505654404 0.0383367678973363 0.883389089307453
-0.312483441306505 0.0418937659080379 0.89600341933508
-0.3109383348344 0.0382563912155723 0.902075347140169
-0.310348866413005 0.0322289255226701 0.906224345142131
-0.308702527180639 0.0315492768121032 0.911431795189915
-0.305890621725993 0.0301961472388489 0.920401940217488
-0.30400095837692 0.0273791519092815 0.927183523677196
-0.300487865567334 0.0311821800584245 0.936220767643265
-0.298558554660079 0.026674565482985 0.943789016516082
-0.297953352076776 0.0218922542531297 0.947493433918942
-0.294322890087785 0.0229556720132058 0.95796481507364
-0.293291522480585 0.0232689131214544 0.960935200972494
-0.289694877584849 0.016881296209716 0.974247972819889
-0.290325011210095 0.0101908849521173 0.976438729472944
-0.289346108870134 0.0176263864268287 0.988687793948545
-0.290772394652655 0.00679267032832938 0.988090426718646
-0.283958695896233 0.00344954589156076 0.999999999999999
-0.245272969186441 -0.0439488463879149 0.962499999999999
-0.23228492141031 -0.0432837700283352 0.9625
-0.222459650600617 -0.0562784573238259 0.9625
-0.215735821433631 -0.0693201111485759 0.962499999999999
-0.204464445262059 -0.0879160204764813 0.962499999999999
-0.194913638091569 -0.0905160083877459 0.9625
-0.182962992637871 -0.10864422859616 0.962499999999999
-0.186207256792008 -0.106696904773364 0.962499999999999
-0.170273182811952 -0.125081099282919 0.9625
-0.166607014174568 -0.135895256653402 0.962499999999999
-0.15511437626792 -0.144323265865825 0.962499999999999
-0.142611819573003 -0.155346969088027 0.962499999999999
-0.128022880817177 -0.171516850272319 0.962499999999999
-0.122919240676219 -0.184438622543834 0.962499999999999
-0.118966924585646 -0.183483434021776 0.962499999999999
-0.0992454929753678 -0.199999008648362 0.962499999999999
-0.0906483699444332 -0.211404218853531 0.962499999999999
-0.0819164570291085 -0.223284313966833 0.962499999999999
-0.0735178074747074 -0.236734691779098 0.962499999999999
-0.0548146880470698 -0.259494904024202 0.962499999999999
-0.0453277141757518 -0.275282493218836 0.953601585730257
-0.0301710245887897 -0.277277909258116 0.953850573233163
-0.0389448766598068 -0.276122809719504 0.975600160864655
-0.0326262528204951 -0.276954672329264 0.97992161651465
-0.0353759084029953 -0.276592673304324 0.983501470795843
-0.0359248992801573 -0.276520397284192 0.996878723660842
-0.0233285106220301 -0.28423867937016 0.999999999999999
-0.324648210539341 0.0659700571819946 0.259415403039313
-0.323962335030963 0.0711797988955659 0.283128412745115
-0.324556093608682 0.0666697547368959 0.287661906943024
-0.325289828676571 0.0610964835773293 0.28910974418138
-0.324581714012789 0.0664751484470293 0.304393926151727
-0.324714688893124 0.0654651039528404 0.311714926419001
-0.323521749482087 0.0745263783904564 0.327535962503092
-0.325169362894796 0.0620115120346882 0.325470628115224
-0.323993021363614 0.0709467130581292 0.342065595611956
-0.324318326489828 0.0684757753078045 0.360741633851503
-0.324631698734202 0.0660954767937818 0.355695172804218
-0.324561472389191 0.0666288988427242 0.366860768513356
-0.325118524471233 0.062397668199551 0.371305212769344
-0.324175465038931 0.069560915761001 0.391622823745372
-0.324543169264348 0.0667679248785231 0.39006235609917
-0.324543354786959 0.066766515694388 0.405191246209254
-0.325442187514388 0.0599392033083716 0.405760742051374
-0.323789323373037 0.0724939529078155 0.420839162252026
-0.323856991297035 0.0719799639958032 0.428213269142881
-0.324368059060382 0.0680980189304837 0.442505323309825
-0.32488551721565 0.0641675340194385 0.453424748474035
-0.324811740235671 0.0647279258185414 0.456342426509085
-0.324535292795608 0.0668277525983463 0.468011712711552
-0.324506808792912 0.0670441100789719 0.479084973967722
-0.324457339432154 0.0674198671794105 0.489223641210795
-0.324767427657903 0.0650645132633644 0.497547928872085
-0.325038053785733 0.0630089037398914 0.498754861855543
-0.324518756606263 0.066953357426573 0.509760391674699
-0.324178031787036 0.0695414193735291 0.526914591950289
-0.32462185798724 0.0661702246879939 0.524593619998374
-0.323950090072993 0.0712728085854309 0.543622043837862
-0.32442783486747 0.0676439765979517 0.555042290070408
-0.323838705860019 0.0721188556792274 0.565885175896049
-0.325372186071907 0.0604709170529902 0.567929185310786
-0.324527942900958 0.0668835805908691 0.578576166303892
-0.323604548879521 0.0738974545268611 0.588206990097664
-0.324229157595937 0.0691530803003015 0.590702139821234
-0.324233548118731 0.0691197309687336 0.600462430149933
-0.323940905144665 0.0713425750425525 0.608970364684854
-0.323827042300919 0.0722074492062223 0.628631581569959
-0.324554730705826 0.0666801070118702 0.630783109022234
-0.324571241888722 0.0665546921264829 0.6343890409343
-0.32468156649273 0.06571669356185 0.65356135285149
-0.324800791971308 0.0648110861426027 0.657338871937281
-0.323933768045872 0.0713967866900655 0.675167179739167
-0.324222195971916 0.069205959084596 0.6789338842884
-0.324829504756713 0.0645929908847704 0.684415069300354
-0.324869353069476 0.0642903128992208 0.695377807394567
-0.324506277691863 0.0670481441919548 0.694799598575328
-0.324416972635375 0.0677264834420587 0.715058533101492
-0.324672500086943 0.0657855597508918 0.723349818734266
-0.324189741254525 0.0694524771376946 0.732755199367379
-0.323627940429912 0.0737197780617822 0.743335388851464
-0.324481919887649 0.0672331600834915 0.752568664157917
-0.324388007554803 0.0679464950719363 0.760375788965916
-0.324997200229773 0.0633192173055927 0.760483779045168
-0.323981723577012 0.0710325282671812 0.779712499827425
-0.323762835083844 0.0726951514393921 0.785489501990826
-0.324332548880011 0.0683677455290768 0.80031036182132
-0.323956281812093 0.0712257776576959 0.810163812987845
-0.324291313886205 0.0686809564028655 0.814271012762316
-0.324120978128723 0.0699747849333054 0.824931364610376
-0.323675257832741 0.0733603667046368 0.832505838944496
-0.324098997981465 0.0701417407272346 0.836351556561749
-0.323749091137966 0.0693414508862159 0.851365800999589
-0.323804468682071 0.0617449791910209 0.854199951781849
-0.321823749417918 0.0595769022842346 0.860998407793528
-0.318989875122104 0.0589773034560563 0.869736846730808
-0.315267831584307 0.0610944754253566 0.880066784411461
-0.313864649160061 0.0600937270420386 0.884671584756558
-0.314089789408951 0.0522901283089151 0.887078253800044
-0.310647125541314 0.0538991633647357 0.896770744951543
-0.310441577220352 0.044147369786186 0.901238933856147
-0.304984982836727 0.0510315251324006 0.914889768271698
-0.305879696164373 0.0428355875485503 0.915442675247712
-0.303331172623111 0.0396124451026489 0.924361250130744
-0.29956523480686 0.0410948330720101 0.935073583343819
-0.298996672418 0.0393365491131626 0.937473717934349
-0.297725618481098 0.0356257488701062 0.942752488105195
-0.295201890815818 0.029700020903512 0.952664081761511
-0.292388655291543 0.0311347780748669 0.960537120239214
-0.289873861467951 0.0290301648620259 0.968912734467769
-0.28985290414382 0.0243706984711125 0.970815897603526
-0.287223595158482 0.0337484786814293 0.982752584052984
-0.288124762731872 0.0269034313795937 0.996297281901272
-0.288513383796758 0.0239515613277017 0.998747972590148
-0.285439337183312 0.0199035030347249 0.999999999999999
-0.233425830477314 -0.0389663704484423 0.962499999999999
-0.228210883855932 -0.0423661482495462 0.962499999999999
-0.215402055834716 -0.0613003448600888 0.962499999999999
-0.20692209205318 -0.0623249382758119 0.962499999999999
-0.202063389738875 -0.0678384957541293 0.9625
-0.188932165182507 -0.0871082522504532 0.962499999999999
-0.178309992021841 -0.0969691781242846 0.962499999999999
-0.167650060562515 -0.110836156700112 0.9625
-0.158750930298069 -0.124417191479703 0.962499999999999
-0.148317044515079 -0.129140681310435 0.962499999999999
-0.14262452560468 -0.137605051054948 0.962499999999999
-0.136854444474578 -0.151967804568524 0.962499999999999
-0.115810257355345 -0.16612182632954 0.962499999999999
-0.109093610412138 -0.172054017321535 0.962499999999999
-0.101518501094539 -0.186353620050062 0.962499999999999
-0.096404440265492 -0.188033908263357 0.962499999999999
-0.0746563953999312 -0.210249839958333 0.962499999999999
-0.0775248351558044 -0.212697931768032 0.962499999999999
-0.0650128579028225 -0.234329974025163 0.962499999999999
-0.0455433659244659 -0.250231705494334 0.962499999999999
-0.0357955842467416 -0.258455851764611 0.962499999999999
-0.0247416615809016 -0.277992698458413 0.962522663190937
-0.0256423038184649 -0.277874126658405 0.971161590292779
-0.0182800168251111 -0.278843390129035 0.979190162001768
-0.0183504676772178 -0.278834115098398 0.975817064749229
-0.0243254742141316 -0.278047490564712 0.996444747781722
-0.323079339101886 0.0778868188553829 0.271408005455306
-0.323566980734812 0.074182812916542 0.285322451524253
-0.322509932679412 0.0822118900306992 0.303099513899257
-0.323068791532584 0.0779669355982829 0.303609887723327
-0.323260357275417 0.0765118493193019 0.315237920707704
-0.322894498347234 0.0792908237777238 0.319174345130971
-0.322373584197812 0.0832475595705773 0.33950207441553
-0.322917164006687 0.0791186610017184 0.344778894672329
-0.322058349015293 0.0856420085046699 0.352298988544536
-0.322881661395535 0.0793883301063815 0.363203023369092
-0.323141219434031 0.0774167910679874 0.371767233052548
-0.323061414516963 0.0780229695950232 0.379082725640662
-0.321670234345692 0.0870094493562414 0.38725964480432
-0.322844124679076 0.0796734497748118 0.401403005202543
-0.322176044686476 0.0847480211262309 0.404972547787579
-0.323096706635945 0.0777548993371183 0.408643459791562
-0.323466758754273 0.0749440744374143 0.417232419108151
-0.323728183983244 0.0729583526792816 0.423493733705282
-0.32352517594953 0.0745003517862815 0.435684790600365
-0.32272411376633 0.0805850231588678 0.447655381828624
-0.323183315275345 0.0770970414082001 0.45566445170347
-0.322717752784316 0.080633339614167 0.461097155456054
-0.322463228849039 0.0825666408423362 0.474056840620092
-0.322146119849516 0.0849753228296418 0.484113301682429
-0.32349419120737 0.0747357042689717 0.488473295461535
-0.321472623800981 0.087486523413352 0.502871685449988
-0.323710931306334 0.07308939977088 0.508106625304094
-0.323339674304074 0.0759093766726765 0.512827949836733
-0.322656096416116 0.0811016662264944 0.530263035496337
-0.323114948779333 0.0776163365014572 0.54133711908516
-0.322814878785642 0.0798955943901443 0.544536886421395
-0.322248740244372 0.0841958435433608 0.557869443972288
-0.323680460221794 0.0733208506365931 0.565652196915151
-0.322749833998211 0.0803896586017811 0.575836556928611
-0.323103540065375 0.0777029942874267 0.578145605870044
-0.323270155709539 0.0764374228230176 0.587252935083091
-0.322146796180392 0.0849701855866036 0.606917783536394
-0.323001066262146 0.0784813600997462 0.613247427810859
-0.323747955190111 0.0728081754534063 0.616329153702184
-0.322445272204738 0.082703035097133 0.632072929397546
-0.322874070763949 0.0794459866774729 0.640827710263884
-0.32290476240965 0.0792128604834126 0.655359559625111
-0.323394540262836 0.0754926283407559 0.655378370041942
-0.323217935513245 0.0768340745937857 0.670151523524917
-0.323467817492445 0.0749360325225832 0.673786238852352
-0.321775979262342 0.086754158544314 0.685200864469406
-0.323064431581635 0.0780000527136325 0.690309235184969
-0.322467473106384 0.0825344025071476 0.699383497424358
-0.322502083507996 0.0822715104067646 0.707344880312675
-0.322966176134628 0.0787463769293318 0.72110139631177
-0.323740694026718 0.0728633294651127 0.724596726056076
-0.322320927069522 0.0836475301693478 0.740892242274292
-0.322848367826214 0.0796412198724784 0.741429384635471
-0.322775667021396 0.0801934373096768 0.764011262117753
-0.322557835020493 0.0818480356264245 0.771498014685531
-0.32254102048055 0.0819757547373434 0.77512809775245
-0.323013521380241 0.0783867540852559 0.782524387757713
-0.323768758756236 0.0726501566804587 0.788033057092557
-0.323412181470867 0.075358630062306 0.799222353028917
-0.323833474336446 0.0721585930459158 0.809857912117246
-0.322657052699399 0.0810944025338163 0.823142999643695
-0.322346940148124 0.0834499412205737 0.832756705346207
-0.322006540825812 0.0860355307729863 0.84380652610916
-0.32271469050102 0.0806565999651032 0.840226624335807
-0.320860187630658 0.0857558860802817 0.853549507352161
-0.318775927727852 0.0741319497573794 0.864393247806698
-0.318216825979093 0.0724256380114661 0.86674447366201
-0.317777866973559 0.0702461401606565 0.868922159685249
-0.314250923102384 0.0709581004802766 0.879221797235992
-0.313208198401547 0.0665354115813084 0.884096745457305
-0.309320205526696 0.0634773881981658 0.896968513330072
-0.307220042942744 0.0676470442291711 0.901622164190242
-0.305184221894208 0.0669985103412174 0.907985770654207
-0.303314370050909 0.061564287898427 0.915741613055223
-0.302280246625799 0.0542942383604618 0.921715343868323
-0.299060738910961 0.0531038160735349 0.931844033214609
-0.296127059938843 0.0529371241062976 0.940710906372408
-0.298018567149401 0.0506074651039508 0.935956501019293
-0.294414165332521 0.0443835001665278 0.949227908056656
-0.293059707296127 0.0431854797927757 0.953764449288934
-0.291460481710632 0.0438937582089879 0.958282386177973
-0.286696426917156 0.0401305505345103 0.974060857626257
-0.286080129337975 0.0424339638903067 0.983039102515627
-0.286033409502347 0.0427888362739214 0.988432851220414
-0.286602344378276 0.0384673468502128 0.995306842001373
-0.281570689326089 0.0357406609982231 1.0
-0.235643509392666 -0.0165452627949798 0.962499999999999
-0.230301689157558 -0.0280953053845215 0.962499999999999
-0.221005582963038 -0.0451134927359087 0.962499999999999
-0.216400905891753 -0.0435969825769494 0.962499999999999
-0.200184360695652 -0.0640898086681964 0.962499999999999
-0.185933033296078 -0.0762629168365655 0.962499999999999
-0.189211361449341 -0.0787353411705095 0.962499999999999
-0.169999357355534 -0.092070056728189 0.962499999999999
-0.160143027473025 -0.104876670309964 0.9625
-0.151701937649415 -0.112338609739546 0.962499999999999
-0.139994666001533 -0.122353362315236 0.962499999999999
-0.138385166375562 -0.127220644425688 0.962499999999999
-0.128456283845694 -0.141848195551197 0.962499999999999
-0.123546507627078 -0.146723582849469 0.962499999999999
-0.107413638600341 -0.161065366022843 0.962499999999999
-0.105386259323824 -0.1683943736813 0.962499999999999
-0.0918783141216645 -0.189499854169105 0.962499999999999
-0.0778177795677078 -0.199157197896753 0.962499999999999
-0.0618277234922106 -0.217761198671928 0.962499999999999
-0.0494423884875021 -0.232557265405783 0.962499999999999
-0.0481153420264888 -0.236782803531992 0.962499999999999
-0.0411862600060182 -0.247354304965023 0.962499999999999
-0.0300740249233685 -0.258774165478783 0.962499999999999
-0.00131452389219262 -0.281076939646455 0.956291424073157
-0.0105848387471538 -0.279856479542378 0.970583536490153
-0.00360913150340788 -0.280774848823456 0.978284164320131
0.00126420767227846 -0.281083563902476 0.980714464359837
-0.00175025339619875 -0.28101957476898 0.996456339333514
-0.319693850317982 0.0917808624803975 0.276956026165593
-0.320325734237825 0.0902553597512686 0.292576461461884
-0.318644806370706 0.0943134786054362 0.295035877721991
-0.320544056691869 0.0897282827217419 0.306068281619835
-0.321198397547287 0.0881485641541791 0.319079227352997
-0.322132574367504 0.0850782109803367 0.328358597556023
-0.318162713982976 0.0954773525862101 0.341964004325241
-0.32197527542969 0.0862730150341739 0.344289823873694
-0.321024819394935 0.0885676188837184 0.349010375975326
-0.319831605311802 0.0914482925060335 0.360943793898684
-0.32079072207294 0.0891327798133941 0.370717108089512
-0.320814293278759 0.0890758738886241 0.380460905187931
-0.3207017489012 0.0893475800512945 0.392413767157746
-0.320418435387832 0.0900315593776727 0.403551868467835
-0.319675681661402 0.0918247254975229 0.415352224572945
-0.320036324321366 0.0909540570966684 0.412324983494128
-0.320873407011132 0.0889331607142069 0.424769417787526
-0.319531271771898 0.0921733618113041 0.436437614598764
-0.318079829553783 0.0956774532992777 0.445867904951352
-0.319698033914069 0.0917707623859853 0.450457880699242
-0.320094166443591 0.0908144138607157 0.463455939359152
-0.319015181890025 0.0934193130035269 0.472369455708885
-0.322005679743507 0.0860420713424516 0.478347834750425
-0.318560641786338 0.0945166698864889 0.492678417221437
-0.320528983882239 0.089764671703174 0.49669959743438
-0.320357811901652 0.0901779174202065 0.510487126065616
-0.318847580867551 0.0938239376650522 0.523809069999508
-0.321753608491212 0.0868081663633768 0.520838312993265
-0.319544661359102 0.0921410364882803 0.536780679181636
-0.320402777922747 0.0900693598422329 0.536368263407219
-0.319287838137309 0.0927610625934669 0.549696669035147
-0.319326396643035 0.0926679741259982 0.563067359008603
-0.318599916848919 0.0944218514977434 0.571168342080024
-0.319451769468848 0.0923652973495669 0.582700241493677
-0.319364819244175 0.0925752137612263 0.585502221086899
-0.321804320407363 0.086685736967632 0.59290349051911
-0.322012145532836 0.0859929587965652 0.607457543333845
-0.31859585581984 0.0944316556892234 0.617349977589494
-0.319173994095787 0.0930359064225041 0.625869803673333
-0.321099584805506 0.0883871192155209 0.631696810562169
-0.319260305264254 0.0928275328290072 0.65162570977279
-0.320667772283427 0.089429606862727 0.652831926199494
-0.320905830381735 0.0888548837731579 0.658133890127996
-0.321489500488243 0.0874457794860753 0.670374845343528
-0.32142181632851 0.0876091835024619 0.674563731097031
-0.318588312880393 0.0944498659559375 0.684710023854543
-0.322003905073186 0.086055551301835 0.695285231106996
-0.318777793941394 0.0939924182086548 0.710970785648993
-0.319091133537353 0.0932359495064612 0.717005556133764
-0.320406345566429 0.0900607467884701 0.724093212330422
-0.319221860283504 0.0929203472229397 0.733263495938028
-0.319240514485169 0.0928753119962846 0.746128379060697
-0.318346549743821 0.0950335337991287 0.754586128527578
-0.320425438589017 0.0900146521543909 0.761069898112458
-0.318424892309456 0.0948443981146627 0.767967421742176
-0.318660910059844 0.0942746008607149 0.778759810642838
-0.321021173152323 0.088576421692084 0.787959044770847
-0.31867631483636 0.0942374104403257 0.803114941899863
-0.320664178886886 0.0894382820893886 0.800692117386901
-0.319887810670287 0.0913126007673014 0.822464350584759
-0.320702412834474 0.089345977174581 0.825606090756164
-0.321137825810468 0.0882947972627028 0.836447062079118
-0.319673749244987 0.0918293907634397 0.844624094911721
-0.31740208090613 0.0938134440449551 0.854053125742067
-0.321250799998314 0.0826324619876772 0.853611289997638
-0.316353044295371 0.0863826112483957 0.86559034844199
-0.315534527006658 0.0808789473294687 0.871452672725533
-0.312642391200666 0.0836016911477546 0.879053712071608
-0.310742148786479 0.0839797728415008 0.884058298218552
-0.308363248736842 0.0837921221490427 0.89092593543747
-0.305141648050238 0.0788138795956305 0.903446923569337
-0.305781293193932 0.0682117346731085 0.905715384714754
-0.302531335261555 0.0675485574529533 0.915727185324015
-0.298979058405286 0.0693161960109516 0.925685873799845
-0.300034668625133 0.0689156867196892 0.922677227285809
-0.297627051589622 0.0645670946657295 0.931617587407018
-0.293697533975306 0.0604608986874176 0.945027913118354
-0.293285343087648 0.0627892858037646 0.945344871843673
-0.290884091690005 0.058876193510988 0.954094131157506
-0.288197089580117 0.0580568314288812 0.962478750680781
-0.286626756879575 0.0553571380000211 0.968256012930298
-0.28539391303225 0.0476462942167329 0.977179649051312
-0.284930782596007 0.0511641191325614 0.986084693147866
-0.28504528646557 0.0502943758944022 0.998309847187137
-0.282612068758646 0.0481521874262871 0.999999999999999
-0.239745086058358 0.00221006798824348 0.9625
-0.237753875815049 -0.00989752622594152 0.962499999999999
-0.222473118644356 -0.0159195869074781 0.962499999999999
-0.220794312581791 -0.0304088121338899 0.962499999999999
-0.199819910663738 -0.0461922273219501 0.962499999999999
-0.192368744023574 -0.052382093911667 0.962499999999999
-0.190104601321642 -0.0599021917997195 0.962499999999999
-0.180191039172174 -0.0711921187519304 0.962499999999999
-0.166370443404042 -0.0865532407669306 0.9625
-0.149623524420816 -0.0922989893036511 0.962499999999999
-0.152715468674898 -0.104902931644315 0.962499999999999
-0.136625823590001 -0.122870183661536 0.962499999999999
-0.125975936969534 -0.129711418768102 0.9625
-0.11464863571585 -0.139764184045519 0.962499999999999
-0.1045204164526 -0.154834053369052 0.962499999999999
-0.103793172585578 -0.155840608950037 0.962499999999999
-0.0932674962616299 -0.166929523765849 0.962499999999999
-0.0802280900037417 -0.1737313263118 0.962499999999999
-0.0721267199683301 -0.191341579448286 0.962499999999999
-0.0577898079836356 -0.207299439453752 0.962499999999999
-0.054193728237061 -0.212415401175317 0.962499999999999
-0.0585900439524428 -0.197239920368941 0.987499999999998
-0.0285526136319412 -0.241838172093344 0.962499999999999
-0.014200143401965 -0.262101267712069 0.962499999999999
-0.000933161462963451 -0.267831887782377 0.962499999999999
0.00952790768714184 -0.279995627156206 0.959621428551086
0.00700605424738205 -0.2803276354601 0.963044274275043
0.00361872103001245 -0.280773586338328 0.985381559543063
0.00584695907245379 -0.280480233234821 0.990228588588258
-0.315657689867834 0.101525015779058 0.290875952578427
-0.317036406096788 0.098196500360454 0.296972604588039
-0.317285083166663 0.0975961408057095 0.302262909141332
-0.317044368266142 0.0981772779832145 0.314179395172139
-0.315887994388779 0.100969011481117 0.3222437584888
-0.316730243878827 0.0989356413393403 0.321989646876381
-0.316304388232323 0.0999637478167454 0.346190088947819
-0.316919155085185 0.0984795693428678 0.350961221944675
-0.31583233562704 0.101103383618572 0.362367102627016
-0.316260450943338 0.100069821815706 0.361673277564341
-0.317318558703772 0.0975153237100136 0.376375544250669
-0.314108957049777 0.105263987552904 0.386835748035045
-0.316688504878547 0.0990364081998975 0.392074684347514
-0.314739584811827 0.103741517456953 0.400591702401942
-0.315343859005531 0.102282670503123 0.41829029446202
-0.317121619926437 0.0979907759772144 0.424387196494386
-0.31718333949668 0.0978417717536687 0.426539649785547
-0.315958666738511 0.100798393335909 0.433440972703617
-0.316304933740862 0.0999624308426309 0.443810012281389
-0.315879384461558 0.100989797684186 0.455017279017867
-0.314275571086648 0.104861745685407 0.465783063201134
-0.316806896549719 0.0987505854216816 0.469599572636747
-0.318095166600789 0.0956404263923907 0.480826872985625
-0.316641201913643 0.0991506076593091 0.498786885188611
-0.316586991393868 0.0992814834313725 0.494401435671455
-0.314356561651218 0.104666217166 0.515174773198892
-0.317370570257569 0.0973897567114374 0.519738121437055
-0.317033061102981 0.0982045758898685 0.523556155788338
-0.318048943518962 0.0957520187834318 0.535001521422909
-0.318131891615388 0.0955517643640655 0.548494552867696
-0.315491712662076 0.101925720200245 0.55425782520763
-0.316468625745331 0.0995672433853908 0.57080135306817
-0.315107711786471 0.102852780322093 0.574402006026008
-0.315853250930764 0.101052889608661 0.589391011044529
-0.315307581062263 0.102370253205775 0.590125706730962
-0.314739666672207 0.103741319828514 0.59769974087612
-0.315400049476559 0.10214701470589 0.607748049008723
-0.317909596055192 0.0960884333203461 0.617467102433006
-0.318363883933204 0.0949916853640277 0.624667594478954
-0.31803441738055 0.0957870879837928 0.638103180133067
-0.317837476466708 0.096262545408977 0.640713513016697
-0.316750923935231 0.0988857152667012 0.657490072937789
-0.31482133915775 0.103544145006243 0.660834708695346
-0.316373239847202 0.0997975253143115 0.672928989307146
-0.316393314400846 0.0997490610546485 0.683940073598774
-0.315750044176377 0.101302052754829 0.68724836418368
-0.318017764683492 0.0958272911508797 0.694494684169309
-0.317548091999828 0.096961181313661 0.707963625538358
-0.316403138235101 0.0997253442207531 0.712402337815701
-0.316111778619228 0.100428748556922 0.736621186933714
-0.316934231006153 0.0984431728500016 0.734371194711747
-0.315466509944981 0.101986564941663 0.748254647955678
-0.316406137841947 0.0997181025292243 0.757440015262399
-0.315986315223024 0.100731643989618 0.760428884565438
-0.317354366242446 0.0974288766645122 0.775332921299618
-0.316449034643881 0.0996145404882117 0.782137262927336
-0.315561669442786 0.101756829591476 0.78645323006858
-0.317254493925537 0.0976699897664988 0.802289823317972
-0.318134489118498 0.0955454934368307 0.80519088181523
-0.314593831809119 0.104093396332849 0.823639664494037
-0.316767606781292 0.0988454393134823 0.82408415426537
-0.314823729447192 0.103538374337056 0.836996425624067
-0.315528475025018 0.101836968005043 0.849525602628881
-0.316714208984582 0.0974012586678777 0.851821575242345
-0.315019976515146 0.0931796488484031 0.861446336925743
-0.312267325372068 0.0940872153440574 0.868090601700693
-0.311028794150472 0.0900369070953558 0.876243065686512
-0.308704690242411 0.0902135091512632 0.882535728341361
-0.30896418638532 0.0853539083370683 0.887437500312994
-0.305564461056141 0.0844123622443149 0.898031888991679
-0.305422364054853 0.0855314312958331 0.897133295375019
-0.302130426069125 0.087229148683093 0.90437020557612
-0.297745756877641 0.0876907197810232 0.916093309891088
-0.297446763837383 0.0832156214578829 0.92211113180195
-0.295922815186213 0.0746610117674112 0.932743628426617
-0.293667155245043 0.0809534665777158 0.935296712916603
-0.293769279551327 0.0719992899174725 0.940255502319557
-0.290767403192144 0.0677376794139038 0.950944286396724
-0.287666248865291 0.0667174039585422 0.960650714813059
-0.285811857417882 0.0656445374566255 0.966637625818952
-0.28504009517111 0.0603325477732204 0.971050922686204
-0.283943828149823 0.0586607824262297 0.981036152426295
-0.282723018842836 0.0679337497406298 0.993699345196704
-0.28287917096312 0.0667476566307726 0.998454591360766
-0.277924114544449 0.0516913198048344 0.999999999999999
-0.27559544977064 0.0510768922598222 0.999999999999999
-0.222498746290533 0.000966018326927869 0.962499999999999
-0.209100953826464 -0.0132070418490042 0.962499999999999
-0.20894296931351 -0.0209350763485979 0.962499999999999
-0.197286227955315 -0.0317747199211452 0.962499999999999
-0.19324373723999 -0.0437847656048488 0.962499999999999
-0.174971201905072 -0.0578523655740118 0.962499999999999
-0.162604514081698 -0.0707664721282732 0.962499999999999
-0.163175333761252 -0.0729282022040969 0.962499999999999
-0.151124672833549 -0.0878964432849899 0.962499999999999
-0.142940256084708 -0.0923399669864595 0.962499999999999
-0.133811242562239 -0.103125498981052 0.962499999999999
-0.123741796693164 -0.12482468648775 0.962499999999999
-0.117599040942977 -0.128616331356445 0.962499999999999
-0.102620751581686 -0.137696690031423 0.962499999999999
-0.0932301523767687 -0.151621746150093 0.962499999999999
-0.0894566243471605 -0.159010905315262 0.962499999999999
-0.0798230583714902 -0.167998106078754 0.962499999999999
-0.0785337930965882 -0.164557529082568 0.980138999367944
-0.0783686592968182 -0.164956197341578 0.985120791102864
-0.0420111348375567 -0.217695243297522 0.962499999999999
-0.0527758553160191 -0.18938635235426 0.987499999999998
-0.0481442386599269 -0.197917243379359 0.987499999999998
-0.00464012680528836 -0.245833467689489 0.962499999999999
-0.00220409348204452 -0.251065753951808 0.962499999999999
0.0191753011307252 -0.27872552371415 0.958677159938506
0.0233085436686874 -0.278181372010893 0.967776270221017
0.0241596650565445 -0.278069319754432 0.973590317113117
0.0244194568755814 -0.278035117512603 0.993820969412939
0.0229386317497301 -0.280122396724996 0.999999999999999
0.0313145367131438 -0.28512432473069 0.999999999999999
-0.311290560686144 0.112068198278131 0.286876583298872
-0.312911790917883 0.108154202264936 0.298572722205624
-0.312059727778729 0.110211264651479 0.314893907034424
-0.311872999173815 0.110662067381946 0.311698129741767
-0.313282605001659 0.107258977874765 0.328005682863804
