ply
format ascii 1.0
element vertex 873
property float x
property float y
property float z
end_header
0.0995784078101844 0.244921855624432 0.786446007217924
0.0979968952348306 0.245576939582208 0.791244791605266
0.0969086066294855 0.246027723482318 0.809310022534959
0.101972734607916 0.243930092992059 0.813198914249649
0.100285029524781 0.244629163326779 0.81645968589693
0.0993468569576236 0.245017767127943 0.82877410932138
0.102360206390918 0.243769596924502 0.843490120153522
0.105025356411161 0.242665655640359 0.849268819947359
0.102092359827628 0.243880542603651 0.85839881252863
0.105821848091368 0.242335737984099 0.864779607309961
0.104970249988003 0.242213149910815 0.876113049277352
0.0986184053056656 0.241592715567472 0.883726743526333
0.102284966385318 0.238543981738342 0.887309420184499
0.104176485645896 0.234047065165149 0.896004873783043
0.101456297077736 0.229926298259315 0.908292576045635
0.102391953756621 0.226708022718147 0.914921052446531
0.103675096239304 0.225572840811705 0.916334662049365
0.106423410658535 0.221736488744301 0.922652285354
0.0982888738500084 0.219386965950301 0.936043953261769
0.105326359114726 0.215285142174458 0.93882300088586
0.101954806191859 0.214209072010259 0.94461293886433
0.104492746226732 0.20943880653722 0.953321488359549
0.104017214523622 0.204803792520779 0.964636197229281
0.105763503416669 0.203213336956278 0.968647661490244
0.0983662480028443 0.206277380473022 0.97345299815719
0.0981304178195562 0.206375064533357 0.987775440968964
0.0991532257439115 0.205951403619386 0.993176047113416
0.103018341282022 0.172651973745971 0.983333333333333
0.107958898095065 0.164981039355262 0.983333333333333
0.100103084287875 0.147256422773422 0.983333333333333
0.110035704866912 0.129476352088203 0.983333333333333
0.107828106761772 0.116808743677282 0.983333333333333
0.106107354873589 0.113049966724877 0.983333333333333
0.103383122503643 0.0951281258869429 0.983333333333333
0.107409582032236 0.0756954641171439 0.983333333333333
0.107747874954879 0.0523160783042269 0.983333333333333
0.110411425600635 0.0561846548344369 0.983333333333333
0.111678484539425 0.0249694611251848 0.983333333333333
0.106026864792741 0.0288306105023574 0.983333333333333
0.10866346971606 0.00811656094764679 0.983333333333333
0.109349081206917 -0.0172990400519109 0.983333333333333
0.106020636473156 -0.0325076666932627 0.983333333333333
0.107682619899879 -0.0452698064736194 0.983333333333333
0.115608379821938 -0.0501636648817944 0.983333333333333
0.11710863167164 -0.0695898469292311 0.983333333333333
0.115070514225735 -0.0883462821284431 0.983333333333333
0.110286206838339 -0.101568139736945 0.983333333333333
0.114145086027797 -0.112404260864958 0.983333333333333
0.11477827541977 -0.140423001707144 0.983333333333333
0.118748543061493 -0.154447355132255 0.983333333333333
0.120813150014102 -0.162189988766385 0.983333333333333
0.116162156998379 -0.192045643952427 0.983941621883758
0.116322007271836 -0.191922986523567 0.984994902559209
0.105684241212881 0.242392736619445 0.231207541160417
0.11458771278792 0.23870479794086 0.24010949422969
0.108965666654997 0.241033525697405 0.249384490987504
0.106812002520936 0.241925602590529 0.258322631669929
0.11060514958321 0.24035442963326 0.27650691551919
0.110531512439772 0.240384931136766 0.276250618355718
0.107706486604849 0.241555095151645 0.288244853595973
0.112238519355489 0.239677865721211 0.294990743368295
0.114395202314549 0.238784538389829 0.299277553971463
0.105884732916583 0.242309690236629 0.32133298724348
0.107866058872874 0.24148899815405 0.319883729501414
0.10744608627186 0.241662956501216 0.341399659781495
0.110238662513659 0.240506233547902 0.336562638257454
0.112108704986392 0.239731636593482 0.350852453271442
0.112832329614529 0.239431901458441 0.358765479107571
0.107899119533919 0.241475303979864 0.366968928453301
0.110635753185132 0.240341753206286 0.380981218374027
0.113424299474179 0.239186699514058 0.385960606611709
0.112976277793793 0.23937227617031 0.397315523344522
0.112809629271308 0.239441304248473 0.40207864341392
0.107015499392856 0.241841311426279 0.421066418481263
0.115029252423725 0.238521906235385 0.420334004333958
0.106093005152956 0.242223421051657 0.436667188415061
0.10880795753004 0.241098850955871 0.435733361268021
0.109257208773273 0.240912764998011 0.447744991012997
0.114959646428645 0.238550737982569 0.453892748984842
0.111403331913005 0.240023811687012 0.477358350733851
0.11483800643575 0.238601122917353 0.4804960088059
0.115089605849982 0.238496907027693 0.486062610653627
0.11217983783845 0.239702172401429 0.49687696534326
0.107491293182274 0.24164423118581 0.509236235781963
0.105794434003188 0.242347093271224 0.524085226281549
0.112855349204686 0.239422366431997 0.522913281421156
0.114676406749727 0.23866805969898 0.527705192291478
0.108376647615655 0.241277505371995 0.54612700557797
0.110770856724241 0.240285791488063 0.553218738897745
0.108058315639556 0.241409362793833 0.557534218536741
0.111563300698752 0.239957550446398 0.570351562360654
0.106384602865233 0.242102637324474 0.57357566535867
0.109864514235364 0.24066121083911 0.589115472753458
0.106188464451916 0.242183880515373 0.595868089220041
0.11505126517119 0.23851278825684 0.601309253695704
0.111536077560104 0.239968826639638 0.616174632324626
0.111556228983534 0.239960479646752 0.624383970082792
0.107594038797975 0.241601672558312 0.633621986518436
0.113063670235264 0.239336077035804 0.64981733271042
0.110318410699534 0.240473200767738 0.65663886949162
0.109579618206064 0.240779218638312 0.661241247056975
0.108051068695764 0.241412364576237 0.673655444408631
0.109039362849481 0.241002999734154 0.689102469068895
0.112447901132973 0.239591136949264 0.695828891455812
0.105768038380678 0.242358026696055 0.701311275912043
0.111656610145968 0.239918900407865 0.71179742310517
0.112167628492273 0.239707229678203 0.719180780020375
0.110392788367947 0.240442392528744 0.720588927922085
0.11355061188089 0.239134379202101 0.738244446905641
0.109010579815144 0.241014922057342 0.743147859401562
0.107072934022203 0.241817521223854 0.7591153830846
0.113321511346415 0.239229275750628 0.756774466181737
0.10596971345943 0.242274490143243 0.770312670703751
0.114634665407778 0.238685349528926 0.78116662940837
0.110771172859861 0.240285660540401 0.793998652414445
0.115045828059001 0.238515040382448 0.796967924308197
0.108203170518364 0.241349361938455 0.814653234981565
0.110197097303426 0.240523450421703 0.825260640673959
0.112825506662614 0.239434727617659 0.827517154036847
0.11356917879213 0.239126688535654 0.838004543625739
0.105847146929426 0.242325258862264 0.848747672077886
0.113021462002527 0.239353560258247 0.859532825959901
0.109943717269398 0.240628403868232 0.871278116770999
0.106661922517409 0.24172132085552 0.875623919312093
0.114185630688482 0.236616881690884 0.88027911435303
0.108570593512189 0.233605742493246 0.892776293536822
0.112250286539292 0.230747106173114 0.895901095589186
0.107335516782522 0.227915882290735 0.907297767203016
0.109381224638643 0.22461157817665 0.913051014376368
0.114987979210501 0.223120936514246 0.911103361029748
0.115504791218697 0.218476239723985 0.92147823571686
0.111389207298373 0.215906654402448 0.931487090082325
0.111589199394902 0.213999719447692 0.935758441656508
0.111261826724397 0.208740942343724 0.948390066661818
0.114954258905167 0.207824433899014 0.946954773228559
0.111242329542225 0.204935051691446 0.957320954496109
0.116570988106383 0.199484890960191 0.964113497386491
0.10827446736975 0.202173261632282 0.979769426018848
0.109857942604695 0.201517364714286 0.98024281032413
0.11374428461589 0.199907589145228 0.998155190407992
0.117930840578476 0.165856128951121 0.983333333333333
0.110001224092078 0.159077739931298 0.983333333333333
0.113934438686842 0.151809793773781 0.983333333333333
0.113960407567759 0.135211306660596 0.983333333333333
0.116283335689248 0.111767702580469 0.983333333333333
0.111147890462635 0.106434815357268 0.983333333333333
0.119688321732017 0.0861618715858307 0.983333333333333
0.117910779066671 0.078144722318605 0.983333333333333
0.113218610679475 0.0589159398013388 0.983333333333333
0.118304970609351 0.0545781415126813 0.983333333333333
0.11950942713884 0.027906706547192 0.983333333333333
0.121693030080354 0.0133174041496211 0.983333333333333
0.121521361328319 0.00087618005772895 0.983333333333333
0.115553531896894 -0.00974107099083762 0.983333333333333
0.122977848708321 -0.0312952443635827 0.983333333333333
0.117964095454224 -0.037766566281071 0.983333333333334
0.117139485215256 -0.0579918158531242 0.983333333333333
0.125851719490392 -0.0826766753947292 0.983333333333333
0.118580450039017 -0.0819072905324806 0.983333333333333
0.120565817834612 -0.104970168560194 0.983333333333333
0.121889132880839 -0.128236441832254 0.983333333333333
0.123129960323836 -0.136121373351632 0.983333333333333
0.131430572181505 -0.15878475704454 0.983333333333333
0.121989817940628 -0.165734366665546 0.983333333333333
0.131201560549677 -0.180505503724409 0.987975331457705
0.122748631324721 -0.186991664446193 0.985572977424779
0.123548169465383 -0.186378157252945 0.99855155923907
0.118770663184274 0.236972163155957 0.219724136650731
0.115186989896888 0.238456569234706 0.245984962421654
0.115034361027655 0.238519790182352 0.247561810314081
0.115723634684862 0.23823428368535 0.262398613265564
0.117479109827266 0.237507142072958 0.261396449159416
0.123278738689055 0.235104857141675 0.265767261871502
0.123725243495075 0.234919908795356 0.278435784978194
0.115454796178936 0.238345640240593 0.292132294507942
0.122710047451357 0.235340416765132 0.302446499144023
0.115184807025373 0.238457473409693 0.310330936064713
0.120158450865019 0.236397322676898 0.3196672203496
0.121339582088011 0.235908082105392 0.32740070892094
0.124189721767264 0.234727515595588 0.335588463644713
0.122000610558244 0.235634275147907 0.34333975805529
0.119948389745045 0.236484332841718 0.358014156350309
0.115915459146459 0.238154827391762 0.369094008353925
0.118005474610712 0.237289114640899 0.380726559347541
0.115796470607998 0.238204114058159 0.388423437376441
0.116892316208194 0.237750199948291 0.395789394866646
0.119564043269433 0.236643534364566 0.396744974323892
0.117667045203671 0.237429296691201 0.413313080442562
0.123821355531017 0.234880097886562 0.414432544380951
0.124055444487464 0.234783135065999 0.436349210821132
0.121469392073583 0.235854313048837 0.437580233464483
0.123255544586048 0.235114464453707 0.448195662964831
0.115620100841878 0.238277168807279 0.454946763383911
0.120363470954487 0.236312400575281 0.465438494206526
0.115333232473773 0.238395993575964 0.485376014620628
0.121245848160856 0.235946907969274 0.480727248083805
0.118456626469819 0.237102241422167 0.493304119018271
0.121000632380532 0.236048479671192 0.506862761059463
0.116204358014336 0.238035161562533 0.514685541838299
0.121078552957772 0.236016203911312 0.518454712544362
0.120785396885912 0.236137633132168 0.52695361587468
0.116931170049603 0.23773410616023 0.545968022713458
0.117687602266578 0.237420781676942 0.545696725358435
0.123788849518699 0.234893562317722 0.560716704842463
0.115845449805086 0.238183826210452 0.565486854351894
0.124351634020308 0.234660449344463 0.576318794964879
0.123571025784979 0.234983787862436 0.586462109612949
0.120022892476436 0.236453472799942 0.594382587313455
0.11719746517036 0.237623803109618 0.605853759354851
0.120386387412773 0.236302908267457 0.608844816263639
0.115150952410141 0.238471496450471 0.63105643079971
0.118478927327659 0.237093004104397 0.630530663411612
0.124090037991537 0.234768805967442 0.64561400258687
0.116562895699901 0.23788665039055 0.653153431979497
0.123510384804653 0.235008906178922 0.662764650893597
0.115300356871405 0.238409611096336 0.670788375368336
0.122097278785451 0.235594233857147 0.67565267998727
0.119545934439059 0.236651035287707 0.684894748636472
0.117956886697101 0.237309240413684 0.697051817113493
0.115111861389525 0.238487688481376 0.703190089824056
0.11943462355583 0.23669714176518 0.712963999718229
0.120898730011949 0.236090689014297 0.722765090422577
0.12274553981073 0.235325715348519 0.734502935725176
0.117814987554866 0.237368016962887 0.740074483312336
0.117849411298521 0.237353758181397 0.745020041240762
0.121123066539683 0.235997765781974 0.762529373019491
0.117607348659523 0.237454023809415 0.777257745677661
0.117180922219039 0.237630655424416 0.778465123184629
0.116128134102633 0.238066734540538 0.79207193399358
0.119537824938149 0.236654394352968 0.796538105300516
0.120276984762554 0.236348224328938 0.809019964003245
0.123648467121715 0.234951710610472 0.81198839005872
0.121730463214389 0.235746173841571 0.825785460345467
0.11850548479736 0.237082003640265 0.83146804688019
0.11703879707741 0.237689525585635 0.843140733627859
0.119191424486924 0.236797878117877 0.861717425110116
0.118769100765524 0.236972810330993 0.86010060723154
0.118160276812562 0.236406810432535 0.876915879608192
0.117691257408606 0.236072259383792 0.878154191160905
0.12102436365216 0.231670696029544 0.885228119246813
0.120451061919528 0.226291809481836 0.89837953067626
0.123495830487353 0.225729223406953 0.896743673793017
0.12198477237317 0.220310666902361 0.910897539007071
0.117778707288036 0.220690291919767 0.914088203121329
0.124590352080326 0.217201288434539 0.915651304408123
0.122109242980035 0.213848994545756 0.925907638156348
0.124359261040235 0.209462062784911 0.932034540818056
0.116872115822981 0.208376466296142 0.943801925085824
0.122749248580781 0.201351130049382 0.950828166384637
0.12371500300141 0.200430108344457 0.951190054780262
0.119964875261596 0.197922633045093 0.962018316747493
0.11907822646346 0.196291291709675 0.968324763083388
0.12439178017293 0.192214058546324 0.975239509736306
0.119816549920262 0.195724756195413 0.989451245214904
0.121415319585164 0.189850078409395 1.0
0.126078663855898 0.184569997439087 1.0
0.123526383446117 0.148701264958888 0.983333333333333
0.12344371210171 0.128344842390185 0.983333333333333
0.121199864790011 0.121033637108506 0.983333333333333
0.126077919222768 0.111504082088191 0.983333333333333
0.121247232058022 0.0963798847181356 0.983333333333333
0.129438963927263 0.0728238487103874 0.983333333333333
0.128629654789819 0.0662432625784625 0.983333333333333
0.124925355873046 0.04095390636588 0.983333333333333
0.130348324722511 0.0370679487875075 0.983333333333333
0.126783080899927 0.0236447339164151 0.983333333333333
0.128278260960829 0.0129549817790466 0.983333333333333
0.132323032524549 -0.0163848298396205 0.983333333333333
0.127617104613429 -0.0301569723356041 0.983333333333333
0.134051522741156 -0.0378603971220872 0.983333333333333
0.129002671464929 -0.0435929520585022 0.983333333333333
0.137460410734515 -0.0689214038580037 0.983333333333333
0.132662921525837 -0.0853449100400371 0.983333333333333
0.139700387409589 -0.112207940279506 0.983333333333333
0.13515055066849 -0.111979145206137 0.983333333333333
0.139987426453249 -0.124841028659625 0.983333333333333
0.140831651557861 -0.140361837100429 0.983333333333333
0.140854704116883 -0.173098386146456 0.982568754269002
0.132912712184006 -0.179192490894864 0.981818599141679
0.141168003853753 -0.17285798280303 0.995406941584772
0.128035353128224 0.233134602929991 0.223754914424051
0.129857119408055 0.232380002629411 0.227048894545292
0.133987422576185 0.230438207347264 0.236488565505566
0.125750225428535 0.234081133814957 0.25169885848505
0.125670615631363 0.234114109272643 0.265665360209227
0.129479007813492 0.23253662157997 0.266332805408076
0.13053768945276 0.232098101286749 0.278824713572073
0.130094025092837 0.232281873081771 0.289413024492573
0.125210999216977 0.234304488624971 0.299422867839732
0.12834199518978 0.2330075876293 0.307957621171839
0.126010124402934 0.233973480134914 0.310980664925778
0.132721475077787 0.231193547663547 0.326376867721536
0.12532899458348 0.234255613343869 0.341044879029082
0.124608439329953 0.234554077102319 0.344057720530453
0.128691762289276 0.232862709353017 0.354951444894046
0.132984005863431 0.231084803851593 0.364329139845929
0.125272867979734 0.23427886174435 0.370487992915149
0.127195028839658 0.233482676647107 0.383882503945819
0.126577783530091 0.233738348025641 0.388907144497077
0.133687687196989 0.230668202392973 0.390178785295068
0.133279924084984 0.230981090033517 0.412193016172887
0.124780634631706 0.234482751472955 0.414040483527157
0.127189734652136 0.23348486957138 0.427116024874601
0.128368712706059 0.232996520871705 0.442266818850369
0.125179398246936 0.234317578175346 0.44862188154168
0.132376721829872 0.231336349134506 0.453729812950836
0.125283620645856 0.234274407844211 0.465971942448738
0.129412482871956 0.232564177112989 0.470840159953416
0.127494376498969 0.233358682786756 0.474862958739332
0.12459152384684 0.234561083724837 0.49142378518239
0.131728385890469 0.231604898673581 0.501932776746716
0.133333333333334 0.23094010767585 0.508155577430557
0.124781985072445 0.234482192102086 0.522043097916753
0.128926022587603 0.232765675560324 0.527497708716418
0.133333333333334 0.23094010767585 0.53721712963376
0.130660685614814 0.232047154608307 0.54103261296392
0.126269736899847 0.233865945117731 0.554934242287397
0.126929891846551 0.233592499985538 0.565160651323965
0.133846316731429 0.230546481670107 0.569882443265754
0.133749751981004 0.230620578409196 0.58058153641061
0.128979412810551 0.232743560605882 0.595204861216824
0.132196885215403 0.23141083989923 0.595710750265993
0.13093960896982 0.2319316207718 0.613529535127426
0.129637839481257 0.232470831349047 0.62297085478333
0.127919659002901 0.233182525005787 0.628650187398587
0.12532064309938 0.234259072641849 0.640484142577033
0.129934572051351 0.232347920694116 0.650851329065304
0.131457249769157 0.231717206932278 0.651353304787737
0.128707188918637 0.232856319433914 0.670246420174262
0.124738974972572 0.234500007468772 0.68051133111638
0.127043231814354 0.233545553033715 0.681584639501527
0.126326314750088 0.233842509804831 0.692149082798958
0.131522291248839 0.231690265869276 0.701439614786077
0.129445609999195 0.232550455407605 0.7095871298599
0.130761698829445 0.232005313564828 0.721955652974397
0.125279843332572 0.234275972458602 0.735612478314269
0.132871719914572 0.231131314214475 0.735885319499403
0.126879275671112 0.233613465891881 0.752944016941021
0.125943243323581 0.234001183185048 0.758583183608805
0.129704363948384 0.232443276012533 0.769523139798531
0.131545950551161 0.231680465865379 0.769748252091959
0.124813012416924 0.234469340155198 0.790053414425994
0.130315389586453 0.232190180906287 0.798293695911485
0.127135611678386 0.233507288041143 0.809387386285018
0.132143331955565 0.231433022385764 0.817960248059596
0.129881400232716 0.232369945182531 0.823578948579326
0.127511408975902 0.233351627703808 0.829789855003461
0.132613862831132 0.231238122115589 0.843189579468912
0.133189392648927 0.231050557247665 0.847486176599395
0.13149194067097 0.231702837490255 0.861966355858952
0.128784050745492 0.232824482222802 0.869806490337263
0.129327349798824 0.230253872179049 0.880492446183483
0.12466500490195 0.230779646502951 0.883783444290235
0.127441177498899 0.226166612093577 0.891892747463394
0.12683878289889 0.222073884026663 0.902060673435383
0.125689735009564 0.221399836479982 0.904753541762425
0.128210713813179 0.216661483332592 0.91161537290063
0.128794057150239 0.21436370122699 0.915335690251483
0.129691980353863 0.210177240674022 0.922368385358718
0.134664638183569 0.202004014394637 0.931130594132957
0.126108382891222 0.203460202097541 0.941404294078876
0.126461019427944 0.200005934383152 0.947806040784343
0.126996656635056 0.196726224043121 0.953574428007799
0.129705147435019 0.19335381143256 0.956176634545123
0.13243746848256 0.186040384769478 0.968262738909887
0.129768181615391 0.188088600621314 0.975162820712157
0.134895525567039 0.184154251230565 0.976478677119551
0.132031391985935 0.186351978224522 0.99037252400724
0.129594455412916 0.181738678868365 1.00003159851245
0.131561501725847 0.149896355156713 0.983333333333333
0.136910909536322 0.137868170983098 0.983333333333333
0.138913810061882 0.119663849409596 0.983333333333334
0.137337761281599 0.107746749620134 0.983333333333333
0.13503161543439 0.0964191848450992 0.983333333333333
0.141116869017787 0.0741575952275961 0.983333333333333
0.137530856005786 0.0631564731341464 0.983333333333333
0.141273871551083 0.0451389673995219 0.983333333333333
0.141987669321711 0.0384200718607378 0.983333333333333
0.137431753222212 0.0204980530856748 0.983333333333333
0.140826905454177 0.0109034945106764 0.983333333333333
0.144678448907479 -0.00362069030185161 0.983333333333333
0.137555620541283 -0.0186178133277768 0.983333333333333
0.14143330419025 -0.0365732759010816 0.983333333333333
0.144577792179083 -0.0476406942390834 0.983333333333333
0.14154985147591 -0.0715486941987988 0.983333333333333
0.142014083099332 -0.0837125423172738 0.983333333333333
0.140371331206914 -0.102208012093248 0.983333333333333
0.147557576752778 -0.111833945440544 0.983333333333333
0.147158712425053 -0.131338406710024 0.983333333333333
0.147785389592982 -0.159329196605008 0.983333333333333
0.144310703420805 -0.170446504610121 0.989277635325436
0.148184968292404 -0.167473676615564 0.997657686268467
0.142924444826112 -0.175476218224248 1.0
0.136308074653252 0.228657508378822 0.217461181563605
0.136241524989287 0.228708573732023 0.236912631967028
0.137311169953168 0.227887806283681 0.233656084320622
0.134401624660591 0.230120378909423 0.250048094009751
0.142010109365163 0.224282183257978 0.245456077847633
0.139458056180754 0.226240442541133 0.261902700108907
0.143066118788414 0.223471878727958 0.272153865816297
0.135307846380069 0.229425010526974 0.284983225807841
0.137447720063377 0.227783027698906 0.284765832809942
0.138693025440269 0.226827471274941 0.298813987736477
0.141147446138786 0.224944128033115 0.313203956073625
0.134076943096882 0.230369515835755 0.323626358744564
0.13554584146191 0.229242390477672 0.337570756874256
0.134756310414503 0.229848218958194 0.338259003157168
0.134971978476469 0.229682731033802 0.346057556137555
0.139837032800615 0.225949643552901 0.35876581474415
0.141885742082427 0.224377613630443 0.361457030043863
0.140550954282099 0.22540183233286 0.377206686499035
0.137541956594066 0.227710717465655 0.384988838500821
0.136465935286405 0.228536377654663 0.393442425510504
0.135441796202696 0.229322227213037 0.406423384300487
0.137136250747226 0.228022026511116 0.41595939630496
0.134533537221441 0.230019158841429 0.415528540406572
0.138857356083419 0.226701375937501 0.430511645041172
0.137775412830949 0.227531580194583 0.436792382566621
0.142281870364534 0.224073653708882 0.443341256187133
0.13956931920306 0.226155067421354 0.461040632812535
0.140565315358212 0.225390812691583 0.468028944780358
0.142793308427509 0.22368121348048 0.477770203737824
0.137450927201096 0.22778056677558 0.485737165824242
0.134363577083329 0.230149573842283 0.501711125366245
0.142666224083306 0.223778728727537 0.505546232204065
0.140480574078374 0.225455836962599 0.508446860602974
0.138872523690547 0.226689737423208 0.520289351191175
0.143121504060335 0.223429380114077 0.528256969009337
0.135101904125586 0.229583035576804 0.546676849273115
0.134594958485741 0.229972028647695 0.5503204713432
0.135482806801012 0.229290758674156 0.567683372366666
0.137406547203514 0.227814620745451 0.572930308630338
0.133974736447859 0.230447941755901 0.580008730047087
0.139491114479932 0.226215076015997 0.579415562340035
0.134970643195725 0.229683755630754 0.603210091731961
0.13645387398569 0.228545632616212 0.61348119669358
0.141032708012295 0.225032169694123 0.612217771574982
0.133686284843897 0.230669278456348 0.627941777047253
0.13681881589936 0.228265602836808 0.635634151906157
0.136376768236733 0.228604797938316 0.644184609124492
0.136257314521023 0.228696457998195 0.654488630615742
0.135347812423327 0.229394343503379 0.665457569243456
0.141343801913362 0.224793458948037 0.665523516967591
0.134279766205271 0.230213884190903 0.682060383211939
0.135518640024281 0.229263262874876 0.691135942406094
0.134856537631429 0.229771311909716 0.699693656197597
0.135516799316097 0.229264675299942 0.71342986345433
0.14000945645722 0.225817338227822 0.713910516665452
0.141183315381392 0.224916604595226 0.719071168194255
0.138255599581468 0.227163119941639 0.73797965788174
0.135804533926657 0.229043888767884 0.747838262554103
0.139898520441043 0.225902462426974 0.749402622559817
0.136521161600183 0.228494001013655 0.765233345726647
0.143035382625593 0.223495463415199 0.770286568019747
0.134082397387477 0.230365330611382 0.786445741094055
0.141095941640689 0.224983648824507 0.787384929748491
0.139940690205395 0.225870104428709 0.799418678312971
0.143611720903429 0.223053223500409 0.806884836833163
0.140662792673659 0.225316015716724 0.820878626504738
0.137160079659768 0.228003741943429 0.834378351386208
0.135999780268147 0.228894070980754 0.833480826085521
0.14283782334772 0.223647055980835 0.83625851615817
0.137393444172793 0.227824675054547 0.856376670564926
0.140704540275019 0.225283981655518 0.858189882057547
0.138556279170162 0.2269324003785 0.873963163605716
0.13771645183015 0.223489704558695 0.88321838021044
0.140926962288312 0.218174262526172 0.888953044811287
0.139880605536599 0.219259840907643 0.888384630416769
0.134672684844161 0.21683202585815 0.901302001072747
0.143618053801648 0.206965755257996 0.907338922955963
0.138545627624259 0.205445468222745 0.918222375399701
0.139882827105908 0.201896883512653 0.923294651540875
0.138505684792212 0.199044176547659 0.931155727377823
0.143653693342674 0.194659200174938 0.932029964208415
0.143312636708297 0.190982452887445 0.939949401164052
0.1363270073321 0.190265275178178 0.952169921779156
0.143971254298124 0.182430679622319 0.956129105247851
0.142716376917516 0.182911383944901 0.957098707284191
0.135963976047204 0.183334400341814 0.977665862645493
0.140363549965981 0.179958488538328 0.974852746542426
0.142607641012693 0.178236536914705 0.98320755974477
0.142443868812793 0.178362203743569 0.998329063384264
0.139001552983618 0.147467568834493 0.983333333333334
0.146523341925966 0.125632818013626 0.983333333333333
0.148730525354769 0.121930510619158 0.983333333333333
0.144082084673945 0.0999987854595394 0.983333333333333
0.145264096075157 0.0892451781097095 0.983333333333333
0.148436995005632 0.0737932855913628 0.983333333333333
0.143064645421401 0.0636546232241938 0.983333333333333
0.142891240861804 0.0498993909160588 0.983333333333333
0.147554840933218 0.0331083105074782 0.983333333333333
0.145667710247504 0.0204514618715972 0.983333333333333
0.15096227363978 -0.00659866099452163 0.983333333333333
0.152035421426612 -0.0150776976839911 0.983333333333334
0.15068262859257 -0.024139633332788 0.983333333333333
0.156388773152505 -0.0446281429660463 0.983333333333333
0.151646700758038 -0.0592311795966171 0.983333333333333
0.154529567529533 -0.0758554190327392 0.983333333333333
0.15745067361607 -0.0940253897134744 0.983333333333334
0.153524251969373 -0.103615442724786 0.983333333333333
0.152942190062994 -0.127278555982132 0.983333333333333
0.155073989181955 -0.132050093019237 0.983333333333333
0.153953803710159 -0.146425358258084 0.983333333333333
0.154684885178692 -0.162486114969095 0.984221032410858
0.156626610397537 -0.160996176805436 0.999675206152046
0.148835747583283 0.219044686843035 0.207214798216129
0.145835751089977 0.221346665116192 0.22218347452912
0.152010798607902 0.216608384503635 0.230449337949587
0.145156573658878 0.2218678162887 0.248188162112773
0.145945936114913 0.221262117172886 0.254095614753686
0.151312294501174 0.217144365555941 0.254419892722746
0.146566905699325 0.220785630452053 0.265855009564395
0.146536855565061 0.220808688731066 0.271914737693588
0.146790554183802 0.220614018934094 0.284704654177198
0.144959416661022 0.222019100174024 0.296225641674713
0.148531740480149 0.219277959697807 0.309753543595452
0.151244510973908 0.217196377685753 0.313901294118605
0.148443004999585 0.219346048826835 0.326002310031531
0.149743260064432 0.218348328024322 0.329776665560956
0.151601365032126 0.216922553936112 0.3353155571852
0.148165250120773 0.219559177641391 0.340752214610992
0.14503972168518 0.221957479961716 0.361211448181941
0.150717036192975 0.21760112332064 0.366990760894277
0.149322068595832 0.218671519605285 0.378399700476559
0.14983288886394 0.218279553427559 0.392750224812791
0.152325022205566 0.216367272256887 0.390331311682875
0.144336808072941 0.222496844546605 0.410480905869636
0.150029148028085 0.218128958474272 0.410667331763071
0.15011430358075 0.218063616320536 0.422105557841124
0.147454457399798 0.220104588079054 0.43557612887057
0.144130640728568 0.222655042313983 0.443529558365493
0.143640034889262 0.223031497414942 0.459713860500609
0.14937539477908 0.218630600985713 0.459423409277871
0.152610434889329 0.216148267401924 0.464973908042133
0.150106279692959 0.218069773266187 0.476906498349444
0.146392208623529 0.220919680233032 0.490908421606498
0.145207142324114 0.221829013587118 0.500258929203944
0.145314342374337 0.221746756095469 0.5123946838024
0.152736209969915 0.216051756788175 0.512778890057224
0.15288640362113 0.215936509146175 0.522042174990816
0.146241007546353 0.221035700900161 0.54388888686825
0.14521207177655 0.221825231085227 0.545148613213543
0.144773580819489 0.222161697030566 0.556241955500105
0.151003602243545 0.217381233456201 0.565658637200301
0.150437759568653 0.217815419811595 0.563540623294541
0.148791103041162 0.21907894380507 0.585361073054721
0.152784709060651 0.216014542126962 0.585510490998635
0.143643411860724 0.223028906173601 0.600864135939933
0.144274294433144 0.222544812949539 0.60894819187178
0.14925210753482 0.218725202615507 0.615187689010113
0.148558272030134 0.21925760132347 0.626414489050652
0.152645192501628 0.216121596947969 0.628882773890982
0.144562162237536 0.222323924214258 0.6505216347105
0.149682298013967 0.218395105850886 0.650624505198651
0.152432976394304 0.216284436094404 0.659303950765949
0.148300173433239 0.219455647342428 0.672704158157086
0.148016234398089 0.219673521427038 0.680949439031976
0.150101947827632 0.21807309722336 0.689179037288468
0.149540529821477 0.21850388841102 0.704192368452998
0.152107597120373 0.21653410839262 0.712709402933174
0.146315409225454 0.220978610483835 0.720246038619554
0.149576207925497 0.218476511638926 0.730236034907379
0.148132700574677 0.219584153786556 0.735554203094652
0.143922073260542 0.222815081761014 0.747350193954233
0.1503477763367 0.217884466373938 0.755564691665546
0.144395769044552 0.222451602201851 0.774653666721416
0.148453457786756 0.219338028121139 0.773944024999955
0.151299904853136 0.217153872467253 0.782072843193518
0.148813184901114 0.219061999797984 0.791145535541695
0.144010754383771 0.222747034341835 0.80268196606178
0.149898054617282 0.218229549986327 0.805687197071517
0.145551031479275 0.22156513815749 0.829843223980181
0.151296672900944 0.217156352431393 0.829034462400847
0.147076108372846 0.22039490549831 0.839437207227307
0.152816877180139 0.215989858660726 0.845869995401044
0.145762864994794 0.221402592584073 0.857041947646677
0.14892596498207 0.21897546059816 0.86535270636191
0.146953391514786 0.219108193893141 0.877776665705597
0.152211267037794 0.212257093924537 0.883440267535063
0.153083914238388 0.211427646137057 0.883761678038278
0.153135173515786 0.204261931122032 0.898091413550389
0.14609414420362 0.206335290986197 0.90478619781247
0.146145618449381 0.201972824847795 0.913478826515896
0.152366299834229 0.195281470396396 0.917335658584589
0.146151358766252 0.195090240354129 0.927309476048806
0.146525414743035 0.193680226177527 0.929567587127003
0.149106388646983 0.189072893066304 0.93484972395367
0.14654242619502 0.184571460288124 0.947857253319471
0.149513972265764 0.179796473279652 0.952873878643578
0.151017022370624 0.174681693573918 0.960839563110098
0.149067076763965 0.173280037535637 0.966813533669706
0.149232401870986 0.173153179119229 0.974648560275674
0.146676794559606 0.175114165579927 0.986986620728689
0.147490770862654 0.174489579595023 0.994215117157087
0.1505791735198 0.165781208174543 1.0
0.156813597338179 0.127477915762704 0.983333333333333
0.150636108314546 0.116484213163587 0.983333333333333
0.159168883627039 0.0970042872295151 0.983333333333333
0.153474750796679 0.0828077398116841 0.983333333333333
0.156524769509127 0.0752864251169698 0.983333333333333
0.152710194357493 0.0641423318167786 0.983333333333333
0.158142830272293 0.0441325906089159 0.983333333333333
0.158954979392193 0.0286323865939889 0.983333333333333
0.154233333130846 0.0263732478879674 0.983333333333333
0.162964938210329 -0.00177838406578665 0.983333333333333
0.156615883683745 -0.0104910021028665 0.983333333333333
0.165845507888083 -0.0192126679275426 0.983333333333333
0.162400293847125 -0.0440217224319358 0.983333333333333
0.164873729034291 -0.0446010961797572 0.983333333333333
0.161527813520023 -0.0631995176430777 0.983333333333333
0.164645074817306 -0.0878508456611756 0.983333333333333
0.169677697867549 -0.093541202249576 0.983333333333333
0.164732880719634 -0.120167845519848 0.983333333333333
0.165749785571801 -0.124650981168826 0.983333333333333
0.165711590023875 -0.150481364247837 0.978584295515023
0.163552323335491 -0.153295375382869 0.99346780364828
0.16547826293736 -0.154572920705099 1.0
0.156204610849959 0.213390359187787 0.207536835863637
0.161999634431368 0.208943681197798 0.206098364448157
0.157774248614056 0.212185933770046 0.228069050568312
0.162611768096848 0.208473974516025 0.228967248343278
0.153044455193823 0.215815231908956 0.245820000742107
0.156684215049589 0.213022345941864 0.252302624820614
0.154979405446814 0.214330492359439 0.262572628709197
0.160814444810695 0.209853109179613 0.266956939645003
0.157513353318108 0.212386125771662 0.279989407693918
0.16129116882045 0.20948730598111 0.291706060313676
0.156202957957901 0.213391627496471 0.296051575145806
0.156134650485529 0.213444041663504 0.310791843566129
0.155443373620698 0.213974477058053 0.316648230467253
0.153881607935556 0.215172862017163 0.333059951467868
0.154256608439728 0.214885114009806 0.334934258668983
0.153294312158973 0.215623509916461 0.347175143083697
0.161121443537573 0.209617540771204 0.34117739978595
0.161815878021872 0.209084682450019 0.353832574344839
0.15619648613682 0.213396593499449 0.366160695403326
0.154341934246593 0.214819641215427 0.383203011211742
0.15330981732103 0.215611612387162 0.395731152044207
0.161181119008881 0.209571750171549 0.402024345530219
0.155515225320051 0.213919343310008 0.406199106800921
0.161109215114371 0.209626923970348 0.421161587270339
0.155694936590902 0.213781446001841 0.429099280636546
0.155834595355198 0.213674282062888 0.43999310158958
0.157764268719671 0.212193591612344 0.445403510669941
0.158856855699301 0.21135522013616 0.456490114765057
0.154207051929803 0.214923140057302 0.46216564784881
0.153946556939014 0.215123024893967 0.476209128485707
0.159001921396693 0.21124390731152 0.480224046460569
0.158886910505762 0.211332158272043 0.488870780790896
0.158536527456165 0.211601016642129 0.50694997711209
0.155893260900036 0.213629266407069 0.509867953214272
0.154791687125429 0.214474533693575 0.523762027625424
0.153438937744212 0.215512534801755 0.533446038770045
0.162112985076122 0.208856704188973 0.533584619064494
0.161406778332297 0.209398595682603 0.544947777146208
0.156458146146102 0.213195814712653 0.548951310919381
0.162529749681621 0.208536909459539 0.567745430775649
0.158976016458922 0.211263784869395 0.570066316088272
0.159806987968105 0.210626158004156 0.579870848565302
0.16018544752469 0.21033575577253 0.591390210114766
0.160833580492588 0.209838425854463 0.598095224564046
0.15887224367291 0.211343412528719 0.607539388288186
0.157868424881836 0.21211366977815 0.621924869268365
0.160922987139468 0.209769821721408 0.627754958658254
0.152959528690626 0.215880398306854 0.64085960374945
0.157366517822607 0.212498796610154 0.654739306533539
0.155781021849894 0.213715390459348 0.660971360692949
0.157973244120448 0.212033239147504 0.667546899968936
0.157378873842282 0.212489315502793 0.6770728549482
0.159098426778584 0.21116985612751 0.678943854772332
0.161266634115745 0.209506132122172 0.696305721580831
0.158046266768849 0.211977206898651 0.698804640524895
0.155204764639483 0.214157568168915 0.718511659192195
0.157867060961941 0.212114716350695 0.723564753822642
0.161106623835048 0.209628912328906 0.723613144212731
0.154251111317778 0.214889332099834 0.740916091805082
0.15303980583101 0.215818799490519 0.761286050613487
0.15899326249637 0.211250551519424 0.764813571453332
0.155671302561505 0.213799581030431 0.771799060825055
0.155706706221073 0.213772414846971 0.775437825646021
0.162093623158905 0.208871561110593 0.787593956373264
0.161983919264631 0.208955739869356 0.798698368223955
0.157157230247563 0.212659388614734 0.813462091347999
0.158036728090718 0.211984526183812 0.811880624478789
0.156440992009502 0.213208977544621 0.826941808091317
0.160108691753501 0.210394652547247 0.831175563911944
0.160555924257767 0.210051478976822 0.844779361957657
0.160048261242948 0.210441022508892 0.854855146318455
0.153485248456302 0.215476999342535 0.869275206297221
0.158659355226921 0.211506767578755 0.868728876432642
0.161662598998745 0.208239651693897 0.876935689134401
0.155954932680755 0.2052151119362 0.891824032701157
0.156320251367537 0.204248648444387 0.893203732830377
0.159214724423455 0.197768042721719 0.901768936825655
0.156333058463085 0.198095221224729 0.9055572886949
0.154679094139421 0.192925577147459 0.918504383796594
0.163066922952286 0.18480039212136 0.921900581345705
0.156642416073909 0.186737980381234 0.92791711706814
0.160265094843922 0.1818480151095 0.932160280962528
0.159832663229817 0.177392768083203 0.941786112096764
0.159544432294035 0.175083704870604 0.946873901825385
0.156397152186731 0.172184854696365 0.957558981939284
0.160559177835605 0.165912409594592 0.963749856594535
0.156246450259443 0.167771110495776 0.976233928002717
0.165601003083452 0.159074589300975 0.967839780418489
0.163918552414857 0.161267201700841 0.984361843231877
0.15902103085909 0.165642099921344 0.990619127640891
0.163788754647161 0.128556860193918 0.983333333333333
0.161864639438363 0.125858761648386 0.983333333333334
0.167755831902768 0.109980851694371 0.983333333333333
0.163352069513393 0.0936690397332947 0.983333333333333
0.162371765429656 0.0726494704793476 0.983333333333333
0.17048583918525 0.0574957820987534 0.983333333333333
0.162662649132435 0.0527104714991143 0.983333333333333
0.164738893410168 0.0350681186237375 0.983333333333333
0.173853835534875 0.0146583555721209 0.983333333333333
0.171409322152098 0.00207283923670226 0.983333333333333
0.169572767129422 -0.0178830960078516 0.983333333333333
0.173006869860451 -0.021397220656293 0.983333333333333
0.174435976164304 -0.0366499428311875 0.983333333333333
0.174752992271067 -0.0629562924451851 0.983333333333333
0.17335486750443 -0.0665390257848512 0.983333333333333
0.174432629019119 -0.0942974187475547 0.983333333333333
0.172104847617298 -0.103897811177864 0.983333333333333
0.18031614050039 -0.119073069565728 0.983333333333333
0.179311269752165 -0.132757916563414 0.9850298228017
0.172983854268463 -0.141003964966283 0.984085171849161
0.181583807447996 -0.13674480643685 1.0
0.168748611268682 0.203765009129282 0.201726917611531
0.163009478105967 0.208168800892638 0.215120897595185
0.170539700273293 0.202390658198172 0.20996998286824
0.170323223733074 0.202556766489746 0.221136500620905
0.162999350043994 0.208176572427927 0.23308791994642
0.164635545802811 0.20692107526457 0.249536307376791
0.16762394170365 0.20462799843909 0.254295554269604
0.172878894026991 0.200595731700847 0.249731588722071
0.16749245698295 0.204728890213789 0.269533005491909
0.164759036737338 0.206826317337736 0.273444373503653
0.167070822818293 0.205052421487385 0.290166155973901
0.1700013276451 0.202803766045374 0.296340487182457
0.17219628410868 0.201119516713429 0.30811135112459
0.163760713021955 0.207592358067289 0.317219587850738
0.163554669767345 0.207750460617242 0.324720538589702
0.166962868367724 0.205135257850779 0.33033941618166
0.168866052353437 0.203674893415453 0.345132792176568
0.164796174629122 0.206797820431093 0.353166577407057
0.167918599996521 0.204401899178738 0.365765293400024
0.169502314609386 0.20318667221503 0.368801930218062
0.16562274688243 0.206163569233616 0.384765808245197
0.16869856335907 0.20380341224102 0.390526442987088
0.163220707246816 0.208006719072217 0.407175090205389
0.163129982364473 0.20807633472292 0.412579674702763
0.16548822974037 0.206266787867064 0.417309682508504
0.168019564116537 0.204324426684632 0.430816086013593
0.16855740194209 0.20391172920593 0.437804900494262
0.171689734580833 0.201508205836894 0.444118345884488
0.164757670844693 0.206827365424025 0.457606959262243
0.167887929677923 0.204425433341928 0.468133403397479
0.16374232591474 0.207606466990886 0.480704306982911
0.172111206811245 0.201184798819815 0.483477374849905
0.171396734449941 0.201733032744809 0.487698746973512
0.163990176635831 0.207416284443603 0.511456412863775
0.171340862371189 0.20177590489871 0.512926693282021
0.16648130489097 0.205504774502917 0.527122664666924
0.168579191988272 0.203895009115425 0.532259269128672
0.168750046689566 0.203763907692099 0.537309314907152
0.16874871408118 0.203764930238478 0.552634905991112
0.165777134842215 0.206045103185454 0.564574787798073
0.167172022364376 0.204974768344505 0.571793940122567
0.168293103210881 0.204114532755275 0.58181307619852
0.171421215656283 0.201714247654485 0.587146736626142
0.166152303567123 0.205757226097786 0.595921556563797
0.165350541848658 0.206372439502292 0.608068251237794
0.166968853798499 0.205130665068211 0.613547173736105
0.164373512536131 0.207122140461841 0.625422188910176
0.170167408242741 0.202676327920624 0.627925807275396
0.172313405152403 0.201029646575721 0.638324061827645
0.164596163778328 0.206951294154796 0.652772507704733
0.163781531950987 0.207576383141182 0.661536592055536
0.171805904281604 0.201419065690307 0.664403190134201
0.1676030511712 0.204644028308431 0.677423903321943
0.168606044834213 0.20387440420203 0.686090030466852
0.170775618416722 0.202209631839765 0.699588640220756
0.166090588681743 0.205804581594897 0.703265564496194
0.171122833174599 0.201943204585421 0.712925539273122
0.167402201753847 0.204798145486887 0.730418827735883
0.170989066816693 0.202045847121927 0.732436161837962
0.164264639399509 0.207205681757837 0.752535696788894
0.167960370162507 0.204369847803085 0.754585751697538
0.168435756582364 0.204005070973409 0.761952962433942
0.165937993457956 0.205921672028347 0.770383883469919
0.166382494393949 0.205580594463977 0.776700683619622
0.171082052899893 0.201974496390781 0.79093144520501
0.163550240350014 0.207753859428702 0.802077832118645
0.166112812934069 0.205787528326301 0.812694997760751
0.172412051067725 0.20095395290264 0.818627931015429
0.16828148315893 0.204123449134738 0.827184305541772
0.169269104423704 0.203365620684375 0.835937369319867
0.170520621802074 0.202405297624027 0.84785607168203
0.169835162134784 0.20293126932591 0.861734358077017
0.166346447594627 0.205608254145928 0.8742060031481
0.1666094479537 0.203150236147477 0.879536790364222
0.163179819146287 0.201326534023812 0.888495609494605
0.165158157034225 0.200875883766348 0.886349317310998
0.17000047270884 0.19245453016854 0.895811571049885
0.168240366194653 0.190005733179453 0.903451355825226
0.167791571231642 0.187091358305763 0.910004047673503
0.164930825418566 0.18758211828099 0.913431191216827
0.165058451911337 0.182965523901909 0.922517322713718
0.167293149297383 0.177871898389967 0.929311581186439
0.172595276109781 0.170987764237696 0.934221241989209
0.173374961827625 0.168269310919045 0.936847864385999
0.174437170787574 0.162016287416907 0.944360024660279
0.168627651393327 0.160066556851712 0.959050131647828
0.172176350764519 0.154964633906779 0.959786373889214
0.165880450998192 0.158710405688098 0.973945035916818
0.171736035203872 0.151079259778448 0.979645162167954
0.167687346206679 0.156355614006332 0.995347342373714
0.175568375293449 0.146084856936354 0.997979722403603
0.17254654050217 0.141573883362409 1.00004209561307
0.172190820758376 0.110011222737613 0.983333333333333
0.173382196331065 0.0874873983573415 0.983333333333333
0.175601941370579 0.0733703019141346 0.983333333333333
0.177333166429413 0.0714574903483677 0.983333333333333
0.176988464539668 0.0465000077414961 0.983333333333333
0.177457674969915 0.0379426115856142 0.983333333333333
0.177983971909394 0.0149435493406491 0.983333333333333
0.1822249288975 0.00636142400607698 0.983333333333333
0.179337242714158 -0.0129282088521538 0.983333333333333
0.181651026547198 -0.022600307049033 0.983333333333333
0.177074139192098 -0.0303556767926858 0.983333333333333
0.183157089664415 -0.0531558796306083 0.983333333333333
0.180651209030964 -0.0788663355598174 0.983333333333333
0.188995866191618 -0.0861644449028176 0.983333333333333
0.182380547492026 -0.104815675695176 0.983333333333333
0.186527182336457 -0.12335395619536 0.980952978745369
0.188815740470277 -0.120371449168145 0.998321452675181
0.17833289908939 0.196410726423895 0.185661484856792
0.175803098317099 0.198351910830684 0.194032860300938
0.177329533729706 0.197180635743183 0.209136277798778
0.177076840197887 0.197374534309837 0.213760166138339
0.180789396554126 0.194525789623301 0.214626521913137
0.176381459427076 0.197908118742201 0.229297145607002
0.179929856709621 0.195185337743233 0.246774353167124
0.172427070130474 0.200942428370459 0.263702792552009
0.174431396787533 0.199404454433772 0.265118637306091
0.177698923105843 0.196897193305801 0.27736721331803
0.177965841078816 0.196692379941563 0.279798868273058
0.181356636774274 0.194090530893714 0.291451831541913
0.177699689857613 0.196896604956475 0.305443097454227
0.180901245138278 0.194439965186114 0.311784644360514
0.173431050282948 0.20017204730407 0.317840545695304
0.178118728929308 0.196575064967745 0.332035419145111
0.180812739290321 0.194507878111845 0.335285114678451
0.177266799938679 0.197228773074097 0.350190667181406
0.174077708663244 0.199675848876866 0.354077104303213
0.178055732763642 0.196623403625801 0.363241005959431
0.180010886092247 0.195123161711125 0.373253252283733
0.17368699371818 0.199975654998821 0.38255378212927
0.177198709394666 0.197281020786144 0.389904345603474
0.176453846556689 0.197852574144066 0.400342950557868
0.174287805639394 0.199514635796974 0.408108277151103
0.174915378357102 0.199033082313758 0.420204662264215
0.172659738776411 0.200763895439175 0.435319066397389
0.17874342490849 0.196095718883637 0.439724848988504
0.179403377369288 0.195589319549684 0.44653632920077
0.172790105429558 0.200663861587883 0.45580179021134
0.180440394229487 0.194793588525864 0.457840778831939
0.180812024897677 0.194508426284601 0.47515762631628
0.179265941822696 0.195694777553692 0.487506999895474
0.181492994824973 0.193985899681384 0.493757282036112
0.179981822801395 0.195145462758555 0.50301962397146
0.173647552492208 0.200005919315947 0.514804996545049
