ply
format ascii 1.0
element vertex 860
property float x
property float y
property float z
end_header
0.185325861712042 -0.13040174867285 0.912344357554582
0.179023805777138 -0.1317349533102 0.925017236490059
0.186746077477042 -0.120279760981033 0.927580130011777
0.180814558066865 -0.124528292765102 0.933993341294358
0.180934801689071 -0.119866561303871 0.942291795601344
0.178472589457504 -0.116744283804563 0.953953946147931
0.179828311061388 -0.112853448997566 0.957866490187161
0.182130735462339 -0.106206587905365 0.964583101430389
0.179071579471872 -0.105694190881201 0.972870761011467
0.186070375337366 -0.091317091941002 0.971531602864472
0.183109813368191 -0.0921324192568173 0.979697120253705
0.179625268832031 -0.0992952220668859 1.0
0.183327193641791 -0.0821203664871058 1.0
0.184454554809558 -0.0236219310212604 0.962659824457922
0.187269850095089 -0.0114653897399983 0.962659824457922
0.186300423161328 0.0114368368091375 0.962659824457922
0.191809003452338 0.0270370969561401 0.962659824457922
0.192646353313945 0.0449465086203838 0.962659824457922
0.19229138561809 0.0746652392341608 0.950213099277229
0.19666059672781 0.062353905155368 0.972969963539794
0.195656852956291 0.0618411861155954 0.980603960224085
0.191581745515324 0.071679365767704 0.980851640693734
0.187673893744865 -0.160839894370578 0.150468963560187
0.189712669852724 -0.158182909617274 0.154364867276873
0.193864154722378 -0.152772589200175 0.162562642621284
0.18757594629865 -0.160967541967691 0.17119191751229
0.188265477008625 -0.160068928051099 0.192642253366753
0.184598315658139 -0.164848065769355 0.20319358379188
0.192223770316008 -0.154910379779769 0.198612374166673
0.190228163019819 -0.15751110584239 0.205711797767034
0.193658190058827 -0.153041007575623 0.221366766155428
0.184387865198242 -0.165122330148419 0.242407059513067
0.186050814128118 -0.162955132909265 0.245934081724288
0.194521466708146 -0.151915963542449 0.243021785194816
0.194743602442484 -0.151626470617246 0.253451657089179
0.193693698441581 -0.152994732150269 0.268931845326035
0.186797182940253 -0.161982446135793 0.284988277944341
0.193428291534288 -0.15334061716598 0.282804436149926
0.188870760812798 -0.159280106839731 0.302757576204754
0.188013085574096 -0.160397850972465 0.308930028544492
0.18932005377496 -0.158694576851601 0.317929467732025
0.18421806486082 -0.165343618256463 0.34214294918617
0.188942875377573 -0.159186125309164 0.333497328866211
0.193538418146849 -0.153197097370267 0.341839031625589
0.18434624541216 -0.165176570109652 0.361279845583738
0.189371155906657 -0.158627979256969 0.37108854536855
0.18877193471238 -0.159408899521295 0.380072490676824
0.187680917337507 -0.16083074104644 0.387768827018726
0.185624872600871 -0.16351023071492 0.405472098644611
0.192896463564922 -0.154033708869645 0.408472699452696
0.186260156815549 -0.162682312207385 0.415335542570865
0.192112463562425 -0.155055437565208 0.422492166761658
0.189880186470209 -0.157964597710995 0.433757292343743
0.194315757788338 -0.152184048626164 0.434047770773049
0.190777132631597 -0.156795674715402 0.453246428868173
0.185341423084615 -0.163879629316424 0.460026407581342
0.194216391685578 -0.15231354505248 0.464834248093385
0.192932878611199 -0.153986251857385 0.476258016124196
0.187418569444578 -0.161172639477015 0.486615136446342
0.190959521455963 -0.156557980971765 0.495865553806867
0.186350180167087 -0.162564991491514 0.519404951522143
0.194214606025313 -0.152315872170245 0.510173502930787
0.193237392391552 -0.153589401772449 0.526404108966782
0.191566031346717 -0.155767561893255 0.528701964248867
0.187447349062454 -0.161135133148779 0.546204291118982
0.190320942935531 -0.157390192702145 0.55131123688205
0.189915480248025 -0.157918601964242 0.571821062414933
0.188589961311839 -0.159646051874062 0.573552970240144
0.189680890280751 -0.158224325561808 0.5820355835574
0.188436019505009 -0.159846672742663 0.592181866329029
0.194645937455455 -0.15175375010638 0.596419129799726
0.189477325166098 -0.158489616784248 0.605770445762479
0.187557573246572 -0.160991486195336 0.628236311635709
0.18693804576581 -0.161798870127437 0.638465723332349
0.194346186580709 -0.15214439305188 0.630680844127627
0.191741276289014 -0.155539178237992 0.646754628341862
0.188445599587977 -0.159834187735465 0.657896964778937
0.192858897965925 -0.154082665311404 0.67251385780393
0.18720703004332 -0.16144832299209 0.689138983123958
0.194178500723603 -0.152362925515526 0.682805052258441
0.189584945481285 -0.158349363258864 0.705665461991587
0.193541822485755 -0.153192660749427 0.702022677585126
0.19006578703895 -0.157722718340598 0.718106424157755
0.187303385108793 -0.161322750625964 0.729255492116493
0.192572871546992 -0.154455422197861 0.73071080782738
0.186372542745749 -0.162535848011598 0.746373980370074
0.191417006502248 -0.155961774851752 0.754081964499509
0.188038738531944 -0.160364419386909 0.771605069513713
0.187151109434263 -0.161521200148678 0.771583808991761
0.185364034561987 -0.163850161465396 0.787208820863468
0.189288443767877 -0.158735771814867 0.798469670735628
0.187785881395401 -0.160693949222956 0.803459609746144
0.187713382475414 -0.160788431654986 0.80962714508589
0.193129979992046 -0.153729384336843 0.820890447765825
0.188456264429942 -0.159820289042819 0.832272029328367
0.189798050957186 -0.158071638795578 0.841390829830478
0.187233727548383 -0.161413530126101 0.846157302519253
0.190932458291983 -0.154580239534402 0.854347350804389
0.189297521628366 -0.153214014865334 0.860788820506043
0.186090235673001 -0.151211753348582 0.872176475295833
0.190907575256109 -0.141177284152807 0.879095908074635
0.185843246642259 -0.143552162126512 0.886878694631941
0.194497166729402 -0.132238488200458 0.886944392381741
0.191988304829455 -0.130958424106517 0.895325093286878
0.194991162477798 -0.122847398132408 0.903057301248856
0.195933891861936 -0.118450886160142 0.908892752558742
0.19616672859765 -0.115309834385775 0.914119758412622
0.189078887439496 -0.1178487831977 0.926457958478625
0.192628081723292 -0.108162187251814 0.933693281977195
0.187690328533811 -0.111791899164331 0.940948371648573
0.188523558196629 -0.107980510056963 0.945378077410456
0.193649203464462 -0.092683822641727 0.948761957241548
0.197482007244338 -0.0855572045641779 0.946299459338758
0.18926388905126 -0.092317869297013 0.961445102846488
0.194892040421956 -0.0781597104613019 0.962105832364988
0.196551994711874 -0.0710582498111413 0.965688523412704
0.195202392387339 -0.0672300357180745 0.973894317338169
0.19287888523955 -0.0685477934531845 0.986268246842829
0.195158236810675 -0.0630449519767576 0.985223199802672
0.202251104842349 -0.031152017714784 0.97838577133509
0.198832585006245 -0.0473959771439873 1.0
0.197805058382677 -0.0317332987272945 1.0
0.201589738976682 0.0582609976973437 0.950213099277229
0.199800705565102 0.00675850381882667 1.0
0.205562033235109 0.00426584140218236 1.0
0.202294912784424 0.0296086737705169 1.0
0.19937353805068 0.0414344142794014 1.0
0.202912697458628 -0.140980298719056 0.125765842052727
0.202005313497362 -0.142162824520287 0.137384760345923
0.198911942718077 -0.146194183807456 0.153872939687587
0.202143619947982 -0.141982580044611 0.156208083225648
0.203440432718392 -0.140292540738388 0.165882944785741
0.200074445833587 -0.144679180251317 0.181653003265762
0.195584197765204 -0.150530985464384 0.204334657000619
0.1983689480928 -0.146901828180435 0.207536227198567
0.205129885430799 -0.138090803097364 0.198641226708152
0.199231700247199 -0.145777467682348 0.225327296099181
0.203410157856992 -0.140331995705924 0.220039774346248
0.20354421065175 -0.140157294702496 0.23991133713631
0.203401005478366 -0.140343923317971 0.246430063566542
0.204563318685856 -0.138829167254782 0.256805498848521
0.203914926462975 -0.139674168451194 0.256123927208114
0.203135660958751 -0.140689727028479 0.274812484069492
0.195074219762417 -0.151195601737208 0.294219160054588
0.197540399457498 -0.147981613784593 0.304850314001285
0.194982168825319 -0.151315564854028 0.309312468756531
0.202045440324918 -0.142110530220485 0.309918253781874
0.19500363194302 -0.151287593574459 0.326173074151772
0.200766761436552 -0.143776936991519 0.328606413598353
0.19645905788272 -0.149390845561551 0.349735946566601
0.197129308812652 -0.148517357543494 0.362872365793801
0.199119821392758 -0.14592327104414 0.356747240250569
0.200339133182161 -0.144334232982785 0.380809484608343
0.194875385492332 -0.151454727602972 0.387708841105685
0.201331993272441 -0.143040312521451 0.389700331312253
0.204109007029467 -0.139421237732565 0.396466080785554
0.196297096422548 -0.14960191784587 0.412477728133423
0.194974967269692 -0.151324950104045 0.421826137795613
0.196213118523469 -0.149711359974707 0.440918943549096
0.203630364921458 -0.140045016272234 0.438829362765131
0.198631069691601 -0.146560224662107 0.447369911625475
0.201756610709941 -0.14248694030315 0.459589389975956
0.196709635817044 -0.149064286039666 0.472204310939809
0.201813724777524 -0.142412507801129 0.470079791325122
0.204419683542004 -0.139016356218681 0.480509472884223
0.202170231297131 -0.141947899459195 0.494643963662711
0.197372569293322 -0.148200334312876 0.511035749192842
0.20143672038615 -0.142903829489642 0.514452921066626
0.20477575941286 -0.138552309109125 0.517895105190436
0.202666646870488 -0.141300958088523 0.533104484158147
0.20223620489482 -0.141861920992749 0.539123086414186
0.196936065698341 -0.148769196873191 0.555591498130797
0.203469258009339 -0.140254974887847 0.560400700008635
0.198936420124601 -0.146162284230214 0.569539601302392
0.205052938430922 -0.138191082379968 0.579718224980824
0.195266199914885 -0.15094540833143 0.594677420449136
0.194649376603524 -0.151749268121355 0.614006141968181
0.204426539601994 -0.139007421227345 0.614686907277511
0.197639725936983 -0.147852168996333 0.627328944202229
0.199749253096835 -0.145102979676916 0.631067136943572
0.198829824055296 -0.146301202932376 0.640755013916889
0.204202367434579 -0.139299568083805 0.646766007540874
0.202750468277674 -0.141191719903891 0.657966989164719
0.204361871420088 -0.13909169844282 0.666301554384535
0.197188176617633 -0.1484406395264 0.674865802086307
0.19935009560629 -0.145623171846354 0.691476858907771
0.19682617832784 -0.148912404882583 0.704076239160855
0.198940792317602 -0.14615658627736 0.707584705591957
0.195610174825561 -0.150497131500216 0.721773368365164
0.20223756367996 -0.141860150189478 0.722639688184539
0.201060598916709 -0.143394000531886 0.735333560186786
0.202575878933544 -0.141419249166988 0.742414222233291
0.202202677566019 -0.141905614658326 0.748372723137618
0.203932369788582 -0.139651435866676 0.75551381739028
0.194665224320073 -0.151728614975048 0.780123615609864
0.202440184014134 -0.141596090228929 0.783947085588558
0.19718942565608 -0.148439011747803 0.79288045255905
0.196623283146817 -0.149176823030519 0.798715828019408
0.195063529439321 -0.151209533637511 0.812663160497785
0.196212982216306 -0.14971153761366 0.829236706584194
0.197601853499085 -0.147901525318333 0.834659308810406
0.194905837497785 -0.151415041776812 0.849402949470364
0.198707002685236 -0.146061999066047 0.851374766361983
0.197066172812733 -0.142230347095942 0.862371806935521
0.198458892830141 -0.140193777214795 0.862779896538313
0.198288370196408 -0.137474906428822 0.868197530243768
0.205263003841512 -0.125992253394245 0.872605785590828
0.200604780356181 -0.12668634598291 0.882509756532498
0.204468111355965 -0.119722027131948 0.886064030264351
0.203340484032493 -0.114426724670597 0.896492109028269
0.206131706804257 -0.107380826781957 0.896847937586734
0.19775647018986 -0.113227716252322 0.913490926534743
0.208215237674835 -0.0953123811946374 0.904998050897882
0.2039700315152 -0.0931969163915895 0.919315374831053
0.205859350675986 -0.0865380646113806 0.921744341835988
0.203921865557912 -0.0857941065602414 0.928022159231112
0.208867964105887 -0.0730967200572014 0.928898093676088
0.201669039767108 -0.0755112036197647 0.946227214695433
0.209709057432954 -0.063101801374328 0.938120454888612
0.203284534390081 -0.0665430333430285 0.952095764249873
0.210334028366681 -0.0463944280447946 0.948116896594499
0.20988253626871 -0.0310893529643437 0.955516226968723
0.212482903112562 -0.0130362112111478 0.954845350040492
0.213525516442022 -0.00797672008995648 0.95371579397999
0.208676635810451 -0.00664965477959485 0.968786570262414
0.205852968550934 -0.00822757478711593 0.976634360711016
0.2149688278603 -0.125268443681315 0.113112441103938
0.205786769588739 -0.137234734995719 0.136450847901804
0.209889088073151 -0.131888489459358 0.138282518804814
0.21584097500056 -0.12384590326629 0.145430484231049
0.206203386661619 -0.136691789055583 0.161724200168848
0.211882026100737 -0.129291242055307 0.161642233510219
0.20968674317583 -0.132152190463611 0.182371964663598
0.208130261157964 -0.134180637321666 0.19399722164325
0.213677003893567 -0.126951981452005 0.18983585469129
0.21152852268522 -0.129751936675796 0.214407791572851
0.211365399566684 -0.129964522862768 0.210317515712049
0.206627227972831 -0.136139428304753 0.235883743429841
0.20869275115068 -0.13344758609119 0.237290077738265
0.206971079262762 -0.135691312579231 0.245064321306492
0.205983679380342 -0.136978117159141 0.260937336109001
0.214211689726874 -0.126255165307541 0.25620203440589
0.21326986708446 -0.12748257247185 0.275383196841119
0.210720408190815 -0.130805091989065 0.281899730311996
0.21525935659978 -0.124889819256484 0.287565279176586
0.20771056977064 -0.134727589786389 0.305606013737942
0.209483636146753 -0.132416884697307 0.31511672255191
0.206029240335035 -0.136918740966975 0.328525149174348
0.214933808275763 -0.125314082092429 0.321018000368059
0.214310752313863 -0.126126064430678 0.336299146360281
0.206806562514969 -0.135905714979212 0.358480835541419
0.212645608513837 -0.1282961220803 0.358652894674132
0.205662717772468 -0.13739640247023 0.369198355559337
0.213171155097703 -0.127611216437597 0.383492773115943
0.214389648942947 -0.126023244341824 0.380247302005264
0.209192621068632 -0.132796142930994 0.403588345401394
0.214449240899058 -0.125945582592603 0.40546967590447
0.213728366676988 -0.126885044169431 0.417391641429182
0.20576546662955 -0.13726249755265 0.43304404981103
0.209720563677567 -0.132108114727626 0.439814460828718
0.207634465795487 -0.134826770417783 0.450571259105635
0.206060340103115 -0.136878210960122 0.467660098823756
0.206838445378385 -0.13586416442265 0.471831179043049
0.206757297582503 -0.135969918289193 0.482644279943314
0.209242039315239 -0.132731739818135 0.486049281622134
0.207653153526745 -0.134802416092247 0.500041752083617
0.204687230520115 -0.138667682208381 0.514345845320743
0.214612650003083 -0.125732623702084 0.502404819740566
0.212191929047242 -0.128887368672304 0.520902073767089
0.2111228770196 -0.130280584399615 0.529997556269752
0.207872335049797 -0.134516773170148 0.539366495543098
0.212622559394531 -0.128326160277401 0.54216816656703
0.2158322908701 -0.123866868611824 0.556061073455887
0.209689996534626 -0.132147950603882 0.577316296360881
0.210929508113494 -0.130532587664371 0.57531362311968
0.206879120904039 -0.135811155045564 0.591493751729901
0.211284392592121 -0.130070093207397 0.60160402792648
0.210084056420729 -0.131634401761893 0.616705625502169
0.213673512062567 -0.126956532094762 0.611366916122025
0.211567013232491 -0.129701774817978 0.62627390043984
0.208519541040901 -0.133673317901086 0.634864976455102
0.208978386196187 -0.133075339252513 0.642866422983345
0.206649208483001 -0.136110782746193 0.660466496474573
0.205830459298108 -0.137177797457938 0.669816616727027
0.208139836309741 -0.134168158740921 0.674915537905737
0.208325417556442 -0.133926304551497 0.68704916072259
0.205613921617557 -0.137459994857408 0.705223340480824
0.210160518734502 -0.131534754134518 0.69890847654005
0.211903813436829 -0.129262848246107 0.711204471241821
0.206836039016289 -0.135867300454789 0.731453739506875
0.211842213113788 -0.129343127350068 0.734649457394327
0.21371474495622 -0.126902796341558 0.736437784167705
0.205844625877154 -0.137159335212679 0.756485458956448
0.212472856224423 -0.128521257247081 0.767195748840618
0.207855014161716 -0.134539346190975 0.773542367389279
0.213415453461245 -0.127292840611685 0.780389194324329
0.211242348445823 -0.130124886205631 0.787638505197972
0.209350018785892 -0.132591018232234 0.796996023110475
0.213099011611848 -0.127705235658848 0.804518989760777
0.20709857254891 -0.135525160093856 0.820534090955811
0.205987727722069 -0.136972841257486 0.832104842720278
0.214622710170183 -0.125719513037063 0.834785975491519
0.209297620351097 -0.132659305201955 0.848241581367415
0.216000263457096 -0.123461346914191 0.846588764363862
0.211051795071712 -0.121757974218989 0.866445445117258
0.20631980924214 -0.123391567945258 0.874859396229355
0.21503273483662 -0.105450333725595 0.874200052061143
0.209629519014304 -0.113692496079908 0.879760971078585
0.214405865972743 -0.0971347653824573 0.885581567146038
0.211430161817423 -0.100394804471332 0.890125327291166
0.213249930284758 -0.0893611465911309 0.89781456345727
0.21920154883118 -0.074406685052867 0.898493106820646
0.21405995912237 -0.0798729004593652 0.906537062242587
0.2107167937487 -0.0767127967955395 0.919542328233722
0.219114768158385 -0.0587116251777711 0.91690990792189
0.217001776089606 -0.0586282094248492 0.922913485211893
0.219926104192885 -0.0462903258805779 0.919381785045659
0.21148440869055 -0.0547966031106667 0.941347253625126
0.215038586133859 -0.0346815392343931 0.938629316490525
0.223139771441806 -0.0074239229064729 0.925091360370234
0.22037194204601 -0.00401693564474825 0.934740463704383
0.219025026440863 -0.00223296907792442 0.93948580148223
0.218099886879101 -0.11839240757291 0.106973980945874
0.225223710614823 -0.101193975694176 0.10407233183235
0.224556642736559 -0.102804420012902 0.116988128512116
0.227569142368153 -0.0955316025456631 0.111717136771284
0.226547693719686 -0.0979975977260617 0.131227074422412
0.224709507177007 -0.102435372607568 0.138279570953111
0.2181306380191 -0.118318167753665 0.172543702198691
0.223759852870872 -0.104728040913005 0.166111275832972
0.220100023376339 -0.11356365091468 0.176542535797907
0.224194167704468 -0.103679512151398 0.18808595136605
0.225433994069273 -0.100686306526498 0.191620006446217
0.216123789539057 -0.123163128571812 0.220748755061473
0.217087691738609 -0.120836062808854 0.222928258591005
0.221763201043061 -0.109548384835044 0.217198204027484
0.222620726114627 -0.107478136177195 0.233690795783534
0.221138537926356 -0.111056455003307 0.24353572263864
0.221004246238508 -0.111380663817423 0.263484256798866
0.225087922373166 -0.101521797508793 0.261357656446103
0.223250611814231 -0.105957457578466 0.266766367680984
0.226113962484949 -0.0990447175553877 0.274752667453467
0.2257367183146 -0.0999554655477712 0.284120242426736
0.216688213741659 -0.121800488006961 0.322255981467633
0.226568232265582 -0.0979480132900072 0.297148099121024
0.2168326833133 -0.121451707607755 0.329293570113457
0.225001221198991 -0.10173111265936 0.324198535800835
0.222164861225784 -0.108578691374448 0.334480098792707
0.224659728957294 -0.10255554786071 0.338963817817723
0.221183040739959 -0.110949015707143 0.356333978550913
0.226771279744634 -0.0974578133122752 0.35611885746685
0.221799797607576 -0.109460032912657 0.371307093823737
0.217226800651801 -0.120500224183979 0.400772145482148
0.216899272914643 -0.121290946089079 0.40638334557619
0.22368816949919 -0.104901099881117 0.40700961075291
0.222088434504875 -0.108763201800595 0.417619191650528
0.220580700612139 -0.112403193412887 0.430740072957901
0.224331737883891 -0.103347388358458 0.4344904923947
0.223966091873496 -0.104230135915781 0.434335294616302
0.22443855625596 -0.103089505995897 0.445575077757843
0.226906000859963 -0.0971325677685088 0.45929265962165
0.222221457314461 -0.108442056329587 0.471364853800793
0.22750714054966 -0.095681288176763 0.47125286061538
0.217846356341617 -0.11900448443498 0.498773372187202
0.225994700506254 -0.0993326414418283 0.492696156333646
0.217394669128236 -0.120094953831474 0.520096378236043
0.223441587941682 -0.105496400421485 0.515330282956096
0.220134694024119 -0.113479948566595 0.534958441341963
0.2267859471467 -0.0974224030712809 0.532820049254122
0.226283504359413 -0.0986354072626668 0.546552995996723
0.217346099240341 -0.120212211913554 0.573734707370414
0.220447841049391 -0.112723944771166 0.5685585993992
0.218241343728608 -0.118050900528339 0.587347188588023
0.222849029050654 -0.106926964132708 0.589591212101805
0.224149783723863 -0.103786664559328 0.598219305356157
0.218115093878125 -0.118355694629623 0.62389852332364
0.223708046007824 -0.1048531137444 0.611526215710338
0.21964502583819 -0.114662112142126 0.639425391877229
0.223134425574894 -0.106237955973234 0.638375760101601
0.225158359317273 -0.101351747683037 0.642150364032261
0.220903169201812 -0.111624685370259 0.662731165372617
0.226109014891627 -0.0990566621022874 0.660793539650692
0.226755018004868 -0.0974970726249645 0.669344289262798
0.225199602552158 -0.101252177706023 0.686236818685202
0.217713703423431 -0.119324736909153 0.702544548286665
0.221393704666642 -0.110440427998244 0.705035717140579
0.22651228502073 -0.0980830818873061 0.708974980715498
0.226932410411731 -0.0970688094704561 0.720990207250156
0.222884900731575 -0.106840362234124 0.732855761371625
0.224765875266249 -0.102299288002036 0.737286999255423
0.223359891530798 -0.105693633004637 0.752977061391165
0.218119479447407 -0.118345106928784 0.769684214875572
0.219955008121636 -0.113913748709336 0.774277271397544
0.222065489456432 -0.108818596047737 0.786604015141151
0.226087123162972 -0.0991095134105102 0.78869338377901
0.217382787214412 -0.120123639308976 0.806547191593068
0.218622971709277 -0.117129569081628 0.82196504854525
0.223517449001507 -0.105313255621998 0.81880099440479
0.219057596659264 -0.116080291632824 0.838737879029231
0.222017334750547 -0.108934851791774 0.843338144357567
0.218608168254677 -0.114090993431413 0.854199220971771
0.217222337639606 -0.111780118012497 0.860749280472421
0.223467516694326 -0.0959778202019461 0.861588917059438
0.222098965471574 -0.0937682662844771 0.86797334514988
0.227235287549607 -0.0808815388654147 0.868536747859358
0.227320447425856 -0.0749447036756875 0.87517327729205
0.229290774875553 -0.0712290760625304 0.873967654800325
0.22099379795331 -0.0754875439395293 0.892231188028069
0.224300291134114 -0.0637939203465404 0.896528415320919
0.230053582685167 -0.0499088458006501 0.88757018801367
0.232255071805691 -0.027762066899798 0.889712756919537
0.224746791072268 -0.039837970925497 0.907468130342979
0.228845835059866 -0.0193260891155263 0.903272319791685
0.227441192544104 -0.00978193708733899 0.911255781694567
0.228289239619329 -0.0937931339956483 0.0821257877777159
0.231659783201108 -0.0856559219679479 0.0809707861580197
0.228763185299859 -0.0926489279058843 0.102100507616228
0.229173215403422 -0.091659027668882 0.10521805567652
0.237216258422577 -0.0722414041292867 0.103169653812146
0.230599694659248 -0.0882152021030217 0.134850228666394
0.233850214198176 -0.0803677537473833 0.126779987962596
0.231660759294446 -0.0856535654701727 0.150390443569385
0.232598055555796 -0.0833907321240591 0.156604096016255
0.228151557684094 -0.0941255275909867 0.17034120310216
0.228415300768431 -0.0934887954597967 0.181685212366223
0.234377067296021 -0.0790958178531861 0.180427035707068
0.238343617413097 -0.0695197187647101 0.180010190782403
0.23417842906121 -0.0795753729736752 0.197010725580416
0.237160356612576 -0.0723763630371512 0.198124062778839
0.236131668845077 -0.0748598349968963 0.209668912148192
0.229207984114755 -0.0915750885744337 0.245271903692794
0.228599766158242 -0.0930434566139274 0.243968720548673
0.231843632202645 -0.0852120712150087 0.251607195536092
0.232734430194344 -0.0830614946221125 0.259868953415586
0.23927267128058 -0.067276784317657 0.255324694793864
0.23024710343319 -0.0890664326229465 0.290746365143199
0.23694071741687 -0.0729066189622552 0.278167770608276
0.232638450400954 -0.0832932103410297 0.29505305611466
0.232784188248506 -0.082941368052918 0.299932110121972
0.231223476250972 -0.0867092601243234 0.317596007671707
0.228380760957675 -0.0935721819393676 0.333589067479233
0.232318890082423 -0.0840646971960235 0.340934783859828
0.235380818588995 -0.0766725478684394 0.332302289738733
0.234310964399579 -0.0792554043622897 0.350218655695277
0.23188039621985 -0.0851233150260649 0.367484510103715
0.237706707163347 -0.0710573561276699 0.360882281298537
0.227421136041232 -0.095888921427435 0.392233728115077
0.228214255183498 -0.0939741624375985 0.396434653937366
0.230839189245089 -0.0876370110257709 0.404059976613134
0.236835378027465 -0.0731609307448081 0.402104703266629
0.239162938097345 -0.0675417036568647 0.409901384211353
0.230651925731971 -0.0880891051388762 0.437056867139914
0.233858804039862 -0.0803470160350852 0.443197534305946
0.231799769475542 -0.0853179652056628 0.45648998010656
0.233745190848261 -0.0806213025431149 0.459150409085831
0.232759683296632 -0.0830005282400778 0.470089669843467
0.233149524544276 -0.0820593682128439 0.485113019031643
0.238069358021543 -0.0701818395074069 0.480383592684755
0.237720433939077 -0.0710242167595366 0.493148975853175
0.236742579175434 -0.073384966991953 0.507147618790525
0.234954684746099 -0.077701325971347 0.514972001149451
0.234038457782438 -0.079913293533227 0.532273857181376
0.232281252957496 -0.0841555612534714 0.54337922945855
0.230417534879656 -0.0886549747134328 0.557857353794958
0.229894000846468 -0.0899188976767187 0.56985505409594
0.228905402707533 -0.092305584711471 0.576575889121216
0.228179049951986 -0.094059155384979 0.587661464547113
0.239902562226469 -0.0657560930532752 0.567517491978948
0.233582876195568 -0.0810131647790181 0.592215463707133
0.232242078568016 -0.0842501365958509 0.604667079812914
0.230434063358086 -0.08861507143664 0.626618985295546
0.229027265759271 -0.0920113812792141 0.632803472662054
0.235797211724923 -0.0756672859124024 0.62786499926915
0.228443724541981 -0.0934201744001999 0.659489482751689
0.23106005527146 -0.0871037932694366 0.665686096393419
0.233243808692963 -0.0818317461423647 0.671558989006888
0.235565550397376 -0.0762265658312443 0.662614226453335
0.239129227248788 -0.0676230888446507 0.674621494476283
0.22946086607637 -0.0909645775130255 0.693969932220817
0.230512196775424 -0.0884264406808284 0.716815803417785
0.235188971010596 -0.0771357088941186 0.703567367154893
0.230126434164432 -0.0893577540081419 0.726661708802781
0.238341195105615 -0.0695255667322855 0.725108337989877
0.239226709770199 -0.0673877452193671 0.737848775165663
0.233943772769844 -0.0801418833747862 0.74767149233382
0.238117693973534 -0.0700651461965599 0.749256287338604
0.235901248578719 -0.0754161187289835 0.772037832711417
0.236514263936199 -0.0739361687390118 0.783601675255493
0.238240939612426 -0.0697676049036452 0.782782229504524
0.238710735264077 -0.0686334178698853 0.786886102269059
0.231923831324863 -0.085018453406458 0.815857064627432
0.228747365220846 -0.0926871209551961 0.825964700009647
0.234763532308032 -0.0781628087798076 0.828325954953252
0.232839527422869 -0.0828077674676397 0.843726460902131
0.228006532532726 -0.0906069759830622 0.85511905429521
0.230028423749514 -0.0800304867718299 0.861713863648155
0.23626636852457 -0.0674214084233799 0.858876113942241
0.236188916738618 -0.0615124786353208 0.864581244122002
0.239335966823311 -0.0441528369629066 0.861996414418109
0.235774906100974 -0.0472560162458572 0.871453972675937
0.23728090460695 -0.0279982357460864 0.874541981860362
0.238481560366591 -0.0214937100458688 0.873509025743604
0.238442709177749 -0.0105678594477035 0.877940825868675
0.238779933466737 -0.00303762702751464 0.879903274718307
0.240635671685471 -0.0630358867508301 0.0959170362624103
0.246981381313563 -0.0148354367450963 0.0767494795510112
0.247030784947007 -0.0144601788931798 0.124121017536336
0.244208339916603 -0.0358987773408102 0.149927786602006
0.246322341553191 -0.019841340715395 0.147520926954536
0.240452266095071 -0.0644289905184075 0.202746453320833
0.241122436456558 -0.0593385412389218 0.208999204374866
0.239542368701734 -0.0666256771457711 0.225517856781904
0.239942140684168 -0.0656605422039208 0.273916856180141
0.24751756317346 -0.0107627311776113 0.246181116952378
0.247863493244872 -0.0081351314149741 0.299900027331522
0.245728317645097 -0.024353400258351 0.336917879369385
0.241384754260515 -0.0573460397006704 0.371929387561748
0.24067091265599 -0.0627682050040743 0.39872494007754
0.239783579072109 -0.0660433437982263 0.41846719535373
0.239739916493381 -0.0661487545879598 0.465381691604957
0.240540494923932 -0.0637588260287269 0.531012522681147
0.239959997527192 -0.0656174319713102 0.539770165473816
0.245460674515431 -0.0263863516612584 0.552575382769971
0.240067670749411 -0.0653574858179254 0.652524763218782
0.239761911755673 -0.0660956533274264 0.676746166087358
0.244810991628967 -0.0313211831180787 0.724215035104793
0.240877648134651 -0.0611978931417887 0.761687169734744
0.243662575585732 -0.0400442690016007 0.798741949969638
0.239188571755966 -0.0674798185305698 0.831960048075758
0.244901032734559 -0.0306372530199693 0.819323604217281
0.244273540308039 -0.0332117416293008 0.851504961544959
0.241942365066647 -0.0394040571168142 0.856052785869795
0.245079528077131 -0.012324567659427 0.857336544099714
0.216633008128859 0.121986006171436 0.0540640091902072
0.203851849691933 0.139756371699654 0.0570355844128079
0.215711239034767 0.124159113594436 0.237615798078644
0.215583604008067 0.124467251806928 0.246718059852779
0.201400160048432 0.142951475849396 0.270737177330233
0.216460879950151 0.122349320329605 0.376750727658353
0.197805135914525 0.14763660251668 0.464327990019175
0.191195328705944 0.156250670980492 0.462031919804623
0.211980904644932 0.129162381027684 0.515087559523833
0.198266553116155 0.147035271912051 0.512032585325672
0.177941178000852 0.17352381647483 0.496574094671325
0.185839858524635 0.163230055604269 0.524382220607829
0.194101294256183 0.152463542942818 0.554232859765481
0.211495415855385 0.129795082336453 0.593378116298486
0.199557867223336 0.145352398603265 0.580186534130311
0.185173842156448 0.164098025034017 0.574240938963789
0.178146069365008 0.173256796850386 0.599460362372965
0.216243743575375 0.122873533910474 0.707675927652065
0.191590598822964 0.155735544934866 0.713711691075469
0.176502770317529 0.175398385864226 0.70641624853098
0.200837693459722 0.143684496579178 0.780835338010173
0.20514476226413 0.138071415230701 0.795134123070111
0.224913423234373 0.10194307569629 0.0843990416112207
0.220864674547193 0.111717619687521 0.0726711228841851
0.224377822127849 0.103236131151684 0.0887527381999527
0.219582258689895 0.114813645442812 0.089795675619554
0.220441506986846 0.112739236550867 0.10016840244945
0.219092402164015 0.115996263711209 0.113875336953426
0.218310624033045 0.117883643077764 0.119410950951271
0.229561101522732 0.0907225877389867 0.151889113572839
0.224395355681928 0.103193801407629 0.15297507011058
0.221421657909387 0.110372942900497 0.15503182815563
0.226609992774558 0.0978471945028676 0.179273394579146
0.227735827852939 0.0951291881876435 0.190135862622489
0.221440174024296 0.110328241044762 0.187750067517914
0.22326845659952 0.105914376455805 0.199726240051209
0.229244013257247 0.0914881065299898 0.226404126395105
0.225992954972069 0.0993368555341317 0.224420252739421
0.219540528357281 0.114914391377771 0.21484989718415
0.227050344718599 0.0967840908673463 0.24757922301522
0.220311753763166 0.113052488543237 0.241328323290696
0.223566961765497 0.105193721235664 0.255733421537442
0.224237402096646 0.103575135095442 0.261901858296132
0.219918337128593 0.114002280318087 0.270697244557236
0.218599722246664 0.117185698249587 0.274211778351277
0.222002537573519 0.108970575337242 0.29285473846162
0.220623906034784 0.11229888629557 0.308658543454621
0.219112075153975 0.115948768912035 0.303193167747768
0.225399164659965 0.10077039215882 0.335341339834291
0.223476962125568 0.105410999586988 0.334470461134746
0.219803890902818 0.114278577948515 0.342452324785441
0.223392674344622 0.105614488290892 0.362137656575673
0.218525777505239 0.117364216647202 0.35277509536345
0.219570428729745 0.114842205493048 0.369760018635099
0.222276679178482 0.108308738956529 0.381423272933487
0.225275741689887 0.10106836156709 0.396305545212614
0.220947326088336 0.111518081215943 0.393375334767091
0.219357604136497 0.115356009512474 0.401047808833656
0.218972620023074 0.1162854433804 0.4100735956962
0.222520407097843 0.107720327708079 0.432961163287595
0.223956987773407 0.10425211515769 0.442474328789339
0.216289166453462 0.122763873382156 0.438825253623236
0.218011221176734 0.118606465514082 0.450023056922806
0.216922645428628 0.12123451984883 0.459670825438875
0.227214154979519 0.0963886179137775 0.485157597163842
0.219537333638828 0.11492210411039 0.482812676609066
0.228736317944046 0.0927137914406738 0.518347899590513
0.221872524901558 0.10928445369317 0.511463422928071
0.227299985971015 0.0961814035700364 0.535079380858197
0.221530084639302 0.110111177618613 0.524703429702397
0.218469215383544 0.117500769688514 0.532546070875191
0.223506845522756 0.10533885468421 0.546589044230544
0.227256879412184 0.096285472008992 0.571604161159318
0.223328103145019 0.105770376956711 0.568819138061551
0.221464987119083 0.110268336934802 0.580066114567329
0.221632133806312 0.109864809135586 0.586881170777765
0.222440891686431 0.107912294892728 0.601787608288249
0.222870083062548 0.106876135251653 0.598004763751868
0.217083197082275 0.120846913869135 0.607404513319884
0.223085184015503 0.10635683561375 0.620685914011393
0.215805351130912 0.123931906895538 0.618882563408232
0.222374443408176 0.108072715227288 0.643008620636319
0.224791082318541 0.102238432794527 0.656827421840068
0.219816690806269 0.114247676248008 0.659118084719878
0.2223394942027 0.108157090073143 0.673325439119078
0.220343823216748 0.11297506603346 0.673751070416111
0.22407726510447 0.103961739993792 0.692430641824975
0.224260157493729 0.103520198707188 0.710057776241069
0.222862576163357 0.106894258509492 0.707636997797908
0.223070091996105 0.106393270971663 0.722476418836681
0.223696871039742 0.104880092503905 0.740233773755974
0.221612524535129 0.109912150104027 0.748222907128105
0.227301047692793 0.0961788403469206 0.764409664514783
0.227518664444564 0.0956534670333959 0.77296528911511
0.227582546333032 0.0954992425118638 0.779060884694458
0.224066713496706 0.10398721382836 0.780335876939816
0.219872873099239 0.114112040194354 0.783861612062209
0.227539758077639 0.0956025424983441 0.810421899103367
0.22151262080684 0.110153339039793 0.816387201533733
0.224569603466537 0.102773130042812 0.822608651710569
0.228411557955373 0.0934978314098433 0.838293703837115
0.220638241787797 0.112264276726221 0.830739532964326
0.222291678216216 0.108272528076209 0.850030069940251
0.221514030457138 0.10262154028356 0.859356854496013
0.210947497529057 0.127995031447202 0.855270400716945
0.210248112682084 0.122122315101157 0.867767139548454
0.209817199760138 0.119159008466971 0.872906314169281
0.188604718048609 0.156267953767749 0.85682647556729
0.188095406310126 0.151739956606352 0.866389894516624
0.178915031486476 0.162766068066984 0.868117705163079
0.177780549050164 0.162000317217601 0.872251686985703
0.167846820798112 0.173906169150356 0.870783001257785
0.240663557734323 0.0628240711805748 0.116376439643864
0.228614915604387 0.0930068826155816 0.0963540362682427
0.23026001589893 0.0890352591730335 0.104929475423418
0.228710595493583 0.0927758909294376 0.117194289396671
0.235607602378991 0.0761250433669065 0.145660907306119
0.227543229614823 0.0955941614661915 0.127024061323978
0.230807770696828 0.0877128621110921 0.152320065628653
0.230754149808642 0.0878423143865785 0.161455862350691
0.231945362069353 0.0849664735911036 0.172608008823653
0.233516364226093 0.0811737388777835 0.184372423801527
0.227874697907368 0.094793926218833 0.181266789758164
0.23403283944784 0.0799268573928127 0.20419916784385
0.234019625627221 0.0799587583777619 0.21799944175633
0.234766316899296 0.078156086181812 0.232327968639192
0.230341901927186 0.0888375688130492 0.217651691302145
0.23283704635884 0.08281375728607 0.244778755685058
0.233097517687466 0.082184923871891 0.247942239627481
0.236348662087036 0.0743359669692158 0.270832777905593
0.236678778184754 0.0735389962089482 0.279492159169447
0.228656284850072 0.0929070084215842 0.269288484232727
0.236304662578712 0.0744421911789478 0.299294785578233
0.23427016190605 0.0793539102955471 0.300081737045105
0.234379220926534 0.0790906185291957 0.304625650711207
0.228788832609951 0.0925870098220229 0.311398999182848
0.235752653083532 0.0757748599887707 0.33838483650835
0.235035186681594 0.0775069771068773 0.340996356126431
0.233483070750007 0.0812541164392897 0.34157202180275
0.239627242827195 0.066420772880988 0.374000625676565
0.239441980059861 0.0668680367664879 0.378624872318404
0.236586404170606 0.0737620068067147 0.390210051777916
0.231562843582176 0.0858899549107043 0.385035111614252
0.235761506047366 0.0757534870434155 0.397868133943905
0.232292915475683 0.0841274054438929 0.401664753115258
0.227089805215775 0.0966888247998862 0.402466016236728
0.240536612231919 0.0637883180025558 0.444142510313597
0.232521662797742 0.083575160556621 0.435705054358173
0.236233405569697 0.0746142208165268 0.442923716856472
0.237621488294672 0.0712630926761962 0.462197524161646
0.230809488105418 0.087708715919982 0.460511189986703
0.230779314525783 0.0877815613851626 0.46094827556445
0.228373340991847 0.0935900953215016 0.47065579826858
0.232697723034269 0.0831501135458039 0.492736007186168
0.234386616064205 0.079072765087534 0.508458006760407
0.234322453484083 0.0792276672586621 0.51510668901269
0.234421239626893 0.0789891764129166 0.530399036151249
0.231829222950747 0.0852468582263631 0.527017835874107
0.235530231396152 0.0763118334430101 0.541772576623762
0.240631352186071 0.063068696606168 0.564693561984258
0.238707968961637 0.0686400963147534 0.567538750297537
0.237966763982773 0.0704295234272267 0.57636333953009
0.235674188119708 0.0759642911686063 0.577050500276229
0.232030253984111 0.0847615263791593 0.582629764440814
0.233871521198668 0.0803163140978229 0.606384277957588
0.233680423502324 0.0807776647480755 0.611095862604917
0.231927227049271 0.0850102554025405 0.614671879212668
0.240490697294186 0.0641370765796798 0.646606706490043
0.238597579283117 0.0689066005737829 0.652663204824607
0.236206454057598 0.0746792875225645 0.650657541418359
0.234463440642821 0.0788872941479172 0.659593322334635
0.238357950571069 0.0694851154603428 0.674038550269967
0.230358194811312 0.0887982343112223 0.669077479964203
0.233119775866265 0.082131187874762 0.687263346765717
0.227953253720507 0.0946042757093509 0.680207475899749
0.236833356828278 0.073165810351299 0.709441262866513
0.235885054084049 0.0754552156976516 0.717802211903462
0.226428084053541 0.0982863610042593 0.708868393964853
0.236489972728766 0.0739948129014435 0.740017853481371
0.229320021538258 0.0913046063071219 0.737595164754768
0.232230303033625 0.0842785652506827 0.752831776851752
0.235814767039427 0.0756249036340368 0.768839947851973
0.232253945599952 0.0842214870464073 0.762719128091525
0.235457601991562 0.0764871763365979 0.785122598646471
0.230157038630249 0.0892838682916983 0.791561676801917
0.238384485832314 0.0694210536727643 0.813347813836483
0.240492051305655 0.0641267918414976 0.82707048639736
0.233678376883759 0.0807826057223719 0.819479238121016
0.239023567189904 0.0678781747918105 0.834704442317539
0.236969907250103 0.0728361484709797 0.846429133218273
0.229963535182448 0.0897510269397462 0.840769301098035
0.227911325956104 0.0888861786387064 0.857377818460705
0.227614199288152 0.0842106731992242 0.863622485603908
0.22281339496215 0.0969628417300081 0.862276937956034
0.219745587667138 0.0925822509792469 0.87592569659982
0.214408649663012 0.101434047860445 0.880595401901617
0.210456593962838 0.104923478502307 0.887602980944889
0.206975359304329 0.110912553096588 0.890399874234004
0.205940839873583 0.111371720221222 0.892760234473362
0.197341057472698 0.121450713177306 0.899988903336173
0.185705447392281 0.141541980254943 0.890912337053918
0.182847601070286 0.139914543643514 0.900770684269336
0.180769840591584 0.133295545073956 0.917951032259782
0.173289561961324 0.151155232146048 0.903009854656057
0.125991377685781 0.205769072275992 0.871392532082758
0.240951313265161 0.0606383509237566 0.123692536137702
0.241300857422297 0.0579832994546135 0.131319308846946
0.239901890025464 0.0657577158900602 0.132869441402786
0.240601382256382 0.0632963408228584 0.14652946970427
0.24164497965184 0.0553694316142814 0.162455933941652
0.240470177199597 0.0642929421725434 0.164324392496056
0.241682252141159 0.0550863189502434 0.182432714675614
0.242353770246288 0.0499856325414443 0.198024633701598
0.241617502492646 0.0555781413592331 0.20332787413476
0.242427608626288 0.0494247743628798 0.214886935519282
0.240395390614769 0.0645663000743189 0.215922529505186
0.240270461881559 0.0648679047163664 0.214795523328318
0.241968198219503 0.0529143428496429 0.237063680625825
0.242519265442536 0.0487285717239041 0.250052314371003
0.24184726149429 0.0538329484775665 0.249106131101019
0.241671182571456 0.0551704006798446 0.260537240755131
0.240925335280759 0.0608356733056144 0.267437149076042
0.241903174610112 0.0534082461981025 0.287326170702339
0.241745934369572 0.0546026044018657 0.290451396203771
0.24169507367992 0.0549889296944711 0.300938711222661
0.241209385528096 0.0586780974711879 0.309678286600082
0.241641938968115 0.0553925279001949 0.319075370429488
0.239443566376957 0.0668642070582418 0.324242103430725
0.238571005412995 0.0689707555714365 0.331854761612159
0.242006004892742 0.0526271726559023 0.350737200873141
0.241722150102408 0.0547832638469962 0.359174677776127
0.240864054229669 0.0613011491014673 0.365926847331158
0.241309443881074 0.057918078825041 0.385111097804982
0.241255467257495 0.0583280719855852 0.385404536875739
0.242046814780544 0.0523171907827899 0.405020205954393
0.241340923394137 0.0576789681842286 0.407066747464466
0.242568485423999 0.0483547088472756 0.430484460028669
0.241528537327947 0.056253898874883 0.430996025351501
0.240964520867784 0.0605380292218092 0.433603637576093
0.24211469323208 0.0518016027553734 0.451913163194884
0.242465508149483 0.0491368989037026 0.460345226782767
0.242515087755156 0.0487603044099996 0.472265776503746
0.242329169474453 0.0501724939552867 0.478470737864364
0.241303006136663 0.0579669783486318 0.485277803910759
0.241205446190287 0.0587080197125529 0.491766495952486
0.241148907859188 0.0591374709735238 0.500897504530933
0.241926613921056 0.053230206955597 0.515935774619171
0.242437316865656 0.0493510329637755 0.524757735910685
0.242795699450363 0.0466288469720534 0.541510999634335
0.241416889405428 0.0571019490415412 0.544024341431706
0.240786292766991 0.0618918060514163 0.54193173693249
0.24125703549498 0.0583161600392563 0.564838614472977
0.241728343370266 0.0547362213071922 0.567047016278517
0.24117756381066 0.0589198074122754 0.580501843808596
0.242622356153101 0.0479455200351458 0.594260617750338
0.242255310637712 0.0507335075182185 0.602853957511417
0.242665778976071 0.0476156909489879 0.619521412142141
0.240903787714626 0.0609993433196952 0.609786972839172
0.242782160034175 0.0467316890482524 0.635787633427631
0.24106163892708 0.0598003443234941 0.635228095536087
0.241182877389559 0.0588794467735006 0.644886697237771
0.242603728757467 0.0480870091521447 0.660197313335411
0.241417006859005 0.0571010568930445 0.670482113275781
0.241717380379278 0.0548194934910779 0.672082593298251
0.241360837761362 0.0575277035474749 0.681858608990028
0.241779401658477 0.0543483951045318 0.698607925456445
0.24188700130104 0.0535310946769983 0.70922198050461
0.242862976424462 0.0461178276193519 0.720682059332182
0.239983404935065 0.0655609214897654 0.716384605039662
0.240483813770608 0.0641893621322062 0.730240750788019
0.241468882881903 0.0567070193787708 0.749488899593192
0.242248466176572 0.050785496362073 0.755324584418577
0.241793528842096 0.0542410884914567 0.769126389619964
0.24139524381539 0.0572663636210879 0.776606126315636
0.241484928753372 0.056585138884565 0.776756694842379
0.241851889193389 0.0537977976130938 0.792499398416897
0.241911441513277 0.0533454528343843 0.805960114591518
0.241215610481193 0.0586308142581036 0.806586424102018
0.242570097882645 0.0483424610078861 0.829856136925945
0.242862288936748 0.0461230496069828 0.834266302287929
0.242295831328451 0.0504257223148854 0.84439213490581
0.240864447863282 0.0592273615406906 0.851457174866376
0.239806194809997 0.0629392716911417 0.853165887299847
0.238519272827211 0.0601406439919683 0.858131992227446
0.232646847039611 0.0677414682126942 0.868624069771788
0.229514307356421 0.0693631112090074 0.875503464114592
0.228048109895365 0.0670296406154839 0.882304357785555
0.222154795705648 0.0768940560460487 0.887356874778725
0.219840113126904 0.0827721135506655 0.887021160609233
0.215157279704916 0.087866319406805 0.894213408599423
0.212083671093046 0.0797366262347627 0.912219683702901
0.204759337481804 0.105847378243994 0.902460138577983
0.203570149094255 0.100942279611231 0.911464472278321
0.199224716986494 0.107639811690331 0.915856913884791
0.193052957031923 0.117102978856423 0.918291620921322
0.190310614749369 0.11482096862259 0.929078442337007
0.180046151958557 0.132730907650218 0.920728403897024
0.183345006266868 0.11663714968036 0.942454580394431
0.166049375087127 0.148117571529921 0.9259861310613
0.16257404128542 0.144710275608948 0.940605394932685
0.14016280392231 0.175786005531944 0.917265426453455
0.141148698152271 0.167994161026164 0.934154448837435
0.243985437063284 0.0375918926056491 0.132891712467837
0.244596103665146 0.032953419253056 0.151622218056359
0.243863538280725 0.038517805784607 0.157302082268183
0.243583403696939 0.0406456392015153 0.167550528410882
0.244485313081066 0.0337949572877266 0.176410702135247
0.243071224330702 0.0445360277290615 0.182788411146995
0.243274839581631 0.042989416349401 0.196081163808965
0.244181762320383 0.0361006542266072 0.195384302853939
0.243542109052742 0.0409593031650096 0.204687536405922
0.244788363621115 0.031493059901784 0.22723921178805
0.243504144950544 0.0412476691504167 0.228699988008785
0.243102561439686 0.0442979987546213 0.234932037734679
0.24401050136677 0.0374015103193609 0.248139038545098
0.243017704154306 0.0449425538290381 0.248284118019496
0.243962386824188 0.0377669765540624 0.276680247559397
0.243570535508792 0.0407433827945547 0.284063639518487
0.244182390465729 0.0360958829890145 0.297593730537388
0.243166871881641 0.0438095124506448 0.295282459082047
0.244404311733185 0.0344102236090302 0.302442920954683
0.242602136348201 0.0480991047013723 0.311375571368748
0.244513797601289 0.0335785958760926 0.325824458504908
0.243658131765314 0.0400780231688191 0.333522379200878
0.244150253574996 0.036339986908966 0.339646752496252
0.243784168259148 0.0391206809524277 0.348857035862684
0.243166654118606 0.0438111665251217 0.356386744790392
