ply
format ascii 1.0
element vertex 847
property float x
property float y
property float z
end_header
-0.170252048155451 -0.180451694130723 0.557615022898085
-0.174046623438938 -0.177540014107785 0.570271341051503
-0.175568319379362 -0.1763723757452 0.579293406079028
-0.174986739968552 -0.176818637322767 0.59343580201501
-0.176592818151101 -0.175281033242743 0.603437315436484
-0.175441441929823 -0.176469732236398 0.609822216090391
-0.169342714465793 -0.181149450411875 0.606694151327953
-0.168943336689925 -0.181455903757698 0.615473541541294
-0.175288560235133 -0.176587042486701 0.635991682894829
-0.169300315495348 -0.18118198428616 0.639727841124207
-0.176254630725006 -0.175721767677205 0.649501928503718
-0.168061887284882 -0.182132263674725 0.659095368120745
-0.175854596791706 -0.17615270736066 0.679070315101111
-0.167032567192033 -0.182922088761238 0.679253153641335
-0.167920859496702 -0.182240478102651 0.687151041171637
-0.174004638495611 -0.177572230287888 0.699166047333632
-0.176319138686891 -0.175637699264525 0.714787595058998
-0.17638547135768 -0.175551252844905 0.715954335464062
-0.172809051678409 -0.1784896363192 0.728765313369864
-0.17153427843956 -0.179467804228922 0.735860232403209
-0.170879110052742 -0.179970532613798 0.74598243060136
-0.16972390815134 -0.180856950209309 0.749410015579848
-0.174585851795778 -0.177126249636899 0.77114057468499
-0.165639797889681 -0.183990798234961 0.774376205561915
-0.172121987486605 -0.179016839216045 0.786018162480127
-0.176962687274294 -0.174799010416766 0.79678153631112
-0.167531126447092 -0.182539530789725 0.803179146226541
-0.176461972229966 -0.175451554967098 0.81074912827728
-0.169645714075214 -0.18091695063422 0.822119237648914
-0.176334023858199 -0.175618300531598 0.832806319224676
-0.166761967841297 -0.183129726945987 0.837970513423441
-0.169168172270768 -0.181283381348659 0.845934461049784
-0.169878552555387 -0.175537110600187 0.863125229635085
-0.166628862615175 -0.178159945814294 0.862814927397506
-0.160138280680576 -0.182426836285563 0.864527773409283
-0.15737948138353 -0.179211150274444 0.877329168642109
-0.158763557689956 -0.17510645850417 0.884633352921137
-0.150070379602048 -0.177717366957787 0.894378822481856
-0.14429889005645 -0.183598709257286 0.890891420266208
-0.14174880075142 -0.17965682774866 0.905051665743235
-0.139858031003191 -0.178478850256687 0.911362395123626
-0.132323512287519 -0.181333158532914 0.918389259043809
-0.125616259274217 -0.186380219677919 0.918628346805928
-0.126712647976417 -0.177915899274771 0.936928177530712
-0.118686223263812 -0.185929491382225 0.932475789872164
-0.115371132765386 -0.183163569731941 0.94522219435758
-0.116027587396837 -0.181484213603056 0.948044434618855
-0.109014433637387 -0.181288690976709 0.96143233808848
-0.106040388892819 -0.182483744127975 0.964041815487137
-0.103672318520621 -0.17956572301618 0.975408897549521
-0.101716277219103 -0.179140049420354 0.98308503657005
-0.0942555977141305 -0.182230364055833 0.991786272791006
-0.0885882595974824 -0.184577852366302 0.9935697066392
-0.0814904844871661 -0.180016324782662 1.0
-0.00873999931564014 -0.187594003713058 0.962659824457922
-0.00897470200071725 -0.188510246832797 0.962659824457922
0.0126026471977162 -0.195380761595557 0.962659824457922
0.0309375401065251 -0.190641644045196 0.962659824457922
0.0536810507749909 -0.198260152616953 0.950213099277229
0.0634906152768176 -0.198240043941125 0.963033211361755
0.0733575853131754 -0.194850099113952 0.959654763726284
0.0789100207281408 -0.19140697731694 0.965195434590317
0.0522257852254998 -0.194902656310826 1.0
-0.185098231006303 -0.164196563403354 0.177205243795859
-0.181142957891735 -0.169351175682775 0.181314072451393
-0.183061713599033 -0.166850604560741 0.19579283299816
-0.182502812875872 -0.167578978164063 0.20164326497598
-0.177823824896676 -0.17367675401777 0.210225576977946
-0.182077564274471 -0.168133172931174 0.223300101245459
-0.177943740012139 -0.173520477596711 0.224188459692557
-0.179687089779723 -0.171248499945859 0.234406273769217
-0.178452233254146 -0.172857796301811 0.242635601890697
-0.182452697742442 -0.167644289477512 0.262360493346249
-0.184404386096291 -0.165100799694897 0.27063151547591
-0.182610889099664 -0.167438130487017 0.282747433147446
-0.18403598440268 -0.165580910129408 0.288152980932519
-0.181350792328222 -0.169080320571794 0.288380082205673
-0.180868907536622 -0.169708325058994 0.305747722908512
-0.183581270712307 -0.166173504548082 0.323453979746696
-0.179136525254587 -0.171966009604402 0.319313708152265
-0.18149480551124 -0.168892638937662 0.335924517438873
-0.18087977069673 -0.169694167913113 0.34441598394948
-0.177378570983761 -0.174257020214437 0.341762921887836
-0.185044494970316 -0.164266593568888 0.364055611408138
-0.180015631241031 -0.170820336377452 0.365610603956146
-0.178563786609429 -0.17271241713878 0.3705580822945
-0.17787607370097 -0.173608662050314 0.380804966690111
-0.183988041625104 -0.16564339037359 0.396369382599433
-0.179529585773575 -0.171453763162996 0.403943647108974
-0.184496021624273 -0.164981377949777 0.42046268375808
-0.179253759374265 -0.171813227125076 0.428291140941943
-0.184536320825685 -0.164928859007993 0.432530301916285
-0.182592485912631 -0.167462113987299 0.45122450805866
-0.184975320124475 -0.164356743983149 0.45856520265695
-0.183841774663347 -0.165834009189362 0.466685631240845
-0.18170960624389 -0.168612705172767 0.471516958381517
-0.179733995352511 -0.171187371413274 0.486760097035069
-0.177587639708854 -0.173984556547229 0.490463429987912
-0.178767787611507 -0.172446557856786 0.496133193766723
-0.18439444753561 -0.165113751879347 0.512126087469263
-0.180429326199195 -0.170281198611357 0.52401933723156
-0.178622079653657 -0.172636448164481 0.525071846174306
-0.1809641450881 -0.169584209065461 0.543942091995992
-0.178505320404582 -0.172788611780389 0.542970629095832
-0.179059313322266 -0.17206663415369 0.554767429732535
-0.180511090211145 -0.170174641676398 0.562934059455233
-0.179262695304427 -0.171801581594159 0.573854478781919
-0.183235433757975 -0.166624208041833 0.585316384343029
-0.180986156722215 -0.169555522945385 0.598320417003732
-0.181790821919081 -0.168506862844187 0.606793009009938
-0.181339069556299 -0.169095597985606 0.61126579363375
-0.181532514346319 -0.168843495827006 0.623775230218123
-0.182371290439863 -0.167750381539768 0.634242315423956
-0.179822262515115 -0.171072339407379 0.643480876888458
-0.180070872752677 -0.170748344237841 0.645765813315173
-0.184998910840734 -0.164325999963159 0.665587667771192
-0.183132706807096 -0.166758084410693 0.670303874199574
-0.181271155499637 -0.16918410530742 0.675067575158934
-0.184241562600181 -0.165312995406323 0.692478334863268
-0.179019454367291 -0.172118579355148 0.690375971898774
-0.17855971607435 -0.172717721963376 0.705176254790439
-0.181518697209229 -0.168861502670642 0.711657848307095
-0.18281014675107 -0.167178452859971 0.72995080501242
-0.183637824304371 -0.166099802471979 0.735705899782764
-0.177348156168305 -0.17429665757365 0.739110406409446
-0.183007186687431 -0.166921665415443 0.751888151667408
-0.180099250467183 -0.170711361680273 0.76441939757076
-0.179868332198794 -0.171012300226691 0.771075264801246
-0.178843253029446 -0.172348209409356 0.77935291961054
-0.181853847283012 -0.168424726590779 0.792860679901891
-0.184985164187039 -0.164343914951046 0.806128172699232
-0.183682738282376 -0.166041269436247 0.813545032297608
-0.182629817954445 -0.167413461923188 0.827981270548082
-0.181673393370968 -0.168659898707584 0.826476371033159
-0.183259921590662 -0.16659229487695 0.836109748554641
-0.179439649338195 -0.171570970607526 0.846072387892783
-0.179266735661446 -0.168521036685543 0.856672504074735
-0.171939162931983 -0.174368587451983 0.862134649964732
-0.172967166991608 -0.16861368131101 0.871624577249556
-0.168920973474976 -0.170264435164085 0.877546702975354
-0.166309832242639 -0.168089132728387 0.887578563497132
-0.162671867234836 -0.170495331064173 0.888503538657057
-0.151826413989917 -0.175196525165313 0.897195657656432
-0.155789435358888 -0.170713332344656 0.900657942324747
-0.155659933460224 -0.166823842070427 0.910233590911785
-0.141305622475161 -0.175595038539174 0.915618740162764
-0.140844754598038 -0.174285289640174 0.919611858598815
-0.139108172873808 -0.17082219367901 0.931124216578964
-0.133955542496958 -0.171512206601426 0.93895914116852
-0.125838133992402 -0.175893086523423 0.943395029250641
-0.122599109074894 -0.174664168179434 0.952311591407542
-0.126853550082889 -0.168842171250759 0.958450998252791
-0.12137793898173 -0.170993713478893 0.963372323750156
-0.112699572251549 -0.172328411688805 0.976154177225572
-0.114513584375374 -0.169807699922728 0.979722026886748
-0.111532010835814 -0.172095541766276 0.982680363259896
-0.105358366314877 -0.176832745821379 0.993729652934283
-0.105096711460566 -0.172862034768683 1.0
-0.0277256091480929 -0.179584325764703 0.962659824457922
-0.0219601932270235 -0.176659819210576 0.962659824457922
0.00124766095095195 -0.180441770015246 0.962659824457922
0.0104174556545545 -0.179807454857036 0.962659824457922
0.0329599248142626 -0.186541790488677 0.962659824457922
0.0384477042514048 -0.179161447993034 0.962659824457922
0.0513378342967695 -0.178495007364283 0.962659824457922
0.064583288374547 -0.179655109949407 0.962659824457922
0.0928953025433792 -0.187712924034688 0.955023373635187
0.103972954916633 -0.182592717266392 0.957600231539614
0.0710431074939131 -0.185421166506311 1.0
-0.186578500360402 -0.162267438822452 0.179261932445517
-0.191860910421049 -0.155383268001666 0.193597653769088
-0.188137856362872 -0.160235246514742 0.194032987164126
-0.188686909425235 -0.159519706632833 0.205595113390427
-0.185672466683293 -0.163448204899108 0.221448890267088
-0.186454126169129 -0.162429526424245 0.231736117561012
-0.190608102050252 -0.157015959657796 0.24292488974331
-0.188008798047542 -0.160403438585857 0.243411559600252
-0.191880582753685 -0.155357630518633 0.256073295751588
-0.192421388931748 -0.154652838185591 0.262837907948563
-0.186323062004849 -0.162600332568606 0.272508825535416
-0.191424852929324 -0.1559515491889 0.27829986409074
-0.186027161610536 -0.162985957470309 0.291401675228865
-0.191471755983449 -0.155890423938701 0.310725795099479
-0.192076276479402 -0.155102597489972 0.317765005399383
-0.189977925958174 -0.157837221130351 0.328189169583634
-0.190627392613188 -0.156990819706722 0.333070374157983
-0.187614005603678 -0.160917942115706 0.337943958198354
-0.19200157019813 -0.155199956611235 0.345022437472619
-0.185206843115431 -0.16405501734694 0.356620050730025
-0.188131915272483 -0.160242989094478 0.361510126014249
-0.18527247133704 -0.163969488983364 0.376485167584503
-0.191157983829393 -0.156299339771157 0.385246988790041
-0.18647098936603 -0.162407549878178 0.385998008974756
-0.188171776384371 -0.160191041082076 0.404679582387756
-0.19176128189235 -0.155513106428125 0.420592853662882
-0.189509761620646 -0.158447344773677 0.427805647139673
-0.191961565645557 -0.155252091559178 0.432142592223156
-0.190487016390147 -0.157173761562333 0.440090005594333
-0.185012968498622 -0.164307679666715 0.441333568482149
-0.186062610563848 -0.162939759494911 0.463727599126619
-0.190079589763217 -0.157704730280119 0.470201212627533
-0.189502017099614 -0.158457437629986 0.477816761135611
-0.189145517796726 -0.15892203656691 0.483155609019459
-0.190132928416549 -0.157635217993744 0.504319527574079
-0.190146983139812 -0.157616901521778 0.50584752874807
-0.186320115624089 -0.16260417236677 0.519049199608434
-0.186037481499701 -0.162972508328905 0.526827174234165
-0.191309452730727 -0.156101941655742 0.541080777480732
-0.18557457169549 -0.163575784131088 0.541531711683283
-0.185609565423946 -0.163530179416275 0.548422721562455
-0.188013988307279 -0.160396674507675 0.560292546814866
-0.189514470760988 -0.158441207702498 0.569541993226108
-0.192256955299594 -0.154867132267163 0.580637006330212
-0.190453365063338 -0.15721761682526 0.597915040148654
-0.185271663591628 -0.16397054165768 0.599326480248806
-0.188407818444556 -0.159883425080186 0.60430518198656
-0.186957646718312 -0.161773325668804 0.615509782154974
-0.190987890476152 -0.156521009744853 0.634819098806945
-0.192672101058182 -0.154326103781143 0.647894640438201
-0.187725108424676 -0.160773150100387 0.645134235731911
-0.187318746383127 -0.161302731423492 0.656997371033258
-0.189886476627212 -0.15795640021879 0.663593918441719
-0.189129826351043 -0.158942486057061 0.673101879647901
-0.190356093416202 -0.157344383703865 0.686834451430188
-0.191937940384507 -0.155282880598818 0.696826259953309
-0.191416349745231 -0.15596263075416 0.709898751884787
-0.192462927850337 -0.154598703612926 0.72241338366339
-0.191378849319136 -0.156011502260939 0.725343200933947
-0.191722225193309 -0.155564006109296 0.735314231550917
-0.188798570351323 -0.159374187280801 0.735982069536051
-0.192409701706598 -0.154668069273944 0.757009958647317
-0.187124262764803 -0.161556187409494 0.758264289071873
-0.186994464309787 -0.161725344049426 0.762478632940294
-0.185154516125144 -0.164123211208367 0.775185737481789
-0.191049148561472 -0.156441176653772 0.785185340590233
-0.190255246146764 -0.157475810424179 0.796784006727196
-0.192305866917901 -0.154803389405158 0.813091093208385
-0.192485890575772 -0.154568778006508 0.820803592970349
-0.185632065798257 -0.163500856357574 0.82115599615322
-0.185521424862786 -0.163645046431954 0.829276176177457
-0.188390578956158 -0.159905892018882 0.843083480477635
-0.187377655023563 -0.158348163184133 0.855940324298475
-0.182053680718344 -0.161828343011545 0.862310401856224
-0.179560790655812 -0.164046524771274 0.864208840744793
-0.178591682720941 -0.161016423394574 0.872116856499898
-0.17339388149578 -0.162988234023782 0.880962524539557
-0.173373792460785 -0.158309856794764 0.8896285232914
-0.168518691502978 -0.162514621844405 0.893538307382483
-0.164734359198389 -0.163054182501132 0.90162907186883
-0.1608882104647 -0.164000537713151 0.907380495975105
-0.161378670774229 -0.156867785963272 0.921080338805185
-0.161664603940449 -0.156226352888571 0.921575475818919
-0.149070399057748 -0.164152918545749 0.92878361033745
-0.151533290421378 -0.159050644955156 0.93649536304136
-0.142723999146525 -0.164388736416396 0.939907849496481
-0.143044911770775 -0.160181948651023 0.949415518617312
-0.130180973958752 -0.166448237422389 0.958068611134745
-0.133223363600164 -0.160695238943591 0.966275031480843
-0.128899876716283 -0.162805543408636 0.969173089642229
-0.130167194731748 -0.157796262236975 0.983465822028725
-0.125853266638776 -0.161106455686913 0.986162299019643
-0.125171005768832 -0.161629972865263 0.994906530565438
-0.0560137961941746 -0.162055022675177 0.962659824457921
-0.0414270642658723 -0.162963556726438 0.962659824457922
-0.0368822246507508 -0.173153816803877 0.962659824457922
-0.0257081754764911 -0.164574598167594 0.962659824457922
-0.00694386688573378 -0.171445251720989 0.962659824457922
0.00925180434957 -0.173410790590771 0.962659824457922
0.0290608560745017 -0.168611318343564 0.962659824457922
0.0342410780838603 -0.16794351287304 0.962659824457922
0.0527492970609846 -0.173977316286365 0.962659824457922
0.0776288079658332 -0.177264409848787 0.962659824457922
0.076094930368658 -0.172353100382075 0.962659824457922
0.11429877457378 -0.174712205306249 0.959138332721287
0.104051760708508 -0.178469059826231 0.976226487607476
0.105820125625817 -0.176478425440145 0.980174907547182
0.0906789528779375 -0.177269772644443 1.0
0.101747641125375 -0.173998285696712 1.0
-0.198006921535696 -0.147373630375294 0.197385776153611
-0.195377624885503 -0.150800196482552 0.200482565149062
-0.194261352822874 -0.152254950557563 0.20562915039753
-0.199029967689783 -0.1460403706697 0.214510740951001
-0.197072126446159 -0.148591879054386 0.231630843274019
-0.197887021169702 -0.147529887574471 0.235941888178883
-0.197980796665994 -0.147407676968351 0.24503597841519
-0.198417775794293 -0.146838194680951 0.254389852844223
-0.194940448065935 -0.151369936406231 0.267103838489164
-0.195391777220294 -0.150781752800768 0.276720216726042
-0.194513094679766 -0.151926874182256 0.284457360582545
-0.197216896521864 -0.1484032110185 0.285259634130924
-0.196577858903809 -0.149236021056549 0.30195472647399
-0.195446416254864 -0.150710545824568 0.305242555627302
-0.195497476132425 -0.150644003296596 0.317537629646093
-0.198867899852384 -0.14625158158752 0.331331904127171
-0.199813819738091 -0.145018834791792 0.340897800215192
-0.199393255543695 -0.145566924720838 0.349718332138172
-0.193955659265863 -0.152653338157374 0.3499048929723
-0.198702249641719 -0.146467461145076 0.373661345145132
-0.196476752630853 -0.149367785316819 0.374363304166591
-0.194275617086659 -0.152236361007074 0.378492326516112
-0.199282475992548 -0.145711295442684 0.400487312831628
-0.192377573800394 -0.154709939176486 0.395449507055667
-0.198104652641722 -0.147246264718205 0.406736231995039
-0.196636042961953 -0.14916019411568 0.425075580394374
-0.197780052102447 -0.147669292377026 0.435995671218888
-0.199797708344454 -0.145039831568772 0.442792112899125
-0.198736818807018 -0.146422409731741 0.449788309976307
-0.192893492965737 -0.154037580229876 0.455596107661599
-0.195759349649715 -0.150302723084389 0.464779654470037
-0.196022276251242 -0.149960070466084 0.471048240435564
-0.198835026484282 -0.146294422994922 0.48553046389454
-0.195464899686804 -0.150686457747086 0.493582074343692
-0.196305692864911 -0.149590714744066 0.504288166773092
-0.195104727249231 -0.15115584360633 0.509285390662819
-0.193628269237936 -0.153080001148585 0.520381606601036
-0.19668372232185 -0.149098057164102 0.537681192496507
-0.199565321666592 -0.145342683783671 0.540140620600786
-0.19876603196544 -0.146384338402464 0.54566233567099
-0.198914739899416 -0.146190538449764 0.557850195615738
-0.197540494225404 -0.147981490280654 0.570653085006679
-0.192760982932559 -0.154210270667268 0.573763311332089
-0.194670288045228 -0.151722015799944 0.581149302646916
-0.19393356250977 -0.152682135210572 0.594380913380925
-0.197644837622352 -0.147845507318262 0.607662765367578
-0.196131004939985 -0.14981837248016 0.616311843132985
-0.198309607667237 -0.146979162128663 0.631735555464648
-0.195110763790425 -0.151147976632681 0.635784540897175
-0.193948372800202 -0.152662834064302 0.643203222468545
-0.19418556357895 -0.152353721023234 0.654396429311382
-0.195585802534522 -0.150528894088292 0.667531341370669
-0.194314843393765 -0.152185240288371 0.667793001576297
-0.196735365762232 -0.149030754122256 0.687579380132564
-0.200087125220706 -0.144662656152312 0.700728186108898
-0.196156793786638 -0.149784763800864 0.704433023087735
-0.196718994556476 -0.149052089492981 0.714773777545544
-0.196005341755046 -0.149982139931204 0.716420009720224
-0.199315311580303 -0.14566850327159 0.726866603265113
-0.197575679747303 -0.147935635615757 0.739939859209208
-0.196966578728896 -0.148729431517569 0.747552465600942
-0.193763599615254 -0.152903635167147 0.757915908233942
-0.198743548805146 -0.14641363902742 0.770914455107334
-0.19858420994008 -0.146621293479254 0.776535744161681
-0.195366285910487 -0.150814973722495 0.786391720412715
-0.195913543441385 -0.150101773822749 0.791441258394456
-0.193828161798784 -0.152819496091445 0.805019286673191
-0.194899498869938 -0.151423302437452 0.812049879102846
-0.194101315968504 -0.152463514646768 0.823744967074009
-0.195478336988541 -0.15066894591452 0.824993411721821
-0.198448385791843 -0.146798302955482 0.842398540446887
-0.199670470826508 -0.145205650730536 0.850046071511308
-0.19523412831404 -0.145699587538417 0.860379317471739
-0.186396286063014 -0.1539808537691 0.866340968844353
-0.188416901758343 -0.147909143310247 0.872674637026032
-0.183762701265736 -0.151707121582474 0.876851458795838
-0.179118630833458 -0.152788696420327 0.886007694903405
-0.177896502559232 -0.151838180833874 0.890692423733953
-0.17502681844399 -0.152576510273442 0.896221345406407
-0.169475020231852 -0.150986351078243 0.912478120088153
-0.166972697405173 -0.151412521581709 0.917700165435034
-0.168067618430231 -0.14965846006847 0.918302757919624
-0.162928775418401 -0.154391753118525 0.921920121045423
-0.159500792082006 -0.151226627203771 0.935979627891257
-0.158563008222795 -0.151628066450845 0.937491401002193
-0.147059963081287 -0.156525749952734 0.950796681890754
-0.148675738900154 -0.154400551434521 0.952922099170487
-0.142729396968979 -0.155931433587944 0.960200486204702
-0.142123328949904 -0.151710744679513 0.971449064785414
-0.138474218045813 -0.154071490047814 0.972503685446571
-0.13210380890946 -0.156578737042774 0.978219363638331
-0.137507985938618 -0.152163475030826 0.993216208730818
-0.13087286028081 -0.153838869686205 1.0
-0.0530664792650202 -0.153971429916968 0.962659824457922
-0.0462727465815783 -0.156601634900515 0.962659824457922
-0.0288810984010413 -0.155452417921565 0.962659824457922
-0.020461512031509 -0.156269728587815 0.962659824457922
-0.00557543154417064 -0.158269011951396 0.962659824457922
0.0122119411226419 -0.165508357452327 0.962659824457922
0.0260730880489654 -0.15752613040203 0.962659824457922
0.0470200070419701 -0.162689097139568 0.962659824457922
0.0558391488712847 -0.157729585823097 0.962659824457922
0.0598574610725084 -0.161549694663987 0.962659824457922
0.0804194213679497 -0.16081209458101 0.962659824457922
0.098435716080481 -0.162892193850665 0.962659824457922
0.109600844927903 -0.160981092543999 0.962659824457922
0.129573053087855 -0.162615073806287 0.960706353771341
0.121593260129829 -0.164375273650195 0.984371754358609
-0.20178091871308 -0.142455261496696 0.196955007712937
-0.206592852002172 -0.136184227941933 0.198500643564476
-0.204786127162945 -0.138538797594156 0.21376041389431
-0.205668552664065 -0.137388798291454 0.224604522852374
-0.202992470429245 -0.140876336559681 0.225835076723604
-0.20283518774254 -0.141081311347703 0.238937752980001
-0.200420670963162 -0.144227970877739 0.248198428972783
-0.205396009425868 -0.137743983554669 0.261292171862372
-0.203717572826719 -0.139931364717385 0.265487811974549
-0.201163833753158 -0.143259462273665 0.270089975607118
-0.20519533771484 -0.138005504020092 0.295190812671365
-0.206299804832359 -0.136566134449072 0.299692387596897
-0.206644810777431 -0.136116513947673 0.306633881206081
-0.200778199145419 -0.143762031079117 0.313117600302802
-0.202655686779134 -0.141315241557663 0.321610686022421
-0.202213479926186 -0.14189153674847 0.337140519242586
-0.207347696523288 -0.135200495409464 0.345411410112425
-0.206381502953952 -0.1364596633841 0.355407133116347
-0.200070060748153 -0.144684895005917 0.357172556012536
-0.204352067107479 -0.139104475671775 0.369032815682484
-0.201081540225966 -0.143366709286323 0.373533600838245
-0.202366949081763 -0.141691531850974 0.392813994283294
-0.201387759194339 -0.142967636957094 0.398649198634053
-0.202655475189915 -0.141315517306102 0.40652577887496
-0.201792601615676 -0.142440036041605 0.420613862041496
-0.207295408090256 -0.135268639022098 0.437981429966414
-0.204208031488032 -0.139292186545632 0.431615261036147
-0.200658554101065 -0.143917955536653 0.440445096174491
-0.204904921347063 -0.138383981999268 0.45720920481854
-0.207722754439096 -0.134711710417298 0.470499504665303
-0.201310119279771 -0.143068819263704 0.467246152096284
-0.20476410633853 -0.138567495691264 0.485376110739517
-0.205225066631867 -0.137966760541115 0.488417007952972
-0.200917271978738 -0.143580787834063 0.506297328063389
-0.206407667803449 -0.136425564688358 0.519892441684157
-0.20197696689878 -0.142199766526794 0.519842198294748
-0.20343745013319 -0.140296427719101 0.526928444390125
-0.200591147960771 -0.14400580092897 0.536132162555281
-0.203925602750342 -0.139660254842609 0.551496836066045
-0.202957260625475 -0.140922222869327 0.55814657701318
-0.202653807565101 -0.141317690597072 0.570219062427335
-0.205478129696509 -0.137636962334345 0.58351317138909
-0.199947487898554 -0.144844635053536 0.580944255031507
-0.207289342854919 -0.135276543390681 0.598062830535221
-0.207068467820241 -0.135564393340101 0.61432080736973
-0.207125917084214 -0.13548952400164 0.61750528281324
-0.205442383395552 -0.137683547820737 0.621054712483222
-0.206982976175219 -0.13567580822106 0.637286553697916
-0.202550980992354 -0.141451696795679 0.63396366600765
-0.205688008489036 -0.137363442966701 0.651473851795541
-0.201794494031797 -0.142437569796899 0.65757206590739
-0.203738038005664 -0.139904693976924 0.672834894244982
-0.202850852467291 -0.14106089668095 0.673271016099583
-0.203402835741561 -0.140341538072537 0.68143242645257
-0.205776433793129 -0.137248204866808 0.697412382131532
-0.202710751853055 -0.141243479356173 0.706017363584969
-0.201336308273197 -0.143034689102982 0.708214730349581
-0.20659093691604 -0.136186723730772 0.731051865669287
-0.200911477695203 -0.143588339091382 0.724325049912798
-0.206262479282829 -0.136614778052276 0.745422016638831
-0.202636310552109 -0.141340493148353 0.759306321736476
-0.206017509994738 -0.136934028244082 0.763897880756984
-0.202486229903371 -0.14153608205776 0.77040821585415
-0.203921628637567 -0.139665434007213 0.785956040283403
-0.206888974313737 -0.135798313832038 0.789977541921139
-0.20446939922438 -0.138951565479981 0.801761965992054
-0.207142966728016 -0.135467304473239 0.811015023187838
-0.204155230572105 -0.139360998038977 0.82188116122898
-0.204902863001909 -0.138386664486899 0.833143474808322
-0.206525533012966 -0.13627195975674 0.840638931776102
-0.200542401354208 -0.144069328743483 0.842339811754171
-0.198892483017857 -0.144366941454892 0.854051872129466
-0.199474940265292 -0.139306390077335 0.861975381103173
-0.198095248886863 -0.135656061104146 0.872011528472344
-0.191707540670587 -0.141514201768847 0.876554896317521
-0.190877021525745 -0.139817284178814 0.881674434016504
-0.182840026715544 -0.145041625796295 0.891344560317203
-0.183516927905531 -0.14408068070607 0.891489695426789
-0.181718288337127 -0.141861722777194 0.899894921428216
-0.17676908862547 -0.145613801713298 0.904864466136449
-0.173607634896574 -0.138696864774642 0.925195140749535
-0.169889954459517 -0.146010314511207 0.920648104464555
-0.166263984421239 -0.145603967890126 0.930101106985717
-0.168570705162904 -0.136940403046958 0.940522259919863
-0.162888056444527 -0.140375350875071 0.947836689662324
-0.159902120177022 -0.140303015624396 0.955137965354893
-0.153236242657856 -0.144850562114679 0.962763276839394
-0.15500302957568 -0.139314954481929 0.968718761163693
-0.150217400514336 -0.142580700648772 0.974191484564765
-0.147503552803925 -0.14358091482018 0.983449057546907
-0.147951714631663 -0.142996858955133 0.994110607646541
-0.143628578337265 -0.147466979300924 0.996500487353932
-0.0684414461610979 -0.142072636158752 0.962659824457922
-0.0516907629227942 -0.14613192408961 0.962659824457922
-0.0435653139562991 -0.150326377209433 0.962659824457922
-0.0377955329655978 -0.147458058502437 0.962659824457922
-0.0212741566612091 -0.152278890733045 0.962659824457922
-0.00583301442195592 -0.154222543583789 0.962659824457922
0.0176632967969067 -0.15172661902286 0.962659824457922
0.0265468839279505 -0.152506092079935 0.962659824457922
0.0378161887106692 -0.15640654572876 0.962659824457921
0.0568726044812543 -0.154249706726228 0.962659824457922
0.0724084225371399 -0.153710434161658 0.962659824457922
0.081442286043777 -0.149613815575451 0.962659824457922
0.102817715594414 -0.151544123888719 0.962659824457922
0.136898545143635 -0.159354963925585 0.950880609322305
0.130120640031545 -0.161410579174144 0.96397051947428
0.129124503016121 -0.158596347730517 0.981563903170243
0.13226717769944 -0.156184888631569 0.986271256359811
0.125549013730059 -0.161237017945243 1.0
-0.214813691350099 -0.125470621517663 0.208089502782945
-0.211572772988698 -0.129694268557548 0.210894625751089
-0.213807953458369 -0.126781324656594 0.220825870634333
-0.21003802476834 -0.131694391379241 0.224179409102168
-0.212679443964233 -0.128252026862845 0.239329812167249
-0.212253454013737 -0.128807187774906 0.252991366620838
-0.207526152444207 -0.134967927125389 0.256404870916599
-0.213058369036346 -0.127758202094461 0.265882819188785
-0.214236108950438 -0.126223341555808 0.27908457384833
-0.211991085659166 -0.129149112871613 0.282535758080494
-0.212709835367444 -0.128212420015063 0.293894731336815
-0.21109589836887 -0.130315743661772 0.304328852195048
-0.214184428365698 -0.126290693005125 0.321946981258172
-0.214016467021489 -0.126509584490554 0.331674093956901
-0.213758882919298 -0.12684527462817 0.332634870623481
-0.210833047379474 -0.13065829774043 0.340343789856331
-0.207950904629802 -0.134414379299952 0.346867837464019
-0.210052358352127 -0.131675711489166 0.360365035585684
-0.214330747795884 -0.126100005811167 0.368436153331458
-0.209515676659407 -0.132375128688259 0.372905208778294
-0.211880138078053 -0.129293702574375 0.387058266009642
-0.214251714093819 -0.126203004537007 0.397666942318408
-0.208588336033051 -0.133583662521792 0.406066271242845
-0.212474300640374 -0.128519374847566 0.409362234999311
-0.212275192561923 -0.128778857547342 0.422843491209256
-0.210821850763406 -0.13067288945458 0.432221802015612
-0.208942477662525 -0.133122136164682 0.441281135663449
-0.208035302784409 -0.134304389483447 0.446670310666072
-0.213602854936109 -0.127048614254736 0.466884305028179
-0.212119197309197 -0.128982154518737 0.478402211416886
-0.213524292607937 -0.127150998674159 0.484310157236279
-0.210603187314367 -0.130957857209481 0.485813948824596
-0.210578463679347 -0.130990077677947 0.500141868576438
-0.21191202247178 -0.129252150023474 0.507257086917218
-0.210803660167462 -0.13069659590076 0.515194101341567
-0.213497131701669 -0.127186395456357 0.528849545993162
-0.2118587413528 -0.12932158732962 0.538425734938984
-0.214270585694756 -0.12617841058784 0.55319996993155
-0.210767731580261 -0.130743418947212 0.561579779723413
-0.211600166117127 -0.129658569137539 0.567464740804763
-0.20864738556071 -0.133506707679093 0.567695070265263
-0.208826946389359 -0.133272699451228 0.580780937204082
-0.210083284001236 -0.131635408398577 0.59555267905023
-0.210750747018389 -0.130765553659189 0.59715058675395
-0.211721160979003 -0.129500885563558 0.607955604906081
-0.209133942276224 -0.132872614622108 0.612853858442401
-0.21107230218215 -0.130346494811008 0.631129500295801
-0.20831252005808 -0.13394311289861 0.639089792018045
-0.210440088734426 -0.131170411417134 0.650231140593897
-0.208312140499857 -0.133943607548515 0.654028252936595
-0.208345939031197 -0.133899560444908 0.667944147395732
-0.208154594836063 -0.134148925054952 0.673337508191354
-0.212175968692597 -0.128908168611438 0.685892051440815
-0.209451334535442 -0.132458980976753 0.687985447150071
-0.212409669336276 -0.128603604002947 0.701291109140055
-0.212106706492269 -0.128998432868285 0.721327251835288
-0.213648718709783 -0.126988843421189 0.722276183482847
-0.207897986711505 -0.134483343273756 0.7337259643052
-0.211937793556528 -0.129218564491944 0.744239339267975
-0.208645775454264 -0.133508806010667 0.746983405952789
-0.20958865530394 -0.132280021067028 0.754251385747032
-0.207581787000492 -0.134895422760032 0.764202781963131
-0.209435251085105 -0.132479941337314 0.7733047370496
-0.210497285623906 -0.131095870979515 0.786542946164317
-0.210421177636615 -0.131195056839628 0.800204228225648
-0.210466166261519 -0.131136426522165 0.801840901744496
-0.212113360126652 -0.128989761683135 0.818692055870864
-0.207587666388985 -0.134887760591771 0.817458500203921
-0.214087042208088 -0.126417609116685 0.838299956588191
-0.214387211004223 -0.126026421525426 0.845170581952341
-0.212792680245836 -0.126420353326461 0.853741484924006
-0.207260112057969 -0.130968791530895 0.858644534324757
-0.204154678897235 -0.134720393833665 0.859188815704044
-0.204783206274123 -0.125609247121787 0.874463100523022
-0.200242185285441 -0.130214035709075 0.876882044390205
-0.196982398476631 -0.127605255398611 0.889512966428744
-0.190588853817445 -0.13102321655171 0.898565261354145
-0.18635665213901 -0.135385114651404 0.900690269144407
-0.187862239219314 -0.127701006796183 0.911230419409096
-0.182193686660651 -0.132122446075932 0.916693850054086
-0.176369007718746 -0.135790377216584 0.923920071859359
-0.176166049158599 -0.130820705656969 0.933561643477026
-0.173404590447464 -0.12911661037925 0.94332981141482
-0.169194371895058 -0.13590589988434 0.94093068668266
-0.167244662359388 -0.129788151546936 0.956880311311136
-0.163857229613558 -0.132236694072147 0.960501852610837
-0.162708737307428 -0.12797057908697 0.971117288522819
-0.159645785592951 -0.130981417655954 0.972924107864947
-0.153731088533381 -0.135465032247278 0.985926615461798
-0.158718593339489 -0.128965189436791 0.992930463771149
-0.158953046420015 -0.127628052147319 1.0
-0.14887624453367 -0.135831985519702 1.0
-0.0806689986103353 -0.138881363879218 0.962659824457922
-0.0558353663886193 -0.140830763114476 0.962659824457922
-0.045771647206618 -0.134127201059501 0.962659824457922
-0.0348631050023764 -0.141365045205837 0.962659824457922
-0.0210161666992387 -0.13449483990941 0.962659824457922
-0.00205573961149642 -0.136381980952841 0.962659824457922
0.0141332148318507 -0.136296165879239 0.962659824457922
0.0281151734894049 -0.141924628497433 0.962659824457922
0.0462848979761493 -0.142554650840819 0.962659824457922
0.0638686242743351 -0.14032223290965 0.962659824457922
0.0619539060920807 -0.147203374402601 0.962659824457922
0.0970946422580596 -0.141490065532725 0.962659824457922
0.0991720558412459 -0.145622050259597 0.962659824457922
0.107149635156611 -0.145931336098248 0.962659824457922
0.127606065886288 -0.147448240624842 0.962659824457922
0.141240414118675 -0.151733092584156 0.968735709894021
0.146435328870189 -0.145176360118951 0.978214644509078
0.144247270833979 -0.146992239850935 0.988369341253991
-0.215866470345989 -0.123784352057577 0.200664298144104
-0.215698613273215 -0.12418959487921 0.216903992033047
-0.217598045749785 -0.119603959233464 0.220219369585549
-0.218203993985812 -0.11814107078395 0.236080675182257
-0.216406339388628 -0.122480992892935 0.243709404794709
-0.217270011599283 -0.120395903728527 0.261863372484741
-0.215045422313106 -0.125168623847 0.261362177931062
-0.217258599246475 -0.120423455585455 0.266935203560211
-0.218043490113741 -0.118528561408718 0.276433090620741
-0.215682485346206 -0.124228531139327 0.285209123790316
-0.217860577870524 -0.118970150627018 0.296228341055242
-0.218134759587746 -0.118308217406742 0.315494349452841
-0.216851007971364 -0.121407467969732 0.312996568059713
-0.216763587578237 -0.121618519468446 0.327572214563117
-0.217966127014813 -0.118715332451378 0.33796576803821
-0.216220979892027 -0.122928490303541 0.33981833898665
-0.218117830181898 -0.118349088607944 0.35949393477529
-0.21616105297827 -0.123073166671485 0.37091018004651
-0.217283890338323 -0.120362397488506 0.372570648364812
-0.21883847576111 -0.116609296276949 0.379542355807865
-0.216965912591621 -0.121130063677128 0.398967853956625
-0.215904397730932 -0.123692787250464 0.407229848930495
-0.216314928950599 -0.122701677212166 0.414390015770662
-0.217384607258178 -0.120119245334632 0.428489656828282
-0.218816639416166 -0.116662013877064 0.42659704387807
-0.215754867127103 -0.124053786062218 0.438451976198567
-0.216153433955385 -0.123091560619865 0.45271342652332
-0.215041100969269 -0.125174255531932 0.459462294946712
-0.218468994387929 -0.117501303219124 0.460286810256272
-0.218043235764397 -0.118529175462356 0.484701283010258
-0.216838933788579 -0.121436617625565 0.485035787770618
-0.215692428214136 -0.124204526932722 0.496904476628058
-0.218501292480322 -0.117423328726431 0.50482302819829
-0.218517324202959 -0.117384624724212 0.516418082680249
-0.216487277814214 -0.122285590248167 0.518254328612776
-0.215355520359455 -0.124764496204929 0.523752166353551
-0.215685238740173 -0.124221883858269 0.53254590282694
-0.217981353099813 -0.118678573430467 0.550549694826175
-0.217719782936156 -0.119310059667082 0.556414453681267
-0.21642974865982 -0.122424477912937 0.570171645046007
-0.217318951321711 -0.120277752786902 0.573423268798609
-0.216590544364942 -0.12203628274086 0.592610831481598
-0.216291950447667 -0.122757152225587 0.592269437200054
-0.215084012906449 -0.125118331606602 0.604446300069355
-0.21675837842435 -0.121631095478411 0.611155181800252
-0.217377272508676 -0.120136952986357 0.627328248584462
-0.216384214727183 -0.122534406550657 0.636505219241232
-0.215397384526412 -0.124709937760338 0.636181284388909
-0.216898312930109 -0.121293263696762 0.648719016015159
-0.218292232293101 -0.117928044665771 0.66338233846019
-0.218272179955897 -0.117976455290208 0.67312722406328
-0.216607523115549 -0.121995292410872 0.674540543761207
-0.215013126426743 -0.125210712665547 0.684559360319811
-0.218307708272082 -0.117890682347426 0.703368713982301
-0.216827909518973 -0.121463232566763 0.708107150324454
-0.214842852792832 -0.125432617585585 0.719238850789167
-0.217867393714524 -0.118953695723991 0.726888908945222
-0.216541351349376 -0.122155045186214 0.728372808296972
-0.217646832545201 -0.119486177490306 0.751555322558936
-0.219064000459301 -0.116064831491923 0.762750330124788
-0.218734182909229 -0.116861081494417 0.772538788081655
-0.217883461847169 -0.118914903820238 0.778390337443353
-0.216591805949535 -0.122033237006227 0.780918594175958
-0.215846182960786 -0.12383333013808 0.791344707714712
-0.215212001618642 -0.124951533469436 0.798716793459739
-0.216372546419291 -0.122562576337821 0.813091098732421
-0.218873974921177 -0.11652359372326 0.818268497706638
-0.216281991873328 -0.122781194350818 0.830288289171982
-0.218500690128001 -0.117424782933575 0.836085460808153
-0.216987806579205 -0.12107720691537 0.844378843054318
-0.217013829798079 -0.120712302570379 0.850989091952698
-0.213131352836546 -0.117040870709412 0.86609412907863
-0.21019700072214 -0.118040378853143 0.873139884450243
-0.206621981216156 -0.122196335722735 0.876335672368937
-0.206304321363596 -0.116910763909989 0.88533012880968
-0.204988854029075 -0.116845366746948 0.889083317126634
-0.200086279658065 -0.117010049454435 0.901578624429742
-0.192438846168679 -0.124579350948214 0.9059940533649
-0.191921566225973 -0.122182023103617 0.911651815791448
-0.189705365008673 -0.120745520916621 0.919618121932721
-0.184452030952326 -0.124562579102255 0.925198076191652
-0.181047545773754 -0.125023463635465 0.932521905450274
-0.18085215798701 -0.123045434601725 0.93663456785063
-0.176558179634371 -0.118315420643139 0.955655571551695
-0.174807472405093 -0.122828938282694 0.951544220312223
-0.171548445270576 -0.121318167284862 0.962150738066395
-0.167776707087396 -0.122348170754617 0.969307852277223
-0.163570125374162 -0.122662731120161 0.978826727884906
-0.16102552071982 -0.125958743141442 0.985431137481253
-0.163086951119044 -0.123272234740826 0.993284097699524
-0.161918714048986 -0.119788689457289 1.0
-0.0878580439689768 -0.124706690543066 0.962659824457921
-0.0790585176404555 -0.121837003057473 0.962659824457922
-0.0519551954322736 -0.125181784983984 0.962659824457922
-0.0478994071052458 -0.124347806705981 0.962659824457922
-0.0356659655202908 -0.127503585932516 0.962659824457922
-0.0233772585126976 -0.129620263453228 0.962659824457922
-0.00555783957762782 -0.13355978739439 0.962659824457922
0.0111658635876196 -0.132321014442018 0.962659824457922
0.0257305384239972 -0.131935356534991 0.962659824457922
0.0393663729273961 -0.130244015440063 0.962659824457922
0.0446286299768935 -0.128132679204669 0.962659824457922
0.0751785416234502 -0.133309354002969 0.962659824457922
0.0795899440162152 -0.132688298165897 0.962659824457921
0.109395429278003 -0.136642559148847 0.962659824457922
0.125124346622613 -0.140394946791289 0.962659824457922
0.132528114444453 -0.134861201332739 0.962659824457922
0.160459271611576 -0.133878790376123 0.955928168568669
0.155906681783863 -0.134875351458639 0.971692646604122
0.154121588300842 -0.134956123042234 0.979770836786686
0.147862017914664 -0.139253420657232 1.0
-0.22299255547384 -0.106580460695296 0.215914501998622
-0.221153381441933 -0.111020619586691 0.223406405130194
-0.22084918306267 -0.111755019439559 0.22502458003456
-0.221354529731183 -0.110535004658733 0.239742319446688
-0.219442317362696 -0.115151493692873 0.244869957482914
-0.221443995467669 -0.110319015264341 0.257635212841036
-0.220176754694013 -0.113378405126895 0.267083869468691
-0.220686521845719 -0.112147718355595 0.274866083592832
-0.219654438444186 -0.114639388101075 0.284291404501368
-0.221523207972972 -0.11012777935973 0.291658881550382
-0.219311709530431 -0.11546680889288 0.295402762728791
-0.222253766666356 -0.108364054654053 0.32073808039606
-0.220918877487916 -0.111586762212908 0.321175543515717
-0.222337370319764 -0.10816221758013 0.338344488020848
-0.222962367622381 -0.106653340615709 0.345970469795599
-0.222813682428716 -0.107012298426777 0.347577537046973
-0.222050377470084 -0.108855079610134 0.366976242504335
-0.222670132492016 -0.107358858630835 0.371339723112037
-0.220504307901256 -0.112587621731568 0.38376999269059
-0.220742331148737 -0.112012982779342 0.384995994510693
-0.219916841351245 -0.114005891444048 0.390269402815237
-0.221239660456933 -0.11081232361853 0.407911514942722
-0.219421521003154 -0.115201700546126 0.412727579268324
-0.221068736694438 -0.111224970084077 0.419444659407456
-0.219313224284006 -0.115463151954255 0.432129530232537
-0.220418705567668 -0.112794284046287 0.450211911500617
-0.219972400686289 -0.113871759343865 0.450304355779814
-0.221319794489439 -0.110618862950445 0.459380875771958
-0.222603803920589 -0.107518989967549 0.468148899501412
-0.219935875887364 -0.113959938008795 0.476326918630219
-0.221867652680619 -0.109296216275042 0.488607734959498
-0.222144573777881 -0.108627669606323 0.497096565526515
-0.222040872912807 -0.108878025641216 0.512609684394173
-0.222309000614512 -0.108230708107313 0.520383122785226
-0.221006049723536 -0.111376309819413 0.527777569361924
-0.222326988205646 -0.108187282220842 0.536507924566667
-0.220614415975282 -0.11232179732593 0.542589056528953
-0.221875772484756 -0.109276613333769 0.557855804095675
-0.221195293548592 -0.110919434810367 0.563717386513428
-0.221693105595224 -0.109717610215875 0.568578266654757
-0.220931941597029 -0.111555222663506 0.581697451555832
-0.219519261549863 -0.114965733992668 0.596633248568765
-0.219590900839068 -0.114792781449072 0.597263816870532
-0.21980709957517 -0.114270831528206 0.613363488196041
-0.222212229887668 -0.108464333308499 0.625602989579774
-0.221607637259849 -0.10992394903029 0.634175220344355
-0.222165286831145 -0.108577663872215 0.632249143036919
-0.222805206605875 -0.107032760873231 0.653667875915615
-0.2201392085987 -0.113469049419412 0.654286781418732
-0.219364637210945 -0.115339030168758 0.658812701563983
-0.219570890822062 -0.11484108990351 0.669734800225859
-0.220089275039282 -0.113589599695778 0.685145072737467
-0.221347413339674 -0.110552185147632 0.693312881271665
-0.219927778594588 -0.113979486602833 0.698736267198691
-0.219602900464985 -0.114763811789438 0.714281228100486
-0.221841251086607 -0.109359955361374 0.724223653256337
-0.219096760183457 -0.115985742521568 0.725533315510421
-0.219739724204352 -0.114433490062204 0.741743036352786
-0.221259813938866 -0.110763668809116 0.751507135692953
-0.221632540906154 -0.109863826309627 0.763352517418194
-0.219427990551756 -0.115186081674149 0.768628830022107
-0.222974954365352 -0.10662295353012 0.775465747513234
-0.220439265875896 -0.112744647071318 0.78543109074981
-0.222856240793239 -0.106909553445953 0.793028567514035
-0.219907473034242 -0.114028508562011 0.804510795127798
-0.221543370019039 -0.11007910387467 0.818911315393147
-0.222478631026829 -0.107821184065306 0.827651811047572
-0.220316974490576 -0.11303988459232 0.833085819469216
-0.222060547474831 -0.108830527046744 0.836676615431342
-0.221016627547198 -0.106615304503664 0.85612276531907
-0.216561031593758 -0.115022068946586 0.858843958809875
-0.214496040361023 -0.114032160058149 0.865763026995048
-0.214151757807646 -0.11373270435528 0.867072244554809
-0.211686759474989 -0.110379174496479 0.877846525494204
-0.209451069060931 -0.111508674246927 0.882788609023568
-0.206438898919421 -0.110636132246207 0.892219662119898
-0.202152118514568 -0.112559633227941 0.901976261334399
-0.200925073728176 -0.111108947014707 0.907086364403515
-0.196495987490632 -0.109170115946523 0.921713200969626
-0.192290399165319 -0.115935956163223 0.922271921644886
-0.193085642724184 -0.107838606817192 0.932788837210134
-0.18798738779362 -0.109732935142897 0.944027952662858
-0.187642608055091 -0.10894214458359 0.946312300419053
-0.182192595765197 -0.108912104665815 0.959450920933172
-0.178927528699633 -0.114089115431361 0.957752755062076
-0.17774443966649 -0.109969153049266 0.968182024377312
-0.168427139611831 -0.116845496555789 0.977882589319566
-0.173068850972385 -0.110263569582793 0.986553019014432
-0.170439713742141 -0.113689927929928 0.99372528713574
-0.165033129537629 -0.111038918920173 1.0
-0.103489325392585 -0.120298698244674 0.962659824457922
-0.0837382677396318 -0.115270345482735 0.962659824457922
-0.0734021135524606 -0.12143939680606 0.962659824457922
-0.0680459343439202 -0.120251910253737 0.962659824457922
-0.0526635961772144 -0.12095849358755 0.962659824457922
-0.026077761285137 -0.115769352170843 0.962659824457922
-0.0157474703693158 -0.115231993817784 0.962659824457921
-0.0136528596327737 -0.118554597822407 0.962659824457922
0.0149445867750336 -0.118266391745128 0.962659824457922
0.0191878548690201 -0.116778913446827 0.962659824457922
0.04230923321319 -0.117754014569442 0.962659824457922
0.0541103934799083 -0.124769727180295 0.962659824457922
0.0773833194733232 -0.124570731587076 0.962659824457922
0.0798137637384139 -0.126241193266789 0.962659824457922
0.109438901114585 -0.121138607976718 0.962659824457922
0.121798909625489 -0.128079515893649 0.962659824457922
0.137740294136586 -0.123783344143263 0.962659824457922
0.161924241700186 -0.131426018161927 0.957664088386158
0.162597629155141 -0.127265328377537 0.968148579693453
0.162345802147021 -0.126083651213937 0.972970270480001
0.157360585001065 -0.130734980359956 0.991068459423524
0.155549048654558 -0.121818946212294 1.0
-0.226484507932906 -0.0981501417094557 0.211688798077071
-0.225996247397345 -0.0993289069163799 0.223599431320038
-0.225147851453163 -0.101377115911083 0.236406967504212
-0.224921951259374 -0.101922487222674 0.241340595558922
-0.226631353904609 -0.097795624172991 0.255085747570954
-0.224297778077941 -0.103429374582557 0.266894537981134
-0.223797720703315 -0.104636619878346 0.27400925894356
-0.224416224895755 -0.103143418668573 0.27624542412199
-0.225578915948314 -0.100336434160634 0.294567571992378
-0.223544440067484 -0.105248093424455 0.292745304925935
-0.225833181810277 -0.0997225820682336 0.307013211838071
-0.223878408448888 -0.104441822428667 0.321331210053626
-0.223350509890349 -0.105716282288249 0.321018794391125
-0.223258722474107 -0.105937876713395 0.329530945378153
-0.224767403250712 -0.102295599121223 0.349918277598221
-0.223411852697083 -0.105568187652278 0.347722423976361
-0.225039641856176 -0.10163835698771 0.362195485302046
-0.226958601731468 -0.0970055780311293 0.373564084632096
