ply
format ascii 1.0
element vertex 844
property float x
property float y
property float z
end_header
0.0556140674290079 0.0211492539476163 0.128738260165207
0.0980734786703344 0.0206043230414553 0.184264463226187
0.0980822188681301 0.0205607535337774 0.203048413319487
0.0973537548690604 0.0241921150361812 0.206414811041192
0.0984130489444621 0.0189115799238784 0.210122812379001
0.0984618136766022 0.0186684898450334 0.221064748763425
0.0980035312501136 0.0209530079034478 0.226875732589016
0.0987342692482794 0.0173103106139847 0.240818579896934
0.0974047117372541 0.0239380972540015 0.259044098875036
0.0973742362949914 0.0240900160144925 0.257011241221488
0.098836367888692 0.0168013533110625 0.280125471891406
0.0985229931362753 0.0183635128868334 0.283012069093688
0.0984588509939012 0.0186832586900545 0.293185132756621
0.0991019929982935 0.0154772236377902 0.298203314913754
0.0974081990692785 0.0239207130548172 0.312366137650452
0.0982789674749833 0.0195799702452553 0.32856349712886
0.0976278093131829 0.0228259654952009 0.328487390795583
0.0990244889224105 0.0158635781011584 0.339442460278271
0.0991300736173815 0.0153372429671604 0.354965438212887
0.0976945198146975 0.0224934165328445 0.35705281428814
0.0983116170599949 0.0194172134772756 0.373489395959333
0.0975730653726203 0.0230988616692106 0.372432793265968
0.0979525591790007 0.0212071014715207 0.396567504828042
0.0982913062648135 0.0195184619120628 0.396291279794895
0.0974301005431442 0.0238115351556448 0.405550520322048
0.0980614483687698 0.0206642935739988 0.415128632789668
0.097920539636844 0.0213667175031435 0.431452953594074
0.0982208096451478 0.0198698845095132 0.441244208098209
0.0986040946645482 0.0179592252790269 0.451214949717223
0.0987224482283783 0.0173692378864943 0.454413707345888
0.0981302507430608 0.0203213167163997 0.467080061406013
0.0976754277471754 0.0225885896630054 0.473387353561522
0.0990111998137268 0.0159298237327004 0.488265278256105
0.0987145899134387 0.0174084112463063 0.499417623913033
0.0989875379134586 0.0160477772812863 0.501453478112313
0.0974082426861472 0.0239204956266135 0.515249935606421
0.0983118646105337 0.0194159794485521 0.519984043099731
0.0985063083854579 0.0184466856474283 0.532701047866714
0.0986840208403593 0.0175607967523684 0.5478935955612
0.0982898737146003 0.0195256031128624 0.551977834194761
0.0991361330808528 0.0153070368040517 0.562043459095637
0.0974106827176276 0.0239083321753043 0.565400168667062
0.0985325734908162 0.0183157552341515 0.57943974295889
0.0986656118340288 0.0176525648520548 0.593776454514882
0.0981729723345519 0.0201083514321045 0.594421433132696
0.099171249847876 0.0148292527702216 0.615585670710203
0.0977575268329046 0.0221793292744599 0.620174841343517
0.098067776591841 0.0206327476559168 0.634074433754393
0.0974168196282941 0.0238777399412822 0.634676014735782
0.0991686190617988 0.0147880890850941 0.652333177903348
0.0985911978789882 0.018023515196782 0.652273242710312
0.0977768024985499 0.0220832409156055 0.671300774148389
0.0983183096321804 0.0193838512946295 0.679088128273691
0.0988905346086534 0.0165313345567646 0.684432516831347
0.0982488339533122 0.019730184546399 0.704761663911544
0.0982691389441663 0.0196289650459346 0.71261807072223
0.0990520707734972 0.0157260837674225 0.719478033495157
0.0978002360187428 0.0219664258318059 0.731144206993268
0.0982938336433839 0.0195058630392913 0.741848967801044
0.0984246498825225 0.0188537497498161 0.751317761232729
0.0982067189970319 0.0199401257804307 0.760526420929432
0.0989273705885223 0.0163477087916345 0.767786425566215
0.0981118296511603 0.0204131450621336 0.778120495705933
0.0974871346919836 0.0235272223925126 0.785884344517082
0.0990244368872021 0.0158638374944174 0.796168232609877
0.0975978142997461 0.0229754893387927 0.79828603322629
0.0991423542918785 0.0152760243363863 0.807696952362932
0.0986389306750035 0.0177855692748526 0.820609318356089
0.0975450035678693 0.0232387485511846 0.82531595602302
0.098232062492509 0.0198137895525177 0.850704188797385
0.0983526638759462 0.0192125968765431 0.848390949469505
0.0974084998370866 0.0239192137403098 0.856976622151633
0.0990864253557936 0.0155548276617799 0.878129135443693
0.0991640441595792 0.0147165059806741 0.883815478861956
0.0984606864025535 0.0186741092573706 0.886870023622222
0.0982084949848899 0.0199312725578357 0.899220427668195
0.0981280305765599 0.0203323841503028 0.913943387030618
0.0983028619206708 0.0194608574678213 0.919424507374821
0.0984769671580757 0.0185929503958339 0.928587279500105
0.0975431869504486 0.0218368686484951 0.938934059880081
0.0927519087424116 0.0216724174596804 0.94499303831391
0.0859642335085203 0.0188295417470555 0.954234183543471
0.0854624373717213 0.0188916688277551 0.95484875546107
0.0772054653416501 0.0223623329004508 0.964344577573795
0.0718340518020576 0.0194514969721312 0.971824108984951
0.0669087455648587 0.0210255773026942 0.977613403035379
0.062801679419729 0.0166232137808175 0.983880776888703
0.0604331930728467 0.0214796328576887 0.989860444681531
0.0585879520384766 0.0224845184258926 0.99425916404835
-0.346549684437835 0.0255939046349098 0.736922672585254
-0.346399673224455 0.0279411172822659 0.747829088291692
-0.346649353996368 0.0240343835626285 0.759638672002675
-0.346648118914856 0.0240537087775853 0.771237290039542
-0.0812223120411663 0.0230405777265599 0.951413915953009
-0.0856061991484055 0.0249432362871974 0.959037080965262
-0.112863999785617 0.0161012495952473 0.957584244762954
-0.124696287011714 0.0158485224883105 0.959273502813865
-0.135236562501934 0.017792905425291 0.960396243098335
-0.154488574829536 0.0243532099137241 0.961922844256773
-0.161019235939948 0.0160534734870276 0.970339317240626
-0.168833153239037 0.0207116866017289 0.971351271141423
-0.205603529196729 0.0231536272161725 0.959581269237728
-0.226228947898132 0.0250705681627557 0.959586307154426
-0.236482757683254 0.0229425650848359 0.959586307154426
-0.254491594336306 0.0180940515715124 0.959586307154426
-0.26381941530363 0.0180803933356809 0.959586307154426
-0.303048492417566 0.0187610137992811 0.950471356800304
-0.302511921402714 0.0271566946546451 0.970443939487585
-0.302580533416348 0.0260831283356124 0.978553002931653
-0.302707346954724 0.0240988877283663 0.984804987809135
-0.303767727173182 0.0275447144080649 0.993753034525216
0.0544945282887277 0.027493984360731 0.131632323766001
0.0966104044066694 0.0278976849138513 0.17858165502024
0.0963054102143673 0.0294180677602176 0.179008674558476
0.0973263484245207 0.0243287349758699 0.200094220515005
0.0957715911596665 0.0320791326405209 0.208330451988532
0.0973039233690018 0.0244405229069208 0.209716626551788
0.0970046494295665 0.0259323905403596 0.216004143151573
0.0970065773088971 0.0259227801453488 0.229240829109154
0.0958988856810702 0.0314445749615122 0.242274824723187
0.096618487876262 0.0278573891678409 0.248307874951278
0.0970456993612459 0.0257277584078629 0.267287479810179
0.0958394229298177 0.0317409942025474 0.269074165868808
0.0963104514758449 0.0293929372899769 0.280054068190947
0.097241169263289 0.0247533494074678 0.294228662470302
0.0965506992346612 0.0281953126118582 0.303414408917429
0.0955725387022161 0.0330714005245485 0.311288635462791
0.0960582195738989 0.030650302402835 0.315035693133214
0.096927189593509 0.0263185244701108 0.323337209242113
0.0970976211669145 0.0254689304541388 0.337112527934277
0.0955555108889898 0.0331562834363968 0.347396256960262
0.0968945729599304 0.0264811169766254 0.356408686937255
0.0963053760924928 0.0294182378562872 0.371879253765155
0.0972075918784646 0.024920731217356 0.38030284991124
0.0970934085409929 0.025489930212008 0.386844331930669
0.096411882211151 0.0288873094650969 0.40197867347869
0.0962422818381722 0.0297327599829187 0.401315401778447
0.0955888747856941 0.0329899658555429 0.409705074623535
0.0967425821721681 0.0272387844744072 0.419417383840102
0.0963969994809448 0.028961499230946 0.435134153212562
0.0955462268827332 0.0332025638057092 0.440852983507096
0.0956460414983987 0.0327049922672834 0.45265212465128
0.0954071712864765 0.0338957499337594 0.456816453883354
0.0968783183146645 0.0265621456796627 0.470258331146339
0.0964124924362284 0.0288842675194987 0.48733574990781
0.0973589739532211 0.0241660981275572 0.497624035424616
0.0962967288121433 0.029461344174514 0.496856782648914
0.0966964526224696 0.0274687382828476 0.507809682517112
0.0973018165291576 0.0244510254123458 0.522974971954418
0.0971909633001321 0.0250036239605456 0.529872954291196
0.095928828335853 0.0312953121235438 0.539585243929537
0.0972697728058438 0.0246107619859917 0.552092617708375
0.0958976819493989 0.031450575511786 0.562849267369108
0.0965653736115144 0.0281221614784533 0.566717059840327
0.0966908683067593 0.0274965758549377 0.582069253570398
0.0964809700304923 0.0285429096762808 0.593595067545624
0.0956050463818378 0.0329093511487872 0.600948353732428
0.0964089081672705 0.0289021349451036 0.612304905713667
0.0963965756833993 0.0289636118433668 0.624001880182201
0.0965650837446312 0.0281236064523199 0.629812612519336
0.0959365354148138 0.0312568926685407 0.642168395794516
0.0968835053024251 0.0265362887702041 0.648895470920667
0.095849756941708 0.031689479600599 0.654523680853402
0.0959879116343738 0.0310007844379504 0.669735799625248
0.0956799029844912 0.0325361942248717 0.678866604246696
0.0954103863091254 0.0338797231850229 0.690913478309375
0.0966512549925066 0.0276940465117488 0.697781238560145
0.0956313687599588 0.0327781352332668 0.70524914157866
0.0963098048046078 0.0293961609180979 0.7185296178953
0.0970098572713743 0.025906429674378 0.719806037656949
0.0961673797475045 0.0301061436626182 0.733037278802826
0.0972719753421925 0.0245997824376338 0.745078803860104
0.0961868434606314 0.030009117895203 0.752204487172603
0.0962240192920224 0.0298237979849463 0.760522166434782
0.0966779400301021 0.0275610227544451 0.769901923515361
0.0973291443123535 0.0243147975960515 0.784500530713085
0.0963587311359608 0.0291522652741732 0.798634414694606
0.096551926447511 0.0281891950089251 0.798949506282209
0.0973146851490612 0.0243868758991685 0.815695503102473
0.0956379806237716 0.0327451753783697 0.820851915841383
0.0963470478969427 0.0292105057149474 0.832151257791982
0.0955696328721542 0.0330858859616183 0.845872855414607
0.0969013811398459 0.0264471784944508 0.854036473198648
0.0961998372021948 0.0299443446559683 0.864491301374376
0.096769788604641 0.0271031615862125 0.875520516975942
0.0963303358120857 0.0292938147345425 0.885637185512043
0.0966719086610277 0.0275910888682039 0.885838638705123
0.0954924605835048 0.0334705864799852 0.898151633501257
0.0961003725097131 0.0304401718424721 0.914438119893004
0.0959232465300949 0.0313231371836286 0.914897607371
0.0965206302147662 0.0283452053744395 0.925333909708428
0.0966501425563642 0.027699591957765 0.938157070413035
0.0900336262665841 0.0266241691196073 0.947159459474913
0.0833439591392882 0.0338851989415917 0.953731879060505
0.0826326289093574 0.0305659685454343 0.955461530511753
0.0777865491170356 0.0308692890407887 0.961471483333462
0.072057897737493 0.0298525944763824 0.968922462718944
0.068196340851672 0.0245223602032453 0.975115265167181
0.0616725278956008 0.0256958097950511 0.983013120771132
0.0585452205481971 0.0319799819165384 0.985357554235502
-0.346210313913227 0.0309040062569901 0.723723401208597
-0.346019080251257 0.0338962230377392 0.733274072411563
-0.346349379501573 0.0287280588699743 0.752030547734644
-0.345885473163946 0.0359867617251246 0.759990582217976
-0.346027107988275 0.0337706137220542 0.768563657934193
-0.0822223936613301 0.0270876230722178 0.957417718273683
-0.089131423262625 0.0289387049733591 0.958823485702039
-0.118394620062109 0.0274413485701455 0.956355987214571
-0.13387129036433 0.0334814428306233 0.957443639373325
-0.132752347773593 0.0277312444931305 0.95830073668381
-0.151026234424038 0.0281380455790518 0.961671316290874
-0.157606140755824 0.0357706510841507 0.967138703084553
-0.196895399174714 0.035477533465553 0.959581173445161
-0.193003118946734 0.0302600228494105 0.959581581283753
-0.213290808784397 0.0278023197163103 0.959586307154426
-0.229314829880915 0.0322058996544812 0.959586307154426
-0.247814679386476 0.0352884116190839 0.959586307154426
-0.281392655755442 0.0376081888475065 0.958849193955347
-0.302222055782341 0.0316921972670427 0.954336861513011
-0.302485357888053 0.0275723317004823 0.967176717089044
-0.302315521001648 0.0302297549608808 0.97150153465585
-0.302080402844099 0.0339086286969751 0.983512249167492
0.0526793471573834 0.0370223065338266 0.127952876567979
0.0307353571172564 0.0350377152469197 0.114025044712511
0.0953226817641342 0.0343169265453454 0.18574870874144
0.093678925093775 0.0425109823939299 0.199154066712257
0.0938118589115844 0.0418483130664441 0.207022581340835
0.0953827430162093 0.0340175238036198 0.222769679217311
0.0948530839927321 0.0366578511083468 0.229523961826503
0.0942104251840671 0.0398614774508236 0.243181611309864
0.0941435580357036 0.0401948072909429 0.246483271822609
0.0948591877514886 0.0366274241351551 0.259754462881817
0.0947643755955776 0.037100058628247 0.266503766494638
0.0937741214959969 0.042036432449613 0.270441431666056
0.0954146430038459 0.0338585037460991 0.28435292300939
0.0950482578368865 0.0356849179437101 0.296841094771297
0.095325105884034 0.0343048424125794 0.30529051982586
0.0951096778656792 0.0353787417588637 0.324082233593665
0.0946259831384869 0.0377899390362628 0.324178206530588
0.094631027324594 0.037764793986865 0.334825991535012
0.0951270998775371 0.0352918937838986 0.34910574718064
0.0939345337901967 0.0412367841067774 0.35595153792679
0.0947785839482951 0.0370292306049865 0.370112587915031
0.0935665738821904 0.043071048320343 0.366562025406236
0.0934743359842477 0.0435308502488918 0.380223681218235
0.0953208963556195 0.0343258267295077 0.397818392609631
0.0937446409231865 0.0421833918289495 0.397395399640417
0.0935989104886355 0.0429098517369665 0.41003994706582
0.094194629063713 0.0399402204270229 0.425945032758488
0.0945310170499764 0.0382633408767013 0.436252358172509
0.0943487317612168 0.0391720251505979 0.444638439740071
0.0944856197422292 0.0384896444907078 0.446667894497243
0.0937569742985707 0.0421219104865323 0.459898715248908
0.0943446128305366 0.0391925578417404 0.470090029716749
0.0944527933441593 0.0386532826641329 0.48308788958056
0.0948251313244593 0.0367971939497033 0.486266989097224
0.093532621901602 0.0432402974738975 0.495457261999462
0.0943332886385256 0.039249008448727 0.516909365442093
0.0941439356076817 0.0401929251109758 0.522693134469489
0.093934949502901 0.0412347117969444 0.534029224964808
0.0951396561124572 0.035229301496341 0.532280123065462
0.0944949925327309 0.0384429215357736 0.549398785239473
0.0936679040295853 0.0425659219218486 0.565268539390971
0.0947649253095897 0.0370973183276917 0.5748391732992
0.0949070811755845 0.0363886774891966 0.572177518523198
0.0938401600079747 0.0417072333260063 0.589969385114619
0.0943839727705886 0.0389963502443521 0.597393580421771
0.0944864878657456 0.0384853169325588 0.606100494306448
0.0942810892888941 0.0395092199470932 0.618983348059956
0.0942053786232609 0.0398866343379921 0.633055470267982
0.094088719904813 0.0404681729996584 0.637126104234003
0.0943403331647781 0.0392138917902941 0.641009003198444
0.0939357604362548 0.0412306693292778 0.652714743701143
0.093833014043402 0.0417428556500713 0.664543024773581
0.0943169090104459 0.0393306601856811 0.679852686411048
0.0947000938358382 0.0374205004179907 0.68427659223406
0.0939957818434333 0.0409314652126332 0.691184963869679
0.0950551215558857 0.0356507026016092 0.705768226853699
0.0935914784010859 0.0429469003716863 0.716294605962645
0.0942344648390834 0.0397416408111699 0.725440175980314
0.0937654030332074 0.0420798936092214 0.731167815790147
0.0936814722091957 0.0424982851338152 0.745983347958064
0.0935895051908498 0.0429567367393015 0.745631999063034
0.094213150420459 0.0398478922653762 0.761264665723761
0.0943962465966317 0.0389351657528265 0.771693596414974
0.0940725439918722 0.0405488092254638 0.780902355240697
0.0944981689517719 0.038427087224356 0.793925972115492
0.093787284770666 0.0419708140951838 0.797004584996993
0.0950276882795153 0.035787456296816 0.808863808701039
0.0951358974499409 0.0352480382662837 0.819741396501395
0.0952998888332005 0.034430548319415 0.834157995185802
0.0947438261803212 0.0372024965737818 0.842730726221859
0.0952193838774227 0.0348318620391573 0.854563825787294
0.0945571675104057 0.0381329819634337 0.859521561250694
0.0951113526266152 0.0353703931480896 0.867694914495426
0.0952807943364764 0.0345257335590421 0.87709057388356
0.0941318269292544 0.0402532863487903 0.880907848410212
0.0941170856167176 0.0403267711536795 0.900235302528306
0.0936672728290818 0.042569068429033 0.903333296146953
0.0942819746638357 0.0395048063913336 0.924109531858196
0.0943248325812085 0.0392911615284152 0.925771037111372
0.095290633928866 0.0344766836169056 0.938275229149518
0.0885345676040426 0.042498660005805 0.945042676736674
0.0825625698113137 0.0343318820546183 0.954600715371209
0.0821109307442405 0.036916714249086 0.954516708930388
0.07503012217854 0.036858192064284 0.963424505928156
0.0688669492763955 0.0356781782516187 0.971462364713824
0.0662535575047704 0.0407233102559397 0.973473522953991
0.0594889031706962 0.0417463964126225 0.981711743653882
0.0564508713953321 0.0411642984773089 0.986857900141172
-0.343339328619543 0.0495968859121239 0.727647998662982
-0.345582762001495 0.0407232574376221 0.734175803316077
-0.343501023412226 0.0491179911201655 0.746315239262504
-0.343679276867147 0.0485900541978119 0.762334905604223
-0.343246459823093 0.0498719373359689 0.774857874485829
-0.0945947006376469 0.0385628140134608 0.95156887870608
-0.344043498101172 0.0475113326805536 0.790739756128629
-0.104168678176858 0.039302522085762 0.959088629288349
-0.117422862069876 0.0416137173215026 0.960524020124464
-0.140977260607302 0.0444276836891939 0.963302655959524
-0.147639401903974 0.0440664541428277 0.964292343661333
-0.151249724791479 0.0373834222630025 0.965971110616516
-0.197198735141457 0.0398195944168849 0.959580976311653
-0.199160966791387 0.0480727233787004 0.959580534461655
-0.217874434577808 0.0377279146980112 0.959586307154426
-0.231378886174964 0.0423654416981325 0.959586307154426
-0.257313177721724 0.0467890704311645 0.959586307154426
-0.27609568461933 0.0382519366952949 0.959586307154426
-0.300555871757877 0.0392399637267601 0.957459935949531
-0.29861904037539 0.0449763170538148 0.972561829394864
-0.297872699784215 0.0471867693275719 0.971872112962412
-0.300181583602147 0.0408455802873513 0.989401350403512
-0.300892356766741 0.0412737495285442 0.99350001846045
0.0291072467856786 0.0453374643207709 0.113862380039711
0.0921936969363687 0.0499147804676522 0.185610449832826
0.0916784187540817 0.0524834199015492 0.190964096936806
0.0928936525812617 0.0464255318767854 0.197000148635739
0.0922476421104062 0.0496458661101985 0.213007960274866
0.0924516046427088 0.048629121715576 0.222788228629509
0.0924923305979758 0.0484261045914737 0.228780227749732
0.0921712728373965 0.0500265636303583 0.237765557129025
0.091771663783039 0.0520185974684866 0.24675753320244
0.0914825395172549 0.0534598694181212 0.250045494247565
0.0926201331520148 0.0477890143917636 0.259944069263236
0.0924163922467166 0.048804653985364 0.274818042826555
0.0934434190156501 0.043684969999049 0.285559771435588
0.0928863866373541 0.0464617522926386 0.296219544958671
0.0926258542944783 0.0477604947442362 0.307301944284836
0.0920112292231991 0.0508243741193392 0.314439311679
0.0915435424753359 0.0531557723127189 0.325629895434296
0.0920652849359204 0.0505549087313273 0.334874874652952
0.0929177534270164 0.0463053902039475 0.343517393475154
0.0919155835651291 0.0513011635846109 0.361374919004494
0.0918446968950826 0.0516545305663287 0.367709364057843
0.0917600422518767 0.0520765302982727 0.37328875919344
0.0933554381280483 0.044123550915323 0.384888708491745
0.0919852971081803 0.0509536445901854 0.394497686246785
0.0931085026835807 0.0453545134169194 0.402181527679216
0.0918836638410736 0.0514602820273229 0.41094984418687
0.092886838257108 0.0464595009877183 0.415767956464244
0.0921572490734185 0.0500964714867415 0.434366152461236
0.0915015574004738 0.0533650660935023 0.440208801659244
0.092353449064963 0.0491184230217883 0.444838303119776
0.0918894119603587 0.0514316279015045 0.466927237982047
0.0926801633859675 0.0474897662740364 0.470743882366188
0.0927857686446817 0.0469633286306719 0.479673156753406
0.0928937482156797 0.0464250551433485 0.48784085928889
0.0931385419643597 0.0452047689025456 0.495541918961148
0.0922026424603435 0.0498701874178617 0.504805369895525
0.0921085194587467 0.0503393865065271 0.51541925420085
0.0925203206425718 0.048286575430765 0.520233198090772
0.0930806421810584 0.0454933968159969 0.542424761197405
0.0927528767055854 0.0471272935232742 0.548168342453159
0.093220395236342 0.0447967338848897 0.561564892508251
0.0932573048502679 0.0446127410571709 0.565845496260889
0.0923401374800675 0.0491847806962744 0.577853138939241
0.0918349552367714 0.0517030923113239 0.581172708103857
0.0915938751759875 0.0529048659787187 0.591682701307415
0.0933543733451892 0.044128858811787 0.612292871351871
0.0924456190637021 0.0486589595678277 0.623205373510668
0.0927421710767849 0.0471806606194333 0.626267403444867
0.0924337855677846 0.0487179490327432 0.638425269612205
0.0919892706564696 0.0509338366239651 0.647652310857253
0.0930526905684802 0.0456327343947612 0.656969710809531
0.0925204074097871 0.0482861428999523 0.662379444824218
0.0932080230118402 0.0448584088884751 0.677688527427025
0.0924207236986171 0.0487830618851332 0.686092371308815
0.0928452369086877 0.0466668819087989 0.699521040427399
0.0924607311117848 0.0485836266622881 0.698712763668174
0.0917681865888159 0.0520359311311714 0.706736852801853
0.0921666897252779 0.0500494102458831 0.721168919976504
0.0927391130098057 0.047195904950949 0.734110728685184
0.0920193477769972 0.050783903480084 0.747999575917568
0.0918097455915334 0.0518287613015888 0.756380700451878
0.0927398627140728 0.0471921677076307 0.762468186030008
0.0925512551462433 0.0481323682690215 0.7694218887632
0.0932055992371314 0.0448704913004803 0.78372925228637
0.0933182470074921 0.0443089470414069 0.784773774004805
0.0932573507258414 0.0446125123694241 0.793748254976762
0.0917440400547555 0.0521563005582356 0.809820778433232
0.0917254494740982 0.0522489737980808 0.817017163776505
0.0930603093384932 0.0455947551560408 0.828453110137754
0.0916556676761705 0.0525968330401106 0.839643952899726
0.0925083908289745 0.0483460450351413 0.85293245678977
0.0932764737048698 0.0445171851467425 0.862326013886222
0.092368791952716 0.0490419393904857 0.866856415393766
0.0920459356314131 0.0506513641767254 0.882766486066071
0.0927055620220203 0.0473631551727399 0.883823208408655
0.0934172849986097 0.0438152469427356 0.902930357396622
0.0922258511841172 0.0497544929344859 0.910784427552176
0.0927224691967679 0.0472788736384825 0.908600220647691
0.093203299697421 0.0448819544063966 0.923190842110834
0.0920726698303382 0.0435857446118137 0.940325155596333
0.0886454791289385 0.0454392253101562 0.944162516586061
0.0799260892312945 0.0532484764848866 0.953146019089366
0.0772176299476704 0.0487606317712053 0.957678366821013
0.0729060777146047 0.0513083649746563 0.962451516771755
0.0677692048498234 0.0505262668343746 0.969100153848461
0.0634345738646021 0.0489859655573755 0.97493225118419
0.0583816587625164 0.0489746666319104 0.981281243164929
0.0552483451087876 0.0471084008794518 0.988890823707535
0.0539641998057349 0.0477765559860172 0.993885284233172
-0.34315895273444 0.0501311088795881 0.738513080270477
-0.339459744666453 0.061087129470815 0.747799860680275
-0.342104750425034 0.0532533615339152 0.762097401934523
-0.34125860214155 0.0557594163020437 0.767488272970812
-0.341002509910829 0.0565178899270668 0.778911038877741
-0.339436256264571 0.061156695553596 0.788728572675975
-0.111202439682526 0.0475789882888186 0.958608836278122
-0.113783177562876 0.0494092013978971 0.958645263801134
-0.140883235685292 0.0476119858921285 0.962728815735248
-0.342515128597376 0.0520379360634505 0.837123832008026
-0.178216559135845 0.0499280428483782 0.959581471489779
-0.191447550838088 0.0564372440335588 0.959580556819932
-0.207610947456646 0.0546158699234173 0.959586307154426
-0.219396122520659 0.0528664606922966 0.959586307154426
-0.226372241855585 0.0553221226930251 0.959586307154425
-0.253516743434489 0.0506149556187318 0.959586307154426
-0.270704051572152 0.0491286502466089 0.959586307154426
-0.294132507903208 0.0582641725204565 0.958503545729823
-0.296144157302652 0.0523062291343099 0.97083023843061
-0.293930966378734 0.0588610821972165 0.97994829179498
-0.293718619199082 0.0600908892727313 0.989798607692709
0.0906768966325549 0.0574759643245589 0.180936150689933
0.0912158829865185 0.0547891406811066 0.180909683075191
0.090486795223714 0.0584236116187219 0.202593327812742
0.0904791732417579 0.058461606868844 0.209418470418343
0.0906108982265638 0.0578049635215542 0.219325948554574
0.0909432034634436 0.0561484363001776 0.227556920596695
0.0902947168249345 0.0593811141221606 0.233627719402257
0.0900976299120005 0.0603635838518504 0.25226720167245
0.0901846543972288 0.0599297705600072 0.252718008201652
0.090660167132823 0.0575593601565526 0.260967528536781
0.0903710040640623 0.059000825537347 0.273421459214701
0.0909420984970702 0.0561539445097173 0.283323984292309
0.0911853592948123 0.0549412999629849 0.296393279440763
0.0910546854151066 0.0555927035968494 0.30547790173709
0.0913447833437583 0.0541465779799632 0.311457164524727
0.0897142322563883 0.0622748045689757 0.322574786873408
0.0901696865491795 0.060004384634623 0.335352930337681
0.0900019172708399 0.0608407072249289 0.337378118173013
0.0903130839840846 0.0592895546288522 0.344190188791198
0.0913706185375748 0.0540177906571137 0.369513868076809
0.0910778420853235 0.0554772685982007 0.369885582184987
0.0900365713442057 0.0606679581692685 0.382072646923711
0.0908700452996872 0.0565131265797121 0.38798251203822
0.090970333500344 0.0560131942406066 0.394309355087237
0.0907597350868934 0.0570630182155014 0.410558475809567
0.0904753694909385 0.0584805684020283 0.423189655867198
0.09046843932934 0.0585151149576103 0.427881604877973
0.0910528646042948 0.0556017802599294 0.435688676682265
0.0913119845901124 0.0543100783471313 0.449445374693275
0.0902588614829869 0.0595598514496992 0.458383986041779
0.09099296413999 0.0559003814815812 0.468303012551294
0.0905888516396764 0.0579148648028593 0.481924610086467
0.0906573443086335 0.0575734318129425 0.487151692155245
0.0900892423359984 0.0604053955551508 0.498569203178809
0.090529526282041 0.0582105991426608 0.504368031916563
0.0912901121321234 0.0544191116034138 0.512067572708141
0.0900116222786255 0.0607923281812208 0.52997133053394
0.0902545713743137 0.0595812374557324 0.542589744781625
0.0895901323277459 0.0628934373413561 0.545429677628828
0.091235169343852 0.0546929990246459 0.557193004382827
0.0906216456302651 0.0577513881793256 0.566804144267436
0.0908525121981156 0.0566005283320908 0.57079594699311
0.090562304801048 0.0580471996442939 0.58694607658899
0.0903151673838982 0.0592791689709653 0.595142078382817
0.0896762439549865 0.0624641746070684 0.600089403482336
0.0899414457117541 0.0611421553293463 0.609384015035788
0.0909066656401609 0.0563305757676346 0.630000344451527
0.0901576414799566 0.0600644287833039 0.635938292256846
0.0904824987678425 0.058445029265264 0.646157843464476
0.0903639650896507 0.059035914520093 0.64649150120046
0.0900028421598502 0.0608360966932495 0.659236711970801
0.0896985260442179 0.0623530993567716 0.669625752203656
0.0899094099716612 0.0613018521069814 0.683188476125769
0.0905508800821772 0.0581041513733193 0.690697623622344
0.0910697138661266 0.0555177874190492 0.699225908959557
0.0914735800163405 0.053504532142352 0.707172709870823
0.0902926452143974 0.0593914410110137 0.715468884486156
0.0907723779902778 0.0569999938894023 0.733561633279027
0.0911440057349861 0.0551474456686502 0.735988377632587
0.0909863679422448 0.0559332632418125 0.756772913357367
0.0915001592051555 0.0533720360366398 0.757563349609113
0.0908815683502759 0.0564556846713242 0.772049135816772
0.0900609199029076 0.0605465816581146 0.776345985543796
0.0912722674186278 0.0545080667277491 0.785281745628271
0.0912421367811268 0.0546582666514297 0.798316045814727
0.0911246142328317 0.0552441114674902 0.801284217553041
0.0897502261817855 0.0620953764089357 0.823166977183528
0.0912402226888031 0.0546678083188072 0.827976337375474
0.0910979788256493 0.0553768878193308 0.843417337461007
0.0908634011623447 0.0565462473167607 0.847906332064431
0.0895738188451192 0.0629747593460877 0.851882625727084
0.0895937458195077 0.0628754242413374 0.863074313050557
0.0905767203156794 0.0579753389278555 0.871707525858216
0.0903558830602418 0.059076203086849 0.889131496378643
0.0914019354506045 0.0538616772012749 0.896559762809908
0.0912815571108355 0.0544617580142166 0.902090881704321
0.0909913965109682 0.0559081960443978 0.916728804930031
0.0896503516848556 0.0625932464528734 0.929595662412066
0.0895762682383978 0.0629625492266193 0.934152342169552
0.0891002870732333 0.0597333840077478 0.939989957212929
0.0870371249949188 0.0560368777008836 0.943512477867916
0.078853308289776 0.0562948861310641 0.953725835620703
0.0728691825882571 0.0587766111811498 0.96061626367234
0.0706402771303173 0.061741671539961 0.962668595858674
0.0647267717815329 0.055745564851136 0.971606280773067
0.0592558600376393 0.0582526118014726 0.977845764460663
0.0528000146410114 0.0592105288558603 0.990570394701935
0.0508660986539587 0.0634309353370516 0.992529120546451
-0.00969652836052426 0.0649150879296247 0.95958922689067
-0.336936408728376 0.0685605453987822 0.749096754851696
-0.335946844641309 0.0714913577010327 0.765304570219107
-0.339107813338198 0.0621294517214687 0.778578593509742
-0.339203791668517 0.0618451907272361 0.791165514317692
-0.337966177842517 0.0655106570412253 0.800073786674593
-0.337432264442262 0.0670919593360998 0.810075783745208
-0.338555152171529 0.0637662796615903 0.82372639970604
-0.336134842498578 0.0709345605818952 0.834266322410532
-0.162895640084031 0.0617589819453037 0.959581716869691
-0.178753425012784 0.0629705737123573 0.959580897485101
-0.197130927109275 0.0589663589444799 0.959580175137764
-0.211629398192783 0.0682348009737022 0.959586307154426
-0.222699327290481 0.0652377017394808 0.959586307154426
-0.24801202395734 0.0620121944027146 0.959586307154426
-0.255710532350566 0.0614189536285646 0.959586307154426
-0.273040338471009 0.0604985548393522 0.958849193955347
-0.290924749109749 0.0677646576910438 0.963270010962021
-0.291065830661366 0.0673468135589609 0.964255393512291
-0.290502227212068 0.0690160494825215 0.984088013382052
-0.297718752360122 0.0624003839124223 0.9948058474852
0.0415577076242013 0.0720182733105895 0.127136773791676
0.0879100094726579 0.0712687770466279 0.182501935314035
0.0894586882069429 0.0635486805937445 0.192511649611986
0.0878587312824364 0.0715243966052095 0.207435576305387
0.0883275633646395 0.0691872889697217 0.212840658885661
0.0884593161024975 0.0685305072746698 0.225615874939471
0.0880757935174041 0.0704423507598519 0.230066006894533
0.0890443505892898 0.0656141356823495 0.239147535688743
0.0893459498016585 0.0641106766639921 0.250644253784067
0.0885118913832573 0.0682684217759028 0.261573350074262
0.0893933205794273 0.0638745353873482 0.271973248261807
0.0878828952556669 0.0714039402446408 0.284566116137799
0.0882246567259433 0.0697002741091122 0.289600591345091
0.0888694710595917 0.066485902567897 0.303321528811989
0.0888122265832834 0.0667712638043593 0.314127221934679
0.0893902386902582 0.0638898984714484 0.314530806307277
0.0891853532081126 0.0649112437310873 0.331592151912947
0.0892122740721282 0.0647770443892912 0.343934874274682
0.089551026985672 0.0630883757788406 0.349463513472345
0.0894641445072554 0.0635214811728724 0.360068110271249
0.0883363563862924 0.0691434561374056 0.370351453514061
0.0891771324145683 0.0649522240310518 0.38030113446373
0.089489180016639 0.0633966802423062 0.387184179753446
0.0875727212553646 0.072720658586536 0.400970673349043
0.0888087184943432 0.0667887514758699 0.407369204005797
0.0892771360852518 0.0644537100615429 0.422008643838798
0.0889501920909771 0.0660835117206066 0.425727389263282
0.0891974609980532 0.0648508869223418 0.44205342373699
0.0889345385021437 0.0661615441833445 0.449411943178179
0.0891224972108283 0.065224578156704 0.452143523618362
0.0888295740161831 0.06668478760227 0.46353224119931
0.088976160937929 0.0659540581426622 0.478243105922626
0.0895760052984441 0.0629638599709095 0.487742036041348
0.0881739781176407 0.0699529047777805 0.490302712683554
0.0887496825112756 0.0670830432959763 0.509000925225044
0.0886753642902161 0.0674535164109525 0.514912063626459
0.0893279768494881 0.0642002710525667 0.528643211847123
0.0877273965399857 0.0721790946112515 0.529223208552754
0.0887195646881041 0.0672331793407785 0.544444726735936
0.0889806262933194 0.0659317985393321 0.555826129823234
0.0881864247776327 0.0698908587164979 0.558011720895582
0.088182298364257 0.0699114287085561 0.572258397428352
0.0891024829253468 0.0653243485034737 0.584439046445295
0.0886802411498333 0.0674292054768665 0.5927603732305
0.0895250568845713 0.0632178356086651 0.60664305555451
0.088033953371142 0.0706509220778349 0.611125215315854
0.0892690803596478 0.0644938675049738 0.621414692193612
0.0878917360596423 0.0713598692195134 0.631273528652396
0.0895097113248764 0.0632943325594814 0.6433933617442
0.0887253939495324 0.0672041207248914 0.64393297951183
0.0892896354893161 0.0643914010733453 0.663153566523362
0.0884250576996687 0.0687012839298316 0.668779003944823
0.0881678891267251 0.0699832581339197 0.674720009357226
0.0888787564232849 0.06643961543182 0.689237689277086
0.0890396461632501 0.06563758704252 0.700720587558928
0.0892235661422485 0.0647207539085389 0.70659052265223
0.089248281139865 0.0645975507152557 0.725538337666659
0.088449552679872 0.0685791775138298 0.733175837865371
0.0886509275189738 0.0675753326578037 0.743450902443297
0.088915351141711 0.0662571923445427 0.748981557382313
0.0888321092825866 0.0666721494089929 0.762119009160905
0.0891896806566426 0.0648896715874862 0.771144250081664
0.0886222727191468 0.067718175594564 0.782219781467492
0.0880647633771401 0.0704973355316044 0.785092362559266
0.0887288108540799 0.0671870876036302 0.794359384745205
0.0882138764847183 0.0697540131449745 0.806003060751304
0.088794009728349 0.0668620740376552 0.813871882625872
0.0888767525467871 0.0664496046694244 0.828457022202614
0.08820454317773 0.0698005392763001 0.831043922480667
0.0893175910134507 0.0642520439956406 0.848486151199327
0.0895185091578217 0.0632504757430812 0.85788740487679
0.087983781603561 0.0709010261674446 0.864028200823634
0.0882515209630243 0.0695663570501312 0.870615601543902
0.089163798637656 0.0650186923317818 0.880928292467831
0.0876867732153466 0.0723816001261159 0.894102367001027
0.0877699140995372 0.071967146417337 0.909197542642347
0.0891877664315948 0.0648992139164867 0.916115818401882
0.0879200207258481 0.0712188713828322 0.921004952399053
0.0884855411322775 0.0683997766364179 0.931358382580556
0.0871555331738027 0.0679092779062604 0.940372566724518
0.078630432192265 0.0682061899249813 0.951004754594045
0.0777345239453327 0.0697455578091176 0.951563293668423
0.0692126116563906 0.0680765875772409 0.962294565581292
0.0687026847788338 0.0645950857199875 0.964383185760323
0.0623371668728402 0.0700772793187814 0.969049887609306
0.0522287693021836 0.0694221617182532 0.981026044771686
0.0502895916481567 0.070532123765037 0.982621166998519
0.0501393725403854 0.0648423762574835 0.992583503809498
-0.0103412785495506 0.0690084844151578 0.959588805166455
-0.334617507018585 0.0754284842696334 0.753916527361547
-0.334502753178287 0.0757683530778019 0.770155006253073
-0.334739144790287 0.0750682271802938 0.775162806064603
-0.332332493021625 0.082196057204664 0.787910057342776
-0.335420043948134 0.0730515941451096 0.801111656645063
-0.335660217667337 0.0723402667029395 0.808955526364125
-0.33560670545479 0.0724987549230622 0.825275698275494
-0.334119450618449 0.0769035881500321 0.834192024978417
-0.334598273341507 0.075485449046488 0.842167775935738
-0.167649060937611 0.0696768055092658 0.959581153844778
-0.19297559198375 0.0725807670318634 0.959579804492652
-0.205180866570346 0.079142894839598 0.959586307154426
-0.223934880550381 0.0760341877673625 0.959586307154426
-0.233543679919031 0.0721525596095746 0.959586307154426
-0.255901501319027 0.0779653977726223 0.959586307154426
-0.287011604897097 0.0793542973604875 0.951059348844536
-0.287890314332974 0.0767518055578503 0.968012321363028
-0.287089541296493 0.0791234715240114 0.976285103284563
-0.287911411145868 0.0773834977966935 0.987655296438091
-0.291238855788446 0.0776565151649523 0.994866765154405
0.0382784885269473 0.0790835784124196 0.131543042458773
0.0388509528078843 0.0778726611275585 0.131362587616671
0.0833786089384302 0.0811907237605032 0.195055673712404
0.0843038892629834 0.0793221079340966 0.203828403534052
0.0829631650170542 0.0820297182423577 0.210381592359245
0.0846451092568526 0.0786330096533784 0.225179119504636
0.0848344981949839 0.0782505361934476 0.233728792690665
0.0842013966116309 0.079529093196104 0.236451150560818
0.0868144669724483 0.0742519631176066 0.256388925699956
0.0840119790526265 0.0799116244562658 0.262119082026576
0.0854091283494355 0.0770900630131078 0.269969311305093
0.0856226884751737 0.0766587755208158 0.277897216917789
0.0871654787694257 0.0735430901612888 0.296180130919335
0.0847081119611001 0.078505774860701 0.295011856362074
0.0864956258209972 0.0748958670307255 0.308675038519338
0.0853167379443688 0.0772766466554217 0.323543490297147
0.0858758391890367 0.0761475343133258 0.333156464280515
0.0845812055309017 0.0787620640712784 0.338523876494712
0.0833640367524016 0.0812201524824979 0.34525685682163
0.0861085098181524 0.0756776529072607 0.363303519677746
0.0839733236036539 0.0799896896456047 0.366030198813535
0.0849977157060552 0.077920916275848 0.371077803589119
0.0866686788684742 0.0745463841175561 0.389938730625496
0.0856563175015446 0.076590861258255 0.401964826961114
0.0853038132338768 0.0773027482788277 0.398000313599036
0.0843391274468228 0.0792509439567924 0.411208886910414
0.0843319915301487 0.0792653550346877 0.422891399478783
0.086398030700389 0.0750929616647609 0.435052932554486
0.0834943211599414 0.0809570414021015 0.438282208259641
0.0851816066678511 0.0775495460516827 0.457158782907043
0.0827604340129132 0.0824391361806721 0.460573668724699
0.0840544424882839 0.0798258689875626 0.474156749033298
0.0837442106165806 0.0804523863466148 0.476071779071676
0.0850510969171716 0.0778131122155236 0.493518647277204
0.0838509273922614 0.0802368704097802 0.50631192188063
0.087184973833264 0.073503719622592 0.516924849348797
0.0874118014785787 0.073045638199423 0.5211505266893
0.0868319368517878 0.0742166824657287 0.533788232241039
0.0846654201232697 0.0785919915906056 0.539732794571305
0.0871273333709091 0.0736201252970003 0.552854725713914
0.0853429870376242 0.0772236362651816 0.560979003831837
0.0859915856820783 0.0759137827431156 0.56975571367817
0.086520655983584 0.0748453182870577 0.57711257915957
0.0862860403811816 0.0753191275923431 0.5899034667067
0.0872996972225587 0.0732720342238989 0.602462167230718
0.0832570910488148 0.0814361307422592 0.615431943553907
0.0851871490450209 0.0775383531478451 0.614060836522222
0.0854160442804125 0.0770760961992299 0.635525331750921
0.0852927478620986 0.0773250949431641 0.63762381532039
0.0855613102215868 0.076782729713946 0.649778445717217
0.0834174352642448 0.0811123134831285 0.653420614687463
0.0845469658218568 0.0788312116155569 0.667970306596451
0.0849078694019695 0.0781023620726568 0.674939850795881
0.0859555699954602 0.0759865168975424 0.690592404072306
0.083523279027704 0.0808985606059968 0.696521650035428
0.0846666467070275 0.0785895144885198 0.711016718332104
0.0857556486507811 0.0763902606914948 0.71836875897675
0.0867358533083106 0.0744107244498015 0.728137015629909
0.0869266421513793 0.0740254238633737 0.733322794454409
0.0838268789457978 0.0802854365647821 0.74305685336177
0.0840490527798734 0.0798367535748267 0.759020111306357
0.0852449017875977 0.0774217207220448 0.772351067272712
0.0846336933086891 0.0786560643113507 0.777903253491709
0.0826693320027894 0.082623117892394 0.775507147909974
0.0855601749448727 0.0767850224202535 0.793154299759622
0.0864574770973595 0.0749729088815618 0.802237490985518
0.0828002670068654 0.082358692923707 0.810800910656226
0.0859393781794457 0.0760192164836676 0.826759709756693
0.0852563189504357 0.0773986636110214 0.836330565849637
0.0869007172374164 0.0740777795692547 0.839090536463864
0.0846896868357895 0.0785429846444224 0.85841681073554
0.0849629729821662 0.0779910796652429 0.859888801038278
0.0854525846340665 0.0770023024728015 0.87386071485931
0.0835499909271275 0.0808446155725919 0.878048090115581
0.086579871579401 0.0747257316098325 0.898691704825538
0.0837465624828581 0.0804476367216287 0.903989240618131
0.0833395973143691 0.0812695082501335 0.911664373852849
0.0855462816226987 0.0768130801677344 0.921875720009674
0.0846866848111967 0.0785490472727067 0.930074099151202
0.0821474628764914 0.0759465742488941 0.942972741308222
0.0809089118147596 0.0733018851694305 0.945897813668013
0.0748459290085472 0.0756975371593672 0.951495979095731
0.0680429611671773 0.075028763909464 0.959685482864454
0.0631029223394315 0.0793536342991464 0.962897973950034
0.0597732939006801 0.0816666437058715 0.965405404444607
0.0509839828550502 0.0801503779022933 0.97635683207839
0.0477604947756343 0.0777756329915114 0.981407039370438
0.0413744999241042 0.0831133491482502 0.986459958834839
-0.0188121457025337 0.085308477421996 0.959587709810957
-0.329199483566087 0.0914751557242699 0.755906781391802
-0.330601383652772 0.0873231194142595 0.771011794324683
-0.329998236461134 0.0891094728525313 0.779766679528815
-0.330766081861325 0.0868353293437688 0.794721829049235
-0.331717769236157 0.084016697278893 0.79815314397051
-0.330460614901759 0.0877400371183605 0.816556229885165
-0.331378443573988 0.085021685069127 0.8292743562602
-0.330706003661145 0.0870132641844597 0.837720582458455
-0.331387404337052 0.0849951457929268 0.842079167263259
-0.172051807951587 0.0887557540043699 0.959580138874079
-0.183678510605634 0.0885322607473637 0.95957958482635
-0.207800589379887 0.08601903858332 0.959586307154426
-0.223802593773791 0.0817690981351974 0.959586307154426
-0.228501029355201 0.0885534138644253 0.959586307154426
-0.247105697345979 0.0824696534798054 0.959586307154426
-0.28450943865303 0.0832065738439306 0.958753178666015
-0.28446666909252 0.0832708089126458 0.958497689408039
-0.283292002718314 0.0850350256678375 0.97381955016275
-0.279398749241739 0.0908822544354313 0.982891325059316
0.0334053297876637 0.0890987897925515 0.125415220877425
0.078459679936953 0.0911245657943478 0.184348369450859
0.0783964092339092 0.0912523418141322 0.197095644050501
0.0791033237824906 0.0898247185540833 0.205250089034134
0.0791269556035435 0.0897769937795978 0.213635374656415
0.0810066633875321 0.0859808991032306 0.230750862123442
0.0823797929868953 0.0832078457560556 0.234621773468922
0.0824969237474744 0.0829712986392839 0.244100337587912
0.0809376850130742 0.0861202018407607 0.254277566984181
0.0783431500516046 0.0913598994356605 0.255890279602976
0.079205540141752 0.0896182912676006 0.268455867620284
0.0814198233487648 0.085146517109028 0.29228917802477
0.0797970696507646 0.0884236896177041 0.293145221509508
0.0781943473358818 0.0916604084838193 0.297495557593465
0.0806553256678759 0.0866904302646985 0.316542331023369
0.082417264360384 0.0831321718227814 0.330185687260738
0.0780225954458347 0.0920072636923876 0.330664701018365
0.078876050971956 0.0902836989942893 0.345822504229461
0.0778057332618438 0.0924452197348996 0.350534617928756
0.0826713407848963 0.0826190611304194 0.366072595764152
0.0779715439480346 0.0921103628659253 0.369617878243349
0.0782836557268205 0.0914800490097105 0.381317372415244
0.0787570874369479 0.0905239474232063 0.395451230469937
0.0822117448455104 0.0835472211953207 0.407047275699002
0.0791031393360602 0.0898250910460844 0.411064994786333
0.079152990782353 0.0897244153924034 0.425954354484734
0.0794587033575434 0.0891070248123016 0.429845174156171
0.0789789186785977 0.0900759563031757 0.433448743506227
0.0806577743453772 0.0866854851281701 0.445336930770092
0.08182794147895 0.0843223171591627 0.457725449986151
0.0794943661412997 0.089035003349863 0.468883961874957
0.0792641526923793 0.0894999224480965 0.477659567037214
0.082186651168329 0.0835978982075506 0.492759897822163
0.0813729844194197 0.0852411089449752 0.493649964498142
0.0797729028033773 0.0884724948849338 0.511426333138279
0.0785221979466461 0.0909983098487208 0.5130507362756
0.0800815592932178 0.0878491590303456 0.532714879071098
0.0815960151011055 0.0847906955399645 0.538700504422129
0.0796546094618847 0.0887113898492019 0.55246205902042
0.0798168119905125 0.088383819702043 0.552852309107465
0.0780556102876069 0.0919405897837309 0.559336928713373
0.0805088846074297 0.0869861699188599 0.574694082379955
0.0817826687760076 0.0844137459802215 0.588072438233174
0.078584656923721 0.0908721731202434 0.590460040110576
0.0820936074252746 0.0837858012745525 0.607368265949275
0.0779800573097723 0.0920931700195436 0.613003492658743
0.0795445852732717 0.0889335851500996 0.62710164345175
0.0820506406873531 0.08387257316882 0.637009302378132
0.0795404909355923 0.0889418537190771 0.644553135856311
0.0789534475437546 0.0901273955961362 0.653444651541141
0.0819958250133585 0.083983274145857 0.667717677242535
0.0813020725945661 0.0853843163110945 0.681898925270808
0.0821627203794043 0.0836462267516002 0.688915029521768
0.082415787753682 0.083135153849503 0.698262590567766
0.0789416198564472 0.0901512817667432 0.705730782908469
0.0796720534639296 0.0886761614568626 0.71468720915187
0.0779953252151966 0.0920623362830482 0.718845775466178
0.0818133544094921 0.0843517759384389 0.739030221454667
0.0778476578729024 0.0923605524295864 0.743092016831176
0.0825520628007174 0.0828599445935866 0.755366350298114
0.0811594682851305 0.0856723075959565 0.765627277774085
0.0789182216225646 0.0901985348088572 0.763838625124794
0.0806471043686302 0.0867070332870232 0.783163074707676
0.0796590363340839 0.088702449722374 0.79074983646808
0.082545500845137 0.0828731965494799 0.797614173113915
0.0785323873752665 0.0909777321631501 0.806682959558076
0.0786297114427102 0.090781184924557 0.823576297053329
0.0782596796254887 0.0915284690627644 0.825536864212889
0.0808057266387624 0.086386693519144 0.838505507844282
0.082048744440427 0.0838764026645125 0.851829540835155
0.0799153923160673 0.0881847354336151 0.859565521355435
0.0810180194828933 0.0859579653187812 0.864091627832391
0.0804775062425187 0.0870495389408994 0.875214066023914
0.0780877974194356 0.0918755874462279 0.882286843300933
0.0807362809757333 0.08652693995211 0.900754629131453
