ply
format ascii 1.0
element vertex 856
property float x
property float y
property float z
end_header
-0.326139131847484 0.102738373932749 0.7556105144039
-0.330088521555635 0.0932037037362341 0.758573076642993
-0.330645983651702 0.0918578711833998 0.768720048122354
-0.323138725941989 0.10998199456242 0.79571782605578
-0.326937868840772 0.100810052250784 0.794721197924584
-0.333468991815576 0.0767158200489245 0.788451984892239
-0.34260426755936 0.00732651174720275 0.767894887965392
-0.339277367520622 0.0325968263990747 0.800249856177197
-0.331687878877862 0.0893425135978344 0.842388392191219
-0.325863977716375 0.103402654767817 0.86546149690233
-0.335393914461687 0.0620945809430554 0.84858112648327
-0.334335173545183 0.0701365166139015 0.873887486223901
-0.341987636499348 0.0120102896573222 0.838717238917371
-0.343568821129483 0.0 0.843396918561161
-0.343568821129483 0.0 0.850690794079071
-0.328376877720252 0.0645337441200459 0.901868155464892
-0.336654457567781 0.0390773143478042 0.901868155464892
-0.338472363647071 0.0217991051301648 0.901868155464892
-0.337318184094224 0.0215231914613757 0.901868155464892
-0.340755867381847 0.00604910188047346 0.901868155464892
-0.340869772046017 -0.00650405382812861 0.901868155464892
-0.31879971093472 0.12045730344031 0.109971630407298
-0.309467767410112 0.142986608060717 0.141296204949102
-0.322123212272703 0.112433661435585 0.113092378030503
-0.31021111541487 0.141192007226067 0.160650589859122
-0.31395253667298 0.132159417282187 0.158051199132906
-0.319593778729625 0.118540254200406 0.153406173014313
-0.317571900580344 0.123421499849865 0.174076278950886
-0.322620015925839 0.111234271318349 0.164483828940618
-0.309535260091452 0.142823666314066 0.213416293462031
-0.316804576214123 0.125273984741537 0.197102114131121
-0.310696655418726 0.140019809963684 0.225919641821956
-0.313116724525065 0.13417724630528 0.224864242996349
-0.311889964489325 0.137138907021341 0.238978799615817
-0.313424341789743 0.133434592532875 0.246669000261841
-0.314756914794539 0.130217476711845 0.252072761183997
-0.310567383985042 0.140331898812112 0.268539678194021
-0.313800533728814 0.132526384851513 0.280570390021686
-0.319164121810184 0.119577537762487 0.268389645807657
-0.316877200347244 0.1250986545744 0.289344218818877
-0.3112021566119 0.138799422127327 0.307568365548496
-0.31796776206494 0.122465805684934 0.313067394793525
-0.318187679540271 0.121934877933386 0.316479990189251
-0.309465618882082 0.142991795066227 0.342545099951305
-0.320205091028679 0.117064415757185 0.323250549210346
-0.313495333235805 0.133263204020978 0.361808186490272
-0.319785993771909 0.118076206038431 0.351156119522515
-0.322067991619894 0.11256697588452 0.353297732596427
-0.322544273299114 0.111417130195037 0.357578003492759
-0.318991675925403 0.119993858956302 0.381653710567419
-0.321979880113652 0.11277969587789 0.385435912040826
-0.315703553135483 0.127932089590475 0.39806619993593
-0.312853422635849 0.134812913297223 0.42011400535568
-0.314016576400878 0.132004811702567 0.424873530686267
-0.320690152512072 0.115893373745394 0.417851483895242
-0.317210132049061 0.124294886344528 0.443987741375129
-0.319996475250517 0.117568058798148 0.445015924550194
-0.31364118866274 0.132911077871126 0.465551985251913
-0.311738922701125 0.137503554154899 0.487889777428423
-0.320911944700393 0.11535792003632 0.466997933239581
-0.31670912829467 0.12550441640318 0.48698796087125
-0.321486231111899 0.113971469992974 0.486251829617594
-0.313792933760935 0.13254473279704 0.512995298140157
-0.319899022155168 0.117803331382634 0.513073769626094
-0.31095375414749 0.139399118725833 0.536442589024536
-0.320878581479271 0.115438465977237 0.533214887992306
-0.317216224616355 0.124280177585937 0.540266545994387
-0.312817827162704 0.134898848371249 0.560339699289481
-0.316341137460906 0.126392824864881 0.567432045272569
-0.319972099588063 0.117626906853037 0.563161082829828
-0.312050576583152 0.136751155126142 0.594307939653143
-0.320536444123979 0.116264458620577 0.59111640558452
-0.310554958256782 0.140361897173798 0.614140789166595
-0.315910427546332 0.127432650582096 0.614743472157369
-0.318900158742519 0.12021480098041 0.618898442694889
-0.313105829236553 0.134203549858573 0.63415227861844
-0.318725907307731 0.120635481157538 0.64181463466252
-0.314644043787377 0.130489971428132 0.656367961331911
-0.314607173917557 0.130578983167895 0.666335812363822
-0.312010954316065 0.136846811740715 0.681154831134485
-0.314433677865027 0.130997839690932 0.693926010975134
-0.309420395870093 0.143100973075102 0.708827716420269
-0.321306885841491 0.114404447777141 0.684019647742858
-0.314511926705525 0.130808930278962 0.711988585125386
-0.314212332744687 0.131532214082421 0.722803101577412
-0.320066090628928 0.117399992407439 0.721452895019528
-0.314834462357165 0.130030260334423 0.745498697956146
-0.315339607930104 0.128810731041263 0.749403005778143
-0.32233897939863 0.111912753513857 0.749450316811062
-0.320709478503933 0.115846716673734 0.759530993675697
-0.321036615755564 0.11505693748409 0.766068405555012
-0.314343642526894 0.131215204225344 0.787601354389935
-0.311941535582918 0.137014403387762 0.802230292417861
-0.312042918700473 0.136769642890367 0.813749752686135
-0.310190425662362 0.141241956707175 0.827288129421732
-0.316588313635416 0.125796088792083 0.821610469223422
-0.320829202621745 0.115557677084769 0.824686267816235
-0.320310065368151 0.116810985283131 0.832509853157671
-0.315507259924445 0.128405983322765 0.856279083977629
-0.31409241703935 0.131821716204588 0.862436287922652
-0.310780875643038 0.139816484355924 0.888799454060662
-0.31263607024627 0.13533764838396 0.887099302445107
-0.321585999513472 0.113730607764802 0.882767082333497
-0.318070059022817 0.121386475811341 0.901868155464892
-0.320758217368114 0.101395502556572 0.901868155464892
-0.315694617451847 0.102164924656376 0.901868155464892
-0.317901773755396 0.0842568122273579 0.901868155464892
-0.323675533928991 0.0658792864318537 0.901868155464892
-0.327143127942491 0.0556125150729664 0.901868155464892
-0.325959081793403 0.0463150345582307 0.901868155464892
-0.331009825292222 0.0380306084412909 0.901868155464892
-0.325035226985818 0.0165297587963703 0.901868155464892
-0.325550207537311 0.00252106969248596 0.901868155464892
-0.332564481088811 -0.0050559213226362 0.901868155464892
-0.330087300784393 -0.0336331548868481 0.901868155464892
-0.335692196248546 -0.0293152209764963 0.901868155464892
-0.33575072523931 -0.0593843340114591 0.901868155464892
-0.299480839051835 0.167097185949719 0.164297583106596
-0.296931543741101 0.172576489189402 0.174254081354101
-0.308728469255431 0.144771431692385 0.157715170746114
-0.305889339286414 0.151625697768926 0.169452683275216
-0.303285809435863 0.157911174844169 0.189095237738261
-0.304246694307186 0.155591393555943 0.185799596091649
-0.30714545553003 0.148593164897673 0.195043558529634
-0.299221568645308 0.167723120081477 0.226251624824806
-0.306565100295592 0.149994266375647 0.215441657879343
-0.298125898344475 0.170368302181638 0.248073708761618
-0.307726174025873 0.147191186429086 0.227793428294056
-0.302584780438117 0.159603608558146 0.257266006824234
-0.301162029299846 0.16303843365204 0.25947762282894
-0.303373093006249 0.157700453664773 0.264282160339415
-0.307319933673716 0.148171937396846 0.277436800368448
-0.303230180140168 0.158045475844302 0.29345091006974
-0.300519974981457 0.164588489895275 0.305855870938039
-0.301097560767972 0.163194074456038 0.31398641803699
-0.299172774141167 0.167840920435145 0.321056693296728
-0.303354075443821 0.157746366121909 0.336693825861616
-0.300349533327197 0.164999972448583 0.342713527911341
-0.300602709016472 0.164388752265872 0.356949888272964
-0.302445601105633 0.15993961719023 0.354376842241259
-0.301414415558461 0.162429119323536 0.374483826866624
-0.29696997166088 0.17252640894932 0.393690091691497
-0.302541321819893 0.159708526943663 0.390293662416362
-0.3057566724457 0.151945983855055 0.385031627706269
-0.297431577008179 0.171924833148481 0.419250118467969
-0.296814278293155 0.172729312496522 0.432569476739495
-0.298702876712489 0.168975353180383 0.432842339262774
-0.301460083711107 0.162318866650049 0.429919792073368
-0.308783527684747 0.144638508885608 0.422131301356376
-0.306473884504737 0.150214480775031 0.449015760887896
-0.304252616544983 0.155577096009133 0.463482261219341
-0.301866586576522 0.161337481919222 0.471650348054535
-0.298431826458083 0.169629726380654 0.485831896653405
-0.301674158926947 0.1618020433606 0.491772225863908
-0.298691409885354 0.169003036549969 0.511634585857138
-0.300018714845537 0.165798638913691 0.5233050101227
-0.301157958130638 0.163048262323958 0.518619163211934
-0.300479577444753 0.164686018176274 0.537720872627227
-0.307256620870006 0.148324788026235 0.531253565472198
-0.299519455610738 0.167003957329482 0.557734881888909
-0.305381083994733 0.15285273458725 0.554192135367586
-0.300800931190782 0.16391020160429 0.567307267284322
-0.306602239983561 0.14990460323725 0.57041175845339
-0.307201797708466 0.148457142846357 0.577905458426181
-0.299617661190852 0.166766868086071 0.597541198993428
-0.304433086443951 0.155141403131446 0.600476328627076
-0.300456343050862 0.164742110965119 0.61765764928489
-0.306860269807537 0.14928166413671 0.621203557265604
-0.298946069566024 0.168388233695107 0.641840050636385
-0.302578320461105 0.159619204322261 0.638971786791761
-0.30163977455255 0.161885054583604 0.656965376416172
-0.309379461986233 0.143199796212678 0.652016291154305
-0.299407081206754 0.167275253139646 0.672520441955393
-0.298608641059698 0.16920285817141 0.6892224580243
-0.300028786485887 0.165774323822962 0.693106979614473
-0.306199540714014 0.150876805275348 0.693319201908939
-0.305432627931608 0.15272829651579 0.700453878323619
-0.309138066315979 0.143782576913703 0.709324242810512
-0.307377853189371 0.148032107316628 0.715823945857097
-0.300934585136222 0.163587532436545 0.747431157414077
-0.297759750775961 0.171252260607375 0.75770931871619
-0.309522038629633 0.142855585746504 0.740421897333356
-0.297432948859405 0.171923045317156 0.774694646018176
-0.297539327046404 0.171784410564741 0.785975537855997
-0.299389776488202 0.167317030425867 0.792078149834294
-0.305402461695723 0.15280112425159 0.792238130902096
-0.305135130966789 0.15344651772302 0.797697406013935
-0.303945010688169 0.156319722240521 0.806733044245627
-0.297539327046404 0.171784410564741 0.829718587731866
-0.29863677396977 0.169134939318366 0.834155382652153
-0.298602590758735 0.169217464890051 0.852008310885119
-0.307971094452144 0.14659989621428 0.84379446914904
-0.304266997664545 0.155542376915245 0.859447539261282
-0.304065349698726 0.15602919816915 0.866551802782477
-0.307982977256442 0.146571208586986 0.871429210030428
-0.300661092502432 0.16424780206225 0.891537345211029
-0.309302436612102 0.143385751915551 0.885374239142226
-0.29890863632371 0.157029838509404 0.901868155464892
-0.299923455600611 0.147214815690878 0.901868155464891
-0.307064404014991 0.117791383010188 0.901868155464892
-0.309115130794208 0.116367593635317 0.901868155464891
-0.309365807913178 0.106035206389464 0.901868155464892
-0.314617993300418 0.0903927565985062 0.901868155464892
-0.306955505154302 0.0883923639907316 0.911166737358879
-0.313035806040741 0.0619561472015674 0.901868155464892
-0.314585103492859 0.049313241411761 0.901868155464892
-0.317355780957236 0.0289187766760287 0.901868155464892
-0.31764676758422 0.0218650832099582 0.901868155464892
-0.318546452328978 0.0122194523030925 0.902619968741701
-0.324349384368762 -0.0065076810485124 0.901868155464892
-0.323400638455843 -0.026701868078854 0.901868155464892
-0.324521583734547 -0.0381338348238687 0.901868155464892
-0.330769872246939 -0.0639212349092541 0.901868155464892
-0.332236899499382 -0.0774138264858759 0.901868155464892
-0.327941132155673 -0.0782709150612528 0.901868155464892
-0.288367027231327 0.183737984411057 0.175808868130877
-0.296483252411264 0.17316071382487 0.180061609712307
-0.294751256669818 0.175417894620775 0.188311598120692
-0.290455118236649 0.18101673123212 0.197206728226416
-0.293428715277173 0.177141464120302 0.205444626844794
-0.29403536290046 0.176350865545262 0.214394378342043
-0.290627636088541 0.180791901590265 0.224679995275099
-0.290743393905658 0.180641043065894 0.244904222717586
-0.286831217312374 0.185739490865297 0.256512884409021
-0.287257496935215 0.185183952444885 0.254710482624909
-0.288265684807179 0.183870056429551 0.264586820836553
-0.29641170205285 0.17325396006739 0.269603624526274
-0.293757168983951 0.176713414915825 0.276320869177197
-0.286902666640208 0.185646376288391 0.305857777897756
-0.2874140080382 0.184979983204344 0.311529781841344
-0.293503227307529 0.177044358151761 0.308896676636222
-0.291268778024298 0.179956349151995 0.318191842028366
-0.294746528312786 0.175424056735631 0.323938396741023
-0.290744322971476 0.180639832283747 0.340970577754794
-0.286677085468771 0.185940359394643 0.35033995558138
-0.288633163230634 0.183391149224132 0.35995224335699
-0.295717149254037 0.174159118897581 0.357175598079115
-0.289999083663485 0.181611047058759 0.379062352523036
-0.28984968565551 0.181805746333405 0.39232948082527
-0.297245650388074 0.172167137437289 0.38224519901561
-0.296467571018722 0.173181150213512 0.398389799460004
-0.291299566420306 0.179916224933127 0.418701074947016
-0.288619236750685 0.183409298566156 0.425118179139998
-0.287283339787985 0.185150273383449 0.442440996963013
-0.287483383544283 0.184889571284563 0.448427803739953
-0.290423876479107 0.18105744628324 0.456705461042753
-0.294371129243415 0.175913286327776 0.454392209821434
-0.290388553804317 0.181103479689263 0.472513774871199
-0.292183605002999 0.178764123421591 0.474645685697212
-0.288225816391608 0.183922013960299 0.491506218644642
-0.286160144209557 0.186614050359919 0.511905933644294
-0.288873746746426 0.183077614682066 0.510457995292062
-0.289605729587486 0.182123676071112 0.523147482703288
-0.293487265460998 0.177065160035158 0.524953042760961
-0.288323243453438 0.183795044541321 0.539635974974423
-0.295852904955832 0.173982198622494 0.535566475798216
-0.29537341738868 0.174607078985969 0.556308214912119
-0.289105491977614 0.182775598416746 0.567700798435955
-0.295988395242121 0.173805624243629 0.569463498802431
-0.294448713015009 0.175812177188115 0.580438940248953
-0.292708179296757 0.178080484892025 0.591782851915922
-0.290083703774948 0.181500767982448 0.596515224805356
-0.286794320434192 0.185787575813122 0.618441060527658
-0.287435604965907 0.184951837540181 0.623779653536735
-0.291557830364548 0.179579648808101 0.625939146910412
-0.286894601050879 0.185656887569052 0.640008919245034
-0.288689817057242 0.183317316519829 0.65754195151241
-0.295280263871187 0.174728479013535 0.648970828442737
-0.287635735975964 0.184691021729982 0.666859012774184
-0.296925737137703 0.172584056502279 0.669579355212659
-0.292400593376666 0.178481338667417 0.682209216612867
-0.290589879595318 0.180841106810223 0.701794886958827
-0.288475694606045 0.183596366331123 0.703003805230319
-0.289209898889997 0.182639532679429 0.719116015704268
-0.295116351532065 0.1749420937328 0.722232006144456
-0.288555129441997 0.183492844837423 0.73609560703271
-0.290435092677789 0.18104282904853 0.739942513449786
-0.286790249326853 0.185792881383503 0.757350678971927
-0.294818412818453 0.175330375023932 0.76207668439152
-0.288575236224239 0.18346664116864 0.770442597640179
-0.28879030522219 0.183186357793598 0.783790111570063
-0.297245301230609 0.172167592468155 0.77715762490645
-0.288442721473199 0.18363933775447 0.806539688302355
-0.294738879483141 0.175434024884498 0.811925908260746
-0.296795876022911 0.172753294802022 0.808369407712519
-0.293787540368639 0.176673834156691 0.825490000338342
-0.285893758726134 0.186961210680873 0.845247506045604
-0.28869009139579 0.183316958994872 0.848312459835789
-0.290322265973947 0.181189867671711 0.850119482422824
-0.295854911811388 0.173979583237414 0.856828043497212
-0.2882915092647 0.183836401341271 0.876935129883925
-0.289079515381884 0.182809451775402 0.888592007339135
-0.286579127850221 0.1860680202486 0.897555680014435
-0.290034999717743 0.172618914072294 0.901868155464892
-0.289364847241518 0.162914906351299 0.901868155464892
-0.292060837268279 0.149026517827617 0.901868155464892
-0.299104845060399 0.135132991235 0.901868155464892
-0.292449472085865 0.129951773358223 0.901868155464892
-0.299417342940525 0.110718788233917 0.901868155464892
-0.303303999727024 0.0972078779163464 0.905494467760365
-0.297953402732827 0.110125361746529 0.91885246270548
-0.297675799546789 0.0975281689010272 0.923341206785484
-0.295979256744632 0.0965667951342203 0.923341206785484
-0.301714390004523 0.0731464238401905 0.923341206785484
-0.300080536731421 0.0552189757529301 0.923341206785484
-0.309766192186228 0.0443217014793314 0.923341206785484
-0.309188285868973 0.0336800899662547 0.923341206785484
-0.312092340080215 0.0207229732905536 0.923341206785484
-0.31272593439829 0.00801108551142546 0.923341206785484
-0.316207086438941 -0.0128963648269259 0.923341206785484
-0.315630610897728 -0.0305083658566985 0.923341206785484
-0.32019812953907 -0.0689049741018874 0.901868155464892
-0.310400624960038 -0.0421973473067639 0.923341206785484
-0.320326205319307 -0.102097350347802 0.901868155464892
-0.279289365440111 0.19556822358344 0.190728856832472
-0.275439800490981 0.200585074299547 0.207313797699124
-0.283511889667792 0.190065322872489 0.201975755369377
-0.27800131216964 0.197246847287088 0.209522871856117
-0.282782171067485 0.191016310667443 0.220977986176068
-0.283460200975008 0.190132684888414 0.225995020008594
-0.284133470156287 0.18925526340862 0.243089570263435
-0.280028661548239 0.194604754137284 0.249493627589125
-0.278221286190752 0.19696017156141 0.263229952608288
-0.281325751388169 0.192914353747033 0.263659524249406
-0.277034209240975 0.198507200361874 0.276718973102199
-0.2831025429258 0.190598793932943 0.285220867312699
-0.28251647441037 0.191362573292475 0.293466575123517
-0.283989664627044 0.189442674423085 0.304733523493346
-0.285485737497392 0.187492954298827 0.311637734561778
-0.275287731579876 0.200783254362919 0.335654025818611
-0.279902128484139 0.194769655236923 0.328510232187312
-0.275460679853511 0.200557863784529 0.350409786648887
-0.281519496462851 0.192661860249845 0.347691943203954
-0.284793116575269 0.188395595458299 0.358190554331584
-0.275596185570905 0.200381269295455 0.380393300959423
-0.279723487077154 0.195002465251146 0.385566784937012
-0.281651810057774 0.192489425815769 0.384240415767083
-0.281098670436094 0.193210291405467 0.40501092637505
-0.281353463688963 0.192878238373499 0.404935544654263
-0.279742958765188 0.194977089253248 0.416296517920124
-0.283546145611698 0.190020679657221 0.424825320974815
-0.2857939819597 0.187091242294509 0.436404590333664
-0.282598192761041 0.191256075864453 0.442180154208963
-0.277170452991572 0.198329644049205 0.461781737734548
-0.277337046350558 0.198112535356828 0.461405386644408
-0.276569164160973 0.199113258909647 0.47720372654506
-0.275757096312803 0.200171566333851 0.484849133641388
-0.276213515065369 0.199576749834867 0.495414838671914
-0.275293648057754 0.20077554385883 0.509393428440733
-0.285541917464734 0.187419739139942 0.50478606695237
-0.278273763154021 0.196891782251388 0.532154462721763
-0.282428354348192 0.191477413593361 0.53077179373296
-0.284876064899494 0.188287495097535 0.536875207402887
-0.282913104489353 0.190845674909913 0.542653123254386
-0.284750173651013 0.188451559766774 0.558334637026892
-0.279080019355876 0.195841048712119 0.570916143041414
-0.286103731739495 0.186687568522248 0.569167192798524
-0.277045065840145 0.198493051766373 0.590651631267305
-0.285731693927674 0.18717241763827 0.584882426936721
-0.275361232201533 0.200687466487855 0.615982216920769
-0.278863223848182 0.196123582118465 0.613603393842554
-0.282572652997621 0.19128935993216 0.615709938690482
-0.276321404274393 0.199436145880211 0.635004666801081
-0.278437014142239 0.196679029421401 0.643405174842526
-0.275319957687977 0.200741256481174 0.658328886423698
-0.283773552762878 0.189724316887838 0.65831449007877
-0.286080444316797 0.186717917282377 0.659778861546217
-0.278644188032343 0.196409035151227 0.675286642456495
-0.284586685671217 0.188664621450197 0.68704057571829
-0.278500728368896 0.196595995424611 0.702166218606001
-0.27569253689861 0.200255701800484 0.71258644540771
-0.279978433414825 0.19467021271518 0.715525474515242
-0.281551854361083 0.192619690615858 0.72478386564802
-0.282492976884033 0.191393195864997 0.728966586888294
-0.284571432300692 0.188684500029687 0.747192326481636
-0.283142620948418 0.190546563236974 0.745145579149514
-0.285805497389268 0.187076235094518 0.757331234258475
-0.27941139074951 0.195409197104102 0.767432295468315
-0.275204887093673 0.200891219399338 0.789838772261527
-0.283507517781913 0.190071020425094 0.794808756846117
-0.277041107456049 0.198498210432962 0.802533688246198
-0.277603511863253 0.197765270739696 0.810343955204975
-0.27713827621531 0.198371577640446 0.827833213257566
-0.285158739746502 0.187919106064648 0.825108924222184
-0.279664797651813 0.195078950799368 0.841407989593532
-0.279417764967842 0.19540089006104 0.852204227865383
-0.276878396814166 0.198710259069895 0.863115805785972
-0.279571834560702 0.195200102658441 0.867548647902455
-0.282788237593001 0.191008404617466 0.875044297191223
-0.283383041882726 0.190233240575222 0.879802500803516
-0.280708565694393 0.193718685802918 0.896108825228725
-0.282043625598988 0.17953894901569 0.901868155464892
-0.284303371158768 0.175128892215887 0.901868155464892
-0.280927897824426 0.175358100202822 0.901868155464892
-0.285558062074283 0.151409317473993 0.901868155464892
-0.287342861100579 0.135741475259227 0.906068036230139
-0.289943045150672 0.129464075660827 0.905356696288721
-0.283770195659592 0.14329078890377 0.923341206785485
-0.290757123409704 0.123413684949622 0.923341206785484
-0.287260809575782 0.121786707533845 0.923341206785484
-0.285102880750072 0.10312509371203 0.923341206785484
-0.292848282593151 0.0879154004366051 0.923341206785484
-0.294076895295065 0.0779225223717776 0.923341206785484
-0.297696346951974 0.0658029652211603 0.923341206785484
-0.293208708614081 0.0578355215439966 0.923341206785484
-0.299245368226742 0.0296437468455507 0.923341206785484
-0.300787899820306 0.0239519725304803 0.923341206785484
-0.297054748991429 -0.00471490056114074 0.923341206785484
-0.302759998831382 -0.0148336468804738 0.923341206785484
-0.306808866976117 -0.0308559128305204 0.923341206785484
-0.306109748077222 -0.044834270498768 0.923341206785484
-0.30832851512515 -0.0564494532988363 0.923341206785484
-0.303440751171423 -0.0677371211397772 0.923341206785484
-0.305295264885247 -0.0868652314441419 0.923341206785484
-0.314251303179689 -0.126460428255535 0.901868155464892
-0.274258398817857 0.202124706935478 0.19204917597851
-0.2717942537244 0.205336043343634 0.202688328422515
-0.267351260505331 0.211126264838086 0.222617099421104
-0.272923097761131 0.203864905152986 0.224164281878773
-0.266958353318502 0.211638311453133 0.243004552322876
-0.274524738540804 0.201777606250738 0.237079069800927
-0.275049842800139 0.201093277056586 0.245655314769352
-0.271748496030885 0.205395675930826 0.266132022055525
-0.275683685216439 0.200267237537281 0.257060500961357
-0.267862316385141 0.210460243848577 0.293771964856379
-0.271950985340858 0.20513178672434 0.297829264647489
-0.272352732742642 0.204608219316862 0.294263332417094
-0.274581558601511 0.201703556905939 0.30096412307058
-0.274994226668104 0.201165757410994 0.314878750033975
-0.273022119367388 0.203735857683252 0.322610513043048
-0.265746997345307 0.213216981292943 0.345103509837853
-0.274893237654047 0.201297368856491 0.339933296037545
-0.272929451083896 0.203856625341556 0.356840918450696
-0.270444317919418 0.207095313936393 0.360186903188203
-0.267542727464646 0.210876740238646 0.374810860655208
-0.267932174068166 0.210369203543572 0.385860382433252
-0.275284339384431 0.200787675158092 0.387772696546081
-0.26661863381698 0.212081042527166 0.402062244270514
-0.27364615088102 0.202922603981235 0.410358217762298
-0.271442807812013 0.205794056573837 0.416530808131649
-0.273585506042259 0.20300163787384 0.431143867383598
-0.268435300589807 0.20971351629482 0.442213700827012
-0.26599762445892 0.212890357679361 0.456825750502147
-0.264094975790644 0.215369937699461 0.473932416954966
-0.273620764112181 0.20295568866252 0.464561519805795
-0.27003270642113 0.207631736484716 0.473051937240305
-0.269566495951615 0.208239313797671 0.486610576711841
-0.265021724180507 0.214162175683553 0.501243040148508
-0.273593326309217 0.202991446303517 0.498063876941841
-0.273789557159065 0.202735713281062 0.511910554470036
-0.267079899824415 0.211479908962648 0.521780860088583
-0.268216413431527 0.20999877559328 0.533033715614569
-0.271691478338567 0.205469982834155 0.549137466605655
-0.271580449577535 0.205614678332647 0.544956060218321
-0.269089804754888 0.208860549860256 0.563713898768142
-0.271854392328741 0.20525766918857 0.572321929493204
-0.264802699071884 0.214447614762399 0.587078918021054
-0.270068902641942 0.207584564651353 0.58980126398155
-0.265893548845448 0.213025991659532 0.596606690190363
-0.266119082579569 0.212732070374794 0.617029663712194
-0.264707576779408 0.214571580547476 0.619568415575051
-0.269158900938476 0.208770501960638 0.628461331760599
-0.272956049162302 0.203821962050909 0.635989012897647
-0.267805857027939 0.210533823115417 0.647107846177935
-0.266977851766876 0.211612900580481 0.65863528870656
-0.275021294770839 0.201130481572716 0.657652187776339
-0.268294333429976 0.209897228274249 0.680981857585884
-0.273053789503134 0.203694584358786 0.674529256299072
-0.273204685795071 0.203497932482467 0.695427384923652
-0.272985448185053 0.203783648498524 0.701308416108525
-0.265579623283131 0.213435107417528 0.722218585863187
-0.272765768418924 0.204069940743643 0.717361961239348
-0.274855092625963 0.201347080424938 0.724292365657698
-0.267783404949383 0.210563083233865 0.737857814126862
-0.27016910957636 0.207453972431883 0.749684328988831
-0.268604777978076 0.209492649062305 0.754809865151853
-0.270846985221824 0.206570547691085 0.769892273620932
-0.274112035916184 0.202315450782581 0.770852527044588
-0.269332912314722 0.208543725919951 0.790910859562166
-0.271773872313753 0.205362604915123 0.798514940448404
-0.272043678455248 0.205010986705779 0.796793810756469
-0.267800019475678 0.21054143076164 0.816840851416624
-0.274632753790029 0.201636838037295 0.819810577208529
-0.264626009886702 0.214677880591634 0.84188660215692
-0.267547243138741 0.21087085529759 0.84400820729024
-0.274439499231095 0.201888692281915 0.850244611936433
-0.269544386686007 0.208268127153587 0.863006583250835
-0.272764392487036 0.204071733892991 0.863968336796385
-0.270403071311473 0.20714906756241 0.873219203302266
-0.270930359713068 0.206461891938647 0.887611281979117
-0.269590040726272 0.20820862964994 0.900102096947528
-0.272316568038542 0.204655350076846 0.899717043969807
-0.268907211936512 0.198056348589703 0.901868155464892
-0.276045512683158 0.176882407111766 0.901868155464892
-0.270290817835256 0.169163277704039 0.90852293831018
-0.272114937178292 0.166786039093104 0.908207456949988
-0.272224411206925 0.166643369761323 0.92206997588082
-0.279120784313469 0.155850508228037 0.923341206785484
-0.276590743348965 0.141843622778988 0.923341206785484
-0.279291982263835 0.123814132154485 0.923341206785484
-0.275079607733496 0.109916438205341 0.923341206785484
-0.277957792338953 0.0966210584726055 0.923341206785484
-0.279694430168218 0.083345887801526 0.923341206785484
-0.28188382856597 0.0713133327569138 0.923341206785484
-0.280058264096688 0.0558202715834348 0.923341206785484
-0.287016868939904 0.040404440337241 0.923341206785484
-0.283859115562433 0.0355753213631575 0.923341206785484
-0.291289322114839 0.0198590181039399 0.923341206785484
-0.286279545665417 0.014214000660126 0.923341206785484
-0.286472753156036 -0.00707272741992491 0.923341206785485
-0.298133541434275 -0.0333805804596597 0.923341206785484
-0.29253226537183 -0.0299042007988333 0.923341206785484
-0.295621025654101 -0.0470045541551046 0.923341206785484
-0.295920118503373 -0.0648581530956878 0.923341206785484
-0.300295808224596 -0.0813476476720033 0.923341206785484
-0.300501347124937 -0.0941026459168199 0.923341206785484
-0.302384735747024 -0.154877397551246 0.901868155464892
-0.254318653340304 0.228110689169822 0.217281764488209
-0.255906571421303 0.226041274036671 0.232836817405715
-0.255945096303218 0.225991067433073 0.235230316241882
-0.261972613173881 0.218135854511995 0.230423803379579
-0.263161719430202 0.216586181067754 0.242960607212016
-0.260621022092463 0.219897282303006 0.256691469807385
-0.258405415371757 0.222784717197668 0.274836645053659
-0.256925632139295 0.224713208252517 0.279989115024895
-0.255867291508046 0.22609246461627 0.287584536692058
-0.260665454868896 0.219839376381374 0.292933220707983
-0.25855788806897 0.222586010909995 0.305069753263508
-0.260758023226881 0.219718738948524 0.311555696376816
-0.257472662254959 0.224000304726076 0.32638903618234
-0.264181816347866 0.215256764881899 0.33182479439912
-0.259981941568679 0.22073014825689 0.338333763125731
-0.260858785067365 0.219587423561392 0.349662737122489
-0.259141627063135 0.221825267441682 0.356364096984958
-0.255903233602805 0.226045623966426 0.375615706379967
-0.253716554213765 0.228895360028493 0.38939891620673
-0.259631434299991 0.221186938222809 0.387437920394642
-0.263558474874414 0.216069119306045 0.390243600894052
-0.255441717963011 0.226647082858169 0.410883434982927
-0.26345595367915 0.216202727528966 0.40922380745781
-0.256386739720303 0.225415506526179 0.422147132979413
-0.261958560060524 0.218154168885891 0.435470669881453
-0.260187196288894 0.22046265509761 0.442426643854277
-0.263169207180842 0.216576422841135 0.444219378246181
-0.254752402363218 0.227545416437714 0.465388341340819
-0.26334867481421 0.216342536067726 0.462935578515571
-0.257828203006558 0.223536954997513 0.478086484225853
-0.260953467853913 0.21946403055159 0.485371818788427
-0.263563479156683 0.216062597598419 0.494172914480986
-0.261726030641534 0.21845720712465 0.507018245055086
-0.263706277297371 0.21587649943828 0.513836247668301
-0.258989092841855 0.222024053909081 0.529547104748814
-0.254650162325583 0.227678658248881 0.549083316721501
-0.256049125362535 0.225855494123458 0.555555597135332
-0.263736158779044 0.215837557133185 0.544007425095242
-0.254236287011919 0.228218031058841 0.569235763044414
-0.255590022833438 0.226453808188113 0.579337203241267
-0.26212997251892 0.217930779820888 0.577185408870171
-0.263930018486592 0.215584914243537 0.587135677188795
-0.264004931918842 0.215487285157862 0.595813671502375
-0.25909141314408 0.221890707495065 0.613580805202518
-0.264767622502757 0.214493327437277 0.614654838017097
-0.264441206927702 0.21491872049678 0.616688751950694
-0.261996346010507 0.218104925277135 0.637527170716332
-0.257531774495976 0.223923268153737 0.650101410257046
-0.258767799570925 0.222312448914595 0.659198392628596
-0.257273136780129 0.224260331387403 0.671394873588605
-0.26290731479296 0.216917727645977 0.672592770309876
-0.261927044599094 0.218195240634863 0.681861906995521
-0.256308377258292 0.22551763047495 0.698414732634315
-0.25551419456025 0.22655262951771 0.706855728852249
-0.263451590817097 0.216208413321493 0.707382963189956
-0.257239056189293 0.224304746078101 0.718732972424345
-0.257443407329003 0.224038430487863 0.733471577075292
-0.25895156655025 0.222072959124449 0.738673889779732
-0.256968443544158 0.224657415343452 0.753028382738253
-0.259598731748969 0.221229557017059 0.756311790862142
-0.261457414468111 0.218807274537411 0.769806262546317
-0.255374190941922 0.226735085785405 0.785803160129007
-0.260114986663451 0.220556760513652 0.789747198766855
-0.253935033313605 0.228610632522146 0.803254627635583
-0.26267305350507 0.21722302290023 0.808300679369788
-0.254689811574624 0.227626986341516 0.815948644524935
-0.258517401165018 0.222638774470492 0.82079046137668
-0.256676482244265 0.225037906717361 0.833235027439263
-0.259225198850964 0.221716354567329 0.837046381758435
-0.25772840250745 0.223667017540172 0.854647764505284
-0.263385331191213 0.216294764547139 0.851064554093051
-0.262930494555558 0.216887519191223 0.863587748103084
-0.263696722254084 0.21588895181313 0.880159398189068
-0.264893923691173 0.214328728523913 0.885494629353422
-0.264095943847732 0.215368676102902 0.891329230215401
-0.259142984293383 0.219303796338941 0.901868155464892
-0.260156503686992 0.1979662132924 0.901868155464892
-0.263884208197445 0.184834632060466 0.901868155464891
-0.261601990831044 0.180486777516156 0.907844058402931
-0.260186450189792 0.182331545996124 0.911936882947516
-0.26113505802957 0.17849270747891 0.923341206785484
-0.266024286061667 0.168369033043918 0.923341206785484
-0.263079060232811 0.157063682995407 0.923341206785484
-0.267255953415386 0.141268416026153 0.923341206785484
-0.265657074411635 0.123432082683942 0.923341206785485
-0.271666500635243 0.115187705485015 0.923341206785484
-0.272650125201463 0.0920044307981656 0.923341206785484
-0.272297903735495 0.0933020397775786 0.923341206785484
-0.271080153749797 0.0795864281668751 0.923341206785484
-0.274703125431829 0.0545602033211723 0.923341206785484
-0.278311853070903 0.0515907728107931 0.923341206785484
-0.277818441594156 0.0338879180009781 0.923341206785484
-0.281831807155053 0.0225057540224342 0.923341206785484
-0.276344845873279 0.00175640047667255 0.923341206785484
-0.28441275946205 -0.00847373747368963 0.923341206785484
-0.28214176268187 -0.0200899881376965 0.923341206785484
-0.283753368437257 -0.0347291075532499 0.923341206785484
-0.28290923252212 -0.047711806989865 0.923341206785484
-0.289988108171308 -0.0582467508264892 0.923341206785485
-0.28982568997822 -0.0823161388596094 0.923341206785484
-0.292416197107607 -0.101640405940136 0.923341206785484
-0.292030650155583 -0.103491079757606 0.923341206785484
-0.293557028774233 -0.174175992764155 0.901868155464892
-0.248660444249427 0.235484610821893 0.222248288506638
-0.249353212155915 0.234581778108668 0.241036439824898
-0.251317211719952 0.232022244044566 0.244678196906244
-0.251407140798119 0.231905046188143 0.248184383020939
-0.247676115706699 0.236767412753988 0.264769565476924
-0.253555313135393 0.229105493492971 0.273279363351621
-0.248896635979557 0.235176799766332 0.277252094373175
-0.252154548284208 0.23093100578842 0.288669676710581
-0.252961794442554 0.229878982112734 0.300633205654314
-0.251157437540753 0.232230465808822 0.307742682650084
-0.248074346788246 0.236248427904261 0.312318863523791
-0.248073882335596 0.23624903319074 0.328266905546783
-0.246286382568901 0.238578548240645 0.338565705288414
-0.24594098858033 0.239028674450177 0.342713624265571
-0.253038742507657 0.229778701441901 0.355195037454597
-0.254032166349791 0.228484046284847 0.352471843717349
-0.252557048081324 0.230406457840254 0.367212515771453
-0.250331643223636 0.233306661915638 0.379969056071792
-0.252805155750706 0.230083117630319 0.391579466366179
-0.253667410141797 0.228959405830006 0.394436209605499
-0.246351225262893 0.238494043596591 0.413607474428028
-0.251662314941704 0.231572496769729 0.420568402423177
-0.244988669078155 0.240269761388463 0.437076128286417
-0.244267108768143 0.241210117092505 0.443674712164559
-0.253512810175227 0.22916088442908 0.439223347701883
-0.244729535429198 0.240607470934741 0.458659666294141
-0.248110215358651 0.236201683073222 0.467971745556683
-0.249366019003271 0.234565087900248 0.47268769088689
-0.243940583492388 0.241635653116744 0.49098504147537
-0.251914355544157 0.231244031061626 0.486823889597369
-0.252751385832983 0.230153191951392 0.499684939313244
-0.244887705936803 0.240401339115995 0.521382011769764
-0.252540046483178 0.230428614754337 0.517381472646664
-0.250524759599923 0.23305498775415 0.526983096187576
-0.248427762675101 0.235787847353347 0.534677047685108
-0.253507996972306 0.229167157117252 0.541007566769668
-0.250172639794924 0.233513879218305 0.551990385069533
-0.24988919856877 0.233883267015936 0.562814934373096
-0.244165175505455 0.241342959106778 0.578202869536915
-0.252677210964195 0.230249858522423 0.578184982115766
-0.252085975071195 0.231020372139514 0.595441433427419
-0.246915961642658 0.237758064817515 0.609868408546947
-0.250169714324501 0.233517691765586 0.612505193729942
-0.253290462455047 0.229450653619613 0.618977797745521
-0.246105095239937 0.238814806487525 0.640998422277253
-0.25109701860726 0.232309205295951 0.632369462376183
-0.247794056945381 0.236613708739234 0.651502400618883
-0.250836355635028 0.232648907895124 0.654777494562062
-0.243773673301136 0.241853174712969 0.673967869190084
-0.24927044066948 0.234689648009938 0.674042718622173
-0.244355355864862 0.241095111236982 0.688940720767268
-0.247614647892274 0.23684751916936 0.699215165407139
-0.247769665580748 0.236645496184501 0.702363267190747
-0.244355162084649 0.241095363776273 0.720383168745727
-0.25345348517597 0.229238198273356 0.720060275586404
-0.246704278286488 0.238033935938283 0.731890017523886
-0.251950193287713 0.23119732640492 0.743780902079568
-0.253957246036579 0.228581684337966 0.744438161158267
-0.249675856984645 0.23416129918145 0.760770048264286
-0.250432928963454 0.233174663769599 0.766330426465772
-0.247249681513826 0.237323152613987 0.780479994523302
-0.251497558568425 0.231787211455724 0.780225737687277
-0.251308687483184 0.232033353046206 0.789519118057217
-0.244631851603395 0.240734774975044 0.812407966967401
-0.253415321315848 0.229287934384192 0.815593916141785
-0.248988269611101 0.235057380492698 0.825414691363807
-0.251639768825136 0.2316018794409 0.82838040646711
-0.249622762947527 0.234230492677769 0.840932265790248
-0.249233877030145 0.234737298672443 0.853650124445692
-0.254133274792822 0.22835227919648 0.855081962152315
-0.25175915775589 0.231446288757104 0.869025390202269
-0.252930518309332 0.229919741963114 0.87867176879393
-0.251765679097886 0.231437789978751 0.891139883363728
-0.246138822403602 0.234442226713121 0.901868155464892
-0.246318900172142 0.226353625229362 0.901868155464892
-0.248115979896113 0.222560087962089 0.901868155464892
-0.248983674157234 0.197834641464224 0.901868155464892
-0.253670011742619 0.190823933921038 0.904203308284416
-0.25016824949883 0.195387519326802 0.915505383270968
-0.249316918089234 0.190984890636682 0.923341206785484
-0.251216029824039 0.1865126416491 0.923341206785484
-0.254474112852844 0.168518308513426 0.923341206785485
-0.256957296569188 0.145671745849325 0.923341206785485
-0.258839184713549 0.142456572925578 0.923341206785484
-0.254652349157372 0.130505813052192 0.923341206785484
-0.263942473291652 0.1072576932508 0.923341206785484
-0.265186604876322 0.0964331080809076 0.923341206785484
-0.257147488030835 0.0908904470276639 0.923341206785484
-0.259953807780374 0.0755936420735223 0.923341206785484
-0.26937057178761 0.054515695365629 0.923341206785484
-0.266976602272552 0.0515905623164795 0.923341206785484
-0.264223529106816 0.0396286923738128 0.923341206785484
-0.269962632445716 0.0200330551174467 0.923341206785484
-0.271357560608044 0.0108159808892153 0.923341206785484
-0.270438634477655 -0.00301948769947799 0.923341206785484
-0.271379910494508 -0.0286349220061637 0.923341206785484
-0.269638200972135 -0.0347027499333102 0.923341206785485
-0.269609757257681 -0.0469275746864458 0.923341206785484
-0.280124191981003 -0.0692725229302262 0.923341206785484
-0.275447705475017 -0.0908477984119992 0.923341206785484
-0.276207314869757 -0.102544999829278 0.923341206785484
-0.278939725050952 -0.122816851930114 0.923341206785484
-0.277529466646297 -0.125641486576164 0.923341206785484
-0.279441694517391 -0.142096534398709 0.923341206785484
-0.243161345848451 0.242651175385796 0.23606808140242
-0.234882940523497 0.249122122107252 0.247461345484095
-0.238662044610636 0.246222313550808 0.259676676801535
-0.236983840129972 0.247510045140169 0.266572891078968
-0.240029730332462 0.245172851385377 0.266892502774354
-0.23626057785838 0.248065023800548 0.286063155729882
-0.237175908026007 0.247362666260016 0.290916837525884
-0.237861616674838 0.246836503507878 0.302215604341493
-0.236910985762963 0.247565948262166 0.314685331302408
-0.243112482799874 0.242714854950495 0.312908544076989
-0.240262594565901 0.244994168374525 0.325145305683148
-0.24005551971781 0.245153062493996 0.336568743579122
-0.243436126239703 0.242293074607958 0.347180332086196
-0.233827712647173 0.249931826935222 0.368128621057048
-0.243456716721972 0.242266240569024 0.359224948890465
-0.24067210117552 0.244679942901208 0.374051727982725
-0.234971041987496 0.249054519476244 0.389514641752206
-0.238994276638542 0.245967382949525 0.39281825527346
-0.242680975364245 0.243138479520745 0.404966335864623
-0.239121741773101 0.245869575511752 0.406146153988819
-0.242939843224925 0.242939843224925 0.416697243391082
-0.23448010355292 0.249431229786531 0.432533016751252
-0.235008520803553 0.249025760969207 0.43901373993944
-0.240809290490271 0.244574673837537 0.444481110515166
-0.237236559878107 0.247316126457029 0.462199559333225
-0.238194954858024 0.246580724123795 0.467253071181071
-0.241060090920344 0.244382227898946 0.473391840510359
-0.234650960152626 0.249300126906502 0.488930437302586
-0.241344134803999 0.244164273361247 0.490949306471375
-0.241846855974627 0.243778521839596 0.505862582026831
-0.237577760399203 0.247054314088881 0.514213343627776
-0.236258250573544 0.248066809589012 0.530341419237055
-0.242513987145726 0.243266614087489 0.534757090972778
-0.242794929921997 0.243051039113179 0.533190927425571
-0.235904138069398 0.248338529670224 0.55123629412052
-0.236022977748162 0.248247340777465 0.55832151586878
-0.242402491854013 0.243352167433853 0.568102051954297
-0.238491367055231 0.246353279045313 0.579696075272615
-0.243485593434358 0.242228607704759 0.581820131415324
-0.236150929262238 0.248149160127562 0.590233559228096
-0.234176214982793 0.249664411687727 0.606908753185997
-0.236625945031149 0.247784667708361 0.617817809841235
-0.236779094753175 0.247667151793449 0.624491893680849
-0.234438490423312 0.249463160663933 0.634197965610477
-0.235782691293523 0.248431719058956 0.642323807978968
-0.236891682003643 0.247580760557662 0.649830931611899
-0.238930983568823 0.246015949430072 0.654588566646791
-0.23688607408829 0.24758506366246 0.669852644504688
-0.239199286515197 0.245810073338365 0.674569127263059
-0.234612476058636 0.249329656790428 0.688299340225423
-0.238194967021639 0.246580714790326 0.699138109628075
-0.242274761471556 0.243450178403498 0.699683793533231
-0.240807925439446 0.244575721277875 0.716826451683609
-0.241746764508496 0.243855324722824 0.721999069744835
-0.233759175005421 0.249984417717431 0.731348534412033
-0.239536552949213 0.245551279701406 0.743358404425109
-0.242237904625266 0.243478459656347 0.752640200886698
-0.235950901606376 0.248302646746247 0.760303537779366
-0.24316075359451 0.242651947226159 0.76334028719824
-0.235517324025141 0.248635342525711 0.783581237562459
-0.234855590234552 0.249143108722088 0.790902079923791
-0.236274242741668 0.248054538366814 0.800602064686874
-0.234605266638625 0.24933518877297 0.806209298082483
-0.238182727132896 0.246590106787289 0.819670994064081
-0.236068164200221 0.24821266799331 0.824744784165457
-0.238027084670535 0.246709535449134 0.834676861576142
-0.239300154319206 0.245732674750131 0.837309621116157
-0.240529412955734 0.244789431423116 0.853059735234878
-0.236306195708978 0.248030019992651 0.86152214884912
-0.234024064519026 0.24978116084481 0.869808122335883
-0.238572770698971 0.246290815832551 0.882860490259494
-0.239470180437126 0.245602209121189 0.88770074817843
-0.234255114791242 0.245211584656453 0.901868155464892
-0.241584190806386 0.239105686011287 0.901868155464892
-0.243668646823056 0.233092157620313 0.901868155464892
-0.239060242546174 0.210371647519313 0.901868155464892
-0.245351314143431 0.201665071701292 0.904603091298401
-0.246746570412645 0.199846738329638 0.909149609936041
-0.240702424393621 0.207723622778787 0.919369010153002
-0.246086890201132 0.193928765952176 0.923341206785484
-0.248657765079912 0.179806776249779 0.923341206785484
-0.243312595818121 0.159619211170391 0.923341206785484
-0.243803463540834 0.153214294735017 0.923341206785484
-0.249486649940789 0.138438739911368 0.923341206785484
-0.248143669660921 0.136331625693172 0.923341206785484
-0.252348585132381 0.116391551639099 0.923341206785485
-0.252938328815637 0.0977139605976096 0.923341206785484
-0.253503171484024 0.0927007517226209 0.923341206785484
-0.255955306139598 0.0672924724323166 0.923341206785485
-0.255928396751437 0.0554886441991571 0.923341206785484
-0.254906958650957 0.0443041553694479 0.923341206785484
-0.252143037413805 0.0358394314989703 0.923341206785485
-0.258740915195675 0.0194647937102297 0.923341206785484
-0.25588875404051 0.0112908630188223 0.923341206785484
-0.259565876025584 -0.00354376023876729 0.923341206785484
-0.25922931658353 -0.0264223399300894 0.923341206785484
-0.26577580566607 -0.0448180037048654 0.923341206785484
-0.262449140622695 -0.0573504712734352 0.923341206785484
-0.260577322269664 -0.0577338248537774 0.923341206785484
-0.267668395496343 -0.0889180908939811 0.923341206785485
-0.268861233398905 -0.100447476185295 0.923341206785484
-0.264535759029894 -0.107092276763208 0.923341206785484
-0.272271606830414 -0.126403809297996 0.923341206785484
-0.268102188176779 -0.149175366505347 0.923341206785484
-0.2322636901565 0.251131943602122 0.238232266585043
-0.230916619048079 0.252165587618341 0.248080874294355
-0.226496819200951 0.255557019322507 0.260606708774761
-0.23163560996036 0.251613886487236 0.265756737958715
-0.227205423855128 0.255013287847549 0.281381199986421
-0.233731522180416 0.250005636476351 0.281449388352232
-0.229806309661226 0.253017557975879 0.298667556797941
-0.230146131417294 0.252756803571346 0.312023971388575
-0.231253328443131 0.25190722141241 0.314958653796019
-0.229600235680506 0.253175684102805 0.329385707089495
-0.232071023338369 0.251279782051363 0.330381489384886
-0.232145789439154 0.251222412004444 0.342034788624698
-0.225023804824657 0.256687303007118 0.36305302171816
-0.227189740749565 0.255025321917703 0.367356247904279
-0.225062217371948 0.256657828022905 0.377965565429569
-0.225766115254997 0.25611770818046 0.389467583547492
-0.227981558249754 0.254417738980254 0.397398387538672
-0.225348839775556 0.256437894917257 0.39896297519986
-0.233492714907388 0.250188879741871 0.406808794692398
-0.226818072723305 0.255310512824821 0.423827455001787
-0.225267958821442 0.256499957056163 0.427440243300461
-0.229369060465946 0.253353071083889 0.44027465880726
-0.224975679646221 0.256724230755333 0.446095307562745
-0.227475150147732 0.254806319583866 0.457696194427365
-0.23201430435042 0.251323304061546 0.462920424116107
-0.232299415479346 0.251104530597748 0.470430862870704
-0.227228613272301 0.254995493981918 0.475522922736696
-0.224306700842128 0.2572375562461 0.496554890032699
