ply
format ascii 1.0
element vertex 856
property float x
property float y
property float z
end_header
-0.162312911829846 0.161100002652396 0.911041676028544
-0.161172973921323 0.162054551031064 0.91152748007581
-0.160667151557185 0.158839448209516 0.919156522956848
-0.15824953174677 0.157559811393898 0.927317401268013
-0.159758389817822 0.153593108531995 0.931002078528682
-0.156523090010641 0.153816074365008 0.938358018342753
-0.154202660516215 0.151971150479547 0.947326865043312
-0.149944257594476 0.153111388790725 0.953680193482083
-0.149295625730169 0.148521665430017 0.965460780866607
-0.147397983974339 0.14526590732499 0.976013502005394
-0.146419329261065 0.144993902451068 0.981702736391778
-0.14335890346224 0.147673908110512 0.992999655381538
-0.144485034207391 0.146809797597764 0.997728419435161
-0.102193904468349 0.102017016464104 0.962659824457921
-0.0902545990288758 0.0867461072658929 0.962659824457922
-0.0782690096963407 0.0807256353350072 0.962659824457922
-0.0722238428943253 0.0708625238197851 0.962659824457922
-0.0566870658936043 0.0572659937645161 0.962659824457922
-0.0582371074920866 0.0517245966004336 0.962659824457922
-0.0504946693666514 0.0483996032089064 0.962659824457922
-0.0380061546118652 0.0363484559482916 0.962659824457922
-0.0199808389486665 0.01721731285707 0.962659824457922
-0.0221116456391888 0.0204357601409758 0.962659824457922
0.00152306033185017 0.00485909683148961 0.962659824457922
0.0120717577203382 -0.015695181861511 0.962659824457922
0.0177889800446582 -0.0163607814232961 0.962659824457922
0.0301300491203132 -0.0320012423322124 0.962659824457922
0.0423719673864441 -0.0408508998147756 0.962659824457922
0.0423533599185064 -0.0467069894131718 0.962659824457922
0.0668932127063618 -0.0649563535365281 0.962659824457922
0.0735147977743138 -0.0710340801816384 0.962659824457922
0.0915533227296869 -0.0824625784619176 0.962659824457922
0.0972643333365989 -0.0981067912567468 0.962659824457922
0.103521042417429 -0.109479731011986 0.962659824457922
0.119501960687237 -0.120080984191078 0.962659824457922
0.130004332574878 -0.133139111261253 0.962659824457922
0.139909754229448 -0.141048594565534 0.962659824457922
0.147358189449119 -0.147212308424603 0.967872168057932
0.143033970267655 -0.147922260226346 0.978866250292601
0.142286238023693 -0.148496993250582 0.985652618271719
-0.166778872753069 0.183116755350957 0.239620588995741
-0.171035857144335 0.179850256340134 0.247159785127972
-0.167714727383847 0.182398648835937 0.257899650923365
-0.167284580159335 0.182728712410109 0.271388138828129
-0.170737429949217 0.180079247580894 0.278852777284396
-0.169627513970033 0.180930916066112 0.28231348434365
-0.164977538137956 0.184498968015514 0.297960067775732
-0.166168633260263 0.183585008582918 0.302464928916611
-0.172684463027769 0.178585236553235 0.30962316471396
-0.171612674894331 0.179407648513417 0.320895102721152
-0.16417736894658 0.185112959431007 0.327950014402377
-0.167833503019368 0.182307509085287 0.340075820739913
-0.166805126786119 0.183096609922855 0.35242202582084
-0.166612967499113 0.183244058929765 0.357656985290953
-0.169740639118301 0.180844112086827 0.363195956566997
-0.170994106287908 0.179882292899042 0.375508273923374
-0.168665843232276 0.181668831976742 0.390146978873858
-0.170596891648298 0.180187086412034 0.393470605430174
-0.168755315184422 0.181600177733194 0.403728355538731
-0.168676893149024 0.181660353077406 0.409920145812148
-0.17038522001926 0.180349507765585 0.422988726527706
-0.169463041910629 0.181057119916061 0.439366546532859
-0.1693994293545 0.181105931547153 0.438494817232404
-0.171168567413862 0.179748424168744 0.452399411995958
-0.172284464035389 0.178892166575252 0.461722588837129
-0.17195870786895 0.17914212807326 0.465981114603849
-0.170066404139506 0.180594143794317 0.473080483550363
-0.169135288472092 0.181308613974853 0.484511281274014
-0.16898016929557 0.181427641105352 0.487882064675567
-0.16715890117065 0.182825149289948 0.503687591618273
-0.169647245688663 0.180915775385888 0.513428430563105
-0.172033596994676 0.179084663625985 0.520470924550069
-0.169017382943311 0.181399086069119 0.52664063282807
-0.167649814328445 0.182448458375218 0.540794310270165
-0.172210275457031 0.178949093473626 0.548042215952627
-0.169404001073665 0.181102423543656 0.557354701604176
-0.167231051771702 0.182769786186563 0.568386219948637
-0.165210910201083 0.184319895333237 0.578602414004441
-0.169743039681018 0.180842270070268 0.584017016630892
-0.168627131506545 0.181698536528647 0.588730480505173
-0.168208417997366 0.182019826704471 0.606204025352547
-0.172962619412933 0.178371799652019 0.617995123145596
-0.167051042411449 0.182907912226774 0.630261731005878
-0.173102734732139 0.178264285386164 0.637095395795796
-0.172039226624255 0.179080343859277 0.644470549300584
-0.172324968143405 0.178861086680047 0.6465656187739
-0.170466923211111 0.180286814701474 0.664950990866846
-0.165157743434032 0.184360691628459 0.664908685021197
-0.164327753798799 0.184997565075315 0.677629660555519
-0.171997082581008 0.179112682121042 0.686899710173883
-0.173314449628503 0.178101830832425 0.702754364006637
-0.167306538688694 0.182711863037916 0.701251597190272
-0.167904136492181 0.182253310115342 0.717996314362749
-0.171828658253305 0.179241918653122 0.727999449862022
-0.168883627192305 0.181501720466663 0.732231166637246
-0.168921470882219 0.181472681982068 0.744671584453693
-0.167742806866572 0.182377102691033 0.75304891927865
-0.168675298412813 0.18166157676154 0.765404911755248
-0.171720562692948 0.179324863293864 0.769515722223129
-0.167292656076291 0.182722515541076 0.779147063997747
-0.167638823450349 0.182456891972604 0.795159223090444
-0.170745481192432 0.180073069644689 0.802205028240278
-0.17088831846556 0.179963466750129 0.807851110836161
-0.166987604212633 0.182956590068794 0.816662024505188
-0.16622772097502 0.183539668984728 0.827613243207254
-0.17270351632004 0.178570616447864 0.833083970922746
-0.166166771246542 0.183586437356298 0.84579040429642
-0.168781104347085 0.181497895156275 0.850837332374261
-0.161697058130944 0.182222844346633 0.862146140503472
-0.161661861948128 0.181580218770542 0.863753658722364
-0.161213534792896 0.177753744071348 0.873765322182631
-0.16141425155942 0.173654933358751 0.883235187829344
-0.157242340934712 0.176193126249032 0.884826848100973
-0.158598310659383 0.171146734318427 0.894443448936073
-0.153678246291933 0.172498867049198 0.900260493750865
-0.155997409451637 0.167533662857015 0.907907951568304
-0.151372352201696 0.166045194275437 0.920000720831227
-0.149581281091468 0.164110006191549 0.92794555883863
-0.149671548091353 0.161845273285549 0.933215995196288
-0.145441569397374 0.161899327607509 0.940878036111094
-0.145598887526191 0.159044003625353 0.947442732831424
-0.146836764963932 0.153350826763028 0.95882953503072
-0.143827924584105 0.155667909164878 0.958809566918891
-0.140942614821735 0.153006876197854 0.970512501205304
-0.138740187315417 0.151882561044664 0.977268495972164
-0.139109696831992 0.1509344390354 0.990472497141217
-0.134448981145532 0.154510731964918 0.995045511133797
-0.133744491920444 0.150494579754871 1.0
-0.0846017607944795 0.093656013102884 0.962659824457922
-0.0767043609091653 0.0880070001145838 0.962659824457922
-0.0676955032487416 0.076544048863246 0.962659824457922
-0.0603756658145899 0.0728774261751661 0.962659824457922
-0.0480137529536554 0.0620797895789069 0.962659824457922
-0.0351720916255699 0.0489461900279946 0.962659824457922
-0.0250947891367198 0.0419898940757522 0.962659824457922
-0.0160846545939892 0.0284340658803703 0.962659824457922
-2.09829006853653e-005 0.0155270638861369 0.962659824457922
0.00395207840539814 0.00652808621117483 0.962659824457922
0.0150572353808176 0.00308048052153837 0.962659824457922
0.0231452269126232 -0.0117225340614706 0.962659824457922
0.0356468508980112 -0.0163983734844113 0.962659824457922
0.040269659931583 -0.0275753931114884 0.962659824457922
0.0566679147417261 -0.0449534095629688 0.962659824457921
0.0647814957021408 -0.0521175586482954 0.962659824457922
0.0794165378071906 -0.0631728608342872 0.962659824457922
0.0939896452714386 -0.0778996013989974 0.962659824457922
0.111110698404168 -0.0936318437187 0.962659824457922
0.112392271360198 -0.0917368349896744 0.962659824457922
0.122333179773225 -0.104680984303649 0.962659824457922
0.137443369195719 -0.124161989577725 0.962659824457922
0.153883101972757 -0.139303804854081 0.965972289778285
0.152792871389465 -0.140136054036203 0.967851854433048
0.151713611583773 -0.13809425939713 0.98604599724045
0.152959904107832 -0.136470059357795 0.987281140636766
-0.161939009003776 0.186830513423931 0.242560618056663
-0.159931299732787 0.188371082931576 0.240314457558944
-0.162489461971035 0.18640813600654 0.257005315951188
-0.165716018123551 0.183932312392485 0.264120200441555
-0.159376460567569 0.188796825997036 0.27544537474212
-0.161787882452595 0.186946476905252 0.274604149764034
-0.161241616327765 0.187365641645454 0.285642877452544
-0.163102401384019 0.185937811052962 0.300684316898225
-0.161811421034084 0.186928415116417 0.313856015991881
-0.159962923924833 0.188346816835546 0.317219367870076
-0.162315372113998 0.186541719852178 0.329550179534181
-0.161072559966309 0.187495363154088 0.338460796429263
-0.162532480842419 0.186375126465535 0.343416178112651
-0.162900059077082 0.186093073765885 0.358393543505527
-0.164399029961122 0.184942872952365 0.363233405659923
-0.163539242694963 0.18560261092561 0.371477870461936
-0.159051863895358 0.189045897783831 0.38751992297665
-0.159816995541065 0.188458791622724 0.395363656677871
-0.157089391849896 0.190551755547469 0.398775904611413
-0.158294186106533 0.189627284399389 0.409825826067579
-0.160042688876016 0.188285611035809 0.426477242851269
-0.159346037021806 0.18882017080477 0.430387712547406
-0.162153114841705 0.186666224236205 0.434144304683119
-0.1609749216807 0.187570283645695 0.450217913348007
-0.160063233731144 0.188269846414005 0.460662075767884
-0.165032686409603 0.184456651258339 0.469056332892037
-0.163359066779949 0.185740864767784 0.474026496069254
-0.163756617094797 0.185435813682122 0.486030012627067
-0.161766748455627 0.186962693591489 0.498750048621652
-0.164502973949182 0.184863113925089 0.499482987793945
-0.160992829393896 0.187556542574068 0.511709393376496
-0.161762123510649 0.186966242436589 0.528435707672436
-0.16482213295295 0.184618214608042 0.528435354648998
-0.165814870117653 0.183856460589595 0.542955069867451
-0.16029791774557 0.188089767036089 0.558199794636847
-0.158284117003432 0.189635010693943 0.561651802140779
-0.16270986765889 0.186239012773944 0.567452872121612
-0.159297260423366 0.188857598405134 0.571482262148947
-0.161994605952301 0.186787852384879 0.586845128164639
-0.159301660096032 0.18885422241756 0.594835996119877
-0.163308022425149 0.185780032478806 0.600327028845253
-0.159183176461441 0.188945138108016 0.613925517451946
-0.161649621347061 0.187052568382916 0.620155774925721
-0.164039051406038 0.185219094212776 0.636131530019096
-0.15775990704038 0.19003725114596 0.644964964544331
-0.159086314868571 0.189019462622323 0.650401093761683
-0.158657348194824 0.189348620328033 0.657484346614859
-0.163299776906706 0.185786359487637 0.668676908530407
-0.163094361331636 0.18594398040214 0.673677907245424
-0.158898210453178 0.189163800216812 0.682950056919692
-0.160828860391528 0.187682360414776 0.693638122460829
-0.162260318884693 0.186583963680799 0.701713033533594
-0.163839832747083 0.185371960066301 0.717847750816086
-0.160996598756402 0.18755365024049 0.7289952459423
-0.164177631356615 0.185112758076705 0.732423146839621
-0.162150102423683 0.186668535745851 0.747215139683611
-0.160198744100435 0.188165865650497 0.747448414339143
-0.16235930132621 0.186508011782087 0.762319629927195
-0.161744652075456 0.186979648740331 0.76997112401288
-0.160206243959497 0.188160110806233 0.780179055225237
-0.160072916238799 0.18826241676457 0.786600546370442
-0.165954407651435 0.183749389674088 0.792786879327655
-0.160870780078327 0.187650194307768 0.801738910292715
-0.160328797267574 0.18806607234548 0.809987165677881
-0.162191864422771 0.186636490636879 0.819148486730771
-0.161347964694046 0.187284037673878 0.832520449837045
-0.165042510829457 0.184449112715844 0.842285025266819
-0.161564263837636 0.185349191177461 0.854885653054693
-0.16045284035644 0.18292016798537 0.862764050062454
-0.153345225217563 0.185177115735473 0.870438561307181
-0.157138383099925 0.181413394932204 0.872486579158633
-0.156063199770579 0.177209605408669 0.884558719796494
-0.155220053633875 0.174832085613946 0.891819299415024
-0.150054420543392 0.175045132451018 0.900823179140453
-0.151985112403937 0.172855485362818 0.902523222533797
-0.149509122585828 0.170324548847764 0.913159862578395
-0.144357521104404 0.174310024112286 0.913081813353731
-0.143532457341111 0.168371202043508 0.928858337669975
-0.140098172835433 0.16978948754706 0.931779705582149
-0.138875594804086 0.16706971221764 0.940560832919437
-0.135921506646035 0.167730840128928 0.944415289000738
-0.141344240286339 0.160478658891391 0.951835947147461
-0.13648102886385 0.159086526778879 0.964136141606328
-0.13193624215148 0.160927567716886 0.968088236957263
-0.131501683398432 0.156772273067877 0.980820022317955
-0.135352418267038 0.153817500279644 0.990553773510102
-0.13357570325422 0.155180821658927 0.99370400075465
-0.129507525649942 0.15547879408427 1.0
-0.0869693751295341 0.105665202748128 0.962659824457922
-0.0637449058914358 0.0928472281511888 0.962659824457922
-0.057388980599289 0.0836237892317539 0.962659824457922
-0.0484626808686954 0.076251221245269 0.962659824457922
-0.0397079696695429 0.0632106292075631 0.962659824457922
-0.0330446623789113 0.0530458334630968 0.962659824457922
-0.0266350333464269 0.0492138758623835 0.962659824457922
-0.0109026480282009 0.0357176672410968 0.962659824457922
-0.00295101182195789 0.0235229776927009 0.962659824457921
0.0159806937499519 0.0143944298655621 0.962659824457922
0.02244087237445 0.00220683310373601 0.962659824457922
0.0317019375321916 0.00429232511712599 0.962659824457922
0.0401794568740761 -0.0107073420755721 0.962659824457922
0.0491120107864379 -0.0223108158225641 0.962659824457922
0.0613784100387538 -0.0352373111127224 0.962659824457922
0.0806641715725785 -0.0551533522248347 0.962659824457922
0.0887483608652771 -0.0574028053570647 0.962659824457922
0.0980915648833152 -0.060847293349995 0.962659824457922
0.108830794336836 -0.0831334192531577 0.962659824457922
0.113096551277162 -0.0845745763762084 0.962659824457922
0.143214960062039 -0.106029750750354 0.962659824457922
0.13776366143322 -0.109882428696041 0.962659824457922
0.15401135140766 -0.119016291451883 0.962659824457922
0.156492364710611 -0.132332382486148 0.977376020873438
0.161263147344251 -0.125649062095223 0.98499900800237
0.16014193337924 -0.127110256582807 0.990411431830295
0.155379454908218 -0.124850225010026 1.0
-0.154673162761785 0.192405793335916 0.229287190597741
-0.151261737706384 0.195023471848392 0.246562738716063
-0.149028125370805 0.196737382874166 0.257816528120838
-0.153387611041086 0.193392231865652 0.263170983062946
-0.152034873588868 0.194430223820388 0.276840093872232
-0.156637696658584 0.190898353458102 0.283654371289467
-0.152474269328334 0.194093063611093 0.290697504667524
-0.154916596026458 0.192219000422161 0.30564670441941
-0.156147157815189 0.191274757151291 0.310435211211294
-0.15323973185613 0.193505703555229 0.315180017274276
-0.155268289514984 0.191949136516918 0.330827169029055
-0.15327998470478 0.193474816458116 0.339269684695304
-0.152556766025215 0.194029761669157 0.343950774779464
-0.152106605914797 0.194375181670792 0.358929077970106
-0.155953008089036 0.191423733475879 0.36292617651178
-0.149567984529097 0.1963231343723 0.370945173633812
-0.154573561770621 0.192482219864466 0.386296826279992
-0.153603509342209 0.193226567272541 0.394988495255198
-0.157125149807998 0.190524317501182 0.403464989040343
-0.151163149886066 0.195099120943609 0.413802796568773
-0.15714990328874 0.190505323487363 0.424364149278916
-0.155370915700165 0.191870388675355 0.434194054200427
-0.154763589115972 0.192336406753924 0.441470422437765
-0.151372152426834 0.194938747653522 0.442929459179467
-0.151223327864556 0.195052944756632 0.458024804388862
-0.157200011750002 0.19046687391271 0.470003235479809
-0.15793597004817 0.189902153248499 0.470900958616228
-0.153230433384976 0.193512838523092 0.486600228738179
-0.154025761565184 0.192902561746118 0.491111572835366
-0.151340987724302 0.194962661170847 0.498814767575149
-0.15548560925754 0.191782381213434 0.506335176869198
-0.156298648332489 0.191158514388945 0.515892802314357
-0.15150963416246 0.194833254207422 0.526852906371199
-0.154302411666053 0.192690280657494 0.54314407943957
-0.155764889708118 0.191568081786491 0.547058927871937
-0.153030375227223 0.193666348546701 0.562081157812531
-0.15157354057616 0.194784217091485 0.568127029931898
-0.153576399312173 0.193247369530232 0.579940021048959
-0.155801324880662 0.191540124095287 0.58434620984122
-0.153131113516259 0.193589049338801 0.595572656875694
-0.154058177901111 0.19287768781671 0.600714481431021
-0.150864982953645 0.195327912477779 0.606451960539022
-0.155380042291418 0.191863385595579 0.626437834098908
-0.155643080972198 0.191661548916933 0.632992388238672
-0.155471387866501 0.191793293670585 0.643424961942734
-0.156717432273098 0.190837170169184 0.650216885191759
-0.152439193409169 0.194119978310496 0.662780720932964
-0.152852971666642 0.193802475086498 0.664851025109539
-0.154093857893008 0.192850309595997 0.678448665274246
-0.155786111366898 0.19155179783498 0.688095403071056
-0.148897422374789 0.196837674810418 0.691080593206138
-0.155208728832882 0.191994839035718 0.704886772755993
-0.151556076913086 0.19479761743147 0.707865080411638
-0.154163802833297 0.19279663895564 0.72148933548567
-0.152589690018341 0.19400449820068 0.730080630298011
-0.15842138268294 0.189529683033534 0.746224006139482
-0.156910560651121 0.190688977552582 0.748560511189553
-0.152460783904587 0.194103411340678 0.761862719969393
-0.155230126451111 0.191978420065772 0.761330832591302
-0.158106030454498 0.189771661309136 0.779149373493272
-0.15250322709056 0.194070843538625 0.784338872030453
-0.153822830546625 0.193058276193357 0.793165646217612
-0.154398826393671 0.192616299034955 0.803151981633545
-0.152614950236948 0.19398511535322 0.819498524515412
-0.150309319790079 0.195754287819409 0.823115892994477
-0.153478449549621 0.193322529026505 0.831514060330566
-0.155334318184966 0.191898470936461 0.842410438005617
-0.149214323464954 0.195554794093127 0.853135232524249
-0.153751738458589 0.191102721440919 0.855464752311917
-0.154170676351671 0.186806678785168 0.865006119714275
-0.150025871926365 0.186631046984516 0.873062649868445
-0.149303803285684 0.186232799276619 0.875348763951945
-0.147134162173209 0.183127067826177 0.886800947704492
-0.147543506752064 0.180484373873333 0.892390961701382
-0.144889968266562 0.179839480105653 0.898827024627176
-0.140501933653329 0.177716355678301 0.91200674116315
-0.138759948269065 0.177307200256816 0.916197771000912
-0.133691632442255 0.178015572758821 0.923833310584816
-0.135775879790208 0.174395679872801 0.928683942569892
-0.134142989106877 0.172234464841008 0.93688000511221
-0.128669775794356 0.170936739502857 0.950077216754899
-0.129095692588593 0.169057140927453 0.953804819186158
-0.124671735810936 0.168716094766449 0.962772653333055
-0.127965092453066 0.162634315566114 0.971306051783153
-0.128273182552805 0.159724461477513 0.977723924851655
-0.124401826672678 0.162220184744332 0.980339094718532
-0.126978871211099 0.160242748920778 0.998325362089191
-0.118681194568446 0.16398316857431 1.0
-0.0680480547275136 0.110596442425665 0.962659824457922
-0.0542487880642883 0.0987293495772337 0.962659824457921
-0.0477450623644316 0.093491237717196 0.962659824457922
-0.0477035820694735 0.0846255162068663 0.962659824457922
-0.0378697851786841 0.0735147250795964 0.962659824457922
-0.0212627980700694 0.0706819323858799 0.962659824457922
-0.0196446738517158 0.0550493576321001 0.962659824457922
-0.00316382761076528 0.0510657430734897 0.962659824457922
0.00534889562979071 0.0368662024598738 0.962659824457922
0.0134540813961684 0.029927682018536 0.962659824457922
0.0243470269351439 0.0232273070106454 0.962659824457922
0.040354080501304 0.00623042470699451 0.962659824457922
0.048085054804211 -0.0134330766589285 0.962659824457922
0.0541139654224453 -0.0127255794101437 0.962659824457922
0.0705130967769752 -0.0301410831484583 0.962659824457922
0.0853591081086008 -0.036316514856377 0.962659824457922
0.0961422282152233 -0.0558868189786387 0.962659824457922
0.102839418388963 -0.0575685779730778 0.962659824457922
0.121562341614356 -0.0826634450585343 0.962659824457922
0.135955036273334 -0.0870278674366769 0.962659824457921
0.132545992340744 -0.0886881499685498 0.962659824457922
0.154545874499549 -0.110174848528785 0.962659824457922
0.171004647788554 -0.120242765212324 0.955586543040251
0.163322911299818 -0.123673732191045 0.97659971861595
0.161846781619359 -0.12488845509944 0.980549463476385
0.160466142453795 -0.118751056385971 1.0
-0.144442018086964 0.200256426762824 0.234553783400775
-0.146399888722548 0.198754099785169 0.246270726944656
-0.147652201862255 0.197793166115671 0.257185224988232
-0.147229659538039 0.198117394244605 0.266432933171044
-0.145413641670697 0.199510873764869 0.268894071280366
-0.145867237695868 0.199162817293115 0.274067248664112
-0.143552267249833 0.200939156592731 0.288190306036614
-0.147167928223399 0.198164762348332 0.295608687395227
-0.141447071878851 0.202554529815854 0.306055451980322
-0.147773109223535 0.197700390634316 0.317669469510579
-0.147756536641563 0.197713107223723 0.324672432517545
-0.145465711062644 0.19947091951518 0.33782537694711
-0.14643111443863 0.1987301394505 0.35065045260739
-0.150344768686314 0.195727086924634 0.349264414397726
-0.145304374527555 0.199594717392701 0.369203716568565
-0.143840264754683 0.200718168334789 0.367456271111387
-0.142329679306533 0.201877281316802 0.376069871130029
-0.146424323244278 0.198735350517207 0.383204057847313
-0.148505283017358 0.197138573922424 0.396025130197918
-0.142231331882389 0.201952745949547 0.408706552590864
-0.147235411539681 0.19811298057851 0.41622621973271
-0.144958496968629 0.199860118578201 0.42768335892401
-0.145560978781441 0.199397818023464 0.433719075825146
-0.143596006869218 0.200905594002334 0.441056414836384
-0.14557243627222 0.199389026381574 0.454974509694851
-0.149130072849532 0.196659155822382 0.46121989852716
-0.149381164821258 0.196466486176011 0.476067087144844
-0.148959203036463 0.19679026884138 0.480885466487353
-0.149281512807848 0.196542951855307 0.48830351796161
-0.144983684736194 0.199840791324381 0.499823624891871
-0.143876485594245 0.200690375107066 0.509254971060608
-0.145403325987233 0.19951878926719 0.518755541538428
-0.142861158033334 0.201469463346192 0.524266963400727
-0.145634118983582 0.199341695572455 0.537237327560864
-0.144583406151921 0.200147935884804 0.54642275387293
-0.147878971237988 0.197619159853624 0.558342359517733
-0.144237100101197 0.200413665863625 0.567255842425245
-0.146143077066204 0.198951158299909 0.572082196695212
-0.144650909825538 0.20009613849425 0.581135746207572
-0.14797263288057 0.197547290747531 0.590600162543519
-0.145640988781447 0.19933642419115 0.605759296135225
-0.148901666477619 0.196834418195777 0.610846385054762
-0.149814586187949 0.196133910264183 0.617719480085276
-0.147412496211901 0.197977098730359 0.62388031750904
-0.144378997959456 0.200304783807447 0.631853852388286
-0.149383244535576 0.196464890355088 0.648006828549316
-0.14533701946431 0.199569668051708 0.659170826087296
-0.147786189775701 0.19769035357362 0.666048309101718
-0.146296962030301 0.198833078213913 0.681664560602027
-0.145857085551121 0.199170607307764 0.681022926074713
-0.145645962162845 0.199332607981383 0.696082384071965
-0.14444470941432 0.200254361634709 0.709707436428699
-0.143086916891497 0.201296232481548 0.716170109053765
-0.146951768019522 0.198330627906493 0.723769616350726
-0.142790752845374 0.201523487147007 0.732805447813717
-0.145560565002287 0.199398135527376 0.74415828376253
-0.150370811506231 0.195707103566068 0.744968483148875
-0.142641480892485 0.201638027545006 0.759110263754027
-0.147291904373349 0.198069632102609 0.768444112464454
-0.145456102642089 0.199478292315584 0.777167338898235
-0.142104501005248 0.202050066704486 0.787500099804461
-0.144933024724611 0.199879664118481 0.799821895570866
-0.147483018689832 0.197922984929783 0.81263109953311
-0.146217088878812 0.198894367038665 0.817403957356284
-0.145932039582317 0.199113093056771 0.820480714946768
-0.146240613349606 0.198876316077347 0.82893460681377
-0.144075542283348 0.200537633537379 0.841864713950472
-0.146895350481984 0.197626476031389 0.85243360658065
-0.144613818070808 0.197416760265616 0.857139731030448
-0.140645859502659 0.198536286000417 0.86176135157573
-0.137301040011093 0.198236551345808 0.868642195901494
-0.14129993080871 0.191009413264713 0.878625515568116
-0.13621367263491 0.189524959378058 0.891558199200426
-0.136614560375917 0.186373073619267 0.898386155616701
-0.134763679435782 0.187987603173912 0.897919722751472
-0.130405464254503 0.185949023552768 0.910841552557471
-0.131071787958594 0.185385746803777 0.910966356230295
-0.12654156733174 0.184365897785971 0.921759465397624
-0.12951343538239 0.180366381406256 0.925886384880069
-0.125089298531625 0.178618143301448 0.938232652142439
-0.121993007305786 0.177146538728556 0.947468884615918
-0.125322650944016 0.17112928920506 0.955780531072159
-0.122722534377862 0.171822825630959 0.958905156383755
-0.116031619413989 0.174662245136028 0.964413807677059
-0.115944089119869 0.171002367080832 0.973360936243487
-0.112309482880886 0.171498966483695 0.985319347925659
-0.113926565005784 0.170258135727482 0.998395170196863
-0.112068098554694 0.166291093375793 1.0
-0.0588289500258283 0.116614268520679 0.962659824457922
-0.0603808754976389 0.116371172223148 0.962659824457922
-0.0419421980556928 0.0986712106975799 0.962659824457922
-0.0322104476860248 0.0850171451544077 0.962659824457922
-0.0272990134420534 0.0782902308976806 0.962659824457922
-0.0154104520695769 0.0722879156559933 0.962659824457922
-0.0115475633208859 0.0617224724458961 0.962659824457922
0.00840086350392033 0.0525797416474918 0.962659824457922
0.0101809500692107 0.0472946613364705 0.962659824457922
0.0235385422607645 0.0271056624990389 0.962659824457922
0.0356847807556615 0.0194857368066411 0.962659824457922
0.0437069596921158 0.0196493799838242 0.962659824457922
0.0597388421521506 -0.00548500313379919 0.962659824457922
0.065606763531636 -0.0139864895047985 0.962659824457922
0.0846311713676645 -0.0287620231892467 0.962659824457922
0.0920136611010391 -0.0388920552484763 0.962659824457922
0.0962603413129928 -0.039960620958872 0.962659824457922
0.117619557755164 -0.0588253054161419 0.962659824457922
0.121167404800812 -0.0650892546199799 0.962659824457922
0.133784850695727 -0.0797783080760236 0.962659824457922
0.153404908797797 -0.0898954648953825 0.962659824457922
0.155833052675026 -0.0954061011484139 0.962659824457922
0.174573464944481 -0.114579753304598 0.95881844783255
0.169917586453886 -0.117650971362815 0.968387459817805
0.1697115045898 -0.114638948573996 0.981768867579011
0.170336775908529 -0.113824079126517 0.987314182783446
-0.141707770592371 0.202354488657238 0.23232000788214
-0.139117108093713 0.204342373909203 0.24357217590473
-0.140979840916836 0.202913048742628 0.248142382204127
-0.142850412995914 0.201477708303391 0.265151201280044
-0.138615626116363 0.20472717456441 0.273239030511286
-0.134833543722557 0.207629268455937 0.283947131380266
-0.136303803249209 0.206501098641803 0.285766093705036
-0.136348601684495 0.206466723593389 0.294344975631141
-0.138072821646928 0.205143683083002 0.308062462223134
-0.143603845392544 0.200899579291838 0.313910648918886
-0.138927824360514 0.204487616426073 0.323538514877761
-0.138977340979773 0.204449620987762 0.329711861623897
-0.136305675300218 0.206499662166541 0.34562585153575
-0.140890707799699 0.202981442988929 0.350416113589901
-0.141423575148891 0.202572559490881 0.368047612733972
-0.140652683885503 0.203164085162076 0.380699741236274
-0.136323020023721 0.206486353092099 0.377786023136956
-0.1366983523511 0.20619835046784 0.386343073625578
-0.141486855246882 0.202524002963891 0.398386304965895
-0.143928412357654 0.200650530300104 0.408397045740999
-0.135520065183811 0.20710248201089 0.412381947342989
-0.142368534050917 0.201847467022826 0.428633111911335
-0.142400315007481 0.20182308063715 0.4410831056229
-0.135143691051884 0.207391284039895 0.449591443983493
-0.138982593857652 0.204445590312801 0.459834582015154
-0.135289489856689 0.207279408682153 0.46550337984484
-0.140286574793295 0.203445010549072 0.474562277495522
-0.13992713075327 0.203720821661652 0.487853314557061
-0.137805793140444 0.205348581262587 0.485733159059092
-0.142511929908836 0.20173743551108 0.501599972045268
-0.139493399518076 0.204053635343945 0.502006826935552
-0.141445439782374 0.202555782167528 0.52022203259125
-0.138018799509563 0.205185135726951 0.532586336542422
-0.136347722460709 0.206467398245529 0.532709215712027
-0.139878073629011 0.203758464517048 0.544830481418626
-0.140586271107398 0.203215045479063 0.551478080760549
-0.138944256599222 0.204475007525839 0.570597218695032
-0.141449532771983 0.202552641506139 0.573292581325592
-0.141018388233188 0.202883470346476 0.582983463353724
-0.139603717999531 0.203968984995852 0.591340042120729
-0.140931215735494 0.202950360156567 0.602788409246925
-0.138420974774 0.204876535792652 0.613144075325602
-0.140654857397499 0.203162417367663 0.613671167802261
-0.138407116012256 0.204887169994557 0.627418726948001
-0.139557341635562 0.20400457083153 0.64115115270031
-0.142951984828694 0.20139976949488 0.649515461232332
-0.137506087844021 0.205578553224973 0.661901440880024
-0.137546850685057 0.205547274796939 0.658220746692028
-0.137896249757815 0.205279171458837 0.675683630256337
-0.142685320851493 0.201604387961308 0.689143960534727
-0.141917882762629 0.202193263918497 0.69545832384353
-0.136438792770816 0.20639751753878 0.704677549178935
-0.139073947876112 0.204375491908976 0.710635408221582
-0.13862261829159 0.204721809279653 0.7234496154235
-0.142242043459073 0.201944526667673 0.727122406277296
-0.139170451005623 0.204301442453278 0.738020345539717
-0.137454597994517 0.205618062776104 0.747687156244955
-0.137167157906433 0.205838623313118 0.759027331775289
-0.137925455767181 0.20525676089964 0.763610664069886
-0.136983941495307 0.205979210210016 0.776520407297212
-0.139579837446418 0.203987309188744 0.785462137870849
-0.138892947048258 0.204514378729035 0.79695146587566
-0.140328909073581 0.203412526313291 0.800464559842105
-0.138186825402836 0.205056204924363 0.816129717004852
-0.140467007172089 0.203306559915318 0.821609577177933
-0.138690071097982 0.204670050920894 0.83374959795603
-0.139065756579586 0.204381777311868 0.840614560871191
-0.139536026702903 0.204020926354606 0.844175571020182
-0.138418869963501 0.202069732538654 0.857381179759823
-0.13444809711589 0.203122915888371 0.862167245690968
-0.13554171708639 0.199929606871484 0.867818599967517
-0.130808520849121 0.198970422568328 0.878839967422067
-0.130933655811069 0.196517876387685 0.884497039557533
-0.124516177317494 0.197828297485829 0.893172518753648
-0.127781113899088 0.190315106100907 0.905194512645278
-0.125731634455451 0.188809322093367 0.912584523634657
-0.12176556507163 0.189207410981516 0.918934543685966
-0.119572334019971 0.188866073791849 0.923793983271488
-0.119211543676008 0.186841460514578 0.92931885618017
-0.117796695669918 0.186036004835299 0.933858642221981
-0.115341282142444 0.182908393954145 0.945889754820549
-0.116209408073677 0.179214378738281 0.953158472895725
-0.109221448231909 0.180201390645619 0.963661178676236
-0.109442319958992 0.178028803229355 0.968469831252311
-0.107960659412055 0.174835936097285 0.980397103749382
-0.104889225303675 0.177192730380443 0.984382680187739
-0.104905833112854 0.177179986760248 0.995007668301024
-0.104103279679854 0.177795807668685 0.999111908802243
-0.0612939023933374 0.132963743958711 0.962659824457922
-0.0545127686523058 0.120865745235508 0.962659824457922
-0.0396178163860568 0.103042302830628 0.962659824457922
-0.0332533344709245 0.0946946924755215 0.962659824457922
-0.00939646102577692 0.0874166523424855 0.962659824457922
-0.00972498630577889 0.0718874188818537 0.962659824457922
0.00173240915549987 0.0687577898190033 0.962659824457922
0.00906582367195703 0.0630483387241063 0.962659824457922
0.0141657970557464 0.0531313642513317 0.962659824457922
0.0336854424649106 0.0308589380171715 0.962659824457922
0.0377058818514109 0.0295741112761999 0.962659824457922
0.0458114721102002 0.0177100535694075 0.962659824457922
0.0679741125392875 0.00848331688293123 0.962659824457922
0.0782949466196509 -0.000739961157788792 0.962659824457922
0.0916836556225998 -0.0233373757331686 0.962659824457922
0.104270528695276 -0.0255429345657077 0.962659824457922
0.109392700905437 -0.0335456518872966 0.962659824457922
0.122345390732302 -0.0457751028876718 0.962659824457922
0.13845666381391 -0.0557748866015886 0.962659824457922
0.144575125917375 -0.0690082615246209 0.962659824457922
0.162292195770339 -0.0826089886970906 0.962659824457922
0.161403345070036 -0.0932313737801534 0.962659824457922
0.179897288606329 -0.10703307338237 0.960761788644626
0.180635476931583 -0.10331671336784 0.968403426886238
0.178552570315063 -0.103117047397875 0.983587176816011
0.172530880535357 -0.104082018841756 1.0
-0.129442354614835 0.21176607335559 0.228092909409089
-0.13431065225355 0.20803049719189 0.247373141257213
-0.12936233038164 0.211827478109413 0.242708330435604
-0.133576303782011 0.208593982592682 0.261320053732197
-0.135987476795768 0.20674382446654 0.274061435006915
-0.131068939523294 0.21051795085709 0.268938053251521
-0.135529434967671 0.207095292322862 0.28782739587378
-0.135020812886569 0.207485571772374 0.296343809080231
-0.13266995108388 0.209289451478586 0.303558147912314
-0.133127039829395 0.208938714948251 0.316202069566994
-0.129257865499479 0.211907636832791 0.327435749856773
-0.134169872415632 0.208138521360888 0.337382656114205
-0.131182835844384 0.210430555136086 0.340723590059935
-0.134813843732519 0.207644384789956 0.35228138990002
-0.132958415098013 0.209068105255482 0.355079420266743
-0.132966078859144 0.209062224644736 0.369516537131891
-0.130644496882797 0.210843637149992 0.382756021673278
-0.131292548068364 0.210346369985716 0.397246933983579
-0.13299651900802 0.209038867096985 0.402594740280031
-0.129635941781284 0.211617528698248 0.400066366845599
-0.129621626690793 0.211628513053517 0.410968479087691
-0.135047056078551 0.207465434662916 0.426662574668312
-0.133442858952276 0.208696378411946 0.430113067192518
-0.134656372828917 0.207765216464111 0.440691510394635
-0.130863111204862 0.210675888480713 0.454765110963081
-0.133997812915311 0.208270547259022 0.469003454045674
-0.131767435557908 0.209981975998735 0.467311726778459
-0.129732411954991 0.211543504530427 0.485200550528218
-0.131487168065276 0.210197032809684 0.496684325953654
-0.132970793719502 0.209058606805139 0.499870443232827
-0.1289504497691 0.21214352521924 0.514035618726419
-0.131682269023966 0.210047326578701 0.51177381173745
-0.131778211021563 0.209973707694664 0.524049298696489
-0.135064579885397 0.207451988172991 0.533501852616685
-0.129053518251188 0.212064437991324 0.543134242043379
-0.132588842050214 0.209351688629087 0.557235419463755
-0.13160428317721 0.210107167223597 0.566839809880416
-0.132895295087755 0.209116538942834 0.570865018373733
-0.129913140082344 0.211404826960823 0.577973373019298
-0.127330414830605 0.213386621749015 0.594421281249279
-0.133714999085319 0.208487557943348 0.599570737455921
-0.131698559056384 0.210034826797191 0.603646683240591
-0.128411897995146 0.212556770529819 0.616782486662322
-0.133581849265396 0.20858972739362 0.633955477902436
-0.130173247166861 0.211205239775107 0.640217308107793
-0.134385336446089 0.207973189995379 0.644449913262617
-0.13074646630717 0.210765393258723 0.664025423487209
-0.128729904619818 0.212312755464352 0.662020820553314
-0.129501608982347 0.211720605880243 0.673812500942284
-0.130856265975235 0.210681141010145 0.684137538770284
-0.131169722312562 0.210440617502961 0.6994494467082
-0.131082831873858 0.210507290881576 0.701840323267538
-0.133977624562709 0.208286038326817 0.707556870479389
-0.130615971082615 0.210865525766326 0.718249186333113
-0.128311186203031 0.212634049405917 0.733058301096092
-0.133844531861247 0.208388163948551 0.735075339426971
-0.133677182676807 0.208516575494189 0.754504063159911
-0.131175559028134 0.210436138833582 0.751376576090528
-0.133364496555057 0.208756507994174 0.768413061980758
-0.127771958915919 0.213047813055972 0.774732395568534
-0.130303797419683 0.211105065042829 0.78531294794249
-0.132124859998908 0.209707714578992 0.800626199845083
-0.131338743830639 0.210310922730592 0.806918976242558
-0.131339605443206 0.210310261592016 0.81715555156017
-0.131583610921755 0.210123029603111 0.826526348283921
-0.130612085658145 0.210868507157382 0.82540984470315
-0.12930037986663 0.211875014411499 0.837231664303062
-0.130847356304039 0.210687977641308 0.848377090928764
-0.128155138411444 0.211457602032961 0.853750921189703
-0.127211367810361 0.205928470797826 0.868762605855253
-0.12754561793185 0.206236047030809 0.867408535959276
-0.128444245742521 0.20246389710564 0.874808638239254
-0.125661703120897 0.201683255973569 0.881808207138454
-0.121577987275423 0.199783110762354 0.893892072009905
-0.121095179123499 0.199035360092977 0.896576473855092
-0.121395372565355 0.1935130383297 0.909280376185874
-0.116461224767013 0.195670352911032 0.913190445779788
-0.109671135928169 0.19547465325024 0.923988237485276
-0.113844922963824 0.191891461427195 0.927081384099948
-0.113908085990527 0.188977302183267 0.933960758368217
-0.113274651182996 0.186622667362981 0.940780103042615
-0.10864300417008 0.184188409192555 0.955155471023147
-0.107601189939879 0.182537642597859 0.961037363967112
-0.102787328768469 0.182102820579563 0.96934108175979
-0.103111755945428 0.178968557197905 0.977727414646752
-0.104627691972161 0.17739341196397 0.989528806797065
-0.0987379715287179 0.180373704030206 0.993206611142702
-0.10327290676656 0.178432975215142 0.999801383004174
-0.0970260660022898 0.17649657839083 1.0
-0.0417033495762447 0.118100765808748 0.962659824457922
-0.0252250033322219 0.107814361332247 0.962659824457922
-0.0210295093547039 0.102163509011399 0.962659824457922
-0.0114248237733746 0.098330290768776 0.962659824457922
-0.00092585137589717 0.0777898918510087 0.962659824457922
0.0115735470104917 0.0755356312024824 0.962659824457922
0.0194545455501498 0.0587282775630974 0.962659824457922
0.0368534523098486 0.0532898863899082 0.962659824457922
0.0462047335931033 0.0394075471466913 0.962659824457922
0.0477951421273717 0.0414533470288468 0.962659824457921
0.0624451375175457 0.0284476857766821 0.962659824457922
0.0676760930113081 0.014603745292298 0.962659824457922
0.0855985562883079 0.00473828510203377 0.962659824457922
0.0921507858100202 -0.00531233486675808 0.962659824457922
0.110109323119092 -0.0250395675495056 0.962659824457922
0.120585551015596 -0.0361486294788908 0.962659824457922
0.130594480793294 -0.0448001210333057 0.962659824457922
0.135557640841578 -0.0565730874425832 0.962659824457922
0.14913895855583 -0.0578280363001337 0.962659824457922
0.156207506701594 -0.0681721997934646 0.962659824457922
0.186992118050523 -0.0943762408577512 0.955543798513414
0.184294813601642 -0.0947742571649624 0.967817311342184
0.183752508306209 -0.0963859700906728 0.967210100844558
0.183133230957089 -0.0920758841961025 0.983929981478916
0.182060063241673 -0.0946667402493605 0.993164811460442
-0.124167610180894 0.215707719633422 0.230812767904685
-0.121483733864055 0.216819417603589 0.239078762799978
-0.128028696331583 0.21285081150811 0.252799730747036
-0.12112023696989 0.216969982947033 0.260688350918597
-0.12674132321315 0.213838647645481 0.266759370261653
-0.126241540388067 0.214222144495296 0.274174062358532
-0.126494579214114 0.214027980975064 0.286768099766761
-0.12923932526844 0.211921863252431 0.293963851472135
-0.121109663871576 0.216974362467751 0.306315945472405
-0.122991309109863 0.216194959490477 0.309830330433439
-0.124199143843347 0.215694657962763 0.325126593024047
-0.124033718745912 0.215763179281677 0.334210512409676
-0.124520310498506 0.215542890642072 0.344944070806326
-0.122806822334437 0.216271376414937 0.353043460849119
-0.122380008961224 0.216448168302724 0.360396121717859
-0.127396080459184 0.213336234740025 0.372235059303173
-0.124664047808535 0.215432597124908 0.383607272813786
-0.126691939515898 0.213876541089149 0.385981724344937
-0.129035946550273 0.212077921231661 0.398997914070708
-0.125886377383997 0.214494670653451 0.41230245199416
-0.125299524697537 0.21494497855774 0.414911990836244
-0.12065617960225 0.217162201802428 0.418326902106084
-0.124527058072608 0.215537713046361 0.430484186656084
-0.121946557312523 0.216627709854249 0.435641542108277
-0.123550306307933 0.215963415269708 0.452873732934072
-0.124030192260528 0.215764639999751 0.453156642078941
-0.127391288271732 0.213339911914788 0.465933083603376
-0.126052076205027 0.214367525476199 0.480054132513733
-0.125960051864289 0.214438138236397 0.495279906176687
-0.12459863314556 0.215482791561218 0.4989709095165
-0.123733331330134 0.215887603823259 0.509650827657868
-0.124315777173486 0.215646346855595 0.519165211704305
-0.122445721255074 0.216420949379397 0.524107865202646
-0.120223914613034 0.217341251823501 0.535182134776438
-0.128087030129639 0.21280605041055 0.543605804685941
-0.127257641136152 0.213442462968785 0.55498175459613
-0.127265979544384 0.213436064683111 0.562368452544486
-0.125469405418429 0.214814624495862 0.566383715569465
-0.126564650937261 0.213974213050799 0.579360802035344
-0.124798871426475 0.215329143324245 0.595530107151087
-0.125082783406082 0.215111290000082 0.605122349272134
-0.122945602112373 0.216213891948733 0.615329290246425
-0.125906987379663 0.214478856047554 0.614697284817061
-0.125346782469705 0.214908716393764 0.624784178793838
-0.124627128374894 0.215460926402721 0.628413634901186
-0.121433173798084 0.216840360268628 0.642047130444771
-0.122337447990768 0.216465797633915 0.651063114176189
-0.12663488462537 0.213920320846448 0.658828940585574
-0.126505628474044 0.214019502579722 0.674457939627864
-0.125660210429316 0.214668214661567 0.685197170415308
-0.124811676098296 0.215319317953984 0.693123108018265
-0.122366245644672 0.216453869255103 0.699171602693952
-0.120929359968904 0.217049046789586 0.707427051869825
-0.12254286370739 0.216380711658165 0.715939288417089
-0.123957113030184 0.215794910408087 0.727615811955482
-0.119465519959225 0.217655389174739 0.736548724616813
-0.123331380552276 0.216054097286853 0.744347601056839
-0.122076008545485 0.21657408939789 0.75621279779836
-0.126597382544745 0.213949097205018 0.761449984240284
-0.128046019159263 0.212837519234923 0.772295960437963
-0.121502778613819 0.216811529009945 0.783134680300943
-0.120829120383717 0.217090567385257 0.787067718572739
-0.125886854110894 0.214494304848037 0.798238331207161
-0.121058147317032 0.21699570132333 0.815101573478976
-0.125351222898533 0.214905309132885 0.820933460701046
-0.1247420924724 0.215372711348056 0.828135733483441
-0.126594287929878 0.213951471786521 0.835260524701867
-0.122351325199762 0.216460049505741 0.842467046072952
-0.122670794909132 0.215191260489548 0.853816335140946
-0.116224563835128 0.214374987340328 0.863562728553861
-0.121741573417997 0.209507506509142 0.870246379486615
-0.121204119967354 0.207597575103175 0.875821368464027
-0.112983487135962 0.207847013565791 0.88556506473457
-0.112972620829702 0.205076433622006 0.8933229559452
-0.108980850724107 0.20508965515492 0.897908291672719
-0.115657665433723 0.200324952816011 0.903496816070915
-0.108879173220968 0.197512207009207 0.919209202557356
-0.107663325640806 0.197081276155449 0.921821792388302
-0.10643393525013 0.195306997790279 0.928205466003967
-0.104721965920538 0.193044278470376 0.936513408705361
-0.106571404621143 0.190661180364213 0.941033920352221
-0.0972235908560579 0.190992252318866 0.950932754815414
-0.0983304907216966 0.188127892349226 0.957658488327454
-0.0944944501168488 0.187689363862408 0.963326388031389
-0.0987266084723283 0.183600891881437 0.969855279694679
-0.0911215801664542 0.183528516628797 0.988042159407104
-0.089369286832363 0.184254340293033 0.984810633011713
-0.0950673334624429 0.181894132099819 0.995555098415218
-0.0418622752295099 0.135417510407377 0.962659824457922
-0.039157898038775 0.12902009042676 0.962659824457922
-0.0309828552299221 0.123064027799047 0.962659824457922
-0.0199910924470013 0.108375545353479 0.962659824457922
-0.00897723595912043 0.104728721967553 0.962659824457922
0.0115832804654477 0.0912683188164239 0.962659824457922
0.0192684007390724 0.0809064989631514 0.962659824457922
0.0271173044191314 0.069872059077515 0.962659824457922
0.034028737631214 0.065209872876309 0.962659824457921
0.0458309274759336 0.0484511727476597 0.962659824457922
0.0573556144169962 0.0447173138820115 0.962659824457922
0.0671984956198878 0.0340961322731092 0.962659824457922
0.0778739369502538 0.0270722177471269 0.962659824457922
0.0820442794478674 0.0145213702422957 0.962659824457922
0.102209006390019 0.00436524011110999 0.962659824457922
0.108841000695779 -0.00203056865354411 0.962659824457922
0.125116677953332 -0.0166550541722383 0.962659824457922
0.142450421529767 -0.0403434340357244 0.962659824457922
0.142697884148557 -0.0433810922871316 0.962659824457922
0.157369322711582 -0.0592879408400883 0.962659824457922
0.173548371586848 -0.0732707825596193 0.962659824457922
0.18166689918195 -0.0733785337963581 0.962659824457921
0.188528875612283 -0.0802072843501468 0.976539951945731
0.186273742546924 -0.0856372325614084 0.976568909261035
0.187733234798272 -0.0809704925357496 0.99514321080114
0.183510771832359 -0.0758133964953713 1.0
-0.120919045476106 0.217053319192392 0.22885301011413
-0.11743652373209 0.218495826930022 0.237466040502765
-0.116972664413986 0.218687963750614 0.251101685765767
-0.117286180907493 0.218558100966976 0.255466182950794
-0.113951098436231 0.219939537358206 0.262363423839224
-0.118318405046978 0.218130539728992 0.282243663623993
-0.114651138887982 0.219649571108881 0.283053131144459
-0.114762687087374 0.219603366331834 0.291336667585063
-0.118348025970608 0.218118270340695 0.301669379817698
-0.114748681453868 0.219609167655182 0.309292667155933
-0.119770122655357 0.217529218606866 0.32344771506251
-0.119435281875936 0.217667914198938 0.332465428267248
-0.115621676783816 0.219247561149629 0.338979965201778
-0.114322635510696 0.219785641663038 0.345012112520632
-0.114439967022235 0.219737041359665 0.358327268518948
-0.111279123392895 0.221046305659478 0.367329971009544
-0.115092741837745 0.219466653177904 0.377264153020502
