ply
format ascii 1.0
element vertex 866
property float x
property float y
property float z
end_header
-0.255595096725846 0.036623459707778 0.249145087738534
-0.255421112392673 0.037945001922028 0.249601363038541
-0.256511151649355 0.0296653317550554 0.261091237328763
-0.257061077894961 0.0254882272132951 0.264944102895926
-0.255761993758579 0.0353557508849969 0.274188586178542
-0.255350919587566 0.038478169210106 0.286983503721006
-0.255574772003726 0.0367778412994161 0.294642732700598
-0.255781218371273 0.0352097254540626 0.307308312307673
-0.256235866114567 0.0317563329880955 0.316832737055352
-0.255305208176026 0.0388253818523077 0.326263418536577
-0.255620710637143 0.036428902735707 0.333191484288405
-0.256735135209371 0.0279640077078853 0.342118249499475
-0.25577407568546 0.0352639795392029 0.355992807494001
-0.256579560649699 0.0291457138093468 0.357265380004749
-0.256790402626032 0.0275442100004756 0.371213438066542
-0.256295338423778 0.0313045959508148 0.370243972503678
-0.255804841852514 0.0350302872992726 0.388696621113926
-0.256433321198088 0.0302565127253613 0.390054505149116
-0.255440851139158 0.0377950712572361 0.406780252742362
-0.256200518370984 0.0320248257567926 0.416834406648262
-0.256481755021506 0.0298886213119423 0.427746818878696
-0.256281165674291 0.0314122486710188 0.431641534327399
-0.255899876430122 0.0343084280155539 0.443185523176084
-0.255650652282506 0.0362014733597983 0.460443300612075
-0.256401851453918 0.0304955491640706 0.4621862476113
-0.25723234367864 0.0241873344325479 0.471562650813642
-0.256419993834924 0.0303577440989281 0.476769473311556
-0.25634368862675 0.0309373396977365 0.490987468060026
-0.256030832051104 0.0333137213188965 0.507253682252358
-0.25627090440028 0.03149019078529 0.507394686807564
-0.257124840679761 0.0250039007784153 0.520289140499503
-0.255576599963535 0.0367639565661782 0.527918601111031
-0.255562812806646 0.036868680419823 0.539585517809157
-0.257252855184357 0.0240315340786442 0.539762703130267
-0.257136043461575 0.0249188072023788 0.551997717372109
-0.256564548194277 0.029259744729358 0.565183792709763
-0.25566048309217 0.0361268009468568 0.58406779414443
-0.256605024481247 0.0289522968061447 0.583524372790198
-0.25571314774982 0.0357267731569197 0.596650744661143
-0.255695239115557 0.0358628027392733 0.603593307975397
-0.256398231801601 0.0305230431530359 0.613298844408608
-0.256416731748123 0.0303825221081602 0.622427362928601
-0.255967260521713 0.0337965950247127 0.63047133021876
-0.256502672710035 0.0297297356932643 0.633398446303779
-0.256452372453314 0.0301118040751298 0.653767177248204
-0.255959962693865 0.0338520275306079 0.662723270088299
-0.255989713544732 0.0336260473827772 0.67216795356229
-0.256954167774717 0.0263002901988359 0.672980680232004
-0.256214384586984 0.0319195013895777 0.68317299712296
-0.256579413421072 0.0291468321217922 0.698848846782219
-0.256406598556187 0.0304594913424875 0.706832712396075
-0.255938168225294 0.0340175729548935 0.721348877762078
-0.256200538123493 0.032024675721594 0.728544342503264
-0.256070030953902 0.0330159760917518 0.736306246697117
-0.256360146660701 0.0308123285186621 0.737871880139884
-0.255122800138284 0.0402109084551822 0.762628074732612
-0.255858480710829 0.0346228597206157 0.765073413236119
-0.255978203486082 0.0337134749581034 0.772155604298729
-0.255414506521202 0.0379951784974218 0.786308527786683
-0.255616137368803 0.0364636401575088 0.795745072948514
-0.256633986052222 0.0287323118342915 0.80177802553349
-0.255787686992068 0.0351605914010507 0.813917554944873
-0.256580637709495 0.0291375327279692 0.817721175946962
-0.256168418796752 0.0322686462297819 0.82232981097958
-0.255991218914474 0.0336146129643653 0.833908935762143
-0.256686814650226 0.0283310387937349 0.84116897781814
-0.25562662163067 0.0363840042823107 0.864001816279042
-0.256361498795755 0.0308020580332694 0.870713893126716
-0.25639905058297 0.0305168238910869 0.872485760274457
-0.256019762547288 0.0333978025480282 0.882691848527241
-0.25534349032879 0.0385346000330087 0.895145760569126
-0.255952564597942 0.0339082216481461 0.901384445691087
-0.256505722447594 0.0297065706366653 0.912408551394362
-0.256142900409252 0.032462477626585 0.917001886973378
-0.256802345024236 0.0274534984802017 0.92900933471287
-0.254682234829752 0.0358545919002096 0.940907326484607
-0.254711682812581 0.029097963175536 0.943797192139795
-0.25106516278061 0.0329126339713428 0.954362070696409
-0.249387525503906 0.0248238461302936 0.963577026595142
-0.246901122403919 0.0236713376339104 0.972441155901151
-0.245408493654377 0.0225392967299601 0.977957149501193
-0.243350914338445 0.0208836444051426 0.985602997768756
-0.249838696625042 0.0185332542337194 0.998546844238171
-0.244689442483484 0.0183145663977957 1.0
-0.210645816290671 -0.0155762759006521 0.984375
-0.206230664233631 -0.0188988787708488 0.984375
-0.207637886104277 -0.021931904102836 0.984375
-0.190033372518406 -0.0445714394155361 0.984375
-0.186450710980245 -0.0496633274132381 0.984375
-0.175664767250522 -0.0662062256055464 0.984375
-0.157938847585712 -0.0743022451007081 0.984375
-0.156437297323388 -0.0869077096241401 0.984375
-0.142771534263035 -0.0945090446314257 0.984375
-0.131060825232247 -0.10754005682302 0.984375
-0.122209988121038 -0.110484545213884 0.984375
-0.11343727795141 -0.129562414091085 0.984375
-0.114348020962633 -0.132085199982977 0.984375
-0.094005248562751 -0.147537747454444 0.984375
-0.0850760236103932 -0.153301963184769 0.984375
-0.0764954271162897 -0.170066313082642 0.984375
-0.0585039282935496 -0.181917864869312 0.984375
-0.0563072304102474 -0.195093543673617 0.984375
-0.04115434229331 -0.201218706226871 0.984375
-0.0238894471730507 -0.220405663226295 0.984987506405775
-0.0307506525725733 -0.224855866637028 0.990216199447199
-0.0157909301584047 -0.235585087485969 0.998771721236446
-0.0112771123757772 -0.244390896784105 1.0
-0.00640005288241796 -0.24528604932114 1.0
-0.254833480752722 0.0424085073679553 0.199087921121256
-0.254917266061339 0.0417720947654474 0.208215118603617
-0.255206349666888 0.039576286779676 0.218248668583395
-0.253935252617757 0.04923122741828 0.236521514325334
-0.255232174585651 0.0393801270467704 0.234923566129959
-0.254113930635506 0.0478740331301094 0.246770799478611
-0.254627496589222 0.0439731124250202 0.256805984410253
-0.255487316786968 0.0374421296217828 0.265292042132879
-0.254484083572088 0.045062442439732 0.278265896026792
-0.253963794514661 0.0490144301874847 0.288690687963061
-0.253777113240125 0.0504324152463085 0.295786110387305
-0.254976938579312 0.0413188369916332 0.300709311542957
-0.255069288450004 0.0406173700815113 0.315155893978376
-0.25490087759757 0.0418965775065178 0.321434123340167
-0.254607475585349 0.0441251870475279 0.330433337761655
-0.254651139473323 0.0437935268908675 0.337101211830513
-0.255043485454416 0.0408133632913754 0.342305721247975
-0.255204430719318 0.0395908626335722 0.355874177966796
-0.254944632216085 0.041564228182978 0.371631054567376
-0.254675937962144 0.0436051636674194 0.372188990569633
-0.254360077046479 0.0460043655166326 0.38918230870784
-0.254070748366315 0.0482020350289123 0.404039506631324
-0.254423541395861 0.045522305923803 0.411850521997777
-0.25488977166766 0.0419809354193027 0.416934353239069
-0.254358172558069 0.0460188315423066 0.42598204804361
-0.254513362910705 0.0448400437830136 0.430982219146186
-0.254490041928785 0.0450171842273457 0.449017952094947
-0.255286855869213 0.0389647814622595 0.445148840880961
-0.254909260122572 0.0418329059077558 0.463380828306625
-0.254778722772918 0.0428244355182579 0.474529435898359
-0.255308164187869 0.0388029287131951 0.477430457113819
-0.255161429216763 0.0399174914734523 0.492371932597371
-0.254377506806586 0.0458719733446161 0.502847385620504
-0.255129042104866 0.0401634960118442 0.501739205448913
-0.254583986528191 0.0443036041500349 0.525584146307786
-0.253834481957249 0.049996656577281 0.534857373563142
-0.254591279716493 0.0442482068849979 0.534920071443272
-0.253636583275743 0.0514998463012318 0.549109361359325
-0.254546411911071 0.0445890117025621 0.558251502391106
-0.254602776299887 0.0441608816643977 0.569384808874393
-0.254546204451407 0.0445905875151595 0.572612987778832
-0.254847994288394 0.0422982661196824 0.582597508847319
-0.255540582711627 0.0370375347554845 0.587936480620415
-0.254743874580996 0.0430891338153669 0.596676647473997
-0.255269131495103 0.039099411449798 0.606076253852786
-0.255506110600995 0.0372993764315962 0.615773523230759
-0.254445068382605 0.045358792225706 0.629977608387514
-0.254398529402717 0.0457122908735915 0.646055070985078
-0.255033966793669 0.0408856646978864 0.648291508677634
-0.254896021091321 0.0419334663338321 0.652620447567163
-0.254432842093015 0.0454516601151423 0.675109013180399
-0.2543972751498 0.0457218178703409 0.672338474005165
-0.254298367511028 0.0464730959743267 0.68204010455413
-0.254400327161464 0.0456986355401969 0.692398237499598
-0.254992174597802 0.0412031079415215 0.696716309260004
-0.254780928747614 0.042807679476891 0.712910431235787
-0.254545286726638 0.0445975583268406 0.724054418752995
-0.253867729206918 0.0497441186438657 0.733176043460179
-0.254796649307772 0.0426882699674146 0.740985939827748
-0.255438502372855 0.0378129119085438 0.747379028857846
-0.254528956871944 0.0447215958878005 0.754363155305073
-0.255264647703652 0.0391334692271504 0.771096223081297
-0.255300562224138 0.0388606713604698 0.773271323136824
-0.2546385103284 0.0438894547703586 0.787397902188374
-0.254431552246381 0.0454614574730142 0.801437001101235
-0.255322840416089 0.0386914516923319 0.80182349965039
-0.255253119184341 0.0392210370251271 0.817238123921115
-0.25454874806609 0.0445712668434693 0.832361205811659
-0.254665906736382 0.0436813583917572 0.836536048367225
-0.254285336920717 0.0465720731342748 0.844782363159803
-0.254333323838678 0.0462075763048114 0.850883245215684
-0.255172009242776 0.0398371281973527 0.862268248393372
-0.255041525248334 0.040828252534779 0.871415699089591
-0.254631891893688 0.0439397267730416 0.880788442214882
-0.254972417170482 0.041353180501349 0.885225029873199
-0.254557435684568 0.0445052778296782 0.902422208331662
-0.253960922912991 0.0490362421676841 0.912694639038115
-0.254446076197818 0.0453511371091589 0.919050763642962
-0.254989385408366 0.0412242939386539 0.924497704344525
-0.254651002550096 0.043794566926039 0.936757614545431
-0.253567265110133 0.0396401849799566 0.942979058588963
-0.25050770643275 0.0406961719869839 0.952792057366603
-0.248309269395714 0.0355510074811639 0.96245478163688
-0.247641624569647 0.0364309939583534 0.964308804129445
-0.246571500297872 0.0347549297515959 0.968645832693437
-0.242627387748717 0.0339824432807276 0.982239762096691
-0.247369191363681 0.0372910089791027 0.993839320553031
-0.244383635290232 0.0342329788021105 1.0
-0.238063403551967 0.0214064443200718 1.0
-0.207156227082308 -0.00513225669733039 0.984375
-0.199095774051653 -0.0148399457042263 0.984375
-0.191938799078222 -0.0284836851320682 0.984375
-0.19015415239517 -0.0326600697866349 0.984375
-0.187872468246379 -0.0266125331595855 0.997395833333333
-0.176928249704951 -0.0363347326538517 0.997395833333333
-0.167667414233167 -0.0474658391520421 0.997395833333333
-0.163845000442799 -0.0572419761105758 0.997395833333333
-0.13185370119609 -0.0919636590869189 0.984375
-0.124624398612312 -0.0997562431948669 0.984375
-0.11224057642969 -0.111172094260631 0.984375
-0.112448665391868 -0.11256565740487 0.984375
-0.101539042744677 -0.134069838544783 0.984375
-0.0951757033086867 -0.134973996539263 0.984375
-0.0734316790679079 -0.150142331875344 0.984375
-0.0616682956440245 -0.169005276733039 0.984375
-0.0575396252685953 -0.174024949642412 0.984375
-0.0448451127512082 -0.194689428054004 0.984375
-0.0352324438350968 -0.205156148753129 0.984375
-0.0222792436172219 -0.213313518575728 0.984375
-0.0204220007810856 -0.219778757957152 0.984375
-0.00494816465451459 -0.229456088003079 0.991391407452803
-0.000422752441601429 -0.237203150486864 0.998375971522702
0.000653861205422055 -0.240419237550144 1.0
-0.253027205683566 0.0561285286532074 0.209899611987088
-0.252892728795345 0.0571499820299821 0.223719040718752
-0.252377857725326 0.0610608160776066 0.230106424904138
-0.25269051721234 0.0586859314932357 0.230328615034393
-0.252858655953005 0.0574087909623157 0.248990034812007
-0.252758073583446 0.0581727899095645 0.251870289841258
-0.253333765276233 0.0537999773664156 0.262950460378655
-0.251949890014208 0.0643115535794363 0.27605024324797
-0.253711600309408 0.050930035359242 0.280356585575497
-0.253207415327085 0.0547597005122951 0.288329529247724
-0.25233348064812 0.0613978934443052 0.30812952747687
-0.253926994999737 0.049293950254317 0.305750137524039
-0.25357926795103 0.05193519941464 0.319094125455777
-0.253779044151027 0.0504177485218888 0.3249218438146
-0.253182856310874 0.054946244760686 0.337553793433852
-0.252397943622866 0.0609082485387505 0.351557984386463
-0.253176699506824 0.054993010330368 0.352951082863877
-0.252930812842007 0.056860704975918 0.360502712178839
-0.252832221072404 0.0576095838153579 0.383344682656831
-0.253392549265189 0.0533534686405388 0.386075216893241
-0.252578461347306 0.0595370802909206 0.395725682446551
-0.253185626370882 0.0549252040659898 0.400781661434207
-0.252669639179394 0.0588445158978485 0.412968930035754
-0.251970758339002 0.064153042915557 0.428642115858658
-0.253304028777626 0.0540258484980033 0.432521164913213
-0.253092680359373 0.0556311991151728 0.43876588047372
-0.252795984396247 0.0578848286973127 0.4592461105822
-0.253538224476034 0.0522469555586441 0.461607980194183
-0.252741041315863 0.0583021628261097 0.472115576213122
-0.252210914772858 0.0623288736953989 0.481268689668995
-0.252628395565587 0.059157792247047 0.484418867205828
-0.253201178981205 0.0548070702621635 0.503101296697847
-0.252321537876569 0.0614886078004233 0.512757941609817
-0.252609475403676 0.059301505144697 0.51435493008542
-0.253738928246373 0.0507224590696438 0.526635682872221
-0.25353867264533 0.0522435513748693 0.533737864565013
-0.253741563061724 0.0507024456601112 0.53856200943791
-0.252655216590351 0.0589540663378872 0.552018458132778
-0.252654519547817 0.0589593609015815 0.568059182016074
-0.252627667102255 0.0591633254753929 0.573945344464201
-0.25311941761707 0.0554281094800544 0.575737749240733
-0.253072551355437 0.0557840940795986 0.589088626591531
-0.253637349881427 0.0514940233529534 0.599596497079258
-0.253312143827953 0.0539642085711061 0.607202501030031
-0.252445872317767 0.0605441939573386 0.620593845524548
-0.252255434528646 0.0619907125772775 0.631844604465307
-0.252775580075616 0.0580398148996642 0.639458335099529
-0.252473909988335 0.0603312267058195 0.647998855236863
-0.253528344293915 0.052322002992606 0.649376584812929
-0.253141700968139 0.0552588506245252 0.658146808626467
-0.253226598496237 0.0546139898763189 0.671653501810623
-0.252898245685879 0.0571080770860201 0.676676917824012
-0.253698160873661 0.0510321180085904 0.685395932119944
-0.2532859671874 0.0541630398962452 0.702143361343707
-0.253248509482697 0.054447559410797 0.713385356031633
-0.253252131520706 0.0544200473006928 0.716430668837718
-0.252608813695961 0.0593065313137912 0.732526644671936
-0.253255320472775 0.0543958248049013 0.738069604461079
-0.252591835794906 0.0594354912755575 0.753351775614894
-0.253541027488195 0.0522256645674973 0.758896791359671
-0.253655699554314 0.0513546437496493 0.76508233630049
-0.252643218473791 0.0590452010810904 0.77083572767629
-0.253299350480991 0.0540613836889103 0.777360401510658
-0.253509724507122 0.0524634343147136 0.789851344959972
-0.253796401894399 0.0502859033712815 0.800478805800675
-0.252321283943833 0.0614905366110496 0.816742579327293
-0.252965882832429 0.0565943219519353 0.818973491540954
-0.253712844006344 0.050920588543133 0.827799197730335
-0.252474994119439 0.060322991912521 0.842129620148667
-0.253209397524305 0.0547446442296089 0.849643100703496
-0.253509132929148 0.0524679277955445 0.851225181485863
-0.253594937949241 0.0518161739612827 0.87075566312381
-0.253491123721033 0.0526047213121498 0.878543076736615
-0.253299627254908 0.0540592813822868 0.881136331174816
-0.25292616394974 0.0568960168184814 0.890516699099331
-0.252781195723865 0.0579971598163829 0.906361900594786
-0.253089694830676 0.0556538764570545 0.910664952822229
-0.25232318547588 0.0614760930411826 0.93016686355587
-0.253037668370592 0.0560490566552042 0.933203928198843
-0.252993300725767 0.0502666001449764 0.94020695875493
-0.250560496674886 0.0543975480159837 0.946553845694363
-0.246555924009338 0.0575611770464151 0.958609770981928
-0.246184511503351 0.0481452548330423 0.964022872715016
-0.242520680252464 0.0490704177552331 0.975924097686473
-0.243793616250195 0.0468214567700566 0.972641866005167
-0.240372735773083 0.0422582655133533 0.986154562975333
-0.246382742751974 0.0447838300784651 0.995801711109504
-0.218056578248324 0.0227935779678713 0.984375
-0.212056532083778 0.0104606617494382 0.984375
-0.202426093442287 -0.000608327476624669 0.984375
-0.19923597609304 -0.00582939260279033 0.984375
-0.191313410051515 -0.0136110934334335 0.990434762593281
-0.186764773421249 -0.0153128067460332 0.997395833333333
-0.187436128732737 -0.0231483187221756 0.997395833333333
-0.175395196996001 -0.0281071651057292 0.997395833333333
-0.160629723923804 -0.0439061856176966 0.997395833333333
-0.155674368913612 -0.055256271704915 0.997395833333333
-0.141890381192575 -0.0662678264257357 0.997395833333333
-0.12792038668371 -0.0782086269830864 0.997395833333333
-0.112284816309822 -0.0992412328787996 0.984375
-0.0988794502849924 -0.115704162633184 0.984375
-0.0956831622635897 -0.119033720763985 0.984375
-0.0754325653767386 -0.136401764493238 0.984375
-0.0699827833159513 -0.150033475584353 0.984375
-0.0563506818932344 -0.153982747990631 0.984375
-0.0486037113361027 -0.171963227467328 0.984375
-0.039159520164552 -0.176093659316599 0.984375
-0.0258458595394819 -0.200040409180992 0.984375
-0.0137537732165235 -0.208988164790794 0.984375
0.00257664059399876 -0.217377913424721 0.984375
0.00034766699254364 -0.223998547894323 0.985469550856046
0.00267252163797302 -0.230380149569403 0.992001316827923
0.0131329364652736 -0.239237345139729 1.0
0.0198237719140501 -0.247130823728342 1.0
-0.25184708068437 0.0650924679693849 0.215495484899162
-0.251952856265704 0.0642890226624363 0.22176136763673
-0.251550595602696 0.0673444957478695 0.228739188066171
-0.251298073973276 0.067992540775903 0.242598740996361
-0.251579297276521 0.0671264848908741 0.251948643255584
-0.252007412521598 0.06387462675736 0.255920437215184
-0.249204796984818 0.0730461584712431 0.274367346080242
-0.249347111977019 0.0727025796869426 0.287359799705865
-0.251124355724645 0.0684119337277818 0.289575134411461
-0.250488644793617 0.0699466756792187 0.297503477118124
-0.251126861905768 0.0684058832713225 0.306742538011759
-0.251792528859127 0.065506830220328 0.312945465825663
-0.248945823537498 0.0736713756800577 0.333572193042863
-0.251296759114175 0.0679957151265779 0.338168302710706
-0.249766751856864 0.0716894793977084 0.346312791906183
-0.251237347541979 0.0681391473499359 0.352470610710019
-0.251534878136861 0.0674208449525516 0.356880806702378
-0.251257301203927 0.0680909749486429 0.368715477500868
-0.251627776067025 0.0667582519185147 0.389214256724759
-0.251914067887586 0.0645836496450509 0.385552082160319
-0.251568165102265 0.0672110421492578 0.403684799780652
-0.251702026702996 0.066194262344968 0.412677213889881
-0.250869973746468 0.0690260661495178 0.4159458370269
-0.251708024273184 0.0661487062765542 0.432282511730143
-0.251597568955949 0.066987697706709 0.430508909729953
-0.251901076270278 0.0646823307756544 0.448807209315887
-0.251820445368136 0.0652947832822083 0.458634996003465
-0.251826153991458 0.0652514219831319 0.463791389697414
-0.251487852232736 0.0675343755280716 0.477336518664051
-0.250084811960783 0.0709216143811777 0.483314996215724
-0.251666785857992 0.0664619431383452 0.493134101163909
-0.251653791421222 0.0665606456848865 0.499717933025954
-0.250737955757012 0.0693447857701397 0.511455348828463
-0.250639382025753 0.0695827638090404 0.524843565532336
-0.249635199608928 0.0720070746188361 0.530140293350842
-0.252117693337979 0.0630369607927792 0.538224833873419
-0.252275017898377 0.0618419621160992 0.545509891127342
-0.251698912320622 0.0662179184276972 0.562512648139928
-0.250868848698239 0.0690287822562117 0.56959115238774
-0.250816706773097 0.0691546639990577 0.578285609322011
-0.251964725107944 0.0641988698551772 0.582815773353123
-0.25126185026243 0.0680799925499083 0.596504023250438
-0.250981112436076 0.0687577536177632 0.607889378473245
-0.250859799769455 0.0690506283028069 0.615086920923105
-0.250836415799365 0.0691070822005386 0.62590392754582
-0.251631907054863 0.0667268739506623 0.636261793985558
-0.251091427745037 0.0684914289027316 0.646654643245723
-0.251654508530749 0.0665551986972411 0.642405313599499
-0.250848841012158 0.0690770850833008 0.667418514683642
-0.251599189252575 0.0669753903319468 0.668542832774499
-0.248657104962751 0.0743684039789203 0.67901953842388
-0.250673791796671 0.069499691273412 0.685565984258894
-0.25176034258307 0.0657513092590632 0.691323122500057
-0.250027814045092 0.0710592195222655 0.711253884930692
-0.251904949050104 0.064652914092362 0.710693345045921
-0.252188226674512 0.0625012069117238 0.726968743872312
-0.251429315364126 0.0676756960301705 0.732912496202815
-0.251588753807061 0.0670546554101269 0.746256342712499
-0.252035492378641 0.0636613390677373 0.746281261249168
-0.251662850275794 0.0664918368530098 0.758876998540387
-0.25192260207021 0.0645188260922942 0.76607812669383
-0.250810468961755 0.0691697234077983 0.779663152768465
-0.251543183929445 0.0674007929954481 0.786516755311063
-0.249161544643994 0.0731505788590657 0.79960998848472
-0.25139781796164 0.0677517374864289 0.80915339804867
-0.25236636111161 0.0611481415285156 0.816723627793995
-0.251623127279948 0.0667935629620799 0.830098130670286
-0.250236061056607 0.0705564667627414 0.839931623923247
-0.251090229751452 0.068494321115091 0.851185407248228
-0.251593214807305 0.0670207707491795 0.849873637785414
-0.249465647164229 0.0724164104303613 0.861972338992408
-0.252219858857543 0.0622609366273693 0.873394005449274
-0.251367905615185 0.067823952278924 0.881856989014675
-0.250310301712507 0.0703772339643894 0.897929553631374
-0.250919864847627 0.0689056183764571 0.90157556696347
-0.25022938543365 0.0705725831422203 0.91212463136287
-0.249992363493877 0.0711448047238012 0.923195609730157
-0.251519696827804 0.0674574958747704 0.92363980921203
-0.252192192412314 0.0624710841425025 0.936279038451625
-0.24858997444025 0.0705489722838204 0.942663652349948
-0.246051133475976 0.066547094927212 0.955802899258196
-0.244748733169772 0.0663458491875701 0.960141740619539
-0.245484588646235 0.061267465347741 0.960569972306816
-0.240879278417774 0.0607534753376642 0.976271179384813
-0.238558504138083 0.0603785804032616 0.984234816635513
-0.244104388503283 0.0620896487332009 0.996394047121083
-0.235882553054004 0.058136958448839 1.0
-0.236624403229515 0.044285157223101 1.0
-0.201776124202384 0.0209681768758553 0.984375
-0.192074983989582 0.0101342569938463 0.984594790513234
-0.192956804421823 0.00461835009255635 0.990293667045816
-0.193326491277084 0.00230590846420086 0.994165261953041
-0.18916327613226 -0.000199244755645333 0.997395833333333
-0.17195143403571 -0.0204699023524774 0.997395833333333
-0.168236738744067 -0.0196419170358247 0.997395833333333
-0.157660070858641 -0.0362878425025671 0.997395833333333
-0.140781163779545 -0.0493570090419261 0.997395833333333
-0.139075556005977 -0.0509688430307027 0.997395833333333
-0.12587838125997 -0.0689181949890889 0.997395833333333
-0.118890398275493 -0.0757915344554448 0.997395833333333
-0.0995425561366379 -0.101812321465418 0.984375
-0.0824674807674418 -0.123026615980245 0.984375
-0.0782440366043804 -0.123838116095151 0.984375
-0.0665401891396962 -0.136983589169566 0.984375
-0.0508363418098828 -0.146520056347794 0.984375
-0.0454391878498709 -0.157409538790467 0.984375
-0.0323276723212419 -0.171540172295873 0.984375
-0.0299871530020599 -0.183483956794268 0.984375
-0.00598319249940873 -0.198899880720063 0.984375
0.00902560330255049 -0.210036883878641 0.984375
0.0136328609919898 -0.220137019682711 0.984375
0.0206680343049169 -0.229405258683867 0.993363075906413
0.0246227732112019 -0.229918158918341 0.99437253238461
0.0389273782425596 -0.24393533957451 1.0
-0.24572875308971 0.0814380707862168 0.228018393138292
-0.247472198928021 0.0772290201981022 0.230450791676895
-0.246317193035306 0.0800174510889167 0.234519374901126
-0.246590819665399 0.0793568579675194 0.242689712175985
-0.247337075622667 0.0775552367144825 0.254583521575799
-0.247658712713691 0.0767787360871679 0.268603950313854
-0.247406131181818 0.0773885218470223 0.27690533299789
-0.246934719625426 0.0785266100199229 0.285092999108625
-0.249336877231353 0.0727272885487379 0.292661092944279
-0.2472576490964 0.0777469893114078 0.310690375402556
-0.246846469188751 0.0787396654210289 0.310645551039257
-0.248514834944794 0.074711874185792 0.320737192973801
-0.246080043943043 0.0805899796437614 0.334757158309183
-0.248062984904921 0.075802736680213 0.332148633108017
-0.24826276104625 0.0753204344103754 0.350614437230974
-0.246534748871349 0.0794922248389676 0.358843398996529
-0.248642911656325 0.0744026696517884 0.367271531731017
-0.24793842550364 0.0761034496761033 0.378224231014902
-0.24714690566407 0.0780143476076828 0.383794736059826
-0.248367330823241 0.0750679806365514 0.3960955852262
-0.247130275923469 0.0780544953529807 0.411097112774353
-0.248519694370372 0.0747001424946563 0.406022291126463
-0.247780627729886 0.0764844072016158 0.424200751414279
-0.247148126695535 0.0780113997769593 0.432567390823649
-0.248495873131775 0.0747576520519483 0.444297857639691
-0.24786832900038 0.0762726776049498 0.453669047185834
-0.245807711624631 0.0812474480203458 0.459538931760048
-0.24791443736152 0.0761613621741467 0.474708883231078
-0.248036050753649 0.0758677614735024 0.472418563178426
-0.247554755606705 0.0770297107447583 0.496367147119093
-0.246379667468163 0.0798666244658102 0.49782201335202
-0.246584071464076 0.0793731495666746 0.512049997286128
-0.245620778395357 0.0816987447577162 0.519945663715799
-0.246801600875748 0.0788479871108013 0.533795066261599
-0.245857215758251 0.0811279344695678 0.531963487981859
-0.245579024382111 0.0817995478627773 0.542343067244551
-0.247262711135479 0.0777347684680085 0.54856940135519
-0.248840830926938 0.0739248502644193 0.55659919683125
-0.247020845325993 0.0783186841855439 0.569914114152708
-0.246880208358715 0.0786582118593177 0.575049271438467
-0.248958652146746 0.0736404046776247 0.588132270961961
-0.247860925700095 0.0762905507529044 0.599155906172303
-0.248910339238579 0.0737570423557578 0.606068729804964
-0.248790147392768 0.0740472111400013 0.620599657543678
-0.247706159215384 0.0766641900992957 0.633464999075845
-0.249083267682412 0.073339556161338 0.637818658266369
-0.247639993663861 0.076823927871143 0.64335589231571
-0.245921353037425 0.0809730933803319 0.655343092044233
-0.248708072122658 0.0742453583702377 0.666813581367637
-0.248023310302453 0.0758985196435721 0.677279824493055
-0.246091627579503 0.0805620142715198 0.679533115097857
-0.249252046177922 0.07293208882844 0.685904739804017
-0.246343361248948 0.0799542754326402 0.702235967568807
-0.246884900569766 0.0786468838597628 0.708724147993916
-0.247250771073363 0.0777635943279044 0.719625491259737
-0.247855045834075 0.0763047460051967 0.729529229881686
-0.248767847260087 0.0741010484227644 0.737329224088543
-0.249226817659721 0.0729929958592399 0.750568468613108
-0.248482134483309 0.0747908200834034 0.752306933443892
-0.246421231510951 0.079766279990007 0.766082480226648
-0.246622141818882 0.0792812395997794 0.778659083277368
-0.248751655487934 0.0741401388186932 0.781983708444561
-0.247127744449165 0.0780606068725798 0.794063279447605
-0.244892718156568 0.0834564376604255 0.802952028648829
-0.247444648073193 0.077295533845484 0.816980331851821
-0.247604956394207 0.0769085153227309 0.82016982964555
-0.246850907978262 0.0787289492351933 0.830653094411312
-0.249414582462094 0.0725396915268142 0.841193390006148
-0.246330637164226 0.0799849940905423 0.847840402883024
-0.248507330042227 0.074729992623354 0.856074796202536
-0.247612262438845 0.076890876970679 0.863451575658229
-0.247418324045888 0.0773590856692206 0.871020786664885
-0.247616019980058 0.0768818054637211 0.884009737005246
-0.247303472515154 0.0776363617923776 0.894073502816265
-0.247219149096586 0.0778399365331118 0.89839871455949
-0.247689230844125 0.0767050588027782 0.916151025098423
-0.245548619489211 0.0818729517675812 0.921301977887252
-0.248932068756441 0.0737045826590332 0.926915594331035
-0.246375668144757 0.0781672934433832 0.939716404068046
-0.245302953105854 0.0737451161875137 0.948810270916174
-0.242311614806089 0.0759182054564195 0.955357910942494
-0.239717100058282 0.0726256176838417 0.967751587783869
-0.241882984754546 0.0697366660144918 0.964716871025661
-0.239199431141031 0.0666745973928832 0.977090367515705
-0.235101231849653 0.0691597354212025 0.986698913509468
-0.241222135124803 0.0645655388802179 1.0
-0.237552967565855 0.0643036889573144 1.0
-0.213333244735959 0.0441271995692741 0.984375
-0.197647565207883 0.0306628909014418 0.984375
-0.193727001272901 0.0225506852408746 0.984375
-0.190832282151496 0.0179075262381472 0.997141550776165
-0.184840722672986 0.0100256808699748 0.997395833333333
-0.180021806232659 0.00789604777068143 0.997395833333333
-0.153384306784123 -0.0235608978142297 0.984375
-0.15254806023221 -0.0333013427727167 0.984375
-0.135541501430876 -0.050378054666848 0.987009278865461
-0.130259493579572 -0.0525659339554198 0.985305140758926
-0.120992657108611 -0.0540378643453203 0.99011511820631
-0.124525918618679 -0.058254530120294 0.997395833333333
-0.108926728810838 -0.0717322975864748 0.997395833333333
-0.0927990571184277 -0.100370408030171 0.984375
-0.0704309161020078 -0.109868605811948 0.984375
-0.072371480365257 -0.115201948967851 0.984375
-0.0575444190264154 -0.133453155010741 0.984375
-0.047109886413652 -0.144557056138568 0.984375
-0.0336789297741191 -0.156381313353672 0.984375
-0.0199405552439209 -0.175879172760724 0.984375
-0.0134201338358483 -0.180434054023674 0.984375
0.00173380889357136 -0.19176959670186 0.984375
0.00492666509782743 -0.201822439759445 0.984375
0.0116607798903717 -0.205232089305962 0.984375
0.0281324068492349 -0.22455308710222 0.989583815871314
0.0303472577103899 -0.227744854580252 0.992985967059699
0.0360713690320608 -0.232630821641499 0.998494053552653
0.0515090182778787 -0.242238737662302 1.0
-0.243675332245035 0.086395467238689 0.225917892478238
-0.24386212844747 0.0859445013133738 0.235759166618536
-0.244160143300205 0.0852250298141101 0.250679156696334
-0.245372381972105 0.0822984267715785 0.251471874238472
-0.244494185117058 0.0844185815294665 0.262361600140116
-0.243037435668666 0.0879354858047511 0.275372525068713
-0.242156856403241 0.0900613922100864 0.275511869941159
-0.243351051516128 0.0871783501724329 0.298315373486671
-0.243379924640428 0.0871086442841608 0.29951768285745
-0.242767616112081 0.0885868878376532 0.307574442666205
-0.244939489332281 0.0833435220536924 0.316394148024767
-0.244255655628808 0.0849944426550247 0.325006915376613
-0.242641170574316 0.0888921543698266 0.339821158329893
-0.245932298384658 0.0809466689745967 0.341683904171361
-0.24145735952059 0.091750127071021 0.351624027241387
-0.242103641456222 0.0901898644568986 0.36239744064602
-0.242367158043492 0.0895536791380031 0.369154318433682
-0.243306787870115 0.0872852120669584 0.383255158822098
-0.24258810781853 0.0890202591945027 0.392032323267271
-0.243656666785103 0.0864405296452052 0.402206854767351
-0.242187219137236 0.0899880900858832 0.403930120706194
-0.243195361735712 0.0875542185518394 0.415848815266593
-0.242617854802679 0.0889484436219301 0.426616763151474
-0.24413124626346 0.0852947934321335 0.430822004952684
-0.241730795399645 0.0910899944633653 0.44328719609487
-0.242461241930824 0.0893265405412047 0.455664572886714
-0.242534748165411 0.0891490807927457 0.46148787021532
-0.244892478388944 0.083457016510676 0.467550658110832
-0.243507359555875 0.0868009891829689 0.484402700256449
-0.243983471439125 0.0856515534172198 0.491985205674479
-0.242129306235829 0.0901279041978979 0.501863222243514
-0.245172854419454 0.082780128895254 0.511636436179569
-0.243314528348012 0.0872665249002396 0.524829989960628
-0.24265169642336 0.0888667427223102 0.527011065959522
-0.24295865070229 0.0881256895390888 0.53466391915234
-0.243913652314335 0.0858201116952006 0.5478333812107
-0.244043136234747 0.0855075098584327 0.548348796097925
-0.242504978925915 0.0892209500944766 0.562904970547437
-0.242115387092285 0.0901615079830182 0.579850971020915
-0.242099125404284 0.0902007671707374 0.581272216642131
-0.242711230801165 0.0887230140199837 0.601738664734744
-0.243279651888775 0.0873507241211388 0.611029092436844
-0.241555485839763 0.0915132291804454 0.615817508614037
-0.245701998499486 0.0815026620807905 0.621819118075412
-0.243155422486525 0.087650640428896 0.634999485261267
-0.242847701752841 0.0883935439975793 0.637928923393953
-0.245572645188715 0.0818149485979927 0.646438836500865
-0.245687724595473 0.081537122333447 0.661246792196231
-0.243188318245087 0.0875712230424312 0.669805677406302
-0.244365063326148 0.0847303091082771 0.67020314375328
-0.243000727271016 0.0880241077162126 0.680126295493199
-0.245576591774496 0.0818054206970745 0.696961945115079
-0.243065539590603 0.0878676369352551 0.710414209922172
-0.24259894570142 0.0889940942306412 0.706941551492934
-0.24575417829218 0.0813766889175881 0.72372615379457
-0.244227459507355 0.0850625141138416 0.731070647570641
-0.243460316936811 0.0869145601119216 0.739946827476143
-0.244723700799455 0.0838644816562424 0.744911633801254
-0.244066308805354 0.0854515663241976 0.755531447350249
-0.242808993932468 0.0884869929424928 0.77472636050912
-0.244839605164806 0.0835846637654747 0.775723147032086
-0.24422609683392 0.0850658038985311 0.789654559557004
-0.242975518022596 0.0880849682256447 0.795697942880838
-0.244041186675608 0.0855122165105462 0.798373448388322
-0.241394281219089 0.0919024115619951 0.81388168970034
-0.242768330119317 0.088585164071701 0.824930263628678
-0.241782235254199 0.0909658076688544 0.838388871384449
-0.24222214794194 0.0899037644918515 0.843932407464079
-0.243397926887795 0.0870651830144149 0.847169413883153
-0.245141454160887 0.0828559358253483 0.857088079724659
-0.244075298503276 0.0854298632735548 0.869015862102421
-0.242336017250919 0.0896288596617754 0.87938423470905
-0.242639228657194 0.0888968425724802 0.893204895367678
-0.242198267946606 0.0899614159004565 0.898833349908745
-0.241972868991837 0.0905055771140031 0.906617474279518
-0.245635581107771 0.0816630078486466 0.916644276751872
-0.24227895930873 0.089766609719649 0.926666796655348
-0.243072953988183 0.0878497369960618 0.932724191689605
-0.24267840187686 0.0820376400220628 0.946273127098931
-0.242725768073212 0.0826213254146907 0.945367834165975
-0.238424839346547 0.0857783133715862 0.954739800431067
-0.237304571249344 0.078652726406296 0.967488640317522
-0.236648020428632 0.0790551437590988 0.969022415358245
-0.236446393163498 0.0727276182997782 0.977859955782758
-0.234101487438535 0.0727047002034813 0.985231628891316
-0.236777768200171 0.0819639174293751 0.999703756127032
-0.22886702246432 0.0731542037030138 1.0
-0.195879325698114 0.0399369302564667 0.984375
-0.199402942546937 0.0375222124368141 0.984375
-0.189753377593557 0.0246562211871238 0.986864730237087
-0.183465359736269 0.0192556394361896 0.997395833333333
-0.187501414038717 0.02465363676033 0.997395833333333
-0.154699480301864 -0.00466688875707281 0.984375
-0.151906708905468 -0.0127829091277891 0.984375
-0.139723152561244 -0.0234094870474749 0.984375
-0.123792360490662 -0.0364767502462604 0.984375
-0.115896322965595 -0.0488409462372314 0.984375
-0.111599123598226 -0.0543760412429382 0.98526483733931
-0.111946992782931 -0.0544218390899379 0.99420884710568
-0.103476536801865 -0.0685041983440697 0.997395833333333
-0.0889211937095291 -0.0752428991755318 0.997395833333333
-0.0676152632368006 -0.101808193469793 0.984375
-0.0502165126003188 -0.117505086797604 0.984375
-0.0437735648115133 -0.135063195472097 0.984375
-0.0358440040836216 -0.135972861094494 0.984375
-0.0262577166434762 -0.151930113243843 0.984375
-0.0149560111298487 -0.159396558720826 0.984375
-0.00393850659658666 -0.172457883863045 0.984375
0.00558529435494888 -0.189986040479128 0.984375
0.0167811967105647 -0.190593393472822 0.984375
0.0357267479438183 -0.212210920336303 0.984375
0.0440059074534147 -0.214922893123277 0.984375
0.0488877950215756 -0.227132669028076 0.994772056853812
0.0450960968073706 -0.231219415593073 0.998275980700301
0.0590570276570462 -0.243111759958183 1.0
0.0599693403408329 -0.240294186256519 1.0
-0.239957571602317 0.0953709354039976 0.223068016979589
-0.238435643757706 0.0990451942474107 0.245843791728606
-0.238597146161012 0.098655292954993 0.248630587431784
-0.23840975548651 0.0991076940628403 0.261308855755276
-0.237778163973665 0.10063249085903 0.265732971864561
-0.241504345520057 0.0916366928338631 0.270118929994931
-0.239797109602054 0.0957583249412776 0.275279763365159
-0.239659344409894 0.0960909195366135 0.298876345689586
-0.23762864537831 0.100993460679763 0.305076252044661
-0.238371291010819 0.09920055552172 0.307887786341301
-0.24067477373397 0.0936394562907995 0.323257416170189
-0.240616632874594 0.0937798207420319 0.332628888792426
-0.240118610934206 0.0949821520648736 0.338855413093191
-0.239887871350743 0.0955392066966472 0.343258775056103
-0.239553540719527 0.0963463522408477 0.361206788651872
-0.240963263017153 0.0929429815507373 0.364138010970771
-0.241870363007389 0.090753048451881 0.375702858974949
-0.239075960548921 0.0974993327658455 0.391816319629129
-0.240468180020796 0.0941382176350432 0.393880300578345
-0.237471360168841 0.101373180765622 0.401612690563928
-0.240468616941264 0.094137162815725 0.409681561699393
-0.238018298942007 0.100052753761657 0.420806141349947
-0.240427363490539 0.09423675745596 0.433634692185992
-0.240210036791635 0.0947614305199193 0.443166203654436
-0.239927395601201 0.0954437867151516 0.444525909105695
-0.238760915506897 0.0982599187790579 0.460446456528762
-0.240594186878362 0.0938340101705555 0.458516201359905
-0.239471127295713 0.0965453158463412 0.476637594418282
-0.237675278874669 0.10088087746039 0.487850061792728
-0.23871308979349 0.0983753802649947 0.497722566027609
-0.239674443737611 0.0960544665348553 0.508616649667858
-0.237994746596086 0.100109614154606 0.517679064661466
-0.239431990248498 0.0966398010365176 0.525712748891901
-0.241988327960922 0.0904682558611779 0.534518054768156
-0.23812656550434 0.0997913751585208 0.540920370891183
-0.238487396655212 0.0989202517003589 0.558089533409271
-0.241136145372632 0.0925256066234446 0.557937494134755
-0.240929659720656 0.0930241070848815 0.566966314296414
-0.239830719768531 0.0956771828215361 0.581418859437738
-0.241017703094106 0.0928115515786206 0.59162223893928
-0.242002788479368 0.0904333450814267 0.597787159991592
-0.240019039243722 0.095222539390471 0.604391984134284
-0.240140448800988 0.0949294307907168 0.610991175217847
-0.240239256279157 0.0946908884368583 0.621209725774117
-0.241770291356457 0.0909946427887716 0.634555784924212
-0.239684592565184 0.0960299650976886 0.638036239992669
-0.240751669195763 0.0934538142240519 0.643456650198144
-0.238949494286759 0.0978046493311381 0.66540172036858
-0.239790463640932 0.0957743697107529 0.662394946383978
-0.238571511146555 0.0987171813545664 0.683816891528122
-0.239918808675655 0.095464517387262 0.688261458743632
-0.239154093803631 0.0973107024026512 0.695105002067258
-0.241228012845722 0.0923038189239713 0.705951627390228
-0.239308971639533 0.0969367942307053 0.720841106243718
-0.239424095300499 0.0966588611270499 0.72862057399848
-0.238704137377987 0.0983969933079174 0.741448502739132
-0.240596773492489 0.0938277655316507 0.741452626526237
-0.239338108800052 0.09686645090261 0.751358919077681
-0.239288195756739 0.0969869516487155 0.763790692383672
-0.24011824422782 0.0949830373724068 0.771251868078169
-0.238189180183983 0.0996402099497231 0.781100354570432
-0.239541201367664 0.0963761420714657 0.790132023236328
-0.239401900967303 0.0967124429872608 0.803727998213301
-0.239072065830451 0.0975087354479956 0.804597015210846
-0.238848402453589 0.0980487066058212 0.817992593478102
-0.239064564622558 0.0975268449658259 0.824397220231071
-0.241528654634376 0.0915780054403869 0.834981375750521
-0.239529683344166 0.0964039490400053 0.840770198760322
-0.240748043212587 0.0934625681218143 0.852977735492999
-0.24045632790207 0.0941668311808148 0.859428070063231
-0.236909677500872 0.102729202680385 0.871552222077425
-0.239964975388398 0.0953530610832287 0.884643036401193
-0.237997738290296 0.10010239156587 0.895415328725209
-0.238579508407862 0.0986978742578555 0.90101505101937
-0.239897426097394 0.0955161394976976 0.909886820754048
-0.240331359922891 0.0944685305710102 0.92107651679824
-0.238830523609229 0.0980918699543557 0.928956004286162
-0.237995232022964 0.0975737923786893 0.940787216772372
-0.23946780015634 0.0908675832176852 0.944873934602894
-0.235883909742701 0.0904547583179656 0.956630570127959
-0.234367971053815 0.0915757016344922 0.959923242455102
-0.234695458543052 0.0902356971495532 0.960635739416846
-0.229800866125877 0.0885924530395804 0.978091956099902
-0.228602502145039 0.0892246452964379 0.981024162086061
-0.228584409367227 0.0861408093653307 0.985080273527735
-0.229756830728922 0.0858609697624834 1.0
-0.203988854976751 0.0569045216850351 0.984375
-0.197011842171324 0.05090038041528 0.984375
-0.188142477161766 0.0335416323208245 0.984375
-0.183792167852029 0.037666159526728 0.992689000040202
-0.182711208543345 0.0397650786588179 0.996522993360095
-0.169245266973722 0.0220418507286089 0.997395833333333
-0.151245299148765 0.00243005330249782 0.984375
-0.14593932513992 -0.00186948061013678 0.984375
-0.139130426962971 -0.0202221211011256 0.984375
-0.126020033995637 -0.0305349423925695 0.984375
-0.108687686476322 -0.0453825110489048 0.984375
-0.110620026526398 -0.0446615289816721 0.984375
-0.101409557879043 -0.0530345594666767 0.993199908054705
-0.0966987352927315 -0.0597702277750604 0.997395833333333
-0.0834911257533794 -0.0759944684286483 0.997395833333333
-0.0570305128619943 -0.0938024354154857 0.984375
-0.0538854592072132 -0.0967942878496616 0.984375
-0.0402910072774305 -0.110921067227108 0.984375
-0.0241235107109035 -0.133884670884578 0.984375
-0.0216779122563135 -0.139627511334113 0.984375
-0.0136857699067911 -0.148727026390849 0.984375
0.00102529760341277 -0.163091199968831 0.984375
0.0223541749908305 -0.178526083949401 0.984375
0.0202662631685954 -0.180912445500351 0.984375
0.0343485586894352 -0.197998518079393 0.984375
0.0443533393507237 -0.21610823712469 0.984375
0.0539487487798686 -0.2221140263081 0.990521167062429
0.0639542138964755 -0.222923260109653 0.993646858675063
0.0653410793421369 -0.228037964725953 0.998824722759689
-0.237327546442311 0.101720377814667 0.231742950190571
-0.235740754043063 0.105551233545603 0.243546811623199
-0.235816106686494 0.105369316171871 0.252225508819603
-0.237724078452099 0.100763064858721 0.260277920704262
-0.236429025513281 0.103889599227608 0.267166388198672
-0.236015918413555 0.104886927990477 0.277956572947556
-0.234880985166758 0.107626899227284 0.288955817907018
-0.236159649584605 0.104539930247992 0.298788992119183
-0.235529799307826 0.106060523328459 0.297565973851659
-0.236555730800226 0.10358370560544 0.315203932979071
-0.236875144155461 0.102812573551228 0.32947870677155
-0.236390869826638 0.103981715203783 0.341234397328474
-0.234752468493819 0.107937165922083 0.339822493537794
-0.234586795454205 0.108337136021239 0.353597154169236
-0.237961620085047 0.100189588626828 0.362485045602172
-0.234950395840701 0.107459327036877 0.370575457662227
-0.236200671865961 0.104440893699983 0.380607125859139
-0.23615395629453 0.104553675066107 0.387241096193433
-0.234987491169541 0.10736977099089 0.399402198105435
-0.235656496921058 0.105754648232273 0.413604495792328
-0.234150828179829 0.10938965412779 0.424421967689064
-0.235676326073333 0.105706776423919 0.421960324145219
-0.235789856606656 0.105432689470628 0.43701264911291
-0.233771022180038 0.110306586923555 0.44334305111131
-0.234041766772629 0.109652951656181 0.456847933826625
-0.235297072115335 0.106622376472902 0.467260558152049
-0.235611764699414 0.105862641368438 0.472769263788198
-0.234937718840167 0.107489932023495 0.479822705232629
-0.2362964948088 0.104209556651796 0.48798666393518
-0.234603806421393 0.108296067913546 0.494542369619324
-0.235268873789311 0.106690453254026 0.502815455045735
-0.235780153857154 0.105456113980069 0.517308266617874
-0.234261832513866 0.109121665959074 0.523287887561886
-0.234037487266332 0.109663283298325 0.537270680395705
-0.236600595934627 0.103475391589491 0.541759369549836
-0.23501030786585 0.107314686613213 0.549964860212294
-0.234796804659572 0.107830128949419 0.571336572258017
-0.236367675641775 0.104037710919445 0.568564329579512
-0.235283259515189 0.106655723039507 0.586690308783429
-0.235750497167588 0.105527711562233 0.585334782052764
-0.236615430804352 0.103439577045806 0.599002237027971
-0.236563320899014 0.103565381486007 0.610214334036353
-0.235035334095417 0.107254267950375 0.625515838928133
-0.236253805230673 0.104312618410282 0.629078274594611
-0.236522305170237 0.10366440221469 0.6339121513071
-0.237853476734088 0.100450669771395 0.642701068892536
-0.234392455364259 0.108806314502099 0.65503569172275
-0.23432961867876 0.108958015680445 0.668353000143143
-0.235428609239529 0.106304817763718 0.682611731987647
-0.235220372314918 0.106807546171301 0.680234051986159
-0.235963648118598 0.105013119645473 0.688836510518759
-0.234558978103055 0.108404293047654 0.702851230606942
-0.23366389434572 0.110565216394072 0.71332326732159
-0.235866120429436 0.105248572315354 0.720850758300088
-0.236808515197578 0.102973430084997 0.733083154868651
-0.235214701389146 0.106821236997211 0.744060289041602
-0.237350078651472 0.101665980249721 0.744851711124802
-0.237140657234868 0.102171568273937 0.756166219422801
-0.235803346338121 0.105400122377973 0.774359503510581
-0.235651481527782 0.105766756462741 0.775319153969001
-0.234338904235698 0.108935598362953 0.779464982616817
-0.23370612228719 0.110463269125065 0.792889653895967
-0.234723769715319 0.108006450902361 0.800180718022752
-0.236072158906098 0.104751151430626 0.812683372181794
-0.234319810789884 0.108981694018787 0.826397225880828
-0.237097528624439 0.102275689950159 0.832201197273017
-0.236383264472798 0.104000076152168 0.834978499785986
-0.235516531281958 0.106092555176454 0.84866286269685
-0.235532854847456 0.106053146603244 0.860122962146122
-0.237207820023602 0.102009422958487 0.861538010710495
-0.237117108120902 0.102228420864256 0.875979495850956
