ply
format ascii 1.0
element vertex 876
property float x
property float y
property float z
end_header
0.2103779508705 0.172029097289068 0.659976507395797
0.211758216653909 0.170230299898865 0.664431538458773
0.21680053474114 0.163659023029649 0.68508372060748
0.216748495199539 0.163726842280655 0.687785042461688
0.217749390198154 0.162422450522909 0.703211323489914
0.211128143828882 0.171051426791177 0.700099958417352
0.21673448742901 0.163745097562625 0.717831455448718
0.217144008280031 0.163211399598867 0.724184014046562
0.216093311099743 0.16458069482339 0.734899628896322
0.214807930409133 0.166255835553154 0.744513658930619
0.215767447399118 0.165005368666133 0.750207445274053
0.21148305107139 0.170588902667736 0.761218877495215
0.214444884589823 0.166728966076382 0.769194629500342
0.210563889902304 0.171786776825019 0.783771287145397
0.214430674753791 0.166747484695243 0.786686794547851
0.217060691169435 0.163319980571386 0.803451498877732
0.212640990188901 0.169079847029591 0.81094036775501
0.212356084151888 0.1694511438059 0.822450669363406
0.214603970962675 0.166521640678808 0.829457595553729
0.21104457089087 0.171160341164477 0.834720381692068
0.215781586613972 0.164986942082584 0.841271838803709
0.211494077429621 0.17057453283792 0.848327735645325
0.215177354536314 0.165774392657271 0.87152736561459
0.213842130347083 0.167514490699109 0.873723659338263
0.215379399738398 0.165511082223455 0.889242158126912
0.214051142060185 0.167242101331374 0.89774704977985
0.215716166393999 0.165072199373148 0.899864614776063
0.213169235255771 0.168391424655367 0.904271908199816
0.21655410198996 0.163980180443686 0.921051185796772
0.214934008594654 0.166091527262821 0.926839821053947
0.212468431879984 0.163192203148454 0.935227919528417
0.203372331140418 0.17264302398508 0.936691046235968
0.202292901677864 0.165368454813473 0.941975892330025
0.188418286104796 0.171196214939003 0.949435649358237
0.182144563795513 0.164710172527584 0.958361380355354
0.176890881857401 0.173025400228202 0.95746741657222
0.16635473902755 0.174472350880919 0.963447007445952
0.164125871622936 0.172613072965956 0.966278920296622
0.158034373852914 0.174767651081495 0.968277847439023
0.15078756475249 0.169774335621278 0.976650888802242
0.144875764820324 0.168417154084264 0.981326489082733
0.134814968717453 0.175671725822355 0.981695674974484
0.136586550508478 0.16850699194835 0.998895195331061
0.125913241553614 0.176696909960454 0.9991041682286
0.0868759943493292 0.17773832858188 0.986301369863014
0.0823964788340615 0.179129731670383 0.986301369863014
0.0490649301757445 0.176004271088161 0.979452054794521
0.0489798160651286 0.174334520448291 0.979452054794521
0.0239179905470437 0.179841310673717 0.979452054794521
0.0145381869243419 0.176067520596553 0.981212106505735
0.00453955480674108 0.179853491604695 0.979452054794521
-0.0113886563901372 0.184271698454568 0.979452054794521
-0.0327398666039048 0.185342139761699 0.97945205479452
-0.044105955859745 0.178087749354882 0.979452054794521
-0.0609668342247901 0.184531686531166 0.986301369863014
-0.0751138594911383 0.186535063273831 0.986301369863014
-0.0780944306875676 0.184802610431895 0.986301369863014
-0.0942825071015142 0.188232917796946 0.987583656007016
-0.0961346447406507 0.187465737267434 0.995441028817829
0.205560135412034 0.178307796636208 0.191340468892186
0.208087768077962 0.175013721612748 0.214554724609898
0.20907098361474 0.173732370178246 0.221285697144619
0.208882072564474 0.173978563852164 0.224942538063891
0.205002453636116 0.179034581676554 0.236105072831657
0.206957583645871 0.176486606640639 0.24727760659202
0.20811042954729 0.174984188610932 0.252618447838952
0.207077038724972 0.17633092975064 0.262195612090475
0.204239577275855 0.180028781505587 0.274529323891501
0.206241589413509 0.17741970849106 0.280169815981736
0.205403570973992 0.178511835384348 0.285247933564047
0.205252145950625 0.178709176316883 0.2966113357202
0.209690650461055 0.172924804621421 0.316931355229582
0.206412836968695 0.177196534332105 0.31541821852226
0.207561485832809 0.175699585987906 0.322837488307727
0.205579045151295 0.178283152984209 0.337163099884106
0.210293801485317 0.172138762902947 0.35009427438878
0.206484146298787 0.177103602203809 0.354680991946708
0.210295700265321 0.172136288364668 0.3679905471576
0.208308607345635 0.174725918275796 0.368420658845075
0.207847658626214 0.175326638342524 0.392655043045935
0.209777040335423 0.172812219145187 0.401014147192508
0.20890462679768 0.173949170603183 0.403769951838303
0.209345647389522 0.173374421377951 0.411863377401044
0.202885607888879 0.181793308764746 0.411962744007004
0.208089065335079 0.175012030994358 0.432417627863626
0.208744597850088 0.174157724388075 0.434349275749169
0.205094342712989 0.178914829500087 0.44911328945683
0.20782127438354 0.17536102295702 0.460861078875246
0.207478478985775 0.175807762617081 0.468450358004053
0.2043121800936 0.179934163671361 0.468029675701832
0.204984040524488 0.17905857811082 0.480664304565558
0.206745990817389 0.176762359783427 0.494035328183678
0.204999337185614 0.179038643113922 0.502988224606376
0.204148047611575 0.180148065286445 0.516592873827184
0.205258600556726 0.17870076451044 0.5225146902689
0.205791804199811 0.178005879993879 0.530230840487138
0.20478220222456 0.179321618904498 0.540289737372336
0.205059267787537 0.178960540032886 0.549691518306904
0.207504020423047 0.175774476367969 0.559073773543588
0.208837605119436 0.174036514954802 0.566779416838421
0.210166728271466 0.172304367939446 0.582632384077327
0.206039703384154 0.177682811486938 0.589498043515163
0.208532562862293 0.174434053764101 0.602306228865755
0.203054428363325 0.181573297638992 0.598721721980735
0.203966360417538 0.180384844647633 0.608746519469205
0.207931046130012 0.175217965631797 0.624911016584584
0.207208489143195 0.176159620230342 0.638325770561709
0.204621680456562 0.179530814945446 0.638357384596769
0.202977924579778 0.181672999310828 0.650800404255418
0.207201802445178 0.176168334504856 0.662986106586793
0.203065587461565 0.181558754819027 0.669078687761395
0.21020276343745 0.172257405996821 0.681049041211692
0.207769863996324 0.175428022278068 0.695917182781663
0.20357305935882 0.18089740456652 0.70070267411395
0.210433407411295 0.171956824918014 0.712927455819708
0.202949991816945 0.181709401996086 0.719624087013463
0.203413129069929 0.181105829776889 0.732341379434903
0.206739722060431 0.176770529386552 0.743547541522564
0.204022766481493 0.180311334833906 0.741611146594624
0.210348019776206 0.172068104250588 0.759036335402987
0.209104488632967 0.173688705588375 0.762608783825859
0.208848121460469 0.174022809792339 0.781271697671532
0.203333449001409 0.181209670863894 0.780771370655818
0.205929099608883 0.177826953133203 0.790004793146808
0.210232988019901 0.172218016554087 0.803371245335768
0.204803042261973 0.179294459638971 0.803461695246811
0.204674834900546 0.179461542725367 0.819390043358165
0.209529439658393 0.173134898629826 0.832557815527961
0.206396460780547 0.17721787619601 0.841490181277683
0.203670184018599 0.180770829245569 0.847907373364702
0.207984954178756 0.175147711294874 0.858182884013672
0.204333600427741 0.179906248148415 0.86763511314456
0.203375158493281 0.181155313995799 0.870494926062447
0.204928727339431 0.17913066365704 0.882796843489449
0.204914469761081 0.1791492444949 0.896435889546135
0.206585710610704 0.176971241015543 0.897599933870344
0.20385623426827 0.180528363839573 0.911336311267598
0.203580922111345 0.18088715762793 0.921035671141212
0.20389281200043 0.179663500821243 0.932004325496015
0.199252465309853 0.177333482461294 0.937104185349513
0.192888849413766 0.173945247947647 0.944215407761348
0.187868674120786 0.175133930826195 0.947474556311099
0.181237998741876 0.177404219506185 0.951352960590249
0.170018098723448 0.180986899239865 0.956048556661446
0.166939604945748 0.176583104206279 0.961416390432607
0.158934983921129 0.178436948993435 0.964818541011955
0.154941647633817 0.176409642270017 0.96885790067755
0.141935676375678 0.182141768692684 0.972227832681907
0.134701119769764 0.18564746054144 0.973850699361325
0.129485431346008 0.18431141201134 0.978085767863581
0.123087476080397 0.187198752188107 0.979689915280013
0.123365399308412 0.178651938076311 0.997073538486561
0.119828289151448 0.180742386524594 1.0
0.110750122225918 0.17983067260279 1.0
0.0635686655153576 0.181631347918075 0.986301369863014
0.0335151123207813 0.185269784208134 0.979452054794521
0.0313529063159603 0.189101929067962 0.979452054794521
0.0230058974399578 0.18460412289252 0.979452054794521
-0.00536441507575386 0.194930856564373 0.979452054794521
-0.0155716777330946 0.191894962590656 0.979452054794521
-0.0245525560373717 0.191250280162773 0.979452054794521
-0.037105993951076 0.194363526416136 0.986301369863014
-0.0415340678658811 0.19769475938809 0.986301369863014
-0.0687292756147589 0.1982846457576 0.986301369863014
-0.0869732135504521 0.190296956799146 0.986301369863014
-0.0797665002693855 0.199857235947684 1.0
0.195532651440263 0.191375868173977 0.184176736351501
0.197416186542475 0.188921197438137 0.201517180386137
0.199621321773092 0.186047409255051 0.214207510737566
0.202644016752126 0.182108156464015 0.219176111049374
0.200093644588083 0.185431866178384 0.235106926758048
0.198613380776098 0.187360983536662 0.235055581868415
0.201152571085205 0.184051846299361 0.246577038173612
0.199393396081042 0.186344447800053 0.263158229138492
0.201308761214397 0.18384829536001 0.264956648463048
0.201179077126086 0.184017302954351 0.277433125425032
0.19775831908324 0.188475321630138 0.281814017211973
0.201341587519339 0.183805515286513 0.292215989785143
0.196461456106982 0.190165426365896 0.298776906572201
0.196641987945434 0.189930152693419 0.303278971002937
0.201756694678787 0.183264537103872 0.329574849514147
0.196585498634003 0.19000377099737 0.321604783961047
0.199577448569405 0.186104585927285 0.340976075368286
0.196218598047967 0.190481925150403 0.346443764128857
0.200775948462077 0.184542670457806 0.359867610989312
0.200727198391719 0.184606202786425 0.362110349098184
0.198473880262199 0.187542784145899 0.383643776547426
0.197966728460596 0.188203717241628 0.391318248910609
0.198698854418814 0.187249592116764 0.396857232653148
0.202533720321656 0.182251897570737 0.403383233275816
0.202023756833749 0.1829164949274 0.413942768756367
0.198917741314807 0.186964333160123 0.423431213571944
0.202326562052753 0.182521871482965 0.435653865667858
0.197503971112701 0.188806794358874 0.442561966993857
0.196395464910945 0.190251427766955 0.446379422701058
0.197510839858818 0.188797842834656 0.462778836470105
0.19866205929382 0.187297544457253 0.470837301731877
0.197328598111605 0.189035344903615 0.473374157195668
0.197846941468078 0.188359826689614 0.482812320669182
0.202111952979517 0.182801555472447 0.501460557539354
0.199974515209268 0.185587118607506 0.504856312268275
0.195998494327818 0.190768769903159 0.52047836236006
0.195691795945086 0.191168467017344 0.528956086585757
0.202279390760188 0.182583346308306 0.529599367135437
0.201947142110854 0.183016341178209 0.544317493757922
0.201541416814109 0.183545092679332 0.555023022346219
0.199980871419489 0.185578835033071 0.561534698236907
0.201240916814383 0.183936711903514 0.574306504585565
0.19939054580545 0.186348162351524 0.582726702129998
0.197771881519287 0.188457646719363 0.587362066868449
0.199276415717716 0.186496899577664 0.602252890480361
0.202115108845889 0.182797442667319 0.610136731310178
0.199505827071036 0.1861979248812 0.622167071337889
0.196319516373415 0.190350405828094 0.623722047823839
0.202447823477703 0.182363840517224 0.646614159259544
0.19878206673877 0.187141147710065 0.640634656689302
0.196138902426428 0.190585786506497 0.658365884308474
0.196589601018422 0.189998424665907 0.665693808541641
0.196644530139607 0.18992683964147 0.67295033960979
0.195593312084893 0.191296813682762 0.68093033482861
0.198232751763153 0.18785702892397 0.6932442997105
0.196770906742947 0.189762142445465 0.70003946160449
0.200695334641336 0.184647728434398 0.715298573004489
0.196681691707782 0.18987840974293 0.721831493276338
0.202112197995858 0.182801236160936 0.732350846057212
0.202109982234805 0.182804123796961 0.741053479963092
0.202019369522539 0.182922212582687 0.748904704464414
0.198354322597042 0.187698594728648 0.752720067371262
0.202812100846467 0.181889105007499 0.7696100344836
0.201227427457417 0.183954291575774 0.780419791814627
0.200340920737932 0.185109609625802 0.789710140309988
0.196715722479837 0.189834059977331 0.795421407153692
0.197836752125107 0.188373105699908 0.806144105951807
0.195963704584301 0.190814108779625 0.811132798100255
0.196844997278658 0.189665585779439 0.822069815367158
0.197603889576814 0.188676578081228 0.836435345176093
0.199219263772279 0.186571381443066 0.836109811827254
0.199264247808669 0.186512757105468 0.85416910958769
0.195489690908334 0.191431855429219 0.855031411051388
0.199583509923887 0.186096686616328 0.872739018090769
0.19723259693547 0.189160456072176 0.875379151397135
0.195683171739194 0.191179706301282 0.883819287982666
0.197285222334428 0.189091873316999 0.895852355885514
0.195610863604483 0.191273940097101 0.909592071016565
0.19765014634854 0.18861629508265 0.91760491795946
0.200907686868855 0.184370985623516 0.931698973122934
0.197570615449196 0.186401995416153 0.932917925648949
0.192293099995858 0.182506206980255 0.939476465897647
0.179971035376884 0.189348299965382 0.943356047526365
0.178086704442035 0.190935410873327 0.943244015778758
0.166627624196279 0.188822073508114 0.951896485102144
0.156769111801851 0.189635188299551 0.957252879859449
0.147942609250805 0.191715091597215 0.960976015936888
0.145725523443783 0.193825227095964 0.960651609214606
0.137694802406794 0.188427316073299 0.969822853169481
0.128546163990288 0.195396105693429 0.96986347884248
0.120379519968619 0.192819811081643 0.976878928663151
0.115712589550803 0.197218280443114 0.976230435533295
0.0990918844642932 0.19526283627299 0.98481541809954
0.11052057682534 0.188508117023371 0.994721288157758
0.0880104644376658 0.198244528139577 0.994745479452299
0.0827618895022969 0.197220571248384 1.0
0.0479456453025924 0.193053342986022 0.986301369863014
0.0332242445066046 0.200176346853705 0.986301369863014
0.0161652915327345 0.195169076552244 0.97945205479452
0.0017023763223293 0.201884064284007 0.986301369863014
-0.00932604558595726 0.200556896354901 0.979452054794521
-0.0217355261769454 0.199388243830975 0.986301369863014
-0.0350996448298251 0.20654238158823 0.986301369863014
-0.044979081793839 0.201418885053377 0.986301369863014
-0.0581750285708123 0.203189125107458 0.989186006615617
-0.0574440835710702 0.207442980921946 1.0
-0.0729600687444564 0.204073366034055 1.0
0.186334643714865 0.1994009190202 0.179479272004834
0.191358971071575 0.195545617042956 0.192596553952488
0.191514212885692 0.195426495809321 0.200293989036925
0.184538348017339 0.200779265187303 0.206331054816181
0.190331581196853 0.196333961021006 0.221266073160869
0.193375968491974 0.1939979204876 0.227949944906121
0.182707767513254 0.202183919011755 0.22731761511281
0.19127386118115 0.195610924158823 0.241151642522487
0.191418634530128 0.195499835661012 0.257334875566966
0.194594368828127 0.192598661881008 0.270954253626491
0.184995730399548 0.200428303341608 0.275831693552018
0.187964500173961 0.198150286172604 0.286401530118885
0.195162054920373 0.191858838961785 0.29822903871719
0.188718640602341 0.197571613869182 0.296187566895534
0.192600403836085 0.194593032178986 0.313378398690123
0.19304503987131 0.19425185094933 0.321248132207955
0.183736288597785 0.201394707025888 0.322705669356515
0.189081239530474 0.197293381925814 0.346141678599047
0.184110390519238 0.201107648525304 0.342777251897688
0.190209288151655 0.196427799775028 0.359057179008228
0.192852484585639 0.194399603816703 0.377628661368142
0.194102352620895 0.193239869886123 0.384676265241246
0.186530718116148 0.199250465840444 0.386775899410587
0.193727885256588 0.193727885256588 0.399882490296986
0.187829279418278 0.198254044707775 0.401360837133111
0.185659159376661 0.199919236382861 0.405580499801751
0.189234401710249 0.197175856451734 0.42914154565387
0.186511787463162 0.19926499184138 0.429444252250657
0.189505057240008 0.196968175159304 0.44545236854849
0.190364858738711 0.196308426265045 0.446867040773357
0.18581287717208 0.199801284569903 0.459206520137271
0.183231431064 0.201782097836647 0.461366822328476
0.195033944044017 0.192025796306389 0.487665418242788
0.192755139704684 0.194474299171002 0.489433190009009
0.188005079702273 0.198119148405371 0.500204080085323
0.185819369928332 0.199796302502805 0.501740391759282
0.185810438446266 0.199803155870037 0.514717062639893
0.188490875438291 0.197746384226479 0.528087113107852
0.18819077702859 0.197976657835292 0.539962520454178
0.190583526324177 0.196140636725321 0.549802182759774
0.188493979797681 0.197744002167739 0.552759453044091
0.19399645765418 0.193377874893601 0.568685904444601
0.186231535844412 0.199480036471872 0.566789046244726
0.183933082351006 0.201243701867977 0.578088032243624
0.194720274517342 0.19243457839224 0.603545725486903
0.193727885256588 0.193727885256588 0.597227228723272
0.19495520221277 0.192128414658775 0.612280200641584
0.191435967159519 0.195486535866707 0.622635509308111
0.193943169912196 0.193447320831017 0.630031171343847
0.194340034731755 0.19293011652858 0.644029115004625
0.189859657365536 0.196696080913047 0.649330444375599
0.191212948330554 0.195657664233 0.662705509392495
0.185366682955884 0.200143661433871 0.663170766415357
0.18651185941401 0.199264936631553 0.671758177408028
0.191664899181384 0.195310870147918 0.680726364887434
0.188415943285966 0.197803881689225 0.692199895130031
0.187547399478275 0.198470338793109 0.697345986821434
0.192557920250671 0.19462563098062 0.719250814369468
0.193942193016758 0.193448593945939 0.729690256651824
0.184376720518331 0.200903286329291 0.730894648964575
0.19510501135989 0.191933179577163 0.754950898552337
0.186724348539283 0.199101887991079 0.750766369495204
0.189108117709247 0.197272757573853 0.757075805642332
0.194410850772839 0.192837827267034 0.7737476409568
0.183916695384865 0.201256276029348 0.78030986548698
0.193934092954012 0.193459150153231 0.798867112577959
0.191533249844689 0.195411888236913 0.798159452238224
0.187582351991802 0.198443518786182 0.805282109911958
0.195423794496038 0.191517733305701 0.82759750955583
0.195000163157085 0.192069820415356 0.830276421997004
0.183947909298186 0.201232324751256 0.837261818274982
0.193727885256588 0.193727885256588 0.851636409554
0.190377634098523 0.19629862338668 0.8579180092343
0.184334197209012 0.200935915612149 0.858370771121049
0.186771176135879 0.199065955912428 0.869068374394819
0.187056239852448 0.198847218829411 0.881923551656781
0.184777191090483 0.200595994451387 0.884270897311667
0.187190937666598 0.198743861561393 0.896971330395064
0.191812040815559 0.195197964400959 0.912196320349572
0.19516338124967 0.191857110455792 0.923513239441168
0.186447537708704 0.199314292411946 0.926172755918218
0.183157329510614 0.200545024973773 0.932533395370544
0.178777747217304 0.196813027023007 0.938160309186081
0.167701097748183 0.197973186159507 0.94398293001932
0.164714961212909 0.19955726699652 0.944544038940414
0.154633571341831 0.202051766707917 0.948702180566332
0.148416785633943 0.198945385844273 0.954951177552096
0.144596464076067 0.196708795865874 0.959051248093166
0.129517423961896 0.200802487193557 0.96498304241221
0.124707297660793 0.200868737908403 0.967858701547062
0.110192641944099 0.203487174114552 0.972969044725039
0.104959165243078 0.200067535640186 0.978131143547242
0.0977543840815401 0.207805701327453 0.973739161033932
0.0915993072628224 0.203992394054531 0.979617643498019
0.0796494293167332 0.207809360712307 0.980664246435375
0.0791057980760869 0.20193296171495 0.987347595798048
0.0808114541606099 0.200070861497906 1.0
0.0683391720564566 0.201836379416504 1.0
0.0449495279613584 0.207763764505018 1.0
0.0397172286935393 0.210319876717938 1.0
0.0178600950216118 0.210623475227257 1.0
-0.00704775328385227 0.214739517357476 1.0
-0.0136157489846951 0.214397611024976 1.0
-0.0671194847457987 0.217309648853213 0.976682126864781
-0.0479689029041436 0.209630766657826 1.0
0.180638534929741 0.20377169701749 0.166886397187857
0.17159159746775 0.210713656290633 0.171456344712602
0.182455208540138 0.202377714327883 0.184509729479105
0.174625955484467 0.208385311493216 0.196445335749719
0.177416817146256 0.20624380802041 0.20585014391654
0.180575941788019 0.203819726424396 0.220761721535852
0.177879878982694 0.205888488176208 0.225627356865145
0.173899281842329 0.208942907790282 0.227531124345498
0.177003774149693 0.206560747058869 0.235807097348192
0.177662936099565 0.206054954305283 0.255359946600301
0.180646391276407 0.203765668630666 0.262334444790697
0.182085557337958 0.202661357671455 0.279511892584332
0.178391114284723 0.205496203531754 0.278033132244936
0.171989574284134 0.210408277938832 0.285497339765085
0.174912618995156 0.208165346844995 0.303892557884715
0.169576047601189 0.212260242098863 0.295191150914345
0.178500185235149 0.205412510447887 0.317464676256313
0.175237165467064 0.207916313578247 0.326971915288734
0.176035684525126 0.20730358835458 0.342192321252344
0.176550733005597 0.206908377755398 0.350431356678854
0.176807438482567 0.206711400714956 0.354286979222444
0.182214437232483 0.202562464650178 0.374913371130705
0.16936642758609 0.212421089193669 0.36881548100265
0.178714009510104 0.205248437311029 0.384595742642746
0.17830958258009 0.205558765009094 0.389269642122305
0.180134293026696 0.204158615438167 0.410414919926168
0.176823476185836 0.206699094552414 0.409241101196995
0.179100706460559 0.204951714304776 0.424337933045299
0.183468728341368 0.201600013231548 0.436953067050365
0.172974377851303 0.209652611583885 0.438753716911162
0.177522218133123 0.206162930998627 0.449420259640693
0.173823628467398 0.209000958666598 0.456489264590436
0.17103791334673 0.211138513059508 0.463648180170929
0.182213316422307 0.202563324678074 0.480600179992755
0.17669947037132 0.206794247560558 0.484974870594099
0.181339142915313 0.203234101602166 0.49652999543421
0.171193948100944 0.211018783381536 0.499347253646683
0.181354620702428 0.2032222250784 0.518864254469484
0.173943849248213 0.208908710016962 0.521619799074015
0.171215285364581 0.211002410723298 0.532162874358359
0.173460270818403 0.209279772796961 0.536876568923443
0.169446528362682 0.212359625706032 0.545391431522971
0.17359592877511 0.209175678785645 0.56552824705624
0.170129379318449 0.211835655738905 0.565864354481698
0.17930794819694 0.204792692127415 0.588422029555933
0.169705184988575 0.212161151496365 0.58726983030904
0.174242574621508 0.208679489976039 0.599257464225236
0.179155038648349 0.204910023750769 0.616738850634513
0.169889889280803 0.212019422908143 0.611860621251666
0.175156037716293 0.207978565090888 0.631295335039193
0.180985365402764 0.203505564635286 0.644209249646203
0.180118979313074 0.204170366063914 0.650132148717113
0.179483851626964 0.204657716678279 0.655602790170947
0.173381514001473 0.209340205028078 0.660715290791931
0.174359904047062 0.208589459941327 0.675704096415478
0.170630088813277 0.211451447830386 0.682472905237124
0.180625288544517 0.203781861326365 0.703273089321528
0.177369800294341 0.206279885319774 0.704749665709638
0.179964938922009 0.204288565413218 0.709935091327024
0.178371164500633 0.20551151153949 0.72428956891786
0.169925869816639 0.211991814071953 0.732681634871957
0.174141758219464 0.208756849122159 0.736515541253531
0.170821051882222 0.211304916713877 0.747280531973731
0.172168963790919 0.210270627528916 0.75399021618504
0.182467176756471 0.202368530792493 0.772760058634615
0.18242989656363 0.202397136890576 0.784463467852529
0.172102947215507 0.210321283828883 0.783673001717209
0.17971312966049 0.204481785455405 0.800902008856896
0.174912690871117 0.208165291692631 0.806854886962187
0.173295370431078 0.209406305314484 0.818055700397344
0.176043229141242 0.207297799167021 0.828906734136392
0.176576078686711 0.206888929330251 0.836157857288854
0.181196617353973 0.20334346531186 0.843875573121788
0.172555787480839 0.209973807272051 0.84802912240665
0.172030576221515 0.210376816045721 0.863310187806542
0.169630942739427 0.212218119577785 0.862433950635912
0.172915902087232 0.2096974816158 0.881673336691372
0.173074330894552 0.209575914916269 0.888841540862117
0.176543568097806 0.206913875582512 0.8989676952126
0.175565058429879 0.20766471245871 0.909799497630592
0.175193559827455 0.207949773362347 0.920019974202737
0.183084661721594 0.201894717914082 0.931661684912242
0.171078809631417 0.202870256441808 0.938041602240399
0.162022559985362 0.207041141191696 0.940245712368097
0.14990001643001 0.213429489486614 0.942557231847356
0.147129438504702 0.207535531371397 0.948919844182591
0.143838893326601 0.206668705667602 0.951610700234986
0.12930884361051 0.21192096866093 0.956289133673875
0.127143827674386 0.210047858812459 0.959093149823995
0.115691627455441 0.211080224215833 0.963849610497125
0.105292081404871 0.214939814325246 0.964263548168827
0.0961643852368794 0.217616183447684 0.965283923614314
0.0928660231889209 0.21002833235652 0.973556412442879
0.0801246936907508 0.212512013609847 0.976137685872903
0.0732843414354295 0.212951279373005 0.978349546704642
0.0570040781455835 0.219736216194129 0.977838710793828
0.0585210641464505 0.211733491711329 0.985124297426112
0.0369115643484724 0.219729679105944 0.980467791274383
0.0316426267744608 0.215327167375598 0.985520373265153
0.00219238061998901 0.218644238456442 0.986075708677725
-0.0094863285171734 0.221864691367222 0.981930755942765
-0.0378734380992528 0.224235423779254 0.975875044153281
-0.0511216648388972 0.226810603190764 0.97159265516863
-0.127993874202729 0.231073857777689 0.940670035657742
-0.128281292488853 0.228192787913985 0.943221806920294
0.160897440706078 0.218919571387542 0.150137045962768
0.159869714484879 0.219708173453322 0.157288554994522
0.16278491109082 0.217471264422319 0.174714585404112
0.16380034002498 0.216692098396763 0.185107325131644
0.1694566676621 0.21235184554795 0.199273972244018
0.16800381445655 0.21346665902214 0.207560822925685
0.160968901507222 0.218864737586241 0.211462382375465
0.16019765460419 0.219456536149333 0.225002765027023
0.166328190065384 0.214752410839197 0.236227504233953
0.163929512889016 0.216592980572073 0.246254393596031
0.157170227678662 0.221779562533425 0.246873911230479
0.162439196960757 0.217736540204442 0.254113398919738
0.159794333247288 0.219766015511313 0.259449069096226
0.165390121736837 0.215472215984259 0.284937281794863
0.160662038173875 0.21910020210354 0.288945837818068
0.164386356154939 0.216242432404854 0.291240029331283
0.159437146916413 0.22004009422273 0.299078825351084
0.158161324235214 0.22101906739789 0.315991066902285
0.167921200739718 0.213530050756643 0.328226743563556
0.158498391393469 0.220760426670599 0.328628154241766
0.167435700888546 0.213902587895105 0.344129822166828
0.158640056924876 0.220651722885085 0.347258207627106
0.168797887850857 0.212857345076252 0.370245167443164
0.158030928625121 0.221119123468628 0.369356510164074
0.158674634726701 0.22062519040456 0.376721801152908
0.157720990454387 0.221356947391637 0.383477344539489
0.159116589580369 0.220286066517871 0.398886889368752
0.160221417258568 0.219438302423324 0.405262407738199
0.163956432821086 0.216572324181682 0.424009772876538
0.16481770121711 0.215911449697519 0.43477998890094
0.160749886556374 0.219032793668799 0.432840372439173
0.168662996419227 0.212960850912189 0.451436441153719
0.163639184781311 0.216815757164484 0.457288530442281
0.157490164751037 0.221534066183336 0.458854687177061
0.160190196789953 0.219462258731469 0.469071942179553
0.16170436806207 0.218300394249951 0.48042949336008
0.162647350919063 0.217576818054579 0.496197182318918
0.160050672846826 0.219569319218499 0.496981675367952
0.159751838551359 0.219798622838345 0.503165988677275
0.165091558680256 0.215701311475188 0.521707781859638
0.158516461130903 0.2207465612734 0.52763681551114
0.168363077697674 0.213190986641437 0.546516957695447
0.161653302540789 0.218339578202585 0.546656558821814
0.159442259624902 0.220036171103525 0.557538952428753
0.166597247350523 0.214545955922998 0.576029770556645
0.168211586249966 0.21330723011771 0.580657399449454
0.160820006584935 0.218978988678485 0.591883161598542
0.162916513498483 0.217370282343236 0.59314050690373
0.16630759904989 0.214768210881095 0.612373781539941
0.167514339354525 0.213842246477867 0.621472602488897
0.159127583595852 0.220277630513085 0.625362941346433
0.169780368557806 0.212103461114641 0.641619750315336
0.158455001222941 0.220793721119458 0.640307008207228
0.156728386858649 0.222118598919012 0.654239711422402
0.166515205622812 0.21460890875481 0.66735675597126
0.161970251168585 0.218096374966674 0.671203153939874
0.169486681484477 0.212328815132027 0.691164720611425
0.16399941588365 0.21653934211775 0.691376847856998
0.161720125646066 0.218288303030486 0.701830288720284
0.167297137972785 0.214008910959902 0.713334068966379
0.156546222099848 0.222258378854699 0.710327765579761
0.164293304538159 0.216313833421685 0.733175038336404
0.157118622487131 0.221819160589607 0.732680379416548
0.168206820869709 0.21331088672259 0.752122471426568
0.160096076746597 0.219534479580845 0.759247428714637
0.166393838870085 0.214702036739621 0.766610391249231
0.164589270213311 0.216086730971625 0.782845405595371
0.156189057622045 0.222532440797664 0.778553610173348
0.157402332761027 0.22160146203968 0.793526125079268
0.159596010611518 0.219918193822066 0.804691758497053
0.165177877906167 0.215635076403565 0.81919655612663
0.162212215598822 0.217910709129222 0.822951803663152
0.161011250709163 0.218832241900674 0.830605635734544
0.160554107114462 0.219183020518269 0.845688191296783
0.158774255104034 0.220548749000479 0.858072906931498
0.163820424224515 0.216676687248428 0.865907219416341
0.167196188660949 0.214086372091292 0.880204241692784
0.162975889599928 0.217324721458155 0.888071547646974
0.161321137562576 0.218594457354829 0.886485082125685
0.156437609781444 0.222341720017837 0.901681211401538
0.155471403527917 0.22309536253314 0.904109589041096
0.16815829208442 0.213348124169235 0.918600495124129
0.156766885187186 0.222089058112533 0.924117388763368
0.155552954855248 0.223020539617755 0.927389103699586
0.144632263172741 0.222550557132847 0.938527807363756
0.140631974250323 0.217665111372384 0.944838913677489
0.132808457074193 0.218989207594501 0.948551093012822
0.125282961611493 0.219389032545988 0.952502827865538
0.117992146814418 0.223216983063775 0.951756336761971
0.110630736214753 0.222357784391183 0.955367222705268
0.0950280731867701 0.226134268614967 0.957849086867647
0.0877289074360102 0.225596627721991 0.961139072087411
0.0845427200380194 0.222599512859764 0.96512734629483
0.073739982628818 0.22479556068507 0.967232491287305
0.0596580400168696 0.22938816360382 0.967922925594882
0.0442079663070226 0.227384923337603 0.971925667153786
0.0323147153544895 0.22623768026879 0.97461547615906
0.0244471236708401 0.226871457866097 0.975014047401364
0.0176847614517347 0.22501446757349 0.977737816275463
-0.00120445612418673 0.228845937721748 0.976090236386495
-0.0298744764556066 0.230321247199286 0.970885359801322
-0.0573149241757213 0.236267615313625 0.961408166536803
-0.0592347652550997 0.229615905708724 0.967752380298174
0.142788283061541 0.232815216777761 0.134426497469698
0.150034159180843 0.227255260479868 0.142629171977055
0.144203991258433 0.231728905671182 0.1547352325807
0.154545413499682 0.223793653291387 0.175768846463218
0.148903652064874 0.228122729100053 0.18111854825338
0.15284936255301 0.225095078955755 0.189002903182404
0.150913901349998 0.226580210571012 0.197085969769014
0.155018355531651 0.223430752106507 0.217238663551405
0.154027982289527 0.224190692223361 0.218397080688071
0.156030396422386 0.222654185818108 0.23847411612896
0.150949766852844 0.226552690002742 0.235847663652303
0.153645446223813 0.224484222470459 0.248472315011565
0.15076822616481 0.226691991072086 0.254592449192036
0.149467273680002 0.227690247023757 0.264727518838843
0.151427982061871 0.226185742566793 0.270325209795885
0.144655167579641 0.231382705903583 0.270445294374782
0.147547480179269 0.229163356388217 0.289452476843747
0.147511309018023 0.229191111496427 0.29135261081359
0.152930834892502 0.225032563030889 0.321316703954773
0.154066935886026 0.224160802077488 0.332566222551182
0.148959947085618 0.228079532411348 0.328508046078025
0.151411322072057 0.226198526226596 0.335665042893688
0.145933374796819 0.230401903009613 0.345262197676817
0.146566069978376 0.229916418921639 0.354484151583566
0.151945844082887 0.225788373062018 0.369314767019011
0.144090298060937 0.231816145529971 0.3678377715997
0.142047705541999 0.233383481895196 0.376723821261542
0.155399829282501 0.223138037002274 0.404558586637348
0.149860721463073 0.227388343921446 0.403836045120518
0.151532301319842 0.226105695584786 0.421452023595133
0.151886543410283 0.225833876068513 0.432318860202593
0.152367985663452 0.225464452434502 0.432914533814097
0.149210950050973 0.227886931061968 0.447617115253567
0.155019369363742 0.223429974165782 0.455287501207407
0.147077906424277 0.229523673003268 0.467871919504433
0.155804236011601 0.222827724804915 0.483226527383747
0.145797924953647 0.230505837329796 0.481341692308354
0.144317604239717 0.231641727364459 0.488281966204587
0.142520457457424 0.233020726591872 0.494779475626032
0.153674517573305 0.224461915239417 0.51757800020662
0.142336474546415 0.233161901644816 0.506996183142216
0.150878816682058 0.226607131983587 0.536937864731715
0.149179419226316 0.227911125514681 0.536816126302853
0.151139871663489 0.226406817450989 0.549152957952841
0.147947871018001 0.228856125691918 0.55352394493253
0.152697114270479 0.225211903171815 0.562790259810577
0.143041254665433 0.232621104838902 0.567377237175237
0.146650230864987 0.229851840002011 0.587270461446808
0.152322815933834 0.225499112387078 0.599171831015944
0.151783649998563 0.22591282896021 0.606429227591856
0.144278779264995 0.231671518815371 0.607137028885017
0.149340940382301 0.227787185972564 0.620999088688563
0.153401832286832 0.224671154018951 0.636829552058645
0.155150648253611 0.223329240330633 0.647248970796737
0.147891978780955 0.228899013313822 0.649169589219368
0.142719015058039 0.232868367986251 0.657049782144006
0.149231114569817 0.22787145828246 0.675335205260749
0.151704703129237 0.22597340702366 0.680566428610788
0.148404163522482 0.228506000138818 0.695159966641078
0.144461644897494 0.23153120108038 0.700670110886589
0.145027411301594 0.231097073249622 0.71234628435892
0.154442662428318 0.223872496961488 0.720843686437908
0.148043766688349 0.22878254235603 0.73080094008971
0.142331571253211 0.233165664074021 0.732336150285908
0.142818468346007 0.23279205479435 0.740374797879252
0.144910951013855 0.231186436371433 0.754673460866685
0.146134896957364 0.230247269617151 0.763335204813779
0.154338223014443 0.223952636142362 0.781041084840333
0.154844240321711 0.223564355406111 0.792228923476136
0.142501454323918 0.233035308209067 0.78861011699573
0.152405500483499 0.225435666300631 0.806216273598936
0.14665521986054 0.22984801181108 0.806529384753866
0.14650023048655 0.229966939340592 0.823970656727977
0.148791167820434 0.228209041296535 0.831722473169861
0.15554912568826 0.223023477840927 0.854138604817874
0.154876219684176 0.223539816778234 0.853521495199239
0.144123530566455 0.231790645331609 0.863456506041224
0.148193194122661 0.228667882652938 0.867505611129574
0.142949690771474 0.232691364285861 0.870314710105059
0.142693929979764 0.232887616443807 0.883030285532104
0.151217364440002 0.226347355152197 0.901738519980927
0.153855908525093 0.224322729066733 0.916576662494611
0.15310021422869 0.224902593695026 0.928087339902237
0.15075402801656 0.226702885694417 0.927288342934488
0.145533186133969 0.225306625722347 0.935792823992901
0.139804025130772 0.229087424133837 0.936281007183504
0.124171690229294 0.228757368670976 0.944272879012804
0.125908095282602 0.22576877634963 0.94636948484374
0.106371982125793 0.229407302841959 0.950484071526898
0.0990316627098428 0.232422256004386 0.950507636637404
0.0864912820205032 0.235915225752132 0.952079549305141
0.074450800224305 0.235729588996647 0.956858748205114
0.0666580692407218 0.237793455732604 0.957934133010228
0.0605915202564633 0.23095757509831 0.966245097012103
0.0448931428210551 0.237961811884541 0.961349831873225
0.0351280897528944 0.233883497271614 0.966667851133092
0.0242912696587515 0.235270210487268 0.966707490303894
0.0173451820353692 0.234110039736684 0.968764382001184
-0.0157542760610934 0.236803890631552 0.966301232273162
-0.029527324123648 0.241968108867498 0.959383451121252
-0.0445712143539353 0.246343485603902 0.953081884631434
-0.0799909719902955 0.244650286494574 0.946496966423753
0.13009396493981 0.240122133139311 0.119078665373773
0.126984385814398 0.241410162986329 0.129230926161641
0.124401796344834 0.242479906570664 0.136367193477718
0.126408118466519 0.241648860737373 0.146392885844975
0.139293661981243 0.235496733845434 0.170117320049591
0.137672749502031 0.236740503735885 0.178158889850852
0.122615984289371 0.243219614143886 0.167671687909663
0.127152383365547 0.241340576122197 0.190156273869048
0.12253972743089 0.243251200768893 0.189724989413525
0.127738823940696 0.241097664482445 0.199597515802206
0.141376841152489 0.233898254246541 0.226699679059248
0.14193211479081 0.233472177798144 0.238005991920017
0.122990761834296 0.243064376201905 0.228544016445628
0.123249180218152 0.242957335802546 0.239862940499993
0.131983080899918 0.239339635687739 0.256294032022299
0.135435895927158 0.23790943287509 0.262832637492248
0.127002707974869 0.24140257369897 0.270852826204025
0.139934869378256 0.235004718104814 0.288585140582437
0.130795148664656 0.239831693330764 0.296856174082906
0.128569809084518 0.240753459165743 0.304905903208129
0.139650488457859 0.235222931259901 0.31971094844667
0.127183680147036 0.241327612570846 0.315728080087934
0.136986301369863 0.237267233913545 0.338518289343422
0.137575685720956 0.236814983394659 0.346610783665009
0.141625684629869 0.233707309930564 0.364348708659445
0.140596670195898 0.234496900476771 0.3706521387106
0.127353816557091 0.241257139762348 0.371552820056727
0.1391687924365 0.235592549617092 0.388184754939668
0.136136160060086 0.237619373973988 0.395594512834323
0.119371058080716 0.244563706588411 0.394126544268893
0.123230324874901 0.242965145941444 0.403393453774776
0.118363721070619 0.244980959239874 0.401711412011255
0.123620383958015 0.242803578179091 0.421957233318187
0.130552665937984 0.239932132964793 0.434013991803646
0.130212295146992 0.240073119162658 0.452207755397145
0.139837772934287 0.235079222826708 0.462755954012501
0.121239393795417 0.243789816596316 0.458123789311856
0.135688857022854 0.2378046529585 0.477904949090489
0.129581741479554 0.240334303043515 0.47983923665993
0.123343188245529 0.242918396402634 0.489336498370071
0.128656972335211 0.240717354965166 0.50214782340615
0.13757659338987 0.236814286915805 0.514210240548825
0.125532877528624 0.242011397404193 0.516893975439422
0.127943479530355 0.241012893361593 0.526745334283657
0.127187137420946 0.241326180521103 0.541389455140827
0.128112268185106 0.24094297881162 0.543377907868289
0.130461873130287 0.239969740577107 0.567391776884513
0.131188183501208 0.239668892970979 0.570698446933675
0.123559770310105 0.24282868517412 0.570222940080805
0.12638335830817 0.241659116730768 0.581588511400179
0.123235421879183 0.242963034693142 0.59719720237933
0.128971984773844 0.240586872540768 0.60183905284753
0.13175960000533 0.239432204505209 0.615863401530704
0.141816841786618 0.233560629885246 0.632400086879428
0.139836741940574 0.235080013936009 0.642358508679777
0.122040495766481 0.243457989295058 0.636724501421567
0.125206201196939 0.242146711171284 0.658425818656287
0.14140489077944 0.233876731010779 0.675921431546025
0.138980741378454 0.235736846269048 0.68025907675178
0.137192588464279 0.237108944258728 0.697971832876633
0.139082526122211 0.235658744088199 0.707235080915473
0.139959893746766 0.234985516231499 0.7068915307558
0.123011211269127 0.243055905768656 0.709573682722355
0.134149554414568 0.238442252975448 0.726207354865728
0.135489566414456 0.237887201831352 0.736610301164015
0.127521756451197 0.241187576780546 0.739915139007148
0.131328723273276 0.239610679491336 0.753590708797028
0.123613050201603 0.24280661592046 0.75756143427662
0.140376935502002 0.234665508837592 0.776547635347898
0.138747221427794 0.235916032429421 0.788420037594867
0.138765330314956 0.235902136991579 0.795561523395728
0.128018226602576 0.240981932110531 0.797077839124358
0.129087008321934 0.240539228227156 0.810539337122049
0.132814967348347 0.238995057038445 0.820600508625493
0.142174027950936 0.233286551301632 0.843808961170164
0.137744926763587 0.236685120175175 0.84310692324872
0.134676786485363 0.238223866301207 0.854239029270183
0.128302130715603 0.240864335176502 0.854148697395106
0.129488157681433 0.240373066721915 0.868138787034186
0.139616943280365 0.235248671379909 0.87762892329047
0.12039191717714 0.2441408529054 0.879619373218833
0.134649624800873 0.2382351170393 0.900108186024501
0.128987859912599 0.240580296842991 0.907951812032114
0.136304576310592 0.237549613678904 0.918418876338923
0.136136302366445 0.237619315028764 0.930186844689523
0.127934779767762 0.236619467669924 0.93556917464422
0.117975173164334 0.242775945294934 0.933692707414117
0.116404751513051 0.240545954889428 0.936353924255233
0.105621824168247 0.239393333019704 0.941545255656648
0.0879267141281904 0.246066379065029 0.942151790442075
0.0871480233495404 0.243937820159928 0.944416314508167
0.0706577265677216 0.247164279282518 0.947746018335507
0.0658812823791176 0.245093773801045 0.951539382941297
0.0429849313294491 0.248396821674264 0.951253166618769
0.0213662940779476 0.25280616615276 0.949703343094962
0.018309704216885 0.246171689415052 0.956680026000211
0.00323792641276545 0.247578437105708 0.957252574997818
-0.0044706949973862 0.246263341068564 0.958395511616818
-0.0299472697172963 0.254983363284957 0.946424730110311
-0.0436004907808931 0.25364842982866 0.945966140068862
0.11439498322922 0.246624864279285 0.105138273646471
0.0882050893108008 0.257473073537406 0.087941527173828
0.0924015125334414 0.255734858125131 0.104824409734808
0.100910728677254 0.2522102253932 0.121699485479822
0.0940170832137943 0.255065666838356 0.129206899084979
0.106114277762793 0.250054844789495 0.150207880134262
0.118658699735116 0.244858775076428 0.171567853297838
0.111994722013866 0.247619085027922 0.167332902589654
0.108197145115671 0.249192092883309 0.177684666313251
0.0885367798712623 0.257335682808752 0.161323937870244
0.0927430727037901 0.255593379270206 0.177960081990125
0.108153494078003 0.249210173735123 0.198256111899328
0.0897304025102581 0.256841268123324 0.195498177058005
0.0968147141702867 0.253906850153663 0.215259122841146
0.108386116967932 0.249113818179196 0.239410571728623
0.0950625696417417 0.254632612180624 0.227588586891894
0.106645861062088 0.249834655777396 0.24912083918166
0.0892189792669727 0.257053106566806 0.241232788159497
0.0908469446069838 0.2563787812439 0.254877292777017
0.117878951031474 0.24518175756472 0.287146663980081
0.106156702982 0.250037271688313 0.287966531153335
0.109600622837866 0.248610753376288 0.301838843463598
0.106515203728754 0.249888775816887 0.304764851864561
0.0949907650947363 0.254662354597833 0.309948932461507
0.102934234787691 0.251372061718712 0.329017302882397
0.103126581284935 0.251292389190879 0.338680363489204
0.0984511392708809 0.253229020683189 0.340586913159257
0.0945503407527146 0.254844784333498 0.340875495552671
0.0934814983058247 0.25528751337104 0.359090763288462
0.100124472811669 0.252535903236221 0.366667427822727
0.115246624272043 0.246272103009074 0.392363223742938
0.108872088406543 0.248912522218397 0.400848072500323
0.0922331621406445 0.255804591141058 0.391693672499732
0.0964200591868856 0.254070321600246 0.402801042839706
0.116025003003296 0.245949687981926 0.426766298530589
0.10906109531021 0.248834232995516 0.439922003320289
0.09103497279759 0.256300897417242 0.42989490766318
0.116480837101938 0.245760875316076 0.46785203033759
0.0924748981013414 0.255704460827625 0.450069012663868
0.113851424516569 0.246850013670011 0.477735382647033
0.113735013432296 0.246898232719927 0.495140290140032
0.090744553421624 0.256421193061544 0.482841994363094
0.104188331960047 0.250852597661388 0.503911218592116
0.113216435616715 0.247113034684287 0.52276491476254
0.116024129714385 0.245950049710037 0.522188383245527
0.0943305462576482 0.25493582619429 0.517276051005951
0.117700770872361 0.24525556220317 0.547593358452023
0.0997316635761562 0.252698610148995 0.543081949105091
0.10314638536125 0.251284186073879 0.559279193066248
0.114818362071551 0.246449495020769 0.577361803993216
0.118294500495707 0.245009631340798 0.592567488212118
0.109604223033625 0.248609262126377 0.589769234814466
0.109679049200403 0.248578268113277 0.596890987349707
0.115000313185289 0.24637412840177 0.610745111731382
0.0898866302577119 0.25677655647151 0.601339495275179
0.091905646610338 0.255940252515599 0.615054479420296
0.100103615739795 0.252544542518262 0.63189549143735
0.0999885245076269 0.252592214867536 0.640683188961359
0.103968013067938 0.250943856734547 0.657263554866608
0.108577849536887 0.249034399948787 0.666331668743938
0.107777244632779 0.24936602135817 0.682748110196827
0.115102435934308 0.2463318277741 0.693842071654561
0.104392116088359 0.250768187511646 0.698634060335342
0.105838920852963 0.25016890135604 0.702167122987306
0.109925371006457 0.248476238280501 0.711668190843828
0.0931511931677736 0.255424330238942 0.716282549923701
0.104893530149364 0.250560495007212 0.726671625060896
0.0897106005811728 0.256849470350913 0.730644054019549
0.0988223135046186 0.253075275281571 0.742945521065974
0.111924411661093 0.247648208529616 0.763140949225741
0.0898200675645443 0.256804127641768 0.753036799336803
0.0969500905417836 0.253850775424564 0.772863810088198
0.115877563669897 0.246010759353447 0.792525456859372
0.0907559581895852 0.256416469051978 0.793164644992823
0.111439101737914 0.247849230481751 0.814586835111941
0.117212518290307 0.245457803044521 0.829209492713836
0.117527802053896 0.245327208233646 0.844126052134144
0.0967052727742343 0.253952182264193 0.834703678296096
0.0889108502439466 0.257180737787104 0.835277931297595
0.0890357120813031 0.257129018320648 0.838974992695447
0.109900053687199 0.248486725057501 0.875330032136845
0.111060617045832 0.248006003974362 0.882208204717626
0.115628912980452 0.246113753841308 0.898851615651138
0.110058979666441 0.248420895761486 0.894672500535475
0.101483497852842 0.251972976632562 0.898014438314259
0.119138498145906 0.244660036067474 0.9265819686238
0.101402095369398 0.252006694645216 0.926449982503603
0.100142805498456 0.252528309588719 0.926431659218558
