ply
format ascii 1.0
element vertex 835
property float x
property float y
property float z
end_header
-0.263354875269568 -0.0251555531249995 0.872423680711621
-0.260334446696476 -0.0301128387575116 0.880949960210636
-0.256065567926211 -0.0298110759303432 0.891776951976264
-0.253518809224857 -0.0237718209104412 0.900174583975557
-0.251289892908947 -0.024401479384782 0.905567265472429
-0.248670641339043 -0.0316650588210215 0.909746135125002
-0.244917111737394 -0.0250266712645068 0.921374440916067
-0.244438469153116 -0.0309122804260255 0.920630095640761
-0.239138118195247 -0.0240850620071296 0.936207841070425
-0.237788281937107 -0.030934400440253 0.937333869976012
-0.234329884839419 -0.0293004869989941 0.94656493273902
-0.232236955058543 -0.0319240430218513 0.950956263202337
-0.230429272233097 -0.0261295620787605 0.957415711865142
-0.228236692036294 -0.0310090175395457 0.961311140481565
-0.226668584432873 -0.026731646143037 0.976609941308736
-0.226576126472711 -0.0274339340741927 0.987537860376753
-0.227086269784165 -0.0235590109181372 0.988783813529449
-0.221915835980482 -0.0234265515355735 1.00003042795098
-0.190574847968758 -0.0300968712631736 0.983333333333333
-0.17530237321571 -0.0241482808778701 0.983333333333333
-0.15007172708362 -0.0281365981954097 0.983333333333333
-0.150022165799241 -0.02861957987224 0.983333333333333
-0.127612484980708 -0.0282394384762029 0.983333333333333
-0.124217318579449 -0.028207711472392 0.983333333333333
-0.115694372813602 -0.0262026239013284 0.983333333333333
-0.0783735933731678 -0.0286973428869103 0.979166666666667
-0.0750123191151643 -0.0277544953028723 0.979166666666667
-0.0607041037547215 -0.0250322411207269 0.983333333333333
-0.0526021193659196 -0.027243338923674 0.983333333333333
-0.0444563581646102 -0.0314634155322489 0.989296371803234
-0.0331687763717779 -0.0252678824956992 0.991666666666667
-0.0214572844641354 -0.0308030780160114 0.991666666666667
-0.00152189734234695 -0.0346060032872036 0.991666666666667
0.0154909330881051 -0.0255670713906888 0.991666666666667
0.0235336068503133 -0.0257786497780637 0.991666666666667
0.0464668714108042 -0.0318654115863209 0.991666666666666
0.0689419350374227 -0.0330264146920866 0.983333333333333
0.0941901317583535 -0.028542275463513 0.983333333333333
0.0949346681821405 -0.0331135193956374 0.983333333333333
0.1179016160537 -0.0262552609699703 0.983333333333333
0.1458136549322 -0.0304267323231656 0.983333333333333
0.159021709907848 -0.0324148905661216 0.983333333333333
0.167398238568026 -0.0307295974654335 0.983333333333333
0.174727681608519 -0.0290468396464565 0.983333333333333
0.199177108049126 -0.0316612664262151 0.983333333333333
0.221438219869928 -0.0270544060716177 0.986939478724203
0.22141297973915 -0.027246123898776 0.988229846562727
0.220468981790742 -0.0344165001978044 0.998133141772155
-0.264402097700205 -0.0172011090405491 0.256090279105762
-0.264493670591714 -0.016505543873262 0.273031799482805
-0.264024969152183 -0.0200656847602156 0.271845200175184
-0.26377816124897 -0.0219403769060917 0.285099340189544
-0.26444958037885 -0.0168404422889479 0.286495636618678
-0.264591927574342 -0.0157592079933568 0.299491284115991
-0.263910982866346 -0.0209314965596577 0.305741048132779
-0.263727464810949 -0.0223254545836986 0.317166943962666
-0.263868767943498 -0.0212521507334936 0.328562613411609
-0.264714411512548 -0.014828850115987 0.336171755506415
-0.263911962663858 -0.0209240542586737 0.343052827252064
-0.264752297507196 -0.0145410774163203 0.355096313133132
-0.26435436044102 -0.0175637095233359 0.359131146176833
-0.26425669433346 -0.0183055572615077 0.374448026510606
-0.264347463077134 -0.0176161002034409 0.380127961893167
-0.26476976590471 -0.0144083917640631 0.388088918832824
-0.263925225063545 -0.0208233163317055 0.402326069824622
-0.264336046143097 -0.0177028204271076 0.411027264367327
-0.263972445008071 -0.0204646452438692 0.417093089529419
-0.264582573994455 -0.0158302554862534 0.428806935145719
-0.264201496685324 -0.0187248250243484 0.437319148530702
-0.264531904350408 -0.0162151296434055 0.45049463724183
-0.263755668264055 -0.0221112280887723 0.450648354516568
-0.264077009968671 -0.0196703955143457 0.457526574463935
-0.26390650653799 -0.0209654976491746 0.473974830338682
-0.264686932347348 -0.0150375750980682 0.484565356549725
-0.264081549396854 -0.0196359151340506 0.494176183423443
-0.264569915041341 -0.0159264097814341 0.497539723885946
-0.264741906663812 -0.0146200037076971 0.516272142994451
-0.263809050819937 -0.0217057473203892 0.523799323182438
-0.264799866619577 -0.0141797541353205 0.52977262756971
-0.264419739704273 -0.0170671047155976 0.53315178043614
-0.264290763707627 -0.0180467746725544 0.546650713479964
-0.264808512160738 -0.0141140847304845 0.563835463788352
-0.264273131194968 -0.0181807069031123 0.562305805705782
-0.264630552306945 -0.0154658240218256 0.582584046451274
-0.264508566717219 -0.0163923965666909 0.586836313481129
-0.264837117966517 -0.0138968020635892 0.592694530337957
-0.263792969835424 -0.0218278945246414 0.599838346067239
-0.264869760282633 -0.0136488590567015 0.612219930132752
-0.263738428394288 -0.0222421779004525 0.621230330289709
-0.264640188134063 -0.0153926326483691 0.633387299795627
-0.264111717550732 -0.0194067652551621 0.637096360571677
-0.264803709908986 -0.0141505614539793 0.64884772560628
-0.263993069623742 -0.0203079857345635 0.650886739703994
-0.263909278113978 -0.0209444454394661 0.663362523001252
-0.264277162899837 -0.0181500830642704 0.673821421829408
-0.26441284593902 -0.0171194680613664 0.685130531551911
-0.264200390147586 -0.0187332300129243 0.694676856524455
-0.264116641337697 -0.0193693653800754 0.701973068616467
-0.264792708237995 -0.0142341274416548 0.717729688113653
-0.264154592420117 -0.0190810982896973 0.719563829583643
-0.264035190273495 -0.0199880476359677 0.730480963611216
-0.264252989817657 -0.0183336958526497 0.741312538336311
-0.264622685423429 -0.0155255789346536 0.741030459752985
-0.264141144619354 -0.0191832444776487 0.753389472572313
-0.264345863953798 -0.0176282467510985 0.763534958922344
-0.264638382711401 -0.0154063461949821 0.778530221402529
-0.264598882117301 -0.01570638299507 0.784271684604497
-0.264173119852804 -0.0189403684666671 0.792460752333302
-0.263813238964434 -0.0216739352045965 0.798087885731941
-0.264535247736311 -0.0161897341061877 0.811835052646066
-0.263678466087519 -0.0226976368387032 0.82321304224483
-0.264030223782092 -0.0200257718834686 0.831985238290953
-0.264245946973873 -0.0183871915622928 0.842228086646868
-0.264218199165044 -0.0185979570953249 0.849572725645398
-0.263705037132938 -0.022495809711179 0.85982106653057
-0.26416003495378 -0.0190397581422465 0.861401677531552
-0.264017606055461 -0.0201216130324209 0.868525549549541
-0.260820055121142 -0.0165536812792319 0.884215413021413
-0.257158352659874 -0.0196430540757943 0.892394769392382
-0.256705911202465 -0.0171377293333493 0.894360525814041
-0.251896412328852 -0.0155049503806144 0.9069863637467
-0.250756774487257 -0.018329114223869 0.908915823946569
-0.246151172810523 -0.0214088000075927 0.919470286205859
-0.245915710318317 -0.0211853802038202 0.920135887276465
-0.241660842484957 -0.0186578980067197 0.93166399787258
-0.238719203071038 -0.0230073622063753 0.937617054072795
-0.234411341957334 -0.0200792884774116 0.949410856408467
-0.233880254719984 -0.021606696133021 0.950240105822499
-0.228541636036948 -0.0211545682005566 0.963804965492782
-0.227324534313329 -0.0217492121408188 0.970089512632773
-0.227851688886619 -0.0177450756227178 0.974180101172419
-0.227773099212868 -0.0183420234603227 0.985164424485115
-0.228117349302562 -0.0157271844257264 0.9903765416559
-0.194091704367727 -0.0143310893582826 0.983333333333334
-0.184115523943866 -0.018103365388825 0.983333333333333
-0.174243330095043 -0.0186522988109365 0.983333333333333
-0.15539553055228 -0.0153973348540436 0.983333333333333
-0.146512107670508 -0.0158992158257747 0.983333333333333
-0.132642318254593 -0.0151624295124194 0.983333333333333
-0.124389249530374 -0.0202713653806085 0.983333333333333
-0.107532643812111 -0.0195875025528094 0.983333333333333
-0.0907076376879387 -0.0189692896599986 0.983333333333333
-0.0745402688315849 -0.0207472574847718 0.979166666666667
-0.0583426442324006 -0.0160940042951171 0.983333333333333
-0.0562899974063196 -0.0233276918064919 0.983333333333333
-0.0397986036475258 -0.0245237609189314 0.991666666666667
-0.0382518368292947 -0.0243060636221184 0.991666666666667
-0.016988051693578 -0.0236794766504643 0.991666666666667
-0.00228868448584202 -0.0209192741447438 0.991666666666667
0.0215630027300398 -0.0171877006390685 0.991666666666667
0.021600617517457 -0.0152876963447007 0.991666666666667
0.0403339987527415 -0.018467441319358 0.991666666666667
0.0789847378113648 -0.0161712412060156 0.979166666666667
0.0972997318885122 -0.0172864812821661 0.983333333333334
0.0962050786941437 -0.0232769542711249 0.983333333333333
0.11495015315557 -0.0196467065775847 0.983333333333333
0.128801879889741 -0.0255604816314656 0.983333333333333
0.147590093773922 -0.0200633011722814 0.983333333333333
0.157757336996898 -0.0189184126759323 0.983333333333333
0.189192426097365 -0.0203119669538527 0.983333333333333
0.204557850045036 -0.0259439244010514 0.983333333333333
0.212510735218309 -0.0180692941532304 0.983333333333333
0.222574024107219 -0.0184271163649637 0.989889570347733
0.222838702462404 -0.0164166846600187 0.998704538234878
-0.265001416827269 -0.0126488283163174 0.261022408507639
-0.265593182259422 -0.0081539236012799 0.260911438745156
-0.265282849438581 -0.0105111354014918 0.270801609256783
-0.265304870705745 -0.0103438672708556 0.28046791790965
-0.265397294105127 -0.00964184185489481 0.289826795910489
-0.26569394495898 -0.0073885549116965 0.302792819960801
-0.265669331521768 -0.00757551252862716 0.30802561639643
-0.26566455380008 -0.00761180292779208 0.320205994359684
-0.265607577692215 -0.00804457943343646 0.333541355804212
-0.265915964574905 -0.00570214850092884 0.334128544514642
-0.265383516438622 -0.00974649362191438 0.340590851760886
-0.265689022815066 -0.00742594230657781 0.360252050816368
-0.26550120714286 -0.00885254397116246 0.367940156982741
-0.26559658456365 -0.00812808053493986 0.381023331588151
-0.264878895143362 -0.0135794729007536 0.385713152773113
-0.26567170563499 -0.00755747934835165 0.397679869990111
-0.265488989747493 -0.00894534430228127 0.405818284342544
-0.265821749732434 -0.00641778127811332 0.409340663321041
-0.266020968434956 -0.00490456499909684 0.415724213196193
-0.265718643330256 -0.00720095215649817 0.426526383235052
-0.264881213857735 -0.0135618605165171 0.436097905882074
-0.265843553569599 -0.00625216469228704 0.444990268142072
-0.266053124249981 -0.00466031733486909 0.450710269291055
-0.265909386881064 -0.0057521110459736 0.468714502581026
-0.265163517724005 -0.0114175497632578 0.470359118367197
-0.266064705776679 -0.00457234690581691 0.484608491208237
-0.265441145141846 -0.00930876016238828 0.488437448496138
-0.265631757587615 -0.00786091489349516 0.495508415486336
-0.265112265737338 -0.0118068472517705 0.509939183134312
-0.265951571241817 -0.00543168901428907 0.517220290788523
-0.26597916439676 -0.00522209819415018 0.534504883005812
-0.265931368057671 -0.00558514743335189 0.541265492187582
-0.265309234655683 -0.0103107197801776 0.542558101501413
-0.265190150653711 -0.0112152525779089 0.556404041992545
-0.265392304527277 -0.0096797414613699 0.568281341296392
-0.265576830530968 -0.00827812730993131 0.581568691833615
-0.265910833515473 -0.00574112276670964 0.589975666871626
-0.265847716734887 -0.00622054231243217 0.589702292372437
-0.265682174769273 -0.00747795837856836 0.603928329404452
-0.265310911479813 -0.0102979830363935 0.607328606899621
-0.266073564246672 -0.00450506014593843 0.62505374072736
-0.265549906299547 -0.00848263715147532 0.624060586913695
-0.265535043491932 -0.0085955313835432 0.641256908976478
-0.265021613190528 -0.0124954217070317 0.645343266958759
-0.265300998083289 -0.0103732827588106 0.651539319176753
-0.265433030784329 -0.00937039482687806 0.674355606710712
-0.265620398028397 -0.00794719931214907 0.680743390056433
-0.265432178067284 -0.00937687185586763 0.682526975897171
-0.264997120808853 -0.0126814598158683 0.69275672754711
-0.264933683504872 -0.013163313978482 0.699129952156648
-0.264951587043893 -0.0130273230983343 0.713098150951589
-0.265390262442642 -0.00969525263413551 0.720144474623014
-0.265956604125745 -0.00539346046550069 0.723177776344791
-0.265531420120295 -0.00862305362355665 0.745328253889933
-0.266059145347007 -0.00461458256237146 0.749965090523304
-0.265397991496699 -0.00963654463999529 0.757556134454762
-0.265494126573021 -0.00890632623864732 0.761939609656817
-0.265567057474395 -0.00835236104458293 0.78260413188226
-0.265422210649752 -0.00945258190857919 0.79160794334179
-0.265791108296392 -0.00665052609194859 0.792106676019351
-0.265416699592442 -0.00949444254481689 0.80215485487224
-0.264974250619215 -0.0128551761528762 0.819859988274317
-0.26588200708709 -0.00596008122865519 0.818264611680974
-0.265903537808278 -0.00579653916464837 0.828086170631494
-0.265898313071522 -0.00583622498035011 0.845025449515307
-0.265319735316344 -0.0102309593437735 0.845077013243375
-0.265193534038089 -0.0111895532221091 0.859131304505125
-0.265218746719714 -0.0109980438919663 0.867674600733719
-0.264097652208668 -0.0136225074197175 0.876948929242103
-0.262588623677792 -0.0121837236897045 0.881216917536961
-0.26054310711646 -0.00840889860226261 0.887605857422936
-0.256339458358237 -0.00549232960473304 0.899133981020466
-0.252835481260212 -0.00811643497552083 0.90707091591246
-0.249597872942727 -0.00860725447490957 0.915044246369038
-0.24874999690187 -0.0100626167083696 0.916693381114017
-0.245511473584324 -0.00593667556593779 0.926196356829662
-0.243898430294244 -0.00532051212574295 0.930453576808607
-0.241363383564506 -0.00468194324252569 0.93703508890988
-0.237291474967894 -0.00516392039622635 0.947107837339752
-0.234086964895181 -0.0135651816737906 0.952381013610333
-0.231833755661267 -0.00651264078651906 0.960376214002772
-0.228547694732366 -0.0124583863574056 0.970307789949752
-0.228511683064471 -0.0127319221319159 0.974833770827432
-0.229193565156032 -0.00755251343055042 0.98974909785875
-0.228845280502809 -0.00516232839762384 1.0
-0.194408835278012 -0.012424080285514 0.983333333333333
-0.185573066899073 -0.0118991500233061 0.983333333333333
-0.177836519817145 -0.00545372412126668 0.983333333333333
-0.154476430599246 -0.00790152166039846 0.983333333333334
-0.144151208728967 -0.00512125009710854 0.983333333333333
-0.130713448029307 -0.013616591983373 0.983333333333333
-0.120350029722286 -0.00664727307889557 0.983333333333333
-0.107032143311302 -0.0138810088244078 0.983333333333333
-0.0810598142019665 -0.0108139839432868 0.979166666666667
-0.0699461981573554 -0.0128914056565631 0.982696518217461
-0.0697681631325328 -0.0119047401499151 0.981848101171597
-0.0452664743801239 -0.0113458091861552 0.983333333333333
-0.0435829606917997 -0.00494423297378602 0.990735029376502
-0.0395856908924122 -0.0101579124576792 0.991666666666667
-0.0159810763156148 -0.0120542869094548 0.991666666666667
-0.00420034726169408 -0.0060544528083494 0.991666666666667
0.0239550185701838 -0.011240247517277 0.991666666666667
0.0268799116732779 -0.0140103185934549 0.991666666666667
0.0399628763091591 -0.0106113087139824 0.991666666666667
0.0508489818363423 -0.00584546155141421 0.991757540229975
0.0872340819661642 -0.00757270812287072 0.979979342978434
0.100833111861422 -0.0140989007366443 0.983333333333333
0.114803750112309 -0.00975111396363065 0.983333333333333
0.133050451291795 -0.00588597619276843 0.983333333333333
0.148263359053795 -0.00815287240004655 0.983333333333333
0.16255721851174 -0.0153638183344901 0.983333333333333
0.18234680116579 -0.0109263294643401 0.983333333333334
0.200848516807853 -0.00744671496624502 0.983333333333333
0.216426661932492 -0.00867996072743786 0.983333333333333
0.223834393095851 -0.00885366343601116 0.9916344456697
0.228081967591557 -0.0159959352026208 1.0001254224981
-0.266073312393574 0.00450697316014925 0.261258859279445
-0.266568963083059 -0.000742132397017044 0.263965477395658
-0.266435635094793 0.00175485901222962 0.272065748786621
-0.266071338561041 -0.00452196590672741 0.286238324696973
-0.266413098166827 -0.00192604397551346 0.295650592997407
-0.26631932167705 -0.00263834713341023 0.309064500669877
-0.266167570776879 0.00379100965750287 0.312366709898592
-0.266266774375798 -0.0030374835130074 0.324400583533182
-0.266339105661919 -0.00248807284897579 0.333014871711778
-0.266422044816173 -0.00185808742695336 0.335015890437693
-0.266195877351019 -0.00357599988055702 0.35150832141764
-0.266590743606993 0.000576692892767777 0.349874836855835
-0.266245866969309 -0.00319629103183489 0.367624664124744
-0.266345031849629 -0.00244305898430457 0.376338534583402
-0.266241803339726 0.00322715736296312 0.383606828604967
-0.266480394793924 -0.00141487534346447 0.390421319737495
-0.266672754314229 -4.62402740100184e-005 0.405839143253097
-0.266212642961231 0.00344865242784247 0.410029058803117
-0.266527967504677 -0.00105352473010956 0.421306229166544
-0.266071855327667 0.00451804067450357 0.43452606192667
-0.266397511455103 -0.00204443680519148 0.437042187141169
-0.266175046580316 -0.00373422529279342 0.447966644074428
-0.266433142716308 -0.00177379050635693 0.458059925336137
-0.266576270976088 0.000686623438491038 0.465501953173387
-0.26619277562878 0.00359955980001524 0.471585318428231
-0.266326034646436 -0.002587357068595 0.486724352537532
-0.266513325355929 -0.00116474289167976 0.495959334907272
-0.266577118257904 -0.000680187694144197 0.50509427822349
-0.266463965383781 0.00153966910313534 0.509479733316715
-0.266688101041582 0.000162810241418795 0.525128592835052
-0.266529575402872 -0.0010413115307901 0.528746865961894
-0.26650796223926 -0.00120547980718 0.536429511027517
-0.266616876617434 -0.00037819297123139 0.542498554934185
-0.266563674759276 -0.000782301204139803 0.550649896495396
-0.266372505057756 0.00223437925069147 0.569761039880175
-0.266444307334698 -0.00168898681030024 0.577002057598648
-0.266692613253432 -0.000197083893133387 0.584848185146685
-0.266168091417984 -0.00378705499568296 0.595655508570339
-0.266581526451402 0.000646704140256814 0.608401420638456
-0.266094394937792 0.00434683533820442 0.615732889938432
-0.266413638527889 0.00192193952575972 0.620907013996267
-0.266399233286909 0.00203135819417508 0.625735267792504
-0.266159708628802 -0.00385072860108931 0.634443231862653
-0.266239354335565 -0.00324575939638467 0.656311969196283
-0.266343690120567 0.00245325042835527 0.662126754210793
-0.266633048248095 -0.00025535724112575 0.670396207365585
-0.266587928238643 -0.000598077738492159 0.682737615787501
-0.266269100518985 0.00301981470133142 0.6901267988154
-0.266630310163732 0.000276155056690718 0.694902715767394
-0.266092455869465 -0.00436156402441429 0.70084528781406
-0.266161073467733 -0.00384036162016515 0.706761699025301
-0.266255091456379 0.00312622409624329 0.722990305640348
-0.266189634488694 -0.00362341912773268 0.730685202208416
-0.266213587505537 0.00344147790153919 0.735122382461812
-0.266438645770742 0.00173199065801354 0.754468225520224
-0.26616720809309 0.00379376451437765 0.756735692395069
-0.266356558517897 -0.00235550524640758 0.76851152767289
-0.266565681681464 0.00076705711667639 0.776603242183405
-0.26616413070097 0.00381713962823187 0.792414795003907
-0.266420417973424 0.00187044452445516 0.791977496116367
-0.266213751139759 -0.0034402349762231 0.804721365897545
-0.266575896371181 0.000689468845251247 0.815459808478196
-0.266215346880471 -0.00342811412215169 0.823604362729049
-0.266281714279482 0.00292400367816347 0.832733766920956
-0.266273086814056 0.00298953578415286 0.839876235583125
-0.266355605232369 0.00236274616887964 0.845985032856489
-0.266200979842486 -0.00353724261001144 0.852105711128131
-0.266338710543747 0.00249107406946288 0.872984000113402
-0.26650499476699 0.000361816516067511 0.875286562918262
-0.262525522706024 0.00310524677797062 0.884378881615281
-0.260876278501335 0.00417535358443813 0.888169207387504
-0.258621543558172 -0.00139793506370787 0.894753918656063
-0.254772946804736 -0.00300888740005882 0.903892017520769
-0.252099305708092 -0.00460441445395197 0.910082702245779
-0.24900759159121 -0.00180227850308761 0.918778815112021
-0.244215127293776 -0.00284422728494067 0.930476976917166
-0.242649200694635 -0.000353835918688833 0.935235842465632
-0.239106075894353 0.00336303735432605 0.943143750740013
-0.239424725906272 0.00174203046337707 0.942879294706728
-0.235619201764397 0.00129872467629483 0.952588760138179
-0.230880772445804 9.364956537344e-006 0.964928593354545
-0.230736723486236 -0.00131427479762666 0.964852675567578
-0.229776608998649 -0.0031238557650954 0.975702265056136
-0.229587515290436 0.00456016507694329 0.98655952097467
-0.229726203848402 -0.00350672089238296 0.994204607117214
-0.226436596783958 0.00387596671463527 1.0
-0.189724565938729 -0.00242103732184428 0.983333333333333
-0.169732237266053 -0.00124972166759476 0.983333333333333
-0.159178929108736 -0.00392255280480616 0.983333333333333
-0.14804784536909 0.00346127797335414 0.983333333333333
-0.124512244316626 -0.00039682909945145 0.983333333333333
-0.122728407400385 -0.00101627787178588 0.983333333333333
-0.102078416477969 0.000589882246277558 0.983333333333333
-0.0961722559756662 0.000432238554200438 0.983333333333333
-0.0859213303992633 0.00261540131596294 0.983333333333333
-0.0617394087900698 -0.00393280130149332 0.983333333333333
-0.0435097738768174 -0.00272204368678206 0.987959338259933
-0.0433155330819893 0.00317573740225642 0.990303506941574
-0.0383073519671078 0.00313089128416593 0.991666666666667
-0.0134487758932121 0.000313775359224913 0.991666666666667
-0.00911606620952632 5.57761224765045e-005 0.991666666666667
0.0123271615006157 0.00361890167707089 0.991666666666667
0.017421107736458 0.00510148204962571 0.991666666666667
0.0432446881608761 -0.00125843165112213 0.991666666666667
0.0863182195240716 -0.00249702213720828 0.98069755943984
0.08516602846929 0.00388839091258617 0.979570883740116
0.107416506673394 -0.00253416198980037 0.983333333333333
0.122813474216936 -1.69336087520977e-005 0.983333333333333
0.125854316897802 0.00314672906279789 0.983333333333333
0.15574269178857 -0.00198754266324569 0.983333333333333
0.161893922983535 -0.00105639599428553 0.983333333333333
0.188968048611483 -0.00380583573909938 0.983333333333333
0.202795059264673 0.00279828783341561 0.983333333333333
0.2243121011031 0.00522511087526946 0.983646289639995
0.224754278191059 0.00186644244085219 0.988022848555637
0.229931045840852 -0.00195079148578047 1.00013948023931
-0.264994765684417 0.0126993487619889 0.252031997292572
-0.265174485821796 0.0113342387893569 0.268617980618167
-0.265516759664153 0.0087344108435942 0.274456544141677
-0.266072458125189 0.00451346197274358 0.286367472535602
-0.265635419650953 0.0078330987608425 0.290579271279887
-0.265707673847368 0.00728427365126591 0.301372896815616
-0.265524138016327 0.00867836669472641 0.305150639439817
-0.266016985043192 0.00493482186347746 0.321894540555817
-0.265643436727397 0.00777220301947112 0.327353441753156
-0.264876035279827 0.0136011957209663 0.330711090961237
-0.265750163568265 0.00696153217901771 0.342715509080554
-0.26588057647673 0.00597094779318927 0.358891622298629
-0.264886934429342 0.0135184084612067 0.370268763441663
-0.265687199145731 0.00743979445043221 0.373738466918339
-0.264873182486919 0.0136228648344269 0.389566324708848
-0.264986225762907 0.0127642159059243 0.394695478030489
-0.265801107253396 0.00657457647316007 0.400745451057294
-0.265427912567299 0.0094092715449297 0.413006425525256
-0.265765592567284 0.00684433729626032 0.420570702931387
-0.265089849449343 0.0119771158635063 0.426731131798708
-0.266025805863058 0.00486782108470172 0.43904281769545
-0.265208360617783 0.0110769341684202 0.449512920260807
-0.266051052981386 0.00467605018182674 0.460869737158682
-0.265054694442636 0.0122441446502851 0.465488988048377
-0.264905027732682 0.0133809761779547 0.475349904938414
-0.265664416496 0.00761284585582604 0.491618905807784
-0.265490237700044 0.00893586516155759 0.497188240318216
-0.265500407326097 0.00885861918264284 0.497122649469086
-0.265749651279282 0.0069654234001632 0.511165589914509
-0.264906893860849 0.0133668015272504 0.520130363984322
-0.265350076122106 0.0100004980436282 0.53276712565139
-0.265947461644712 0.00546290450340526 0.543807724004559
-0.265079774494992 0.0120536427394558 0.55054144917735
-0.265233797363929 0.010883722899267 0.553597703108069
-0.265366302123323 0.00987724932814856 0.567627194606546
-0.26595816817072 0.00538158036445067 0.573236123789945
-0.265454230680057 0.00920936563170969 0.584487318340901
-0.265322938991407 0.0102066250157414 0.594994636521057
-0.265169532856617 0.0113718602949896 0.606649109125226
-0.26560435572528 0.00806905270203651 0.606461861511989
-0.265634896263762 0.00783707428125983 0.625744701871981
-0.265761189130405 0.0068777847200398 0.634374687665463
-0.264976978637782 0.0128344547946242 0.6372171469281
-0.26539823300791 0.00963471018022618 0.643158999861701
-0.265591295533585 0.00816825470680896 0.653210975367336
-0.26521954950964 0.0109919460970866 0.661797623954858
-0.265695825969018 0.00737426722196853 0.670719825613416
-0.265653439100581 0.00769622745222532 0.686482201980495
-0.265095653241747 0.0119330316834834 0.699408160683179
-0.265624902153828 0.00791298708288837 0.708475326701932
-0.265915053238785 0.00570907078601733 0.711912944757466
-0.2653841108141 0.00974197889193412 0.72714090853037
-0.266019227379158 0.00491778963083767 0.726738151400814
-0.265508804650171 0.00879483517377259 0.732471835413992
-0.265941606309293 0.00550738019149642 0.743777675900484
-0.264981086978809 0.0128032488463694 0.761703587110255
-0.264922403488029 0.013248994212814 0.765935099356501
-0.265232177194516 0.0108960293077512 0.775952327688471
-0.265250724779881 0.0107551464099397 0.784016806347809
-0.265000703196272 0.0126542488819055 0.794478072557127
-0.265098388177325 0.011912257785317 0.807751438092175
-0.265261725236848 0.0106715896436897 0.811834396818558
-0.266056048520806 0.00463810529272524 0.82400317627904
-0.265673478249745 0.00754401500254734 0.83512444885944
-0.265852607812539 0.00618339088924618 0.840483722879052
-0.265210219136233 0.0110628173192623 0.851054035643671
-0.265618373636008 0.00796257609896541 0.863499126896368
-0.26557987219946 0.00825502354397948 0.869762171570999
-0.263430302880374 0.0108421660886691 0.879545705105931
-0.260480072166993 0.013372153490188 0.886122281002643
-0.258754049290106 0.0133114547069097 0.890479642278375
-0.256225001538206 0.0111057343195534 0.897564534675561
-0.252498080957204 0.0109846998756137 0.90696986330272
-0.250621202561931 0.00677182565320002 0.913079954668146
-0.246436557283676 0.007873370529479 0.923231027022455
-0.246018289362782 0.00769966518155699 0.924339548516674
-0.240551487190353 0.0122464083631787 0.936572759148117
-0.239535895032128 0.0067715552103146 0.940936041327378
-0.23875515549561 0.00808949992892176 0.942461931730615
-0.234572926515516 0.0128974712607913 0.951380748768277
-0.230099665498422 0.00895672930820675 0.963925197772784
-0.230441123949065 0.00736351978340205 0.963594230873074
-0.22868102024544 0.0114456785431373 0.975735352814435
-0.228798378410541 0.0105542547779107 0.981642132114919
-0.228783480607341 0.0106674148278352 0.994093782125535
-0.19168615970157 0.0112077035918596 0.983333333333333
-0.18459384534597 0.0133168880558067 0.983333333333333
-0.176149502233579 0.0109033944375758 0.983333333333333
-0.160461409508513 0.0103454853096765 0.983333333333333
-0.142481615352605 0.0100890136831378 0.983333333333333
-0.132098082440023 0.00475433225059365 0.983333333333333
-0.11077974522787 0.00548939790682024 0.983333333333333
-0.0951728741998302 0.0116187779160054 0.983333333333333
-0.0925303051685258 0.0138367898062905 0.983333333333333
-0.0758936659418624 0.00686319595640095 0.979166666666667
-0.0610713098944717 0.00993764036663512 0.983333333333333
-0.0580236077899981 0.0115684804232211 0.983333333333333
-0.0432153046994727 0.00621899646383908 0.985131611874579
-0.0395501915184057 0.0133106408053697 0.991666666666667
-0.0210258020343621 0.00906895470847767 0.991666666666667
-0.00185666754434228 0.0114156526434037 0.991666666666667
0.00866507833413136 0.00898773564435848 0.991666666666667
0.029105738879587 0.00590830199098931 0.991666666666667
0.0356689815180463 0.014987345082752 0.991666666666666
0.0838906802153732 0.0109563379772714 0.982288397339706
0.0842088141118239 0.00919324814460024 0.981130780327358
0.0953154245283312 0.0058338749812613 0.983333333333333
0.128582265385983 0.0147961003009891 0.983333333333333
0.144135201860243 0.00689472576449696 0.983333333333333
0.156984373824232 0.00829480231619886 0.983333333333334
0.16788006899747 0.0147124002190493 0.983333333333333
0.181711808526483 0.0132283154578976 0.983333333333333
0.207037617978268 0.0145183724964035 0.983333333333333
0.217237496129016 0.00624593543107845 0.983333333333333
0.224120133870417 0.00668324677242314 0.988904337504601
0.228170122204801 0.00981257640251413 1.0
-0.263761329545871 0.022068226384141 0.255896160249066
-0.263752679697361 0.0221339285065319 0.256986297879895
-0.263716541257803 0.0224084272074356 0.273998301578569
-0.264289512580702 0.0180562779250502 0.280557961241305
-0.26472707090113 0.0147326925131019 0.295632739786728
-0.263664043900747 0.0228071842231943 0.299849230169266
-0.264736481793427 0.014661209689234 0.315199092711906
-0.264702799106397 0.0149170550977652 0.322956047012125
-0.264061590191453 0.0197875203505754 0.330931604635932
-0.263729121577003 0.0223128701961307 0.331086314140935
-0.264382802621947 0.0173476697105913 0.345612438290172
-0.264271004796925 0.0181968584997948 0.357277269325877
-0.263915249809676 0.0208990859073139 0.356932133907975
-0.264169750834941 0.0189659586979601 0.367517882294217
-0.264460670665978 0.0167562031948908 0.383669660895478
-0.264724866568364 0.0147494360827722 0.387923424504495
-0.264130373019066 0.0192650629048478 0.407713850887148
-0.26390411189207 0.0209836867907725 0.408435140587849
-0.264429550945446 0.0169925809401078 0.419205421198739
-0.264087593399646 0.0195900063749946 0.424531332882174
-0.264672940384835 0.0151438546048668 0.440267765937234
-0.264603895607497 0.0156683017563046 0.444259990301805
-0.264251476867866 0.0183451878472515 0.458272289640405
-0.264014205488952 0.0201474428994694 0.45865786272923
-0.263739662006447 0.0222328076858292 0.477376295624312
-0.263937699996681 0.0207285598070324 0.483173451618111
-0.264755449216292 0.0145171378090004 0.491277214284274
-0.264679489816574 0.0150941067318043 0.505722335430231
-0.26477011382129 0.0144057490752751 0.510342800393316
-0.26443454021723 0.0169546836584308 0.522389088117097
-0.264396221366137 0.0172457442292201 0.526283618438182
-0.264164966689382 0.0190022978912707 0.532129575602093
-0.263731346165683 0.0222959727675174 0.548563931621466
-0.264593587031384 0.0157466031657052 0.562984853334432
-0.264484814705598 0.0165728110066464 0.564870886816103
-0.264493082753313 0.0165100089492105 0.579113619096006
-0.264123129660259 0.0193200816772935 0.590566947676235
-0.264563976045036 0.0159715209370422 0.590170172401822
-0.263998913008059 0.0202636008241081 0.603649951036682
-0.263948105752197 0.0206495202467855 0.609866967442092
-0.263807537724516 0.0217172404211561 0.619223937245706
-0.26425764877817 0.0182983075341798 0.629280370083443
-0.264067222615775 0.0197447378403627 0.637481248905256
-0.263790844896767 0.0218440350361879 0.652565749442021
-0.264268439508668 0.0182163437986225 0.66262330638014
-0.263855913261067 0.0213497917404454 0.668044318016152
-0.264696154914292 0.0149675227472781 0.669153540013424
-0.263739261043177 0.0222358533042405 0.680484348365977
-0.264518928989815 0.0163136872920016 0.692157058665937
-0.264213054120829 0.0186370375860793 0.697295320152766
-0.264340324503107 0.017670323056472 0.713175477361793
-0.263704542704524 0.0224995652678536 0.724107199439179
-0.263882684265765 0.0211464457714085 0.727749376876152
-0.264004362912495 0.0202222046900737 0.73884968427921
-0.264633869649384 0.0154406263043704 0.750887423178555
-0.264126650369304 0.0192933392370849 0.757776708549968
-0.264232216227134 0.0184914869383069 0.767027983681348
-0.264870199965838 0.0136455193311986 0.771678925200996
-0.264146364974646 0.0191435919424802 0.781100874558021
-0.263787384507178 0.0218703193046311 0.788533372046938
-0.264445803907212 0.0168691274389303 0.804198099381594
-0.264446550397257 0.0168634572841065 0.818323522520604
-0.264502687337533 0.0164370548891231 0.82302851716047
-0.263720703921344 0.0223768086387216 0.826509834424196
-0.264312040837127 0.0178851588286583 0.835016877585603
-0.264057271520076 0.0198203239164451 0.843230562437911
-0.263946535378686 0.0206614484178366 0.859491891542847
-0.264579707631475 0.01585202767465 0.866436854672776
-0.263081046685061 0.0141689427203075 0.879322757123714
-0.263206038509542 0.0140690478017704 0.879041716105296
-0.259399423429098 0.0148064787189721 0.888363304139369
-0.256738428883711 0.0220275653360301 0.892661126433809
-0.253440877239087 0.0203181072897166 0.901512996750367
-0.24944532832226 0.0175055073296346 0.912483795669454
-0.247256292820573 0.014391324198728 0.919014823024132
-0.244000645239324 0.0224376193968012 0.924533933609897
-0.243060558217875 0.0163375019514942 0.928914334675227
-0.238295985111798 0.0212615896336336 0.939258095626773
-0.236001228951923 0.0224731003990928 0.944623732393577
-0.233680756262491 0.0210662324751988 0.950920220207615
-0.228788176987961 0.0193170348562767 0.963793343200465
-0.227409069806439 0.0211071013213669 0.968590199452733
-0.227901359171344 0.0173677923532343 0.974954246018602
-0.228062210492283 0.0161460052706727 0.988272787790982
-0.227849889588256 0.0177587426506571 0.999246434002348
-0.190579193692392 0.017962358569518 0.983333333333333
-0.185642861358746 0.0211707408425544 0.983333333333333
-0.180136659570914 0.0225052286314299 0.983333333333333
-0.158225844044305 0.0198493137632959 0.983333333333333
-0.147270196802655 0.0202038451049654 0.983333333333333
-0.13256708008356 0.0208662296515659 0.983333333333333
-0.12731387516595 0.0197295834857515 0.983333333333333
-0.104928807768503 0.0170042425340867 0.983333333333333
-0.0959317903636749 0.0163807196268839 0.983333333333333
-0.0734948837508689 0.0186466030640876 0.979166666666667
-0.0606917207860492 0.0192675006866511 0.983333333333333
-0.0513645712389068 0.0192704698254572 0.983333333333333
-0.0427551970914684 0.0201893570763289 0.986614448497112
-0.0251788787351095 0.0222688147156783 0.991666666666667
-0.0131599825304714 0.0196053627152472 0.991666666666667
-0.0142152507266796 0.0194751363614493 0.991666666666667
0.00585243915774384 0.0245338327927881 0.991666666666667
0.0272786509230982 0.0249479822700851 0.991666666666667
0.0422393272400882 0.0224541361594066 0.991666666666666
0.0816303055557077 0.0234832759268081 0.980256972962554
0.0828794870097532 0.0165603445907909 0.981524334229895
0.0994933047688272 0.0240430994905857 0.983333333333333
0.117561023900614 0.0249712760200415 0.983333333333333
0.129235316756356 0.0156476063372512 0.983333333333333
0.146249320768212 0.0186535809159666 0.983333333333333
0.169449946738634 0.0198706196451259 0.983333333333333
0.193094361281491 0.0253338350172408 0.983333333333333
0.198615387305351 0.0205602342026209 0.983333333333333
0.207075619053771 0.0244341908986134 0.983333333333333
0.222856391335632 0.0162823243284445 0.985113677257028
0.223801192766029 0.0177097903425422 1.0
-0.263624497816568 0.0231075665547414 0.261927228796301
-0.26350113732596 0.0240445825086279 0.267264999184009
-0.263474652296456 0.0242457562804079 0.277111343467048
-0.26310615670255 0.0270447582033424 0.27902068093227
-0.262511815409754 0.0315592285224633 0.296976049238009
-0.263246753065044 0.0259768228046921 0.293412886654898
-0.263647979160337 0.0229292080412373 0.309456727690074
-0.263540077267475 0.0237488042877154 0.317386677846162
-0.262618761909959 0.0307468892036841 0.322957436568503
-0.263296034020369 0.0256024967856035 0.330700504969924
-0.262783835544312 0.0294930304666452 0.348985144199717
-0.262512275048116 0.0315557372224754 0.352561521021838
-0.263167522356325 0.0265786397862992 0.358112301726636
-0.263047683357943 0.0274889073511279 0.37393377170867
-0.263254956986864 0.0259145078317882 0.375554559716708
-0.263579371012468 0.0234503386625811 0.394291848882359
-0.263658834442343 0.0228467539882913 0.401477817463714
-0.263087584631073 0.0271858270916403 0.4042637987244
-0.263015676364149 0.0277320246058735 0.423152526411939
-0.263361356148821 0.0251063259597638 0.430294535075182
-0.262483169232572 0.0317768178406052 0.432603718797243
-0.262837424466028 0.0290859821941268 0.441689156063254
-0.26326013427007 0.0258751824615903 0.459076262801503
-0.263161068675723 0.0266276603572759 0.46000903963128
-0.262748969292137 0.0297578659450034 0.4762504708171
-0.262498723326467 0.0316586727679313 0.484303723480806
-0.262894996319392 0.0286486805521635 0.491437045454639
-0.263381563779535 0.0249528337656564 0.50034523307534
-0.262710461927181 0.0300503584207334 0.510809605532042
-0.263196032011609 0.026362087454922 0.518362041646607
-0.262703122297196 0.0301061084453763 0.521047914638828
-0.263255322800055 0.0259117292047404 0.541680024841735
-0.262543602837376 0.0313177790383675 0.543258420054038
-0.263277647491939 0.0257421563345397 0.556432986087536
-0.263615317274655 0.0231772996937401 0.560478072717941
-0.263665485701194 0.0227962326615216 0.567341757188949
-0.263389813136032 0.0248901736821203 0.580454480138058
-0.263184736512862 0.0264478852859871 0.595254912718423
-0.262699683358341 0.0301322297793309 0.598736517205076
-0.26262426603565 0.0307050812183322 0.614423010425895
-0.262565486558706 0.0311515556720725 0.61196513348814
-0.263503868283661 0.0240238388254352 0.633385581629033
-0.262527943970949 0.0314367199374341 0.637989537664458
-0.263007732940268 0.0277923609004847 0.643099022370648
-0.262924500456218 0.0284245743835244 0.660776364420447
-0.263494252968343 0.0240968743963102 0.657343592884312
-0.26309855200395 0.0271025216240059 0.680881199113548
-0.263311776091422 0.0254829238846606 0.678020167810919
-0.26323674447157 0.0260528456197305 0.69277245824278
-0.263347585888568 0.025210921470709 0.69659492960615
-0.262627494790941 0.0306805563870453 0.705978535881521
-0.262744780744454 0.0297896811232878 0.723396211423042
-0.26333171311832 0.0253314871306108 0.730636261337011
-0.262679909343019 0.0302824283375419 0.736846322454958
-0.263361824713832 0.0251027668551551 0.74771178656997
-0.263582449143761 0.0234269579341585 0.757247573150897
-0.263117733267974 0.0269568254589086 0.76205915434589
-0.263299145014954 0.025578866435696 0.776835420164929
-0.263139849598245 0.026788835252301 0.784451772666753
-0.263645296235916 0.0229495868754446 0.789554080184028
-0.263205068570186 0.0262934479779508 0.80466692118187
-0.263037267706112 0.0275680220813525 0.808390215877072
-0.263517021571881 0.023923929682344 0.826081963464318
-0.262920345801037 0.0284561321226997 0.831731912953604
-0.26365982664 0.0228392174988599 0.838540691292993
-0.262814784569083 0.0292579492844622 0.851304694923928
-0.262637267693485 0.0306063238223564 0.853008554661452
-0.263026880784879 0.027646918581028 0.864771784344038
-0.262917469318743 0.0277717030942275 0.875233655385123
-0.259494516954737 0.0303868628428478 0.882969944659197
-0.257699214155735 0.0301888566193 0.887546822667148
-0.253762527606457 0.0231276340062109 0.899775264025907
-0.253092939236766 0.0306178112124221 0.898979908370925
-0.249060709980521 0.0294123721958878 0.909511189258508
-0.247196446829474 0.0271245116573018 0.914952734874884
-0.243477763622027 0.0318048204177924 0.92274895325866
-0.240642560389946 0.0286747335018043 0.930908981032936
-0.237502209257062 0.0271370620816732 0.939308994503198
-0.236406597443023 0.0280529179414437 0.941759141305054
-0.231588206268161 0.0261688915530715 0.954490443750206
-0.227611109051614 0.0314430128791368 0.962739575522818
-0.227907090822164 0.0321856352365989 0.961750131168014
-0.226214868801708 0.0301779585144724 0.971712427911863
-0.227032125826119 0.0239702751101451 0.985123978867317
-0.226284282201699 0.0296507113960095 0.993104591362207
-0.191546902281736 0.0270896121960052 0.983333333333333
-0.183023344176998 0.0284888709994996 0.983333333333333
-0.164622137389767 0.0322745362634463 0.983333333333333
-0.159101174093063 0.0303856335486227 0.983333333333333
-0.146201230015084 0.0262624281850944 0.983333333333333
-0.13123229937733 0.0238667824180657 0.983333333333333
-0.118744564685475 0.0277786229632013 0.983333333333333
-0.108695616477276 0.0319244508271205 0.983333333333333
-0.0905710248035445 0.0319765574630063 0.983333333333333
-0.0693815119590355 0.0327229172443626 0.979166666666667
-0.0641480709798504 0.0291699842109071 0.979166666666667
-0.0446008667821657 0.0247131930290403 0.983333333333333
-0.0414129548956948 0.0257426170277135 0.991666666666667
-0.033398298879896 0.0268824604902049 0.991666666666667
-0.0264104889118789 0.0342994387273852 0.991666666666667
-0.00168382669477184 0.029826851021487 0.991666666666667
0.00738140225629179 0.0327597980613423 0.991666666666667
0.019905818754652 0.0276310320910577 0.991666666666666
0.0436163156021649 0.0343275704567256 0.991666666666667
0.0830331535294149 0.0319706172959483 0.983333333333333
0.0889584650240157 0.0281906819395303 0.983333333333333
0.0934307725342713 0.0275133408672522 0.983333333333333
0.116676942873472 0.0363306129334415 0.983333333333333
0.12788690847144 0.0260924024114577 0.983333333333333
0.149795938882113 0.0343093046279113 0.983333333333333
0.177190299303398 0.0340894524671924 0.983333333333334
0.190377936779981 0.0304480945156775 0.983333333333333
0.198750508393639 0.0305714124952638 0.983333333333333
0.212179983556675 0.027109070187757 0.983333333333333
0.220569381965443 0.033653885157894 0.991226615475624
0.223887309671504 0.0305177870693713 1.0
-0.261661210519091 0.0380202141190134 0.247842897036243
-0.261789256437845 0.037047608805019 0.266603138923907
-0.261301765878868 0.0407504672232913 0.268894388977013
-0.26189437936665 0.036249120886214 0.28008906210614
-0.262162951837706 0.0342091104346195 0.283409376750345
-0.262353706858175 0.0327601822033664 0.301088151477976
-0.261311429085672 0.0406770678804668 0.30682190806374
-0.262424435422286 0.0322229454216395 0.319793199783159
-0.261386391148909 0.0401076744803384 0.325255483048855
-0.261753898658951 0.0373161777994691 0.333118984034436
-0.262047193501448 0.0350883822933342 0.344176224430977
-0.261418070182616 0.0398670483297698 0.353872250311628
-0.26246852723425 0.0318880348595749 0.364690917074753
-0.261958337488316 0.035763310720523 0.371446844546168
-0.261538518440901 0.0389521529765251 0.379512484743186
-0.26224435663427 0.0335907796163297 0.388576087977675
-0.261334803415437 0.0404995222190226 0.396497193506381
-0.261580496236478 0.0386332999631288 0.412720637745291
-0.262449340982657 0.0320337689090234 0.422843544250118
-0.261711673288158 0.0376369113333371 0.419809376597661
-0.26194203417316 0.0358871466936671 0.43313424882175
-0.262030086664267 0.0352183216222153 0.44434943623443
-0.261691892114057 0.0377871642678693 0.456905975683902
-0.262287019028773 0.0332667265578247 0.465622688239465
-0.262090495266846 0.0347594727307286 0.468545312274974
-0.262205082818426 0.0338890938645449 0.481145396130572
-0.262459711126628 0.0319549998452982 0.486963001855186
-0.261660846269677 0.0380229808680044 0.496481475317239
-0.261672923122334 0.0379312480647662 0.506527470114879
-0.262168626839997 0.0341660045126305 0.51297710235625
-0.262091927655946 0.0347485926553275 0.51925127746726
-0.261363892557865 0.0402785682457852 0.532430058333346
-0.262472366718675 0.0318588710799673 0.54686810169559
-0.262204761265468 0.0338915363017507 0.554186640623862
-0.262153919317105 0.0342777192401233 0.564780840625183
-0.26154809918189 0.0388793800237595 0.574497279729147
-0.262285167902866 0.0332807872550471 0.579767791829982
-0.261477814625837 0.0394132442294597 0.592601963760684
-0.26200662423697 0.0353965364508392 0.599281547855527
-0.262326006565282 0.0329705868170397 0.614074225155164
-0.261278159052997 0.0409297788679878 0.622050471274637
-0.261868673238626 0.0364443783138701 0.63302437057429
-0.261476741935209 0.0394213921237126 0.630128115198663
-0.262042661157508 0.0351228088634607 0.648476867734854
-0.261775996235957 0.0371483300380513 0.652334694604276
-0.262305907823535 0.0331232519173302 0.660424466216897
-0.262348241124504 0.032801698572383 0.672650885516931
-0.261994388552762 0.0354894756994912 0.678240403922275
-0.262012459143927 0.0353522159323258 0.695155801069579
-0.261490529272699 0.0393166668982663 0.695784179984293
-0.261606608298329 0.0384349591619292 0.714851365352455
-0.261775088762995 0.0371552229795361 0.724249678806583
-0.261724864828062 0.0375367116398541 0.724931574107124
-0.262251507063902 0.0335364667110435 0.731144153243493
-0.261911912140534 0.0361159462468682 0.751436334242917
-0.261774708824852 0.0371581088962428 0.757286547995019
-0.261467034542266 0.0394951270935795 0.755830133018504
-0.261827506642743 0.036757069653854 0.766781088032302
-0.262133500064134 0.0344328188648563 0.779412595273359
-0.261329776536882 0.0405377051524723 0.786711019238309
-0.261583815412059 0.0386080883215593 0.80078803778324
-0.262393987264543 0.0324542221410449 0.813113752239883
-0.262125379007747 0.0344945044123098 0.814283598173507
-0.26192694029707 0.0360017960650646 0.830357231434502
-0.262345749428157 0.0328206248851556 0.836814284066353
-0.261749887859675 0.0373466428445674 0.847967222114704
-0.262167629698989 0.0341735785505428 0.849423175194596
-0.262351517080697 0.0327768152146561 0.86619125467858
-0.26137735484017 0.0401763120596056 0.873975247114934
-0.261014068865848 0.0333092305304424 0.878184703785082
-0.255700298060358 0.0333008001802388 0.891540336991201
-0.253954452928247 0.0400824949384921 0.893683865184364
-0.250488707587283 0.0387341849014632 0.902838908041577
-0.247558868584804 0.0404077977507138 0.909647553358406
-0.243910340644227 0.0355420992781333 0.920425550829557
-0.243077574564055 0.0395549755029546 0.921190623158509
-0.241690604675852 0.0363606185845574 0.925732683120565
-0.236659738690245 0.0403291608451244 0.937061724497206
-0.2339771710504 0.0390900504137097 0.944212613228586
-0.231045691786475 0.0355545524210419 0.95274869133856
-0.228878307185868 0.0333235055516345 0.958933147947415
-0.225779286908664 0.0334865314699848 0.967216627162482
-0.225723159868367 0.0339128586671602 0.977621485262377
-0.225251950135822 0.0374920519310975 0.984238097615159
-0.224706009387489 0.0416388836155499 0.994106798542528
-0.222353233389044 0.0396627779153102 1.0
-0.177782039566944 0.0366314760671495 0.983333333333333
-0.173951271910439 0.0359751315629419 0.983333333333333
-0.154472787197122 0.0331210383904869 0.983333333333333
-0.139603232054043 0.0420402987628458 0.983333333333333
-0.126742433264077 0.0428773564606955 0.983333333333333
