ply
format ascii 1.0
element vertex 843
property float x
property float y
property float z
end_header
-0.11197700162575 0.222373366697553 0.895461943536229
-0.111550083660644 0.222346082215241 0.905798932589813
-0.115765352097364 0.222615481553059 0.913918824835839
-0.113156355232639 0.222448739615202 0.924163990028176
-0.111160208649344 0.22232116516157 0.931107767751684
-0.114726822149763 0.219081846711148 0.943010957828181
-0.115684167064818 0.215759601295106 0.947336167547142
-0.116240354292864 0.207551432363848 0.957874526517981
-0.115032237246623 0.207583783683347 0.957734467194386
-0.108074502752964 0.200264244315348 0.966522959595406
-0.116470614605123 0.196878948051028 0.971536516615291
-0.109591300745691 0.19094170740205 0.978564353426824
-0.109779653783405 0.187706404451917 0.982715593655667
-0.114588463893317 0.185752172511688 0.990039595307567
-0.126031317220543 -0.223137323983552 0.712141159158823
-0.133919547730598 -0.222633184304701 0.722257760711666
-0.131580764657274 -0.222782656780941 0.733609472585642
-0.126827227937913 -0.223086457040334 0.74937581843142
-0.129851673598404 -0.222893163618946 0.750507801171277
-0.121711165372482 0.0478119786803925 0.960028575063664
-0.11696764567809 0.0466555885976873 0.959572845889102
-0.121488291531978 0.0200372340064489 0.958089922815238
-0.120244313165982 0.019269290910859 0.958052241431854
-0.115469459334157 0.00435477139820872 0.96001502647173
-0.123700713371637 -0.0153407830340012 0.960339965535554
-0.125939896632891 -0.0306672204324095 0.960385404157481
-0.121880093816396 -0.0424778296650359 0.959588084067354
-0.118422038426961 -0.0499193714063574 0.970224232280256
-0.119581064832856 -0.0499969726008178 0.974643205574547
-0.125173827592505 -0.0583135678243725 0.979199100278051
-0.127992989273707 -0.0793305577781665 0.983292167464003
-0.124609957373829 -0.0910430113860437 0.984884524724613
-0.127682538557545 -0.101646403597803 0.987178936160399
-0.124467594188491 -0.149688724280622 0.959586307154426
-0.124191145785696 -0.179317045451792 0.952642578385795
-0.122415986213907 -0.179430496545202 0.96620502669563
-0.125467581146044 -0.179235468003996 0.976838942468602
-0.126728062766372 -0.179154910165523 0.983331294161099
-0.128639205327029 -0.179978207565946 0.993364871678845
-0.0974461308984617 0.221444693468169 0.206094510521474
-0.102471453250615 0.221765863646135 0.228528829855014
-0.0980836597825249 0.221485438170858 0.231310237364111
-0.103825271058802 0.221852386634297 0.23799665765409
-0.0978670480048502 0.22147159443342 0.245298210420924
-0.100387503372587 0.221632677652024 0.267246729299061
-0.098281315198534 0.221498070400333 0.266063180868333
-0.105237225122853 0.221942625131701 0.276338111689406
-0.105597964160671 0.221965680094717 0.294311713374444
-0.097650712803371 0.221457768372066 0.295713632905018
-0.0991084292855019 0.221550931562242 0.306003264839399
-0.099931486019487 0.221603533417249 0.313078499742502
-0.102868057863852 0.221791210791111 0.323602495764337
-0.105121134527599 0.221935205739565 0.325557181333114
-0.0974439981180331 0.221444557161397 0.350135293142517
-0.104483190994767 0.221894434536523 0.346257147935949
-0.0977103455946618 0.221461579525432 0.365159986878709
-0.0990636687779442 0.221548070901937 0.37549879761496
-0.101261140184772 0.221688512098212 0.382175009335239
-0.104884823555921 0.221920103019479 0.387939213272974
-0.100933909350657 0.221667598656672 0.404299261853248
-0.0982967664304721 0.221499057894181 0.405973096137935
-0.100197152864982 0.221620512281901 0.414227052453705
-0.102096453139364 0.221741897252732 0.422893127741025
-0.106315066441148 0.222011510362091 0.433364347464159
-0.098092283492603 0.221485989315303 0.447316793127104
-0.104280580789453 0.221881485644663 0.456376650048122
-0.0972432983707169 0.221431730367602 0.462424597770753
-0.100345020009289 0.221629962524835 0.472017872428849
-0.104854436006404 0.221918160940145 0.482626820045283
-0.102042081002692 0.221738422309715 0.485618149148177
-0.103606213479266 0.221838386584773 0.499337302768765
-0.0980668226823187 0.221484362105664 0.503856711600856
-0.103213662204045 0.221813298490102 0.512419548026437
-0.0992812452248736 0.221561976291737 0.530744966166688
-0.0979517497920194 0.221477007755422 0.543476755285379
-0.0988224033862587 0.221532651543067 0.551585699633535
-0.101852716869663 0.22172631997915 0.55435423180026
-0.105327646653973 0.221948404004618 0.562420858356536
-0.0994391274290705 0.221572066600789 0.57212965927582
-0.104325529867417 0.221884358356573 0.578240537041038
-0.106345832594843 0.222013476638156 0.59285696759469
-0.0974259678573451 0.221443404840883 0.600942237573697
-0.105451472412743 0.221956317753865 0.613461309240341
-0.104990566456868 0.221926861086711 0.617894447434879
-0.1032128696488 0.221813247837608 0.632232904778171
-0.103498526400219 0.221831504264412 0.644095360896677
-0.100047247978424 0.221610931806118 0.650808031458207
-0.105578285514656 0.221964422425299 0.654259011528996
-0.106200047860321 0.222004159482788 0.673179954004204
-0.104121475072536 0.221871317140469 0.674004646516329
-0.104314778459862 0.221883671230209 0.679707714522477
-0.102831180056216 0.221788853917022 0.692603502247962
-0.106157519645387 0.222001441489114 0.706929260790257
-0.101242270447908 0.221687306126471 0.71413446214167
-0.0995726669378346 0.221580601159328 0.715495301345826
-0.0990117962419641 0.221544755709309 0.728060774478312
-0.105691505847622 0.221971658377928 0.74068082639874
-0.0999324838508322 0.221603597189013 0.751597146361672
-0.0979030336414491 0.221473894288534 0.762767352901803
-0.0996348941742516 0.221584578124625 0.766539419198924
-0.102799732939208 0.221786844120345 0.779919359228424
-0.103143596207274 0.221808820546783 0.782502286662676
-0.0986511280485452 0.221521705273984 0.793741462888834
-0.103492390599355 0.221831112123149 0.808604757667016
-0.099039036679533 0.221546496655574 0.812024947986724
-0.0985701011970648 0.221516526818457 0.823373185860025
-0.102582283271379 0.221772946833042 0.827453615747013
-0.100188296704118 0.221619946281441 0.844185474797977
-0.104806688002756 0.221915109347878 0.851995104243805
-0.102548678123206 0.221770799115809 0.864612158995924
-0.104596444227323 0.221901672591777 0.87039994290112
-0.102808920244451 0.221787431284362 0.884987461559441
-0.104038332338078 0.221866003458092 0.893169964151694
-0.104440971631306 0.221891736281659 0.897097643846975
-0.0980503547997954 0.221483309637307 0.907349589901662
-0.100389386554357 0.221632798006855 0.909422498001753
-0.106269642524671 0.22200860730308 0.919448469007625
-0.106100491441094 0.220931164567465 0.939942111043535
-0.0985665707543107 0.217665898907653 0.943500745454643
-0.0973533627459605 0.215070082744885 0.946719989958177
-0.106879986143398 0.211327164537671 0.952283075874477
-0.105328887079441 0.203083251233156 0.962694963698733
-0.101369951092789 0.200201089919887 0.966055932141059
-0.100221624572613 0.196222473106665 0.971048181641571
-0.106902438907514 0.188443823752563 0.981537845124051
-0.100896518657397 0.188649650219728 0.98078404388109
-0.105582375241733 0.181710110914811 0.99489773760463
-0.115448201768844 -0.223813694738473 0.711848250398695
-0.123594838166971 -0.223293040245398 0.716243455317491
-0.11717200179034 -0.22370352605259 0.727308744794864
-0.114834449933849 -0.223852919841315 0.747102588301293
-0.112706757026146 -0.223988901468349 0.754445681382067
-0.106489057933362 0.0452960584777443 0.95120467838707
-0.10854054088526 0.0477827830983056 0.957198021411736
-0.106419648096859 0.0223969455971313 0.955579744170471
-0.107113769742889 0.00169255768938324 0.959322368690284
-0.111974787917017 0.00292296874903761 0.959781395352045
-0.108621798134395 -0.0135367076246949 0.960316271016953
-0.109122313000485 -0.0189368124033617 0.960331923651188
-0.107133493153803 -0.034463826393238 0.95958846198568
-0.115704250297423 -0.0601722795991225 0.959589126793183
-0.115340786897299 -0.0531498382899002 0.976922898161997
-0.115416636187147 -0.0694423048214069 0.97980261986206
-0.115720775298506 -0.0766764679856639 0.981118866219625
-0.114672651621029 -0.0826539100876639 0.982031280280676
-0.11191487531068 -0.142049815622688 0.959586307154426
-0.113524872620915 -0.159992543773782 0.958849193955348
-0.118002093615626 -0.179712590025374 0.9576097846614
-0.118525049582682 -0.179679167719453 0.963951654184514
-0.12003146813889 -0.179582891962022 0.978854829005325
-0.118153719232141 -0.179922483277125 0.987521480050685
-0.113802688501133 -0.180193413287049 0.988932898807136
-0.0931653133716159 0.221171104864178 0.213514200576258
-0.0926298058215379 0.221136880382024 0.22501875890469
-0.0953914777734082 0.22131337984019 0.230558404701215
-0.0946281077988238 0.221264592587669 0.239681809996564
-0.0922351183558519 0.221111655762644 0.243303479373581
-0.0965460776765741 0.221387170739637 0.253016800361558
-0.0879280606789687 0.220836390141127 0.270207309851595
-0.0915985450830692 0.22107097213342 0.282276706551668
-0.089313485198227 0.220924933125681 0.287145433553635
-0.0935709856147231 0.221197031524675 0.294856497515634
-0.0957701753481796 0.22133758253983 0.301616987430322
-0.0898646167430495 0.220960156143018 0.315290273040073
-0.0935048260893787 0.221192803245366 0.327765279950302
-0.0941482703581276 0.221233926002438 0.335193536439567
-0.0903578414546222 0.220991678313595 0.33958598937635
-0.0887879683797585 0.220891347154815 0.35578171447454
-0.088345766920366 0.220863085898829 0.366197589214016
-0.0950698981900251 0.221292827572138 0.368519922418565
-0.0927782058531512 0.22114636468198 0.378896533587053
-0.0931127245981776 0.221167743896554 0.386703992523842
-0.0974346908772038 0.221443962332253 0.393740037231504
-0.0965697919391893 0.221388686326779 0.410518723155703
-0.0920925107290692 0.221102541657386 0.418790494794975
-0.0940141800861369 0.221225356244421 0.42954440174298
-0.0925044651296075 0.221128869812848 0.432832576409762
-0.0948428132643667 0.221278314492006 0.439403230100747
-0.0895360374558694 0.220939156521353 0.45046789074983
-0.0938613398973368 0.221215588172406 0.460376593965696
-0.0923552261485992 0.221119331895331 0.477443255576228
-0.090864675496721 0.221024070261433 0.483343040933902
-0.0928559457649625 0.221151333067998 0.491524916680311
-0.0915561310689709 0.221068261438363 0.499372875097727
-0.0899457703513777 0.220965342699621 0.515726622148281
-0.0898384912956275 0.220958486456177 0.520513851481943
-0.093726045311498 0.221206941446252 0.52778969484219
-0.0903329623775083 0.220990088282735 0.53493156376217
-0.0972493158042276 0.221432114943965 0.54595893557105
-0.090210453884945 0.22098225872045 0.554397959710046
-0.0963869361609439 0.221376999947534 0.563068561969531
-0.0939423790458596 0.221220767413841 0.570038868233306
-0.0925930758518461 0.221134532956311 0.582844562148574
-0.0941486929652761 0.221233953011415 0.589854760362181
-0.0951028065984583 0.221294930760481 0.606742972502136
-0.0904391578947123 0.220996875276836 0.605854895423797
-0.0911967270632877 0.221045291797736 0.613915656436819
-0.0904205720507793 0.220995687448795 0.622275056601131
-0.0951508563040154 0.221298001634627 0.637029726568336
-0.0949165113266192 0.22128302456195 0.643310088623793
-0.0892672645056696 0.220921979144421 0.660912033685175
-0.0887932442640922 0.220891684338501 0.673271217516021
-0.0888642785935081 0.220896224168311 0.679698969990755
-0.0921561000823158 0.221106605676063 0.688930223257757
-0.0911518507938041 0.221042423739043 0.687674235996585
-0.0939849105324778 0.221223485616609 0.708267826246453
-0.0972069781427755 0.221429409128634 0.706384593914785
-0.0932558072067569 0.221176888358071 0.713656988899098
-0.0898977522887939 0.22096227384779 0.727555128466322
-0.0894902042386304 0.220936227303781 0.745646702958292
-0.0920251131753922 0.221098234255235 0.754667308161186
-0.090123664292938 0.220976711966081 0.755971210947777
-0.0953406198274494 0.221310129490379 0.765486108617508
-0.095977409338526 0.221350826939471 0.778066693479014
-0.0943783731598382 0.221248631956126 0.784482728720406
-0.090176572271542 0.220980093334223 0.798569544362767
-0.095597682030129 0.221326558429181 0.80882702838085
-0.0880274612017708 0.220842742864666 0.811432423464508
-0.0881570357650518 0.220851024022099 0.82742264923637
-0.0879755342383362 0.22083942419356 0.833019108503229
-0.0913180558068981 0.221053045961836 0.841256158696028
-0.0963790335098651 0.22137649488623 0.853995333067323
-0.0900388526335675 0.220971291622106 0.858919390328571
-0.0950090666162416 0.221288939804149 0.86861819308481
-0.0914465729892704 0.221061259541671 0.878744292600382
-0.0923184379360095 0.221116980747294 0.892122351794688
-0.0924787056940969 0.221127223517962 0.899764916955268
-0.0880705759254793 0.220845498342328 0.909988820354886
-0.0931912520160669 0.221172762612372 0.910396372123203
-0.0936782627623349 0.221203887646169 0.927894036685242
-0.0970257478675505 0.221417826635877 0.932286774529897
-0.0892355858797866 0.215646979074479 0.945319292908161
-0.0930495824172592 0.214769067738055 0.946753174461967
-0.0892419483288359 0.20965632362896 0.952977971341102
-0.097656308295434 0.206991614758173 0.957071855825662
-0.0963453860680001 0.201657740909023 0.963783315069432
-0.0975399797702065 0.196463061639125 0.97052153512081
-0.0977273067433561 0.189073399308217 0.979983419770193
-0.093350666437737 0.186033793911255 0.983511530584499
-0.0909297735374644 0.182905675335489 0.994074477007822
-0.108643824803938 -0.22391044100593 0.714616108316305
-0.108366441073741 -0.223854796845678 0.722000004361511
-0.107953889284472 -0.223772037493287 0.732559048650391
-0.107235370740123 -0.223627900124458 0.736150695488626
-0.110392287292667 -0.224136820070203 0.754965350430065
-0.111930865642761 -0.224038488968657 0.764626311491155
-0.102423940351648 0.0415769722358201 0.958445560209223
-0.0963367038277251 0.0303999455623713 0.959567727319819
-0.102629541236533 0.007362212134426 0.957700584571759
-0.099268469688246 0.00111413288867388 0.958333692998756
-0.101181205516274 -0.011338887477795 0.960300938976106
-0.0992946142620688 -0.0232619055150651 0.959588371209332
-0.104004253588216 -0.039962152904366 0.967260965626606
-0.104147118121639 -0.0432255725464195 0.973619209108284
-0.104952404700311 -0.0473711448451758 0.974461202615352
-0.102245970103794 -0.096294703338028 0.959591296690432
-0.104452760482542 -0.105103219890934 0.959586307154426
-0.102686272119327 -0.124753927874331 0.959586307154426
-0.103361220331845 -0.137811013107342 0.959586307154426
-0.105190954699272 -0.151833122771575 0.959586307154425
-0.11137334958889 -0.179736000132249 0.950111981771205
-0.111213450035006 -0.179703923714522 0.969860059208824
-0.101708383166808 -0.17779717358302 0.977394313992786
-0.103189344730311 -0.178308251220618 0.986804621603125
-0.0800417343423047 0.219931006248741 0.206966870061706
-0.0851614712363537 0.220659576404341 0.2145170781081
-0.0848622512388801 0.220640453145551 0.224551138599585
-0.0818562887855935 0.220448340992653 0.239286424572205
-0.0871802218239044 0.2207885954881 0.249735924755147
-0.0798735925555349 0.219874234590728 0.252831650777962
-0.0800952847601941 0.219949087096275 0.273197239579834
-0.0796063345365248 0.219783997171774 0.276806722387486
-0.0842916003646395 0.220603982640777 0.288748176345673
-0.084056751263974 0.220588973349398 0.291563389081459
-0.0853877148486409 0.220674035715829 0.29616494211276
-0.08214477094213 0.220466777992125 0.316588528620437
-0.0804712660922489 0.220076034026082 0.319511896752142
-0.0816775866004606 0.220436920071053 0.333600585001725
-0.0791569074659804 0.219632251907014 0.336189771610779
-0.0792229355353347 0.219654545728464 0.354756244773371
-0.0791392898344408 0.219626303462122 0.356158495066351
-0.0792300780720012 0.219656957345807 0.36460316001707
-0.0863069276828974 0.220732782942152 0.374513872448416
-0.0790323899536792 0.21959020961782 0.382973572764693
-0.0812020920032886 0.220322791239059 0.400177585124077
-0.0834191649221416 0.220548224974562 0.402301863731724
-0.0870015273252273 0.220777175057743 0.411360241787392
-0.0793684023800208 0.219703661383278 0.424024242745194
-0.0839630709218744 0.220582986204687 0.438955006813884
-0.0826273077604166 0.220497617095559 0.441255180130998
-0.0842103952920886 0.220598792795077 0.450172048348343
-0.0816674637277119 0.220436273114576 0.464350500562272
-0.079716077873504 0.219821051085116 0.472804771412719
-0.0814390692955893 0.220402804625699 0.475763256387769
-0.0856944818273975 0.220693641304935 0.487725640179025
-0.0816719549965503 0.2204365601532 0.505679852152973
-0.0873570725454714 0.220799898081991 0.514044053056738
-0.0867111302856711 0.220758615677401 0.51924767374801
-0.0798830796438853 0.219877437826198 0.525016752717735
-0.0796255082991015 0.219790471031204 0.529669171688186
-0.0872078189630241 0.220790359231291 0.54401987528511
-0.0820262678528509 0.22045920441662 0.553516270163688
-0.082904946337304 0.220515361077915 0.568618730182965
-0.0803858338958757 0.220047188564588 0.576112267152228
-0.0830073856430266 0.220521908011175 0.580617515040777
-0.0845465730579934 0.220620278038278 0.589400014181593
-0.0859827381188339 0.220712063869287 0.602509681950853
-0.08069448675439 0.220151402602424 0.610258965070474
-0.0835936509606111 0.220559376440698 0.627041696188711
-0.0813296972883183 0.220365876088706 0.631245707890492
-0.0865011521297743 0.220745195897142 0.642336957848415
-0.0868547058245989 0.220767791642276 0.649461003284048
-0.0854775052506062 0.220679774253053 0.655419690992837
-0.0862736920960633 0.220730658843718 0.665157846242099
-0.083330689878417 0.220542570502362 0.679414508180574
-0.0865568917421415 0.220748758236027 0.685604569949035
-0.0876888417866685 0.220821101574776 0.688081323876295
-0.084087676808944 0.220590949812217 0.69914733874165
-0.0859045965779308 0.220707069815007 0.708939427538171
-0.0873617912249221 0.220800199654509 0.719187764415035
-0.0787109647128617 0.219481683092684 0.728489100126287
-0.088021017746137 0.220842331061074 0.733603128379695
-0.0875079606397814 0.220809541394938 0.749148542546317
-0.0811392651866472 0.220301578293622 0.757462662881885
-0.0868961057476975 0.220770437526408 0.761988112854587
-0.0789596686911722 0.21956565589608 0.773281815959522
-0.0878128734475364 0.220829028483301 0.788254915604276
-0.0873456764701384 0.220799169754674 0.795876561323561
-0.0840286445839481 0.220587177041263 0.801539008055135
-0.0839380912955198 0.220581389747688 0.811186986670105
-0.0871696837449664 0.220787921995645 0.814998179179724
-0.0846480842622924 0.220626765656239 0.830065503088418
-0.0870265363101619 0.22077877339106 0.845726825787949
-0.081609085361739 0.22043254213199 0.852040705800534
-0.0853193371947539 0.220669665675118 0.8662859939872
-0.0833193496383813 0.2205418457435 0.875480881455643
-0.0863370186444297 0.220734706066439 0.878132484488859
-0.0866210046070662 0.220752855712526 0.883377132994053
-0.0869943202215653 0.220776714449129 0.903292027422645
-0.080187938702128 0.219980370919328 0.902637961911386
-0.0820372211682214 0.220459904446987 0.916159680709764
-0.0868009276100522 0.220764354657039 0.921281377778023
-0.0862520271034151 0.220395593226875 0.939005142321918
-0.0858723715993448 0.219727254898423 0.939828495295467
-0.082837577579587 0.214537613932032 0.946214734250536
-0.081861056468683 0.211719703340469 0.949289717173265
-0.0863829516006809 0.207080695780764 0.956036947393283
-0.0796324295385254 0.200692727138444 0.961759326862498
-0.0811019263564262 0.195771512681209 0.968334108232224
-0.0840769629786185 0.187242228910048 0.979904746591795
-0.081985572522314 0.183651593459836 0.983405503900166
-0.0835405060096775 0.182282646459039 0.989786703346603
-0.0849524130859681 0.125848467989476 0.959582801302811
-0.0997513840975588 -0.222126585855686 0.719656476368101
-0.0934555328042294 -0.220863615752695 0.734348024432823
-0.0942682919254799 -0.221026658115553 0.744182876420283
-0.102041177626317 -0.222585926560239 0.751147066161381
-0.094521814606605 -0.221077515664719 0.772145493315491
-0.0939533872863476 0.0330619236433974 0.958767646910343
-0.0851290609744248 0.0283054961435881 0.958378646775042
-0.0912458653381172 0.0174581636728636 0.961139180627955
-0.0933316491416425 -0.00673689715760465 0.958891045447121
-0.0881857683772763 -0.00868448748873361 0.96531765169809
-0.0914693360211797 -0.018658355144348 0.967677101897451
-0.0941838832053455 -0.0240564315880046 0.968858491970352
-0.0902299030357687 -0.0392467802502858 0.970983957651027
-0.0906467763855537 -0.0715363094835097 0.95959081856019
-0.0961240767608337 -0.0977591985023844 0.959586307154426
-0.088845862081494 -0.109392985814998 0.959586307154426
-0.0964595894538051 -0.12160056950116 0.959586307154426
-0.094480092956095 -0.137077914475385 0.959586307154426
-0.0913515753952225 -0.156913822228819 0.958849193955347
-0.0904956689083285 -0.175547863327415 0.957022578797447
-0.0948993748490439 -0.176431262360582 0.969882370754799
-0.0994448732432719 -0.177343105462911 0.979380510055336
-0.092009060109392 -0.178730258499594 0.99476337063651
-0.0708013219572446 0.216811058840672 0.209449284467488
-0.0768945817083414 0.218868396670946 0.21627480637038
-0.0781795749197624 0.219302263805041 0.220519062598762
-0.0728957425419845 0.217518222309408 0.233967457855353
-0.0751788021627906 0.218289078159728 0.241006399405385
-0.0732330147215199 0.21763209941992 0.255956367799505
-0.0765034224802849 0.218736325052402 0.267366731069619
-0.0752578003427313 0.218315751229769 0.270042540655991
-0.077520460479605 0.219079719366168 0.287216682791416
-0.071098191694219 0.216911294406771 0.286986560564366
-0.0700045865352195 0.216542047836479 0.294245518418504
-0.0721619407079933 0.217270460301113 0.305140563292139
-0.0759801761307965 0.2185596553299 0.312897512558974
-0.0789111318974203 0.219549267856504 0.327808554914157
-0.0734841294098965 0.217716886179263 0.336640717519663
-0.0720440316719972 0.217230649308279 0.339550787620052
-0.0747149591474736 0.218132465472644 0.359120298682536
-0.0702511730424326 0.216625305693594 0.370511625544422
-0.0781964522497112 0.219307962293338 0.378497650984855
-0.0719209778093406 0.217189101208059 0.386066169575081
-0.0776646410738494 0.219128400729354 0.396274670073562
-0.0747764869092207 0.218153239803138 0.402475665547802
-0.0748945497103406 0.218193102713471 0.416988442075122
-0.0732750485825779 0.217646291799047 0.419421645855673
-0.0741882164646702 0.217954615242649 0.430293970659912
-0.0751000060005811 0.218262473299273 0.441727340862108
-0.075216568267911 0.218301829567011 0.449965685069381
-0.0763428889562741 0.218682122260224 0.464354445816444
-0.0767235133559025 0.218810636882687 0.467622817442983
-0.0703905478763908 0.2166723644323 0.474312858624707
-0.0700177308417838 0.216546485900873 0.484028994665442
-0.0697822578621766 0.216466980432743 0.489368917870674
-0.0704457025375241 0.216690986939054 0.505289585238001
-0.0778882855688061 0.219203912409276 0.517097550343397
-0.0769978645879341 0.21890326926527 0.527198142313558
-0.0742861824674543 0.217987692638303 0.527911554725973
-0.0732274980612316 0.217630236766041 0.540121292595952
-0.0719570791591538 0.217201290524734 0.548269643441712
-0.0701257631262699 0.216582962091753 0.554437204320204
-0.0719008133913509 0.217182292862173 0.567436033041334
-0.0743732950031106 0.218017105452202 0.581488781662856
-0.0745468187702739 0.218075694290561 0.589832519300497
-0.0734045578180862 0.217690019501536 0.59292092313192
-0.0732699369761034 0.217644565908177 0.608176612215304
-0.0730816676420651 0.217580998353367 0.617952228588435
-0.0760581070138664 0.218585968036142 0.619286351114953
-0.0743393335252382 0.218005638645262 0.635133523505381
-0.0783691650452439 0.219366277313956 0.643126550061018
-0.0755811830265919 0.21842493866906 0.652012779761268
-0.0751751947100144 0.218287860133684 0.660510089003079
-0.0770828366422733 0.218931959363681 0.671810990871161
-0.0753856281128181 0.218358911199621 0.681062158717807
-0.071038127401669 0.216891014204325 0.690048494306572
-0.0742896255709822 0.217988855173207 0.701069077566638
-0.069636574062359 0.216417791524856 0.704425226199755
-0.0781432474180249 0.219289998130073 0.718642484477407
-0.0724778803100138 0.217377134646515 0.724386864231076
-0.0739271539393446 0.217866469679952 0.741422981029094
-0.077859213843197 0.219194096586001 0.745214336526436
-0.0767068798837274 0.218805020730913 0.75303322047541
-0.0780971931075562 0.219274448280068 0.774182747374028
-0.0709568248742728 0.216863563090776 0.768075502193305
-0.0736089390092918 0.217759027089205 0.776785548871071
-0.0746742729703864 0.218118728127658 0.800483605460411
-0.0754927178245958 0.218395069138765 0.798970808933761
-0.0713763917002006 0.21700522629546 0.808382642706193
-0.0720540384789257 0.217234028022349 0.821619252419607
-0.0749130939142696 0.218199364007726 0.826954108648613
-0.0738579613524042 0.217843107385794 0.83984748183424
-0.0743493998104854 0.218009037441686 0.843059261459947
-0.073904110734886 0.217858689336064 0.857456067583071
-0.0787261890561098 0.219486823463944 0.869828153337233
-0.0756767194881603 0.218457195750587 0.873713042016139
-0.0772859746310283 0.219000547194515 0.885402938988936
-0.0756338487027035 0.218442720790986 0.897883723179669
-0.0786603354039202 0.219464588532981 0.905605215275514
-0.0781375039389956 0.219288058892757 0.909627358122306
-0.0786150572515781 0.219449300746228 0.922896064666266
-0.0738926252346005 0.217854811353637 0.931855553087515
-0.0711255704025315 0.215351634837585 0.940482675510899
-0.0760761208640905 0.212545642993592 0.945916781897032
-0.0707007380819536 0.204483421502231 0.953498757673131
-0.0701572863300994 0.198009362937591 0.961133281775555
-0.0745689199266987 0.198978523360012 0.96176485187755
-0.0717669827820996 0.191151478028373 0.970115947085839
-0.0789823729832546 0.188798031768382 0.975928903509675
-0.0793732913587395 0.183643808596348 0.982344497895735
-0.0771806917812284 0.180146892078592 0.987604386266573
-0.0796949590913482 0.176347058692612 0.994822401314967
-0.0890363776220745 -0.219977117546891 0.726642456974726
-0.0836938388370111 -0.218905385314785 0.741985176630337
-0.0870263995323054 -0.219573908812 0.744003358229849
-0.0890225904605316 -0.219974351793377 0.756543750138793
-0.0906310293732984 -0.220297010344965 0.763263805049724
-0.0819473722501718 -0.218555037922147 0.78485450357697
-0.0842916907786427 0.0238253769034007 0.959051217398176
-0.0810648822107609 -0.218378007289746 0.795434274604189
-0.0798210055345515 -0.00228760974929228 0.963028385044024
-0.079095850038938 -0.00593844842414565 0.963570513995671
-0.079414146230205 -0.0266666575922423 0.967265091786745
-0.0834022009337512 -0.0313056106680749 0.968636393826125
-0.0831279820918796 -0.0673226506479648 0.959591005887295
-0.0791928898765977 -0.0750509786258466 0.959591521293705
-0.0810836857519802 -0.0960643115300666 0.959586307154426
-0.0872502248252362 -0.105988401627261 0.959586307154426
-0.0879554113099835 -0.113326226227222 0.959586307154426
-0.080596514665614 -0.141386745158731 0.959586307154426
-0.0832235406780194 -0.174089048607675 0.951515734006666
-0.0820472659392204 -0.17385308372242 0.959692813234734
-0.0847424702582889 -0.174393751269643 0.969997255617969
-0.0814534548057007 -0.173733963102584 0.973687955083496
-0.0830000005640918 -0.174223830154924 0.98869809276186
-0.0615230478485528 0.213678327740535 0.202705332899916
-0.0692683882145924 0.216293476674657 0.220891972344272
-0.0607681665725866 0.213423448436214 0.220650693424756
-0.0662734461397983 0.215282259710068 0.236472201805444
-0.0673659617176578 0.215651138392467 0.236931397182365
-0.0620155385008467 0.213844613060941 0.249344697210263
-0.0659963352009413 0.215188695535721 0.261557224400112
-0.0622978554506023 0.213939935001017 0.269633574399908
-0.0658656595679839 0.215144574008959 0.27576984122555
-0.0677585169259914 0.215783681351993 0.289665691505369
-0.0669451449820321 0.215509053166302 0.303617015207571
-0.0675271856597534 0.215705574298496 0.306271580324885
-0.0665970697233786 0.215391528487122 0.317361386699153
-0.0622179191177141 0.213912945171536 0.328169702637036
-0.0612716406533431 0.213593442218724 0.329243181577204
-0.0639266467225478 0.214489882654371 0.343024825129435
-0.0691381982228596 0.216249519120563 0.354596149929671
-0.0614122275397805 0.213640910196739 0.357707557011556
-0.0681700771371477 0.215922641190641 0.376477070634476
-0.0656161373827781 0.215060324944897 0.381698373328718
-0.0604560865140809 0.213318077233169 0.388380524783057
-0.0672940207539674 0.215626848132049 0.404992833940372
-0.0629552839691412 0.214161910202656 0.401257397868962
-0.0676149626744116 0.215735211468133 0.419971261177971
-0.061828177791117 0.213781352295475 0.426601291798092
-0.0663140069105038 0.215295954712646 0.432888587765876
-0.0647698673061378 0.214774588981813 0.445535182951191
-0.0685743861514707 0.216059152723755 0.460315889893936
-0.06246829798419 0.213997483486812 0.463122611375046
-0.0620936515367323 0.213870987269546 0.467562565188248
-0.0614576998785508 0.213656263548903 0.481042266596348
-0.068654261589051 0.216086121992448 0.48884573699515
-0.0675844249206681 0.215724900652806 0.502195541392129
-0.0604624466043253 0.213320224664068 0.508519993997487
-0.0657675803845445 0.21511145839881 0.518680580468961
-0.0631599584184232 0.214231016806444 0.533325999606023
-0.0667428930812051 0.215440764515594 0.533656592026737
-0.0611903531589533 0.213565996180943 0.548454421275101
-0.0627209593534912 0.214082792469942 0.558194919794548
-0.0637564724822494 0.214432424755544 0.567037026560761
-0.0668252292284543 0.21546856462218 0.577256344142533
-0.0604716334166962 0.213323326513883 0.579627415802003
-0.0665669403712881 0.215381355565173 0.596436651438116
-0.0695800365519401 0.21639870211069 0.605382188852159
-0.0675125009430772 0.215700616127602 0.614914686077508
-0.0695204867219718 0.2163785956122 0.624148869637546
-0.0632535943818505 0.214262632200782 0.626761845495757
-0.0622251115379921 0.213915373631659 0.643315510320558
-0.0674558877001534 0.215681501142993 0.647459171394564
-0.0670238882203207 0.215535640157441 0.656438740146667
-0.0617824513248297 0.213765913139296 0.669616315061286
-0.0683441302187766 0.215981408747571 0.67459182375311
-0.0670619944813479 0.2155485064155 0.690858259585375
-0.0693146472338267 0.216309095642853 0.698727041200469
-0.0690976547052529 0.21623582994335 0.70515266917523
-0.0670059933695688 0.215529598111816 0.717116811047299
-0.065636333781058 0.215067144088658 0.723850620482253
-0.0611512340571215 0.213552787945717 0.730275962024942
-0.0639924823482099 0.21451211149883 0.7438799440029
-0.0681387108018453 0.215912050611731 0.753589984015937
-0.0664848013988542 0.215353622033003 0.761149875586513
-0.0603813556203127 0.213292844976361 0.768478657399015
-0.0620342783031477 0.213850940397339 0.780671332706881
-0.0649888908314231 0.214848540430249 0.78885918803736
-0.0632601696937192 0.21426485229945 0.807338960863662
-0.0662933107879038 0.215288966841178 0.812512346721848
-0.0603232725832017 0.213273233728125 0.819856655118232
-0.0684124097982802 0.216004462772458 0.825031595448228
-0.064067040519972 0.214537285437508 0.837039209730456
-0.0635738775327745 0.214370773108886 0.849612159378312
-0.0615419931300151 0.213684724455242 0.854884101319645
-0.0685640163672869 0.216055651453473 0.86763391068975
-0.067432359732957 0.21567355712305 0.879453398908659
-0.0665460888037205 0.215374315209021 0.888112166494122
-0.0656643150357227 0.215076591723604 0.886828275300098
-0.0684077063141332 0.216002874680654 0.905505841792989
-0.0694584302170058 0.216357642756012 0.908023844068601
-0.0671953597988896 0.215593536091607 0.926937471387167
-0.0673083203891763 0.215631676283429 0.930666888465209
-0.0622250749573835 0.213915361280525 0.936458856942533
-0.0687146878514101 0.210883866315002 0.944917041612085
-0.0693574815769576 0.206819844246028 0.950112730117736
-0.0664537839016373 0.202204967560761 0.954523688967605
-0.0696187733219581 0.196518104867165 0.962722471367536
-0.0649528943548526 0.188675042158899 0.970329204565546
-0.0686410622248851 0.189030450371768 0.971409192892588
-0.0669709400849823 0.178371554173712 0.983660946283004
-0.0698282506857912 0.177677793499217 0.987650602918307
-0.066455826498613 0.176481811069026 0.991696855216292
-0.0701629770194695 -0.216191046435566 0.724936492606285
-0.0712207173000863 -0.216403232888026 0.740285881338883
-0.0721759942057238 -0.216594864823993 0.746769567151141
-0.0733337346607466 -0.216827111666175 0.758035422576063
-0.075525190375999 -0.217266725456501 0.775101238494807
-0.0711528328020231 -0.216389615016906 0.776215514566603
-0.0742596804943727 -0.217012859685048 0.791884859188268
-0.0787795047715494 -0.217919552468421 0.795484963129531
-0.0748380312179846 -0.217128878891813 0.813497215524771
-0.066840346812816 -0.0228196850141498 0.959589925385059
-0.0700457486318307 -0.0350839031349532 0.959590285335746
-0.0677162494274317 -0.0474738330638114 0.959590918793329
-0.0698641209806425 -0.0592324158730323 0.959591308748155
-0.076646138515593 -0.0767789402223251 0.959591717312086
-0.0741817687534155 -0.0870237953142503 0.959586307154426
-0.0728197395186954 -0.100776684147987 0.959586307154426
-0.0731329117591999 -0.120094283264804 0.959586307154426
-0.0715568242683933 -0.141411324964815 0.959586307154426
-0.0712010130826454 -0.151675925714049 0.958849193955347
-0.0724910269742565 -0.171936068286783 0.953554167386398
-0.068691672943799 -0.171173904390658 0.976270766261578
-0.0709957471087688 -0.171795300268703 0.98713135724173
-0.0717444033742599 -0.171980111864218 0.991486513256817
-0.0579293253586322 0.212464937612421 0.201993833132233
-0.054611975427998 0.21134486235101 0.21063667339429
-0.0574549029601111 0.21230475288571 0.218570120155383
-0.0547432718803885 0.211389193492225 0.224295209722295
-0.0584378903219901 0.212636650288559 0.239382373700385
-0.0549367807546992 0.211454530133674 0.250155882841294
-0.0570976023225704 0.212184113335055 0.25841382129135
-0.0512013814008121 0.210193304005812 0.273928899721553
-0.0582024740609847 0.212557163970987 0.280463828339055
-0.0583787199316022 0.212616671904649 0.283575715676293
-0.0533754703796437 0.21092736683675 0.295702688803062
-0.051835365225776 0.210407363304145 0.306137300738124
-0.0549386376007838 0.211455157082114 0.315015603343846
-0.0534583546938252 0.210955352027283 0.320739520828362
-0.0571309137505193 0.212195360658114 0.330469195984563
-0.0597810749120301 0.213090165251488 0.341618504320927
-0.0535127251233212 0.21097370974483 0.3473922361636
-0.0519282244701573 0.210438716445839 0.360398773896288
-0.0537064573082694 0.211039121785235 0.367178900673337
-0.0597353088183805 0.213074712715463 0.385172718250383
-0.0532018885602182 0.210868758397534 0.384095909292514
-0.0532120608317803 0.210872192979343 0.397344437354845
-0.055722876239246 0.211719948652599 0.400315775890788
-0.0590491881493032 0.212843049850874 0.418318184091537
-0.0577366995943696 0.212399899145641 0.426114825456359
-0.0593196665603447 0.212934374608071 0.431191023352154
-0.0558787962935476 0.21177259374559 0.445085286101657
-0.0557901768730188 0.211742672144707 0.45510214607871
-0.0595554401286527 0.213013981567445 0.46030149890989
-0.0591584420987473 0.212879938526637 0.475625934881695
-0.0578356470375377 0.212433307916373 0.482329396388326
-0.0526175625356759 0.210671465637236 0.494170472424189
-0.0551908421228784 0.211540311814632 0.499352404819475
-0.0518632403985331 0.210416775121428 0.505991843129542
-0.0543488866258739 0.21125603263302 0.520548204834609
-0.0574878507065652 0.212315877414775 0.529497575510889
-0.0599031509721708 0.213131383204924 0.53783010070825
-0.0516678452718949 0.210350801602769 0.541102284445657
-0.055526266541984 0.211653565044401 0.558460516193541
-0.0583878479350962 0.212619753898142 0.561693849995215
-0.0527363935775896 0.210711587937601 0.568258976053513
-0.0597718672957326 0.213087056377402 0.58906087285006
-0.0535030860053167 0.210970455177828 0.591479625152228
-0.0600160911460604 0.213169516503322 0.604479312371661
-0.0553132959872562 0.211581657330488 0.616759197494781
-0.0546672998610975 0.211363542179838 0.623500707393074
-0.0588898448071124 0.212789248913562 0.628280369052513
-0.0588610171262926 0.212779515489955 0.640683310633764
-0.054241343600909 0.211219721636495 0.655018023785673
-0.0534919862652045 0.210966707444075 0.659061321011332
-0.0526392335937057 0.21067878268744 0.660943917946663
-0.052748959047075 0.210715830562532 0.681783235191488
-0.053910676466663 0.21110807466389 0.688124452855398
-0.0545860336528221 0.211336103329134 0.699689323330201
-0.0536737393266252 0.211028074834322 0.702030132097766
-0.0576146586309701 0.212358693042323 0.722021115731131
-0.0533577878037185 0.210921396463932 0.727991393963991
-0.0521292730501446 0.210506598805401 0.732431169397493
-0.0536369730188959 0.211015661000208 0.743010298764449
-0.0577673072814544 0.212410233573371 0.749775107266247
-0.0520200601656954 0.210469723994888 0.759767497771646
-0.0539291577573122 0.211114314716006 0.770968283514237
-0.0600766433361193 0.213189961440252 0.774386738323749
-0.0597476910120174 0.213078893458847 0.794950495458517
-0.053699509418378 0.211036775888736 0.79534646668119
-0.0563490055581721 0.211931355943129 0.807988659645372
-0.059631667468805 0.21303971908677 0.815865564954205
-0.0596782778568218 0.213055456691676 0.828095684549472
-0.053846551769822 0.211086423500136 0.835819383174248
-0.0536238723188012 0.21101123765917 0.844612949162212
-0.0571615536896058 0.212205705975461 0.849500633254239
-0.056452914917041 0.211966440062903 0.862863045878945
-0.0529197311350824 0.210773490319602 0.869828926709076
-0.0557736118094594 0.211737079090527 0.879727813644663
-0.0584069986628781 0.212626219980067 0.888849442459569
-0.0512329001003817 0.210203946029233 0.900236275456854
-0.0578893662180849 0.212451445745199 0.910764602191269
-0.0589420706957328 0.212806882544947 0.919983557701714
-0.0595669191925595 0.213017857376683 0.926192546952432
-0.0521922024145842 0.210527846375238 0.934414024459609
-0.0511573962569568 0.209282082801544 0.9396664572679
-0.0515030245787856 0.202648190898217 0.947859287560554
-0.0527302739416744 0.198572353955693 0.953308811923054
-0.0582646274333775 0.194934808455259 0.959991359833327
-0.0582556666722379 0.191574347789021 0.96406609918461
-0.0588927239870052 0.182459291091374 0.975389607452002
-0.0528571081900188 0.178228045712392 0.978051583899522
-0.0560981471335546 0.176257995004186 0.981770633888904
-0.0609134218940842 0.174684013498907 0.98838468405135
-0.0612322695032887 0.1722047894648 0.994688682679333
-0.0613620913231658 -0.214425557545119 0.733910422339834
-0.0694032750285557 -0.216038647521265 0.752725558752161
-0.0607585116463615 -0.214304477320848 0.761701019209019
-0.068830399585856 -0.215923726675273 0.768693656190784
-0.0615638034969373 -0.214466021722721 0.783315009024973
-0.0691423057968633 -0.21598629616764 0.792987015849888
-0.0617795198575424 -0.214509295189879 0.801821253850289
-0.0597765181272602 -0.214107485937448 0.815099765074606
-0.0641497687374104 -0.214984775523268 0.816818964306613
-0.0629494183202921 -0.0265971857518864 0.959590272655484
-0.0640923340664954 -0.0557674728063102 0.959591442871725
-0.0649824712576969 -0.0608985781077943 0.959591615320767
-0.0619031942520388 -0.0786606244647614 0.959586307154426
-0.0580655085065466 -0.0998720923912048 0.959586307154426
-0.0622079109719088 -0.109956471970188 0.959586307154426
-0.0657197101884463 -0.114762973804314 0.959586307154426
-0.0675268574132297 -0.134791209455932 0.959586307154426
-0.0636333539086777 -0.169255595878524 0.950708199963391
-0.0668509154777452 -0.170804641913168 0.963613214468332
-0.0599171979753774 -0.167415471268928 0.967979398954746
-0.0680318121453703 -0.17104153397374 0.974078172433282
-0.0633533406367904 -0.169978879710519 0.993255178119328
-0.047433882492669 0.208921239733836 0.207682217243991
-0.0446311028609858 0.207974904799543 0.21395462193888
-0.0444859603414223 0.207925898650375 0.218495434094097
-0.0509277362494978 0.210100910025435 0.225798785655928
-0.045146617999018 0.208148964143617 0.240688558693842
-0.0443792758711542 0.207889877537612 0.242593508167831
-0.0504600211973909 0.209942989977744 0.256876122600957
-0.0440276110887853 0.207771140885984 0.263659219767596
-0.0445081521617221 0.207933391531573 0.270289056842657
-0.0431904234895192 0.207488471544883 0.280625966672422
-0.0435909647299745 0.207623710920887 0.29669134978123
-0.0488875712191936 0.20941206548765 0.298206282194936
-0.046811747027216 0.208711180934291 0.306013937631141
-0.0435549323493293 0.20761154489107 0.318986196929338
-0.0419971383084913 0.207085568854776 0.323028750920138
-0.0471398253202488 0.208821953806467 0.339221199386532
-0.0454542110982578 0.208252820362661 0.347611857177268
-0.0465221186528164 0.208613390353269 0.35834083292121
-0.0476348067126202 0.208989080104279 0.365823574608471
-0.046643739826718 0.208654454718199 0.375627982825617
-0.0484756334090419 0.209272978155883 0.388121132999037
-0.0510830169310622 0.210153339239607 0.4029037730925
-0.0486078924584553 0.209317634309875 0.406143520983405
-0.0430161390576032 0.207429625874477 0.410533586194102
-0.0485749692071755 0.209306518051399 0.422879941623136
-0.0433214151330726 0.207532699769961 0.437792511406619
-0.0479425979204913 0.209093003213033 0.447746594274952
-0.045295486982396 0.208199228501902 0.456711934377656
-0.0461349436607285 0.208482663978439 0.456457574929379
-0.0512451680988379 0.210208088215576 0.470070274371782
-0.043528325404738 0.207602561280344 0.471708466873269
-0.0461471391352243 0.208486781677677 0.492377167624145
-0.0484056996476184 0.209249365610404 0.49428858412738
-0.0436576668514154 0.207646232330347 0.504934948031227
-0.0445181517702809 0.207936767815175 0.512158371065174
-0.0446866244199223 0.207993651186249 0.523198605281505
-0.0498249533835368 0.209728564679693 0.535838100582431
-0.0464651609042443 0.20859415904923 0.544206067579004
-0.0449297553667363 0.208075742302502 0.555059923799678
-0.0448708111144641 0.208055840272221 0.559531951793873
-0.0468930501903943 0.208738632262505 0.564588844935048
-0.0497495960121881 0.209703120898007 0.574712452629756
-0.0461060964332262 0.208472923955059 0.585781839390288
-0.0458621450147571 0.208390555813461 0.59934236990698
-0.0438930140631231 0.207725695334006 0.615400908306903
-0.0449273363764746 0.208074925550816 0.62033007746085
-0.0464682910981752 0.208595215932844 0.627291484094573
-0.0510888730177599 0.210155316497954 0.639679361690464
-0.0449980120062889 0.208098788581909 0.64664949585373
-0.0451143572957558 0.208138071588899 0.657228747489586
-0.0486873968485308 0.209344478297503 0.669068880735689
-0.0446523065644411 0.207982064051411 0.676293721624692
-0.0506990222956377 0.210023686685415 0.67730291339153
-0.0501455823737635 0.209836822357525 0.691466218046848
-0.0482900781243992 0.20921032697699 0.704089161943248
-0.0437185392540329 0.207666785384351 0.711472232957371
-0.0451275085034659 0.208142511983407 0.713847892294499
-0.0444772316703733 0.207922951488119 0.736422496707341
-0.0479762445518916 0.209104363714713 0.743537525672177
-0.0427842788923322 0.207351340242675 0.746653990590947
-0.043103695322066 0.20745918850967 0.754981458863434
-0.0487679241557857 0.209371667664501 0.762153399022348
-0.0499956735415151 0.209786206903026 0.779391475022698
-0.0429986078933989 0.207423706624551 0.785448596031886
-0.047699632534447 0.209010967996978 0.790930625949994
-0.049226875874851 0.209526628846606 0.797595828527218
-0.049288097561941 0.20954729983357 0.81430994760565
-0.0443372707574445 0.207875694864785 0.818043487621591
-0.0430402765428262 0.207437775693048 0.825522287202553
-0.0451071887836092 0.208135651201154 0.837080624836613
-0.0420884117296074 0.207116386556602 0.852413751493965
-0.0427871024683169 0.207352293599323 0.854838755839627
-0.0467376865683617 0.208686175044184 0.866231989691157
-0.0465602987532242 0.208626281542574 0.880207430548792
-0.0470711926756197 0.208798780572114 0.88746773712543
-0.0447158398807152 0.208003515540498 0.902598972343931
-0.0486189328162757 0.209321361993697 0.906851938867836
-0.0463203349257676 0.208545259777494 0.916893407000295
-0.0483885928184798 0.209243589633639 0.918989531040832
-0.042173712709592 0.207145187713988 0.932228284383895
-0.0508378145260213 0.204751296551558 0.945034272659889
-0.0487930535250093 0.205312287678198 0.943515530675672
-0.0445903476915034 0.196050627504994 0.953033737632605
-0.0441945887050729 0.18977550408532 0.960487345969946
-0.0427579363407373 0.184290962335487 0.966554932944998
-0.0422289618783056 0.18210944816049 0.968985758112366
-0.0441157717223545 0.17372948053026 0.979929248600642
-0.0463932394277298 0.171609972108254 0.983434837593879
-0.0490435370133612 0.170697865835034 0.989296198243794
-0.04698354245243 0.111281858268748 0.959585253322694
-0.0488381409582109 -0.210859127297841 0.74094653015712
-0.0575836348729549 -0.213667585777724 0.750489684467268
-0.054464608952479 -0.213041898113818 0.764225738408861
-0.0502426677940727 -0.211554605216932 0.76853592919367
-0.0562085792949234 -0.213391744750975 0.790418986994359
-0.0569461376590049 -0.213539701575183 0.792888887469199
-0.0561243295080445 -0.213374843944864 0.797845268906457
-0.0558647696420044 -0.213322775314989 0.814081909420119
-0.0497495718484131 -0.211310439471257 0.824038075324286
-0.0546225960789997 -0.030293528351765 0.959590831482434
-0.0527166845329445 -0.048820460538322 0.95959170226158
-0.0476197686181153 -0.0565969369879505 0.959592275993734
-0.0498302543383194 -0.0741729200700432 0.959586307154426
-0.0549471669489308 -0.0938339766850151 0.959586307154426
-0.052718647649419 -0.103068548044855 0.959586307154426
-0.0553042882246161 -0.127759752103082 0.959586307154426
-0.0526453574962724 -0.163814682479966 0.948651676699281
-0.0577188356792871 -0.166326910768655 0.954164198643872
-0.0523246774203846 -0.163655891699913 0.965666176467178
-0.0503075809712203 -0.162657088398152 0.973659876400018
-0.0541244540385991 -0.164693560660992 0.985434917396687
-0.0476073574638526 -0.162521703344971 0.9936927480757
-0.0357584100028478 0.204979114792368 0.195381225015473
-0.032968396277723 0.204037090158894 0.20453457530635
-0.0348674516727143 0.204678290216909 0.218115603497274
-0.0331861335271166 0.20411060730711 0.220815418019917
-0.0415365402504153 0.206930051800172 0.232039559566525
-0.0328490442591473 0.203996791955147 0.24076825690494
-0.0356701390529461 0.204949310849657 0.251396222318786
-0.0395718951894498 0.206266705943914 0.258847292823568
-0.039738038124751 0.206322802706566 0.264737843873078
-0.0418421293648025 0.207033231390609 0.285419734632465
-0.0373032896769297 0.205500730401507 0.29658986965803
-0.0387713234500792 0.205996399639484 0.299999952749443
-0.033359014621159 0.204168979152304 0.306107486831824
-0.041265548125969 0.20683855359197 0.321453944812814
-0.0409266020458588 0.206724111303028 0.324231538893408
-0.0340327700923169 0.204396467011969 0.335636186596552
-0.0371840196723406 0.205460459889091 0.348361528510111
-0.0367496016274173 0.205313782295409 0.355992443654927
-0.0353000938514102 0.204824368204318 0.366732056422361
