ply
format ascii 1.0
element vertex 857
property float x
property float y
property float z
end_header
0.261127328200996 0.079382938141595 0.683743540184406
0.261371160736327 0.0787942743278514 0.68546468622363
0.259394137867294 0.0835672297513931 0.701627848438679
0.260233312287281 0.0815412834854646 0.711017238568748
0.261338370000958 0.0788734381658987 0.712762328204768
0.260177504640111 0.0816760150641459 0.730646192111229
0.259131193857685 0.0842020327455349 0.741790321365834
0.260280552910309 0.0814272345326552 0.743521407132987
0.259951537997982 0.0822215467962169 0.753350164566997
0.260809890494199 0.0801493005585539 0.759901745588247
0.261726797814854 0.0779356904695908 0.767250747423452
0.258557090098331 0.0855880418275789 0.783479254158394
0.260033419645668 0.0820238670118656 0.792467061216555
0.261443036336731 0.0786207512785521 0.801951136222395
0.260632658119112 0.0805771773621796 0.814093144825545
0.262030193810791 0.0772032277414277 0.819194070081879
0.263578202955661 0.0734660030692056 0.828115454698727
0.262216561932565 0.076753295294248 0.836707110966485
0.260839129118798 0.0800787122745021 0.84967754124889
0.260371007320965 0.0812088582676729 0.858510010997466
0.260978946708675 0.0797411627527638 0.859812527019656
0.260522772714625 0.080842464195999 0.883380906030161
0.261582730483372 0.0782834997751484 0.881197092807411
0.260029177984818 0.0820341072870174 0.894190613286753
0.262244764432848 0.0766852084355709 0.898988335817793
0.2611207201225 0.0793988914543225 0.912773653991755
0.261242000336183 0.0791060951176035 0.924840420592084
0.25970963170638 0.0828055602462298 0.928895468604608
0.257991845092853 0.0713225627431553 0.937488230106844
0.252924391218682 0.0784757532762367 0.939432539517574
0.248543387856591 0.0646093804003274 0.948285297334371
0.245226774948437 0.0607047949420634 0.952083186831391
0.243783008339639 0.0581596092365422 0.953846815215341
0.23654041342766 0.0511961651660814 0.96193636056309
0.235131240493582 0.051013945723898 0.963357262237305
0.230749483294266 0.0383023772138672 0.969360725531114
0.2262108532343 0.0405968493362975 0.973561038272447
0.221231997855578 0.0310190603624317 0.97974745117785
0.216727024182943 0.0298762946993454 0.984363045026811
0.215559005558519 0.0238981936013489 0.995181215420851
0.2138332528106 0.0266575180622163 1.0
0.194147977582503 0.00962201501209331 0.986301369863014
0.181795943401358 2.76432546138144e-005 0.986301369863014
0.173340289840949 -0.0188878462394893 0.986301369863014
0.168143439765594 -0.0233435653064286 0.986301369863014
0.150156163006297 -0.0377334057422224 0.986301369863014
0.149759423387884 -0.0475246594900302 0.986301369863014
0.132037322891346 -0.0574960257995271 0.986301369863014
0.129054259623527 -0.0652528309249602 0.986301369863014
0.0987255722864088 -0.0957055991624901 0.979452054794521
0.0965374014071089 -0.0990658293931918 0.979452054794521
0.0857540603976065 -0.106682672075969 0.979452054794521
0.0815516208650873 -0.115850498448714 0.97945205479452
0.0741758125431636 -0.128853194785838 0.979452054794521
0.0644050877129988 -0.143050563239668 0.979452054794521
0.0469342756613383 -0.154227210064883 0.979452054794521
0.0280674675784265 -0.170290715983107 0.979452054794521
0.0349714040267898 -0.178609127004808 0.986301369863014
0.0260743482171957 -0.178450335018606 0.986301369863014
0.00332019672220676 -0.197919650117762 0.986301369863014
0.00287209584547077 -0.207963410228215 0.986301369863014
0.00147049473767376 -0.21160325059084 0.99787843808102
-0.00346429323803396 -0.211340762038581 0.998921867799246
0.26267723899613 0.0756411224795159 0.234183268420712
0.265309273064076 0.0658045220137115 0.233059685498389
0.265476729805499 0.0645325617813376 0.242386973315625
0.265011553746 0.068065924748425 0.261064861900179
0.264921020786523 0.0687535908477066 0.261606968830823
0.264427211962199 0.0714163140110466 0.270871066196776
0.26479126115524 0.0697392131006915 0.288599188661569
0.264329742306787 0.0716516265750624 0.292040303957417
0.265188758471808 0.0667199212235804 0.301263216527893
0.264925570590318 0.0687190316568254 0.303817155041134
0.264399326416752 0.0714836356730581 0.320377911248135
0.265243958701954 0.0663006338484215 0.326197564484603
0.263877475834937 0.0727434944252072 0.339870275664652
0.264944446204983 0.0685756571291001 0.346628609898668
0.26275588505051 0.0754512541084042 0.356771880356679
0.265512611034833 0.0642600167860592 0.3613583403431
0.26474556774725 0.0700862889923575 0.377128415384479
0.265332347389063 0.0656292551147881 0.377042986855515
0.265167928144472 0.0668781432681091 0.390299274449796
0.264735860070664 0.0701600261167157 0.397410430898458
0.264788900401329 0.0697571448069202 0.409773218065407
0.265019482900719 0.0680056968388559 0.413274688379879
0.265903191389214 0.0612932644529159 0.425333470829588
0.264766630237932 0.0699263034921359 0.436012982155841
0.264351553388584 0.0715989699655755 0.449856096787551
0.264700999476424 0.0704248186187822 0.454198426685642
0.265042700989921 0.0678293379423104 0.466434450451407
0.263999128753527 0.0724497982992457 0.475878121523526
0.26461789072644 0.0710560922482766 0.485652849909453
0.265541692464369 0.0640391213980531 0.495025958057263
0.264755929094229 0.0700075867484291 0.501992057422578
0.264891338572355 0.0689790496480524 0.50938007273192
0.26499903336741 0.0681610264655914 0.520919727816838
0.264922636775741 0.0687413161909597 0.537872048441068
0.265405492693574 0.0650736613672245 0.534851797732896
0.262502389907702 0.0760632455201657 0.551727995175425
0.265110446054947 0.0673147630860237 0.558832733948592
0.265033775207675 0.0678971359895165 0.565534299203504
0.265029156022441 0.0679322221847526 0.568815631586964
0.26520412666247 0.0666031882261528 0.583697999175769
0.265087522004639 0.067488888535431 0.592151010695004
0.263291758177249 0.074157541938119 0.608320336826719
0.265386923136167 0.0652147111592638 0.616114681888799
0.265465353249322 0.0646189753047133 0.617045661689781
0.264828998608539 0.0694525686845947 0.62719747333421
0.265354191501491 0.065463332607983 0.634644867790441
0.263330899004159 0.074063047622949 0.652867619742161
0.265119500684691 0.0672459863449066 0.667326577331094
0.265466832861625 0.064607736533482 0.665238766293621
0.263904368974626 0.0726785686426331 0.681277477450812
0.263826222021552 0.0728672320766054 0.688524380676278
0.264980369117876 0.0683027955157536 0.698461417583635
0.263668901054211 0.0732470384896037 0.710482992038892
0.26461902014832 0.0710475134373814 0.712375947018363
0.264866657438269 0.069166521473791 0.725023835101699
0.265068417497407 0.0676340016748057 0.734120961523715
0.265845985979956 0.0617277826755604 0.734698493559754
0.264794281473084 0.0697162715090055 0.75904890058742
0.263712864724667 0.0731409008001384 0.76064488600165
0.264776447920839 0.0698517307868184 0.779482873012854
0.265632203066348 0.0633516251208326 0.776751494543961
0.264748746899333 0.0700621409348466 0.785810625227677
0.264251814386883 0.0718397612161795 0.800386095758323
0.265406131343554 0.0650688103390151 0.808596378999626
0.265165452591762 0.0668969469577809 0.821171316779202
0.263910540861186 0.0726636683903959 0.823515947047135
0.265180323375804 0.066783992138739 0.832728573349039
0.263012391712419 0.0748319922463844 0.846854318130093
0.264758610379408 0.069987220365498 0.849582467804833
0.265317125746888 0.0657448749659434 0.859972567385119
0.264679568323226 0.0705876043888279 0.872772038373535
0.265669196266384 0.0630706338695075 0.878029377378713
0.265009899672718 0.068078488682358 0.889323750139951
0.264470501020738 0.0713118049788176 0.903381634960252
0.26327579201958 0.0741960876525045 0.912049753109666
0.265231195051227 0.0663975834009201 0.915978436575489
0.264811708555394 0.0695838996768779 0.924054969548535
0.260926724290306 0.0640685966910944 0.936078488498882
0.262291355674361 0.0591043490337078 0.935373496069447
0.25198841812586 0.0570473056478306 0.945856788599354
0.249638554123284 0.0545891070808501 0.948507408488304
0.246065028326093 0.0565369125000985 0.951796122652355
0.242264128202223 0.0369311916498538 0.958123565637073
0.235876045981786 0.0397922786709053 0.964083550134091
0.230564067760672 0.0375963698192315 0.969636707266015
0.230556471816847 0.0272509644729085 0.970994584592316
0.222875165561331 0.0262749702072897 0.978737569023105
0.222519825780738 0.022310120936148 0.979607385500704
0.216529397166351 0.0169374398246604 0.98624784077536
0.216384310099475 0.0191204750621876 1.0
0.194121103178349 -0.00303929603211499 0.986301369863014
0.197811745393554 -0.0141493081520447 0.986301369863014
0.182010275753397 -0.0241546768844054 0.986301369863014
0.17122832991448 -0.0361941110007696 0.986301369863014
0.160822217644842 -0.0382005934901382 0.986301369863014
0.147348355926042 -0.0529727726807215 0.986301369863014
0.139195967616342 -0.0701728483918659 0.986301369863014
0.130124190291851 -0.0788900472239743 0.986301369863014
0.129272872358686 -0.0813575288774205 0.986301369863014
0.109162195202422 -0.109136989166041 0.986301369863014
0.0964971588852251 -0.1165960922344 0.979452054794521
0.0906274245714947 -0.127070523462249 0.979452054794521
0.076694088468996 -0.137179707327286 0.979452054794521
0.0669214045261377 -0.146763884347521 0.979452054794521
0.0519955132916412 -0.163715932446109 0.982545585938029
0.046341537681673 -0.168806911037329 0.986301369863014
0.0486154429191968 -0.171077812833557 0.986301369863014
0.0347848131399176 -0.193029092559398 0.986301369863014
0.0222009313610329 -0.199188766587693 0.986301369863014
0.00798321978511644 -0.210745834072244 0.988242274857062
0.0089683375384395 -0.212811258504301 1.0
0.266377774962103 0.0576884443273161 0.223162878400776
0.2662405797562 0.0587305453767966 0.233464069972173
0.265704430520293 0.0628030031404727 0.244225430167351
0.266822219869725 0.0543125500923645 0.237121793221263
0.266384036051983 0.0576408866281052 0.262454186361168
0.26747037104293 0.0493893531528246 0.259299888509392
0.2657687272614 0.0623146209047787 0.277378240235037
0.2657201286257 0.0626837641917675 0.28808537210098
0.266960108473882 0.053265182160243 0.29050491303689
0.266298892032793 0.0582876196620414 0.300195855224153
0.266283912191512 0.0584014028530637 0.307199941417337
0.266217858097955 0.0589031335058643 0.322761574432075
0.265670348102259 0.063061884807432 0.336424664628725
0.266590663223546 0.0560713974399068 0.341762984851811
0.266285072413005 0.0583925900958871 0.345359301617029
0.267215018240599 0.0513289502513304 0.359168358405745
0.266772447690731 0.0546906073256598 0.360592661143485
0.266528116727129 0.0565464852473098 0.37256917876317
0.267265516085621 0.0509453810373193 0.378916413894483
0.267073035745391 0.0524074143732448 0.390808738364734
0.266582403543724 0.0561341359368876 0.404249524022345
0.265994394792743 0.0606005058254703 0.421578057146119
0.266662398484486 0.0555265140365958 0.415082047102345
0.267065335414453 0.0524659041936282 0.424922561557918
0.265735796047017 0.0625647583118639 0.443258320619291
0.266096993482947 0.0598211914023916 0.449737314142118
0.265558449002408 0.0639118428553323 0.461570596199633
0.266871623748002 0.0539372903807611 0.461534089708821
0.266386406362889 0.0576228823292951 0.47251174843226
0.266388259190201 0.0576088087086178 0.490266879221099
0.266882850651067 0.0538520135856296 0.492428355808327
0.266111033725227 0.0597145451743534 0.506843280971423
0.266685625198313 0.0553500896295222 0.507430518351178
0.266515741979926 0.0566404807842684 0.516667998990387
0.265918693083248 0.0611755173967118 0.539988552342229
0.266733166763974 0.0549889755866282 0.542020523190865
0.266087885479125 0.0598903735598817 0.552846540887991
0.265899125092994 0.0613241510391555 0.567393384523935
0.265976133309723 0.0607392155602174 0.571514492010592
0.267073658380302 0.0524026849915519 0.577453429032512
0.266107398699799 0.059742155933695 0.593277946139029
0.267039544905423 0.0526618025586648 0.598401404810794
0.266825247111797 0.0542895559059442 0.605194571743705
0.266608710560881 0.055934314303122 0.617509583003823
0.26728529398919 0.0507951529449463 0.620305470556499
0.266825044035327 0.0542910984248816 0.636772142810614
0.267125994047022 0.0520051561358229 0.642379830724251
0.265934803029316 0.0610531502076061 0.659974847204388
0.266649981529724 0.0556208301717983 0.663845627873353
0.266499491015305 0.0567639191156224 0.672870886948234
0.26667929232326 0.0553981925912545 0.682611337248241
0.266787969917451 0.0545727043082137 0.685614707301642
0.266268156157897 0.0585210818101976 0.702780735383475
0.266122244038863 0.0596293943884436 0.712000737618385
0.265625252765131 0.0634044178998873 0.724065206862661
0.266613542105788 0.0558976150760259 0.729530670296103
0.26575280446836 0.0624355665254981 0.740476683674434
0.265807698028449 0.0620186085406898 0.746958857043802
0.266482047590249 0.0568964150832331 0.757511082567073
0.26644070460742 0.0572104462150914 0.759270635802714
0.266382125008673 0.0576554024431922 0.769727070495267
0.266088048411034 0.0598891359691633 0.784938164383351
0.266884534230707 0.0538392255286553 0.790059471366968
0.265929861436428 0.061090685332101 0.801211968996714
0.26700703293035 0.052908755527038 0.808061156858386
0.266430312194152 0.057289384430911 0.81231215201141
0.266914140966089 0.0536143400466096 0.829048589344348
0.266201472003491 0.05902759825028 0.834210406698422
0.265650038549478 0.0632161511764954 0.847107313903597
0.267059983276749 0.0525065577156064 0.857388164287808
0.266712572288439 0.0551454061588676 0.864859657948824
0.266993113552461 0.0530144836988885 0.869344594045698
0.267186763809296 0.0515435639641028 0.884871392722027
0.265548073331825 0.0639906538978381 0.895991280928551
0.265682354172857 0.0629706896473075 0.901345774310531
0.26646770472362 0.0570053599714217 0.906833722358021
0.26731016696346 0.0506062239483343 0.921453082801086
0.264668316332407 0.0582010002538618 0.93313478131582
0.265373644740636 0.0489024549873139 0.933649190796728
0.261193077181504 0.0489959845249771 0.937781784966444
0.256421867188674 0.0462543294166347 0.942870034398043
0.250144422256673 0.0448869974302003 0.949272247556122
0.243662962426429 0.0371718118371357 0.956705291396752
0.238680989925262 0.026129916675852 0.963085898962836
0.238866679621132 0.0209783892799884 0.963574207123155
0.229873230500469 0.0251520290970009 0.97194594672685
0.229596679482751 0.0115081887197217 0.97400101034398
0.222112836506572 0.0142894937315418 0.981057794853445
0.218969159910085 0.0129253248614931 0.984352636629006
0.218085794855382 0.00470532340771121 0.993043369728616
0.218355747136052 0.00265483226157242 1.00010855588241
0.210700109732822 -0.00996247770596832 1.0
0.188831983551593 -0.0243543116293059 0.986301369863014
0.180054162897992 -0.0427168724837622 0.986301369863014
0.162762057297616 -0.0535893905093102 0.986301369863014
0.158806130128829 -0.0547013214366223 0.986301369863014
0.151201916154729 -0.07040089761463 0.986301369863014
0.138282121326868 -0.0841890000887742 0.986301369863014
0.13105232899206 -0.09589174777877 0.986301369863014
0.123624019632197 -0.0984874612511822 0.986301369863014
0.110405528201787 -0.116606626358927 0.986301369863013
0.100799573656642 -0.122504938016188 0.986301369863014
0.0909339525178083 -0.140028761404991 0.986301369863014
0.0706792786989151 -0.154912706471707 0.986301369863014
0.0729345172050545 -0.162865376438217 0.986301369863014
0.0601120248776497 -0.179629628794136 0.986301369863014
0.0545621216032648 -0.179471264601412 0.986301369863014
0.0427947934034657 -0.194228676429076 0.986301369863014
0.0276811781400057 -0.20815254865745 0.98874522907221
0.0300367024670774 -0.207842437996664 0.997759018248329
0.268972584734981 0.0379789073232432 0.207333952987837
0.267696381795872 0.0476726310466493 0.222111737782751
0.268069331951393 0.0448397933690029 0.229844421303573
0.268196324274581 0.0438751909078669 0.233386400225534
0.268355521621027 0.0426659670088693 0.253438840115123
0.267798594295216 0.046896250034386 0.260250978750373
0.267986186694517 0.0454713442958803 0.262719782111794
0.267517093000427 0.0490344646520173 0.280553487260034
0.26876841943465 0.039529696742904 0.277697888804842
0.268393984937043 0.0423738091180477 0.294724873691356
0.2684980134991 0.041583633739962 0.300828602597811
0.268488852535297 0.0416532181684479 0.310650845174115
0.267792592655199 0.0469418370162233 0.323185035748266
0.268426158045565 0.0421294300966702 0.33007390401822
0.268052195242783 0.0449699595939078 0.341971278966613
0.267915427840972 0.0460088111487048 0.344652066457761
0.26780800646583 0.0468247575007358 0.357250215971293
0.268576407311208 0.0409881736192313 0.365931859694921
0.267355015236096 0.0502655674970149 0.387639877864733
0.268890272810523 0.0386041284619627 0.382879029434455
0.267743722432612 0.0473130432104295 0.400408170628644
0.267403224710554 0.0498993801831258 0.406110009914517
0.267014746526896 0.0528501649443525 0.423205711848451
0.267319778077798 0.0505332202870717 0.427733299585757
0.268332170074748 0.0428433396125482 0.436637838584274
0.267599450326269 0.0484088986555361 0.445410863353735
0.26826667076784 0.04334085624238 0.457468016867468
0.268637805391759 0.0405218088963699 0.460280851032392
0.268700577470098 0.0400450076241685 0.465000787844453
0.267799161913249 0.0468919385473794 0.481418361919866
0.267776041138636 0.0470675582662343 0.485908438104564
0.268326264669872 0.0428881956159314 0.493609141377005
0.268268648594423 0.0433258331579808 0.506284512973754
0.268090679121902 0.0446776455108154 0.513169160433341
0.267037111853536 0.0526802834225475 0.531509855704261
0.267298473515309 0.0506950445052208 0.536576959136498
0.268467685106185 0.0418140007551827 0.539199863938612
0.268162699864889 0.0441305936560708 0.555856127976331
0.267300144707189 0.0506823505426286 0.570233839890025
0.267390456958716 0.049996360886666 0.573880723755229
0.268767237983588 0.0395386707546639 0.582113509053956
0.267036354909116 0.0526860329862375 0.598991820942962
0.268824262859027 0.0391055238225236 0.596703439330835
0.268087887250837 0.0446988518769455 0.610924973535382
0.267563020506235 0.0486856106108862 0.621650882476706
0.267794487055851 0.0469274476146829 0.625697539852843
0.267644130044271 0.048069522503764 0.642972401769873
0.267549187402348 0.0487906834666278 0.650506473840946
0.26827578657435 0.0432716148175894 0.651499091357197
0.267933826269208 0.0458690612117622 0.663505562659975
0.269092749231313 0.0370661673560194 0.67389669567661
0.267865976385454 0.046384432245336 0.686262621268554
0.268272211772946 0.0432987681300592 0.699262760502806
0.267574406424284 0.0485991259770464 0.708420559927772
0.267778812386847 0.0470465085462319 0.713789750220929
0.268296223853188 0.0431163782728023 0.72189666965379
0.268160091676952 0.0441504048103185 0.728929056938553
0.26756463441588 0.0486733517500607 0.7371072873918
0.268079852216237 0.0447598840240501 0.740767848515756
0.26861849527436 0.040668483800019 0.755683362088624
0.268479012199934 0.0417279629362512 0.769525922891339
0.268544018572171 0.0412341905169727 0.771282496148711
0.267621186185911 0.0482437984102693 0.788846694944286
0.268439035962673 0.0420316126048414 0.797486476273009
0.267996183516072 0.0453954108974418 0.808806582887927
0.268545560305506 0.0412224798896622 0.81569271611574
0.268388419686176 0.0424160813952035 0.828773418960649
0.268346628347988 0.042733518124129 0.837399757638557
0.268467968791186 0.0418118459536652 0.845188158982356
0.266964114964779 0.0532347498405338 0.852740576118103
0.267613829892529 0.0482996750059809 0.866918462205139
0.268606667012424 0.0407583283692718 0.865819385565221
0.267291336902973 0.0507492524577203 0.882073911106397
0.268351208651546 0.0426987272645385 0.884530214513694
0.268534517211433 0.041306360516881 0.899135550933617
0.267176456572069 0.0516218552036568 0.906410819851606
0.268272399927857 0.0432973389516173 0.908653960880917
0.267784157207985 0.0470059105990996 0.926609956396104
0.263607852240546 0.0419189664504925 0.936311404864318
0.263383423198576 0.0410616330204438 0.936645818352809
0.257376830048788 0.0379757884671345 0.943003807804857
0.257389845452634 0.0316181107604596 0.94382074721201
0.250525475839903 0.0227203874378079 0.951787777135855
0.246759568090734 0.0198403178941229 0.955897391533043
0.244163579049599 0.0154490400914959 0.959044348298617
0.237450566815212 0.00685647500867844 0.966821484584402
0.232089584691775 0.00696494367245213 0.972122444760943
0.227687761116331 0.00206030423967864 0.977126794034864
0.227230501159288 0.000332065730297481 0.977805722461463
0.218267177297006 -0.00332758698077258 0.989283264376133
0.216207427521637 -0.0189729398082162 0.986912954033919
0.213981439419218 -0.0130587446453876 1.0
0.191163173386465 -0.0373548883546547 0.986301369863014
0.182833659279406 -0.0497481450428284 0.986301369863014
0.172184302209688 -0.0555814406103736 0.986301369863014
0.165404284360004 -0.0723154694450576 0.986301369863014
0.152938949634735 -0.0786998312841704 0.986301369863014
0.143634253226931 -0.0889660235556115 0.986301369863014
0.136765095107701 -0.107325524331854 0.986301369863014
0.126181631085167 -0.111125933959442 0.986301369863014
0.115127642805916 -0.127925526013277 0.986301369863014
0.105400654215269 -0.131071814426502 0.986301369863014
0.086986469346847 -0.156289453185666 0.986301369863014
0.0813140588785413 -0.166654919048902 0.986301369863014
0.0727831765540309 -0.173271821372193 0.986301369863014
0.0607752569029181 -0.181307787939855 0.986301369863014
0.0563830868233617 -0.196687843213249 0.986301369863014
0.0492675531970128 -0.205310648467337 0.99183192062634
0.0429905878288972 -0.206137026635319 0.989674128512035
0.269993753392396 0.030222361293897 0.205722974081188
0.269994529507553 0.0302164661140007 0.211059789774808
0.269694892188864 0.0324924375097549 0.221147280490169
0.268959271481302 0.0380800315246231 0.235213992092538
0.269615969026457 0.0330919184451962 0.240177701177081
0.269826335223699 0.0314940285373186 0.250281299452708
0.269925369323235 0.0307417898684644 0.254395182175267
0.269844643336765 0.0313549646121984 0.266568572806972
0.26970162347365 0.0324413083256526 0.278575255623772
0.269341268450789 0.0351784764725952 0.289124094954185
0.269828699068343 0.0314760733546377 0.298909288383829
0.268935126043379 0.0382634343340282 0.308267240618195
0.26968348748321 0.0325790648496344 0.321550475054224
0.269516594531521 0.0338467426738121 0.322927478847484
0.268518374057718 0.0414289799431051 0.340065124960217
0.269976438912299 0.030353877827305 0.339624226328174
0.269499157784599 0.0339791879159599 0.359969330108597
0.269935614831964 0.0306639675034003 0.361035106815353
0.269608163992547 0.0331512035636186 0.367549192638849
0.269239037920848 0.0359549944408437 0.382248099519792
0.2691201668849 0.0368579096010277 0.392811629124928
0.269293432173981 0.0355418290688942 0.406304302910614
0.269497047202477 0.0339952193787872 0.409128671982659
0.269854141747897 0.0312828170167834 0.424068913857076
0.269782163860994 0.0318295433472541 0.433311534760587
0.269739890414047 0.0321506420557572 0.430701489548418
0.269989148687248 0.0302573375019579 0.440032151242999
0.269817253746633 0.0315630092040903 0.458632254173154
0.269160686402099 0.0365501333116215 0.466483483499224
0.270385981107149 0.0272430960164318 0.468127267313223
0.269227247780564 0.0360445494473915 0.481955224604389
0.269503932134408 0.0339429231287573 0.487545532155818
0.270585875761383 0.0257247453744266 0.496764267674237
0.269178672455751 0.0364135156706174 0.515757460988011
0.269823178810735 0.0315180038740728 0.51663633619076
0.269222694421599 0.0360791356424821 0.531035360078613
0.27046479186029 0.0266444689141299 0.538881153448224
0.269426662226816 0.0345298463471369 0.548769157003613
0.269964182613203 0.030446973661566 0.55177092709035
0.269313717166482 0.0353877492536808 0.569942083435625
0.268886322700112 0.0386341325293645 0.57847660459711
0.270406120185128 0.0270901245320455 0.581795032716234
0.269898342832984 0.0309470764429415 0.594677044121317
0.2693538961655 0.0350825594566452 0.608765662073874
0.269440926962464 0.0344214949226708 0.616281444126333
0.269529697305873 0.0337472172216325 0.618714600243081
0.269909415780266 0.0308629690580871 0.631420248689625
0.269119720261539 0.0368613020422541 0.650038306051469
0.270004016147986 0.0301444079259095 0.656767441786685
0.26934829290794 0.0351251204233032 0.656818358581497
0.269861528886367 0.0312267061293626 0.666643609421764
0.269599901868226 0.0332139606284126 0.686850914770833
0.269280971975353 0.035636473673867 0.696906824579634
0.26926961538603 0.0357227355339305 0.700030372925592
0.270394392804141 0.0271792028344093 0.700527354677367
0.269579162226337 0.0333714938485864 0.720622564258783
0.268820065849483 0.0391374032750295 0.726894677197978
0.269206346275758 0.0362033121384889 0.739901604694377
0.270059338477851 0.0297241931113135 0.741495975556964
0.268838091932147 0.0390004815834953 0.755035514354023
0.270394519699512 0.0271782389683697 0.760748620038588
0.269262596956657 0.0357760457977057 0.773820801394749
0.269288462851355 0.0355795748216732 0.776330773557561
0.269202424140302 0.0362331037150052 0.790881688040015
0.269445800893815 0.0343844737385633 0.80509190893992
0.269685342358609 0.0325649756721895 0.8105502883468
0.269530378277271 0.0337420447303393 0.818697248242032
0.270318331989179 0.0277569420824768 0.826085009036327
0.269675622681696 0.0326388039480725 0.833170549862221
0.26921513241366 0.0361365747953792 0.845186186294059
0.269734127854009 0.0321944130448639 0.852347842766268
0.269591990191636 0.0332740557784051 0.861846707518223
0.270303253951644 0.0278714711480947 0.870935651995165
0.269894852592201 0.0309735874537233 0.880394281408839
0.269649836264458 0.0328346712328621 0.888446656245868
0.268818444091731 0.0391497217481434 0.906820279051913
0.269409926273969 0.0346569685298011 0.906267386892488
0.270005577748605 0.0301325463915908 0.919353703968724
0.26986867992604 0.0311723885903647 0.921348040857106
0.264512964449377 0.0315288722681815 0.936770215446331
0.258543558002088 0.0284302068206213 0.943093009795782
0.261154649837034 0.0146949839592881 0.942297062552833
0.252271651604182 0.0175282833228848 0.950734245727037
0.250328073360601 0.00306814344709192 0.954548623386269
0.245406781811553 0.0119125869002157 0.958273381077654
0.240840617667542 -0.00429477152845322 0.963794805487936
0.235553850795841 -0.00568571300499937 0.968854789041631
0.228155274743991 -0.00755878409396966 0.97594558441272
0.226451522231726 -0.0102043209824291 0.97728944922963
0.225996143253041 -0.0147992970609943 0.977141167647147
0.21654143678058 -0.0212805280732483 0.985669017390138
0.21468144418949 -0.0345755079859803 0.985777754383117
0.211750702807901 -0.0289435158465242 1.0
0.191185399809327 -0.0573431014309941 0.986301369863014
0.182605934676563 -0.0602973384553497 0.986301369863014
0.16846021089375 -0.0816843672249483 0.986301369863014
0.164389836604161 -0.0945382538630183 0.986301369863014
0.157627345782398 -0.0940653360508628 0.986301369863014
0.145772052280414 -0.104589283051525 0.986301369863014
0.139799489295339 -0.110043066474762 0.986301369863014
0.12134914657081 -0.134796369698991 0.986301369863014
0.10979114658169 -0.148395143730814 0.986301369863014
0.1000901156272 -0.157317784523475 0.986301369863014
0.0931566257383696 -0.174708362445106 0.986301369863014
0.0773121709530014 -0.185089330761629 0.986301369863014
0.0754621137251761 -0.185067293904222 0.986301369863014
0.0635622228961964 -0.200957676154745 0.986801396677772
0.0520128307887697 -0.204949225815812 0.986702996260377
0.0483501329774009 -0.212137971531646 1.0
0.271287698300748 0.0203938739346349 0.191382273360244
0.271785097794542 0.0166157496839876 0.205179531426106
0.270529761600621 0.0261509747418147 0.21639629045059
0.271040963815589 0.0222680084150354 0.223999460313619
0.271273629854151 0.0205007343957409 0.228161220935633
0.271270165847772 0.0205270461364351 0.244611712633769
0.270993307608138 0.02262999324878 0.254831028217742
0.271375673952328 0.0197256325173314 0.253745301237331
0.270482738242375 0.0265081526086029 0.276807788106949
0.271835628704535 0.016231929316591 0.275031154800313
0.271843514027052 0.0161720343456454 0.292441700166106
0.271136706366209 0.0215407715424 0.299974102853465
0.271926986797141 0.0155379957089428 0.307390414494941
0.271792297610705 0.0165610616507567 0.308866359179321
0.271080476568126 0.0219678792624518 0.320711523627074
0.271034279899028 0.0223187778017414 0.335313269009371
0.270599659953837 0.0256200440378969 0.34669439106507
0.270871894889039 0.0235522144092156 0.356001991329268
0.270937515723948 0.0230537746825728 0.370109633814703
0.2709325739349 0.0230913112970614 0.378494390530103
0.271424966237575 0.0193512204389417 0.375712212269644
0.271100272924169 0.0218175110096117 0.392831728018228
0.271513461446798 0.0186790325895267 0.401554810594044
0.271587235255034 0.0181186648822018 0.409106193789492
0.2707363121391 0.0245820676396758 0.418632736352101
0.270825881653375 0.0239017196332479 0.431713717860469
0.271215385622076 0.0209431432610654 0.445795926644934
0.271834337791236 0.016241734776585 0.447442550095691
0.270697675915159 0.02487553889657 0.461735136303297
0.27132977501498 0.0200742695594617 0.462608111217014
0.270676432846917 0.0250368960195445 0.476886543318452
0.270314571670567 0.0277855045380368 0.488967094644456
0.270643818881096 0.0252846236845569 0.497251947010246
0.271429895727176 0.0193137772480272 0.506669789311259
0.270452682228123 0.0267364507024732 0.512145540593259
0.272104330392775 0.0141909373630375 0.52323447301999
0.271909204472853 0.0156730658717935 0.529228831966213
0.270463898378414 0.0266512555827683 0.540673340369879
0.271753677390343 0.0168544113484008 0.544573793801454
0.271711660920603 0.0171735581212337 0.563606109846616
0.270658635831195 0.0251720777749056 0.567652209751821
0.270955101358298 0.0229201985281312 0.577316639371291
0.271063487079965 0.0220969272370259 0.595099277985584
0.271384171552944 0.0196610868325043 0.605819544876367
0.270892174278884 0.0233981771503972 0.607588698494925
0.272101862574756 0.0142096823019041 0.607890935971748
0.271719240703789 0.0171159839519228 0.621334083645158
0.270749989965611 0.0244781742326983 0.63814395688301
0.271007856762837 0.0225194814471369 0.649376147749813
0.271330383734118 0.0200696458785628 0.653579701696426
0.271911831054704 0.0156531150018939 0.656924754335915
0.270175960565416 0.0288383604100604 0.674135294188126
0.271172798777759 0.0212666224589313 0.680569712119579
0.271072378085058 0.0220293933485162 0.693117612117692
0.271174233374295 0.0212557256163921 0.693344823172136
0.272097541039375 0.014242507622053 0.707064312914778
0.271349121380011 0.0199273193277088 0.719227580406762
0.271151005954417 0.021432155386458 0.728354077917012
0.271385771377115 0.019648934961476 0.738665105781821
0.271582853857568 0.0181519449000337 0.74426589101804
0.271863738462395 0.0160184145077118 0.750090015190478
0.272214412484237 0.0133547808640779 0.756717829139658
0.271753911798585 0.0168526308410321 0.770244526007643
0.271273459834025 0.0205020258268084 0.788457136511886
0.271171895720357 0.0212734818609071 0.794821889696528
0.27086181588572 0.0236287720401205 0.801651809572034
0.270767201676855 0.0243474383062302 0.811903493232133
0.271355489434891 0.0198789491486615 0.818795480080095
0.270861539380617 0.0236308723048994 0.834565630644013
0.27143286673116 0.019291210232301 0.835008981314889
0.271576116569612 0.0182031196827341 0.850472495855101
0.271995386966113 0.015018444844159 0.855098849376432
0.271077659364766 0.0219892780464573 0.864399312920891
0.271166171977294 0.0213169580058192 0.876350771620498
0.27143113078832 0.0193043960272611 0.882535110132307
0.271093165463498 0.0218714975332412 0.89810623884418
0.270364831563883 0.0274037427466764 0.908940503532635
0.271503366126095 0.0187557141632736 0.90901627561328
0.27164433726054 0.0176849320890449 0.921211112865124
0.268168347958298 0.0156783528056822 0.93521501220021
0.266384691530028 0.0194710248963851 0.936488366154137
0.26295775172889 0.00869098343469629 0.94129306577418
0.256464351703301 0.00367007867590644 0.94838627344206
0.250336958467347 0.00131034080917055 0.954769253577845
0.250048115947019 -0.00692168256850216 0.954323197937282
0.246063881963652 -0.0153673117396796 0.957170970429985
0.241242662805483 -0.0168080076561968 0.961762894837779
0.232932605502522 -0.0273948359320712 0.968620000065985
0.226575166797457 -0.0270535133347931 0.974967601540561
0.223157589012806 -0.0308911452604961 0.977855029991095
0.217063853408619 -0.0365748331166447 0.983154762708806
0.214497160081044 -0.0400397833409303 0.985247230860145
0.212669143802307 -0.0458488729213047 0.993139362028206
0.210856736927885 -0.0525353532058009 1.0
0.18659915840689 -0.0739661421528571 0.986301369863014
0.180217127625642 -0.0830463075069635 0.986301369863013
0.163584901291944 -0.0991777520754796 0.986301369863014
0.15930327064536 -0.106960566995027 0.986301369863014
0.152052443977246 -0.116736278453248 0.986301369863014
0.148425023407452 -0.123661655312456 0.986301369863014
0.134231824864432 -0.142358041908785 0.986301369863014
0.122147077348299 -0.147290179961871 0.986301369863014
0.103561030689267 -0.163523230309529 0.986301369863014
0.0985651132256284 -0.171990442165577 0.986301369863014
0.0952445320050276 -0.17677635586347 0.986301369863014
0.0743150460207475 -0.194594971389319 0.986301369863014
0.0806870933200042 -0.199825148148447 1.0
0.081218334720192 -0.201057920385952 1.0
0.271904754546098 0.0157068664212408 0.197442402348138
0.272702314333086 0.00964879838908127 0.19603530966471
0.273305582205401 0.00506652396687155 0.208533105028438
0.27279671489568 0.00893175492751331 0.210882393592293
0.272719791255071 0.00951604798703744 0.231929369299989
0.272499943470335 0.0111859577021188 0.244800690833168
0.273303176074714 0.00508480034393047 0.239106808342547
0.272216407637016 0.0133396261741515 0.25128619815964
0.272506262091143 0.0111379630121262 0.262141048834815
0.273644283280602 0.00249383388193069 0.266786772403229
0.272511322888734 0.011099522438012 0.280265884363041
0.272850046052907 0.0085266645706651 0.284967170427818
0.272526931911038 0.0109809601426487 0.30233732219873
0.272382819751032 0.0120756006747127 0.31846894751016
0.273448829040296 0.00397845623158179 0.315457611921496
0.273147716215998 0.00626563520513727 0.333867499746524
0.273574907752555 0.003020793334411 0.338933849101711
0.272209371744397 0.0133930690844496 0.353607933410842
0.273305683574602 0.00506575399134736 0.354073909145951
0.272187090639748 0.0135623108767277 0.367701352253763
0.272424676569087 0.011757666576827 0.379007062733256
0.272535415586786 0.0109165202276987 0.385535220230564
0.27329444705806 0.00515110380807987 0.392948230883924
0.273581213344689 0.00297289760702907 0.396592959200591
0.273147430005235 0.00626780919171901 0.409660937512906
0.272911703094076 0.00805833284663359 0.41977133641968
0.271847565265169 0.0161412621370581 0.434415857364412
0.272616324620518 0.0103019551019725 0.446667763450462
0.272912222847483 0.00805438492755701 0.443939197837783
0.272137895824426 0.0139359825975284 0.465417158504631
0.272454918367401 0.0115279573129093 0.474497334206629
0.272812185136805 0.00881424677986419 0.486498044669384
0.272130563979836 0.013991673486229 0.497891129975409
0.273082540198991 0.00676069620436644 0.494388228906746
0.272431129087507 0.0117086548334943 0.514127274244434
0.272820976043956 0.00874747321071463 0.513521503592958
0.273862603716985 0.000835525529378357 0.517084513204044
0.272997735623504 0.00740485090740577 0.532277798472422
0.273272336480273 0.00531905032024232 0.537051014495136
0.272455665123354 0.0115222851382998 0.554459253792878
0.272271249152956 0.0129230635039022 0.564939673683058
0.272827470823462 0.00869814046256946 0.572709077282248
0.273358577437552 0.00466398521430412 0.580266494854401
0.272725548160112 0.00947231995188957 0.584492852713089
0.272596250048708 0.0104544366133582 0.602388221137948
0.272545777517211 0.0108378135520546 0.607834626399074
0.272978973964923 0.00754735985272997 0.618053392598472
0.273402054888775 0.00433374118536989 0.6299524962665
0.272418660432455 0.0118033636713899 0.640681931850318
0.272733822289266 0.00940947170134046 0.642309443499247
0.272739130458529 0.00936915215283193 0.6619021074617
0.273216069559593 0.00574644001440201 0.659671568049125
0.273573374834456 0.00303243700336934 0.677502594421329
0.272200806259168 0.0134581304041046 0.685111952105731
0.273861174070967 0.000846384768998899 0.694324003623631
0.273287823993678 0.00520141097660343 0.695201066433286
0.272658107235249 0.00998458463428895 0.712125479479803
0.272709892076827 0.00959123971089268 0.720566841429109
0.272517519160735 0.0110524570794816 0.72829659470957
0.272327234120078 0.0124978154596408 0.744585560898349
0.272233125038813 0.0132126449007022 0.754417840781826
0.27319074401612 0.00593880661539403 0.756568891176267
0.273391038024604 0.00441742257670066 0.762832609542849
0.272712258409246 0.00957326563169091 0.776491911771048
0.272791915260735 0.0089682117743901 0.78686625483783
0.272354571124564 0.0122901702953852 0.795492556486663
0.272850399778756 0.00852397775609362 0.811683433682673
0.273365460797989 0.00461170090095179 0.811208011861545
0.27275950559787 0.00921438760438551 0.825093158612977
0.273247389862229 0.00550853869684597 0.825554192518047
0.273236673398469 0.00558993832052375 0.836263768700769
0.273025699881991 0.00719244127598409 0.846546366937983
0.272758774894482 0.00921993784764428 0.856889572165077
0.273231200160987 0.00563151168663547 0.864276067524341
0.272486718541599 0.0112864110089506 0.879663352606076
0.273149254881633 0.00625394787931467 0.889380334853258
0.272588210533505 0.0105155027940248 0.895552444969084
0.27240998555996 0.0118692558698195 0.908859991483541
0.273325485034351 0.00491534697201898 0.91228476760685
0.272225680042149 0.00781002819048363 0.932219413605962
0.271379119419209 0.00966353513037187 0.932816800582301
0.263173159087448 -0.00352123121490237 0.94175428932741
0.261039136960589 0.0038550283451297 0.943826485330757
0.257212510924367 -0.00331922936620641 0.947690309851285
0.251458776272731 -0.00886141516051825 0.95267142009705
0.244658277033073 -0.0169616443659459 0.958356448048691
0.244598929576962 -0.0288946568897376 0.956857717092644
0.238179457489139 -0.0288486530938424 0.963228274407154
0.231368928028808 -0.0384679799280528 0.968724964740444
0.22591232984463 -0.040839296135067 0.973825362095678
0.219583317925496 -0.0453548542093663 0.979510829839291
0.215350110231482 -0.0626336633691809 0.980209154011944
0.212692060840098 -0.0597586418218493 0.983765094554904
0.211954250733632 -0.051279024887852 0.998469990245495
0.205528800541664 -0.0704246752125268 0.995702480124799
0.197889279542157 -0.0781372808448625 1.0
0.17537841887129 -0.0983027789874972 0.986301369863014
0.16909413573508 -0.110364800960981 0.986301369863014
0.166558448835234 -0.113439298050603 0.986301369863014
0.148868873865707 -0.134365671972718 0.986301369863014
0.134212668917871 -0.139893802551297 0.986301369863014
0.1229425200927 -0.165857158395553 0.986301369863014
0.118794047308737 -0.164805443327026 0.986301369863014
0.11048991991498 -0.179472096054154 0.986301369863014
0.103178717758229 -0.184547986689207 0.993194899060175
0.0909180856508504 -0.191262482555716 1.0
0.0928021193605554 -0.194259515749301 1.0
0.273658993497994 -0.00238209868766937 0.184818759074358
0.273554755456204 0.00317386522229792 0.195626832745543
0.272476456932363 -0.0113643556695096 0.19879370294095
0.273090252489328 -0.00670211554332025 0.209782650920056
0.272226872690764 -0.0132601361991099 0.210410343061771
0.273319668718 -0.00495952628085476 0.227862618921801
0.272962682014053 -0.00767110950555568 0.229485039136205
0.273569917381825 0.00305869896340757 0.252839183466718
0.273522063674269 -0.00342218395938327 0.260975632669016
0.273676287723891 -0.0022507360001865 0.269749172545751
0.273867895102725 0.000795333464382029 0.279599232809397
0.273183130680489 -0.0059966356408249 0.276769461422738
0.27297318138686 -0.00759135885137793 0.284626554315868
0.273266131987684 -0.00536617812033488 0.307493379126322
0.273384074001393 -0.00447031958464455 0.316291519193174
0.273729677639181 0.00184519933154394 0.32301039056111
0.273869114073221 0.000786074464225689 0.33675615634399
0.273341098798591 -0.00479674865807272 0.341195188795277
0.273801223035996 -0.00130175808944135 0.349755808708937
0.272673973802714 -0.00986406608920877 0.357061519498709
0.273884827730681 0.000666717385942836 0.374870553208059
0.273732009920359 0.00182748389720043 0.383527790535808
0.272679733851095 -0.00982031417802702 0.382467479443592
0.272097238308758 -0.0142448070893783 0.390699780159171
0.272542663643915 -0.0108614657679511 0.40559432429817
0.273947167141063 0.000193202553152799 0.418179990306549
0.273466406436106 -0.00384494265506273 0.4299519067768
0.273171943885602 -0.00608160778409693 0.432086408475739
0.272425892181898 -0.0117484330808147 0.437586706199891
0.272676239720617 -0.0098468547339781 0.45524049596113
0.273999463883484 0.000204030643181723 0.469058230012463
0.273668755817928 0.00230794650588531 0.474300369394029
0.273028219492606 -0.00717330293329697 0.477633086152351
0.273431467209489 0.0041103324293405 0.498323118943746
0.272807141726892 -0.00885255528144741 0.497962939721878
0.27375339182704 -0.00166507219158664 0.510613985988101
0.273571121536975 0.00304955249697387 0.524670730025761
0.273512773877269 -0.00349274697314895 0.530809112618192
0.273206425268087 -0.00581969568127135 0.543469785261862
0.273982142790765 7.24638819251058e-005 0.549359188387658
0.273086406355349 -0.00673132983130932 0.559353002312149
0.273294629832533 -0.00514971549811894 0.567322134314478
0.273371326088015 -0.00456714960011593 0.577084143940167
0.27368734861091 -0.00216672022212513 0.577598138124927
0.272307145626899 -0.0126504027143182 0.58659659158962
0.272907968593737 -0.00808669919293595 0.605622088149266
0.273879545393695 -0.000706840718826122 0.614474988026883
0.272880828997927 -0.00829284488943158 0.617518038977813
0.272902565242115 -0.0081277417232474 0.629279821934032
0.273207254792029 -0.00581339482138408 0.639778766999563
0.273749378828414 0.00169555394240208 0.651350769035511
0.273055909590963 -0.00696297575481874 0.656628142474735
0.272482235373566 -0.011320464050974 0.6611387786338
0.273608334006992 -0.00276689572479838 0.680703699229072
0.273174829733125 -0.00605968759590265 0.692335155182798
0.27299019499221 -0.00746212768856089 0.688494363161419
0.2737101191571 0.0019937607522503 0.71041900262195
0.273811871597196 -0.0012208742369128 0.715264962146998
0.273078564364751 -0.0067908956636432 0.72581573029314
0.272423638717749 -0.0117655498403868 0.729423547262039
0.271813492238265 -0.0164000724712938 0.737121616664967
0.273790925805836 -0.00137997331777289 0.74847176405966
0.273370797410333 -0.00457116530578984 0.759211563565602
0.273618702987034 -0.00268813550199838 0.775183659349807
0.272426446814121 -0.0117442202308262 0.778464059579901
0.272999688993601 -0.00739001358844811 0.782162537004962
0.273518036269961 -0.00345277513222052 0.806336744157822
0.272976460984672 -0.00756644783280518 0.801869816818852
0.273365770450232 0.0046093488586588 0.825625225260837
0.273245233442917 -0.00552491832770169 0.823506740250707
0.273327269940934 -0.00490178926049484 0.835550568749048
0.273723824762037 0.00188965634718383 0.852606415855029
0.272863117443953 -0.00842737749837005 0.855659310422686
0.273206735692205 -0.00581733777600369 0.861540157249387
0.273972602739726 4.86673106685e-017 0.878061884016777
0.273755601198042 0.00164829035271138 0.886366139330102
0.273844534017818 -0.000972778521143062 0.896765885389396
0.27263026773298 -0.010196046648137 0.895097991143832
0.272358907072777 -0.0122572354989146 0.908052056248916
0.273980359680914 5.89198179305875e-005 0.9187635700592
0.273391500357178 -0.00441391081215044 0.929707580406203
0.269746626622529 -0.00503169872412408 0.935039903145894
0.26337777110164 -0.0164473513084086 0.939864230561378
0.257132192326779 -0.0141796643227107 0.94635237009141
0.255419966339157 -0.0223250967047334 0.946986755475537
0.249257152579264 -0.0329233568335637 0.951713494970613
0.245788273967118 -0.0394315980330589 0.954303200903534
0.240012849726493 -0.042487259505896 0.959630371732393
0.231841705930358 -0.049920263989898 0.966761408488567
0.230005706314897 -0.0549143620267871 0.96792984027247
0.224365158953063 -0.0568525915327104 0.97326914225264
0.217973504115024 -0.0759484317757431 0.972690112822254
0.216929319358787 -0.0732950687298401 0.974670211824419
0.20741963789669 -0.0743162985264873 0.983065204164138
0.197972309126486 -0.0901374897150669 0.985738890103685
0.197268281042864 -0.090367333418776 0.999185635098825
0.192363026104887 -0.102209666416937 0.989339827342866
0.192054054214711 -0.102955590544592 0.998447666656606
0.176821960927141 -0.123321453699585 1.0
0.169949278065502 -0.125062520122089 1.0
0.144002027456931 -0.147840871102919 0.986301369863014
0.136640746270251 -0.159260820386751 0.986301369863014
0.135922712961207 -0.167023976488966 1.0
0.11400846341414 -0.196683053873096 0.977692465582596
0.124637157511276 -0.174397462188386 1.0
0.270553784946845 -0.0259684993109283 0.164226227320092
0.270103892874929 -0.0293857688664726 0.173070193959827
0.271364004444875 -0.0198142712265559 0.189390267632922
0.270132065232325 -0.0291717785669125 0.18565145496575
0.270390395835069 -0.0272095628286777 0.202817966277742
0.271017471618342 -0.0224464493688919 0.21473863387944
0.271849270267787 -0.0161283113564101 0.22711403218267
0.271362954511591 -0.019822246261621 0.2300158070291
0.270688158550557 -0.0249478304578896 0.246863215855191
0.270808558886832 -0.0240332991084611 0.2503977272769
0.27238862196619 -0.0120315284750551 0.266473433140511
0.271631521074309 -0.0177822806883135 0.274150836922858
0.271690479548806 -0.0173344466131697 0.286461583786596
0.270924346168348 -0.0231538073886829 0.288355890096189
0.270542960678162 -0.0260507177942943 0.300266338952177
0.270792533808288 -0.0241550216647122 0.306755977516876
0.272467166015653 -0.0114349271883219 0.326509888286331
0.270578253863797 -0.0257826394343557 0.322809589534452
0.271467199197397 -0.0190304292606785 0.340821419312019
0.271016367276639 -0.022454837676921 0.342857578755487
0.270673894356283 -0.0250561777702123 0.345167582388437
0.269971083463454 -0.0303945564998864 0.362604714971346
0.270901493679842 -0.0233273892722339 0.369066527770666
0.270733803759951 -0.0246011206709107 0.385606172932779
0.272401719110845 -0.0119320457846798 0.401488067934042
0.271029121333945 -0.0223579609936895 0.396512342749973
0.27127359579174 -0.0205009931254362 0.415305110852238
0.27110644678148 -0.0217706159075541 0.422960949069927
0.271287155318643 -0.0203979982931944 0.431659447961276
0.272387427570726 -0.0120406008093216 0.450151097387932
0.270460466734854 -0.0266773215034504 0.447955470106461
0.271546120665455 -0.0184309611950895 0.462305041849297
0.270954099205437 -0.0229278106348414 0.471968617646041
0.271553693528251 -0.0183734395913662 0.482114097746212
0.271859491847359 -0.0160506707513312 0.493023626273473
