ply
format ascii 1.0
element vertex 843
property float x
property float y
property float z
end_header
0.259650890283263 -0.0829473745865883 0.783165291698932
0.261726801711247 -0.0779356810628657 0.795741240741856
0.259472597939729 -0.0833778103804154 0.793946443548781
0.26129795046149 -0.0789710195662704 0.810311561012026
0.25953444755311 -0.0832284922049653 0.818306700621234
0.261153079797419 -0.0793207682882603 0.826368242679936
0.261468996254899 -0.078558078492035 0.83581800853688
0.260051021214364 -0.0819813730660023 0.840467137778419
0.260012428099897 -0.0820745450863624 0.850059822017493
0.26057121991751 -0.0807255023017368 0.863401945833701
0.260756069547979 -0.0802792358168594 0.87186009225838
0.261153170339655 -0.0793205496999678 0.881318720665195
0.260763327276135 -0.0802617141111139 0.896185174246255
0.260301691151009 -0.081376202305275 0.902590476447632
0.260654571235035 -0.0805242744205255 0.900961345447703
0.261829750492372 -0.0776871407192448 0.917079321089224
0.261608603377242 -0.0782210370838699 0.927621403425988
0.253324478074491 -0.0830497894838264 0.937312499584582
0.252002688831259 -0.0846715993955691 0.937913033829029
0.244192746310095 -0.0823997621374259 0.945997874354143
0.236712033519941 -0.0847275510181185 0.952018345550877
0.235224372571866 -0.086174780638535 0.952838934253558
0.231209210903154 -0.0806428146080173 0.95866545168729
0.220184665675188 -0.0831812319225651 0.967879393127947
0.217722888188369 -0.0827920824079945 0.970302700033556
0.210250893225322 -0.0881885316785309 0.975140791517509
0.205368084482223 -0.0839423031565025 0.981276879881842
0.202987702658316 -0.0817584992093005 0.98431177151864
0.200604620834192 -0.0823126966458679 0.997337630463512
0.200832372872473 -0.081762854586192 0.998463933642824
0.191559553688606 -0.0868667756478256 1.0
0.153518120891168 -0.0850870589151783 0.986301369863014
0.140238122629439 -0.0868858614229747 0.986301369863014
0.121313966064085 -0.0850655438993786 0.986301369863014
0.103939215612247 -0.0891360005943919 0.979452054794521
0.0778801088778454 -0.0842258614738475 0.979452054794521
0.0774330010218579 -0.0881202866230335 0.979452054794521
0.0563328149396923 -0.087104421193537 0.979452054794521
0.0428575141873971 -0.0897285905413644 0.979452054794521
0.0348878733785254 -0.092711760266351 0.979452054794521
0.0122752652782414 -0.0917068762866073 0.979452054794521
-0.00206360810731743 -0.0912818686032652 0.979452054794521
-0.0130962331851372 -0.0880049198208265 0.979452054794521
-0.0217200362721464 -0.0861359978806868 0.979452054794521
-0.0473782421338963 -0.0962026777667961 0.979452054794521
-0.0618234536658408 -0.0876316748560053 0.979452054794521
-0.072987919265698 -0.0887859267382666 0.979452054794521
-0.100883184861325 -0.0947234094995718 0.979452054794521
-0.106821265087454 -0.0882858024711608 0.979452054794521
-0.122395215477084 -0.0981634474731756 0.986301369863014
-0.131853546043814 -0.0946680709571178 0.986301369863014
-0.145789943077763 -0.0892964428225193 0.986301369863014
-0.166135014912838 -0.0914161777769234 0.986301369863014
-0.176550720835678 -0.0940304749786814 0.986301369863014
-0.188673043648344 -0.0932199493019183 0.989737029220638
-0.190240906974773 -0.101047430723209 1.0
0.263861531391704 -0.0727819877163072 0.250506063295035
0.264724523328286 -0.0702461372242462 0.265775347735727
0.262245509260827 -0.0766834102617671 0.269721083081595
0.262474663746424 -0.0761301823947575 0.279082982981678
0.263283992480799 -0.0741762899878128 0.28526111648403
0.263518893011345 -0.0736091899411622 0.294664927785923
0.262731313823397 -0.0755105742981443 0.307601255698958
0.264935539929492 -0.0686433070077835 0.323604804179161
0.264338770506722 -0.0716298305723374 0.32386423943998
0.262960533741068 -0.0749571884641394 0.330753481163323
0.263034719052125 -0.0747780892800549 0.339454660472358
0.263860538686728 -0.0727843843181234 0.353476378430722
0.262306832380529 -0.0765353631544943 0.363146883738776
0.263280010334462 -0.0741859037395071 0.36764193905325
0.264339177840314 -0.0716288471820541 0.384910257424315
0.263051909819536 -0.0747365870962254 0.395391671357591
0.264660587173777 -0.070852896410135 0.405364505584102
0.264680908133894 -0.0705774275164326 0.407759890346956
0.263660930653451 -0.0732662807392187 0.423571203821567
0.264178944076254 -0.0720156857083984 0.427403015502317
0.264660443247488 -0.0708532438789345 0.437492899160813
0.262281367250405 -0.0765968414170067 0.437160634471129
0.262417988289648 -0.07626700905116 0.447026430490923
0.263946485797461 -0.0725768896377436 0.469251635970476
0.264831634947651 -0.0694325437009415 0.471219458519138
0.263442781221599 -0.0737929400562218 0.483710451150555
0.264753084194617 -0.0700291959063491 0.48843685687044
0.262249375716986 -0.0766740758108681 0.504893865601459
0.262176071757047 -0.0768510472251314 0.513045304923565
0.262149308856318 -0.0769156585830368 0.518693755801162
0.262620762912454 -0.0757774678066774 0.532680138724028
0.262615018568246 -0.0757913358803699 0.535659824586772
0.26421192129186 -0.0719360716672319 0.5463677338423
0.263496026414254 -0.0736643947899807 0.554068669074929
0.262986948268684 -0.0748934181533232 0.557758194260073
0.262303822380258 -0.0765426299379705 0.56658274486742
0.264728705771804 -0.0702143684116957 0.586584226342222
0.264023999031882 -0.0723897561359432 0.593066398021931
0.263980015494014 -0.0724959417895851 0.604360040179315
0.264115344938565 -0.0721692276091598 0.608045052289913
0.262816572930546 -0.0753047406053509 0.623789288584294
0.263311285530156 -0.0741103987378971 0.630252263492729
0.263527718230399 -0.0735878839776266 0.637912280227686
0.262396936508686 -0.07631783254627 0.647244825014098
0.263231260011696 -0.0743035974298963 0.66299884953579
0.264974775965143 -0.0683452797286162 0.669142845816495
0.264059767436215 -0.0723034035690975 0.681054198774732
0.2631019973866 -0.0746156650125103 0.686430318636599
0.264637212681936 -0.0709093274253483 0.691980763330808
0.264711907653774 -0.0707289978112966 0.697350845258089
0.263104866979314 -0.0746087372028639 0.71472639281377
0.264637212681936 -0.0709093274253483 0.720731461612428
0.262683420027022 -0.0756262001509067 0.723174337276978
0.264855216855452 -0.0692534213277698 0.736129496225749
0.262510143831389 -0.0760445258924403 0.74108496157941
0.263351529022379 -0.0740132423531734 0.752750188849432
0.263296067040893 -0.0741471394210712 0.765030715153779
0.264754557202982 -0.0700180072970066 0.774224478796091
0.263313565174045 -0.0741048951907 0.785648247333961
0.263922169930605 -0.0726355933332883 0.795422773088321
0.262489909737946 -0.076093375315255 0.799587434763959
0.264637212681936 -0.0709093274253483 0.810271055670601
0.263505919053353 -0.0736405118465013 0.819953814370662
0.264277314610519 -0.071778198230435 0.826218100412138
0.262853052652142 -0.0752166707667224 0.841011285998576
0.262785498177382 -0.0753797616958869 0.846274376538785
0.264187494358072 -0.0719950435020692 0.860626279728927
0.2634725815223 -0.0737209957661044 0.870413780819156
0.263472370256521 -0.073721505806813 0.873457032052437
0.263115052440591 -0.0745841473241096 0.879547481138177
0.263080739897268 -0.0746669851315595 0.896020771856837
0.262616558309423 -0.0757876186163401 0.904130810302536
0.26349865158125 -0.0736580570762163 0.914446332077444
0.263077807126179 -0.0746740654672992 0.918010347030119
0.262503289583251 -0.0760610735112566 0.929985591874979
0.258730963963834 -0.0758681011437836 0.935065871072751
0.258163200633018 -0.0688593864571259 0.938193046282299
0.248665244215801 -0.0754076022478972 0.944541608826031
0.243577472907521 -0.0700167599740258 0.951305082628554
0.236417151996952 -0.0779114871787078 0.954899175259768
0.233529753780476 -0.0764164520359028 0.958138908554134
0.226894530749221 -0.0724640363660499 0.965781579301031
0.219220381604247 -0.070047482887965 0.973796343604999
0.21296805893232 -0.0707323566078583 0.979310646726383
0.21114313514555 -0.0760099789877742 0.978976997814301
0.203064376453048 -0.0763743212707028 0.99064321127002
0.201402220955582 -0.0762094716844372 1.0
0.170191248386467 -0.0723269736878414 0.986301369863014
0.154519711668077 -0.0751134801607579 0.986301369863014
0.150627379682291 -0.071366320189112 0.986301369863014
0.128538492122582 -0.078225978366861 0.986301369863014
0.128488635108934 -0.0774935427056076 0.986301369863014
0.104825538051646 -0.0758139535437942 0.979452054794521
0.0768612067780085 -0.0825190013775686 0.979452054794521
0.0739567507452767 -0.0763908103687806 0.979452054794521
0.055054479535175 -0.0770994713374378 0.979452054794521
0.0387288968990827 -0.0818628817098173 0.979452054794521
0.02514123695623 -0.0828787545193443 0.979452054794521
0.00455443050755621 -0.0833999518712589 0.979452054794521
0.0073961656173837 -0.0786355133405947 0.979452054794521
-0.0197450149287136 -0.0798928569436555 0.979452054794521
-0.0275913865900293 -0.0822509841743503 0.979452054794521
-0.0548338329682239 -0.0850374216053898 0.979452054794521
-0.0615609347479349 -0.0784836615993317 0.979452054794521
-0.0804001106775652 -0.0845844226254261 0.979452054794521
-0.0814309737835305 -0.0850403983866094 0.979452054794521
-0.104641349025393 -0.0879597482318545 0.979452054794521
-0.119221183442675 -0.083837252580706 0.986301369863014
-0.130313204897364 -0.0867241517631719 0.986301369863014
-0.154204742869256 -0.0883021069925798 0.986301369863014
-0.158161128532675 -0.0791271239445915 0.986301369863014
-0.175603726585897 -0.0806466953021346 0.986301369863014
-0.192966344688041 -0.0807821688705708 0.986301369863014
-0.190247305571945 -0.0894193448152318 0.994668714087098
0.265687859793652 -0.0629288703055057 0.255871037475841
0.266021678770153 -0.0603932634418388 0.270693962904227
0.265249113483743 -0.0662614793934374 0.281731808887212
0.265349904736003 -0.0654958938245578 0.288633066028584
0.266163182130589 -0.059318438709844 0.295299367316735
0.265868446097985 -0.0615571811416636 0.307320806149208
0.265671613646171 -0.0630522720470479 0.309820031225204
0.265952172401199 -0.0609212167296864 0.323741655787751
0.265615319181662 -0.063479870957369 0.332767751874872
0.265198433679529 -0.0666464307247275 0.345541622412372
0.265070589330504 -0.0676175049646233 0.340770432368565
0.265258571186274 -0.0661896410105461 0.35624163690305
0.266059894183672 -0.0601029885574382 0.365583035904696
0.265017558842376 -0.0680203115129222 0.37394524716076
0.26506157160497 -0.0676860013904395 0.380645377987331
0.265295354617379 -0.065910243112452 0.386010484223888
0.265819163145786 -0.0619315223285209 0.404169250753903
0.265180132857972 -0.0667854392653359 0.410048102556201
0.265923985362443 -0.0611353185452423 0.421881924475294
0.265168028250848 -0.0668773828846829 0.42852848762004
0.265414846355494 -0.0650026132512242 0.43950026293078
0.265964769340866 -0.0608255334734052 0.448553687290865
0.265707575527481 -0.0627791144391887 0.45306823224631
0.26579666266811 -0.0621024304243686 0.470907876981634
0.265224740590304 -0.066446609899014 0.47700865250517
0.265597895464431 -0.063612217229185 0.482470649664361
0.26524171611583 -0.0663176679811884 0.494542345021338
0.265236436842552 -0.066357768042902 0.499338915562725
0.266079490358168 -0.0599541408344168 0.513764435445136
0.265660876773993 -0.0631338266880539 0.521843490549804
0.266037725125748 -0.0602713792703397 0.525876549684046
0.265163094162633 -0.0669148610055328 0.538878931197285
0.266002206643357 -0.0605411689290399 0.541235713262169
0.266014114164626 -0.0604507223253821 0.555759708606271
0.265557458496906 -0.063919366491572 0.56890575515834
0.265092498810261 -0.06745108594366 0.575750151836385
0.265331189997305 -0.0656380463779993 0.587020492971688
0.265070777820172 -0.0676160732434576 0.593641431170098
0.265033211763455 -0.0679014157732649 0.608720717592503
0.265908342225149 -0.061254139969678 0.616764683620839
0.26550372082805 -0.0643275446107945 0.626335171018108
0.265502788702382 -0.0643346248081749 0.631663704393558
0.266084975843898 -0.0599124744336254 0.64583284509594
0.265456673919993 -0.0646849013561601 0.645820582697763
0.265154771948988 -0.0669780744940581 0.656645303421613
0.265491101058977 -0.0644234012736287 0.663765587418309
0.266159369414225 -0.0593473991658457 0.680070136775516
0.265274732521298 -0.0660668834835695 0.688168962087609
0.265600134387875 -0.0635952109172276 0.69231291909855
0.265496146114692 -0.0643850802709286 0.701319387103089
0.265052783115996 -0.0677527565917058 0.705870664663676
0.265592836381701 -0.0636506447776372 0.71623141446135
0.265750260849426 -0.0624548872294743 0.728311952539309
0.265373818776947 -0.0653142486497074 0.743815269064621
0.265887498473463 -0.0614124639822765 0.743767033357748
0.26499975745379 -0.0681555264834851 0.759141604933206
0.265951129474063 -0.0609291385477726 0.770042793016241
0.265418090356425 -0.064977972617807 0.774647591997957
0.265205513553275 -0.0665926537446096 0.780523030337321
0.26540075658633 -0.0651096356732952 0.791036367868556
0.265070203001435 -0.0676204394252437 0.806123969838042
0.265179116595107 -0.06679315854818 0.811498345825089
0.265191694770698 -0.066697617819207 0.821403447630945
0.265905436132308 -0.0612762139363276 0.831305804239375
0.265602989916256 -0.0635735210257859 0.835668451091085
0.265944368892601 -0.0609804902622151 0.85072094811923
0.266134765279516 -0.0595342861232575 0.85954617997004
0.26535927627156 -0.065424709944811 0.868998323695659
0.265997276796611 -0.0605786148327302 0.874684698410667
0.265613274251876 -0.0634954037412065 0.8836536034458
0.264964204101122 -0.0684255810082382 0.890177968827569
0.265260821964145 -0.066172544655274 0.903414550697819
0.265217860187029 -0.0664988717504996 0.910978171903792
0.265480839019255 -0.064501349204055 0.924042581995185
0.265438749026842 -0.0648210544370281 0.924045126533809
0.259940647218078 -0.0612249435307015 0.937427300764082
0.251679610688785 -0.0632630419952694 0.945351637748722
0.252258899649804 -0.066800179202873 0.944315615634001
0.24290470075449 -0.0608549531606833 0.954365795778203
0.243124370160831 -0.0600900593079555 0.954247844356134
0.233159674294212 -0.0601514206689137 0.964119281603451
0.227645910944193 -0.0625653133067637 0.968875471834121
0.226384073548283 -0.0605558471002928 0.970810247002674
0.220374925599881 -0.063944804540105 0.975065077934828
0.21298055032306 -0.0687593128972657 0.980054157325522
0.208917499564224 -0.0622436320734632 0.988977681499854
0.207642568610188 -0.0653215876737859 0.99436470981664
0.17895012874619 -0.0628796071252225 0.986301369863014
0.165938494735964 -0.0706144126812151 0.986301369863014
0.146698214583911 -0.0657826113782913 0.986301369863014
0.1295053932997 -0.0700934926942961 0.986301369863014
0.127386951358531 -0.0630142602479553 0.986301369863014
0.0990806194998633 -0.0632172988955585 0.979452054794521
0.092040494114628 -0.0703890169318276 0.979452054794521
0.0696291297697647 -0.0698012703943978 0.979452054794521
0.0561582295042209 -0.0640081095906212 0.979452054794521
0.0334157896167908 -0.0696933322389228 0.979452054794521
0.0318765704092842 -0.070227237351812 0.979452054794521
0.0208120211797965 -0.0667770318189459 0.979452054794521
0.00663634101123422 -0.0667109881386867 0.979452054794521
-0.0206779990689242 -0.0695036820407336 0.979452054794521
-0.0351004143754912 -0.0720208153395907 0.979452054794521
-0.041861518922574 -0.0698558990351838 0.979452054794521
-0.0629778974997686 -0.0680413806214265 0.979452054794521
-0.0810195930851164 -0.0729918183194239 0.979452054794521
-0.102300073940854 -0.0752771420406807 0.979452054794521
-0.102837529060332 -0.0702472579873816 0.979452054794521
-0.120590086068331 -0.0734394048319654 0.981752916167342
-0.140639972107344 -0.0715991560226183 0.986301369863014
-0.142058769692041 -0.0777251885685297 0.986301369863014
-0.17094729780176 -0.0721407424944031 0.986301369863014
-0.186060271951383 -0.0763501504041436 0.986301369863014
-0.19639278052034 -0.0745828558475939 0.98839895114668
-0.19713328421493 -0.0727951217851267 0.999116337220052
-0.200860782568442 -0.0711639533561878 1.0
0.266697139353198 -0.0552626309401995 0.25507243422978
0.266833175237659 -0.0542293358113174 0.258786168067662
0.26642959755406 -0.0572948126613269 0.272993128794926
0.267219830577159 -0.0512923969261059 0.289665964654339
0.267266349374448 -0.0509390515802821 0.301782390967862
0.267322840514364 -0.050509958771936 0.302951312669917
0.266313408900291 -0.0581773531060434 0.310436207233297
0.266872195019631 -0.0539329511419306 0.320411381104702
0.267140846331954 -0.0518923418314613 0.336474780308475
0.266482826058035 -0.0568905020333418 0.336106629614751
0.266940351619623 -0.0534152503672354 0.34349116314943
0.26625584439873 -0.0586145989055188 0.35721295762903
0.267331613109222 -0.0504433242984623 0.36504138437554
0.266310985253006 -0.0581957625348679 0.373249244873654
0.266799416746471 -0.0544857570096031 0.380231949238478
0.266605622851169 -0.0559577677868621 0.390695857966446
0.266622334676427 -0.055830828871427 0.405821810017381
0.26650292323939 -0.0567378487854104 0.410881963491945
0.267040227985451 -0.0526566140507364 0.424976275804011
0.267287392432319 -0.0507792136869159 0.427753022094318
0.267145383569635 -0.0518578780896881 0.439567681901481
0.267089966324657 -0.0522788138561445 0.447396113594397
0.266443642220703 -0.0571881328269092 0.461989378967522
0.266214420929563 -0.0589292413918104 0.473006170518004
0.266737441209008 -0.0549565079531748 0.473889866594681
0.266581001352247 -0.0561447866385565 0.490620793389872
0.266223489133937 -0.0588603615411414 0.492635440046728
0.266491622333741 -0.0568236876859776 0.500244433728825
0.267084604547007 -0.0523195406007789 0.514799347449169
0.266264566201449 -0.0585483502366459 0.524236490574137
0.266845695836217 -0.0541342324233286 0.5253681127346
0.267166820180262 -0.0516950508663563 0.540435164837414
0.267128482675667 -0.0519862531245576 0.553086158719252
0.267042302706411 -0.0526408549804683 0.563343773344577
0.266619879915542 -0.0558494746315241 0.564682361819199
0.266214990970341 -0.0589249115022292 0.570752958643393
0.266258878222875 -0.0585915547232963 0.583887873002911
0.267325993793036 -0.050486007242493 0.594565614589381
0.266298936486763 -0.0582872820006205 0.600734336864484
0.267205097505623 -0.0514043057148264 0.615687580252344
0.266952899906222 -0.0533199366676957 0.616655233879397
0.267086541213971 -0.0523048301547265 0.626487942439323
0.266807515619051 -0.0544242399648898 0.646257071479074
0.266517682800959 -0.0566257387849212 0.647227111644971
0.267181214915604 -0.051585711996178 0.654381312511036
0.266399065791461 -0.057526724422657 0.666323799609575
0.266378677635315 -0.0576815878435455 0.681265086555995
0.26679632374096 -0.0545092507189325 0.68295379396467
0.266306323788329 -0.0582311698743621 0.68810747627528
0.267286571581495 -0.0507854486679395 0.703929593878211
0.266175532754942 -0.0592246264041188 0.713872877216908
0.266302484374907 -0.0582603331146582 0.722824267452973
0.266872269752308 -0.0539323834908922 0.738473240241802
0.26644646921782 -0.0571666596519369 0.741726801552143
0.267221194652272 -0.0512820357469607 0.74796224849313
0.267016018174296 -0.05284050582338 0.762838597925646
0.267187490597227 -0.0515380434616787 0.760585599807283
0.266860818938539 -0.0540193610566709 0.779763867297463
0.266198221962608 -0.0590522847616807 0.780443512844943
0.266610262635229 -0.0559225251280104 0.794176518682554
0.266178097968434 -0.0592051416731902 0.808032496847024
0.266862297181878 -0.0540081326837515 0.807290999089756
0.266412854718858 -0.0574219871206703 0.819303308913628
0.266240956915904 -0.0587276805644228 0.830982919239856
0.267180532420226 -0.0515908960632589 0.833790150959429
0.266495100799648 -0.0567972661142495 0.848934101769107
0.266727290832493 -0.0550336077173348 0.860902113057867
0.26695809243134 -0.0532804955236685 0.869245090468829
0.266529638861569 -0.0565349234883703 0.873252960721866
0.267340174392206 -0.0503782948980243 0.890389950671371
0.266385314939903 -0.0576311725099293 0.89741132207145
0.266857582371256 -0.0540439452259222 0.902532741114301
0.266223556528152 -0.0588598496312551 0.911768468925508
0.267373431694166 -0.0501256806098891 0.924873135471371
0.263679387939229 -0.0541984027094783 0.934637693105962
0.260283096435232 -0.0511774823481976 0.938399238097085
0.256040899236749 -0.0566737544607766 0.941887735240194
0.24921698465954 -0.0592257095891175 0.948320173296604
0.244770310311573 -0.0587540975116234 0.952790363457779
0.238478570117425 -0.0544004348087448 0.959596543957182
0.235230446736599 -0.0535084277373859 0.962933309478669
0.228378639987881 -0.0567098170389811 0.969308632915461
0.224693150022574 -0.0570279623566657 0.972921066706319
0.222956557491915 -0.0535734131161044 0.975093711605348
0.214299671137963 -0.0591930316779141 0.982496305935714
0.211253061330294 -0.056605087182055 0.991034446453023
0.211614160769988 -0.0538622646279029 0.994966667743673
0.180463411964335 -0.0603721853822665 0.986301369863014
0.171658173645857 -0.057304102020786 0.986301369863014
0.142395199973026 -0.0540732872450587 0.986301369863014
0.137828711515594 -0.0541944232508592 0.986301369863014
0.123810626495972 -0.055667902106328 0.986301369863014
0.102471579048414 -0.0576232956156468 0.979452054794521
0.0893419952000722 -0.0589784064657705 0.979452054794521
0.0798157320278142 -0.060442585848474 0.979452054794521
0.0614201388018036 -0.0567233382735987 0.979452054794521
0.0385108178740929 -0.05704964488125 0.979452054794521
0.0238100045352923 -0.0554587086292508 0.979452054794521
0.0114979715805473 -0.0549667709863282 0.979452054794521
0.000520486372392029 -0.0562730892643545 0.979452054794521
-0.0151668420560616 -0.0574698535903043 0.979452054794521
-0.0242690006473438 -0.0580452199427503 0.979452054794521
-0.0472071838634389 -0.0654140729023369 0.979452054794521
-0.0617834171099745 -0.0591629105228596 0.979452054794521
-0.0787707564388622 -0.066421584415829 0.979452054794521
-0.0878646381216308 -0.0582535869198412 0.979452054794521
-0.114351150204535 -0.0657734191586039 0.979452054794521
-0.121855735474072 -0.0638258431530356 0.984231745388009
-0.1239363594658 -0.0579286848115417 0.986301369863014
-0.137081722588544 -0.0633885023674968 0.986301369863014
-0.162335501293592 -0.0671660786383015 0.986301369863014
-0.178619467657459 -0.06355969658596 0.986301369863014
-0.193163407249725 -0.0667939151535653 0.986301369863014
-0.199799130822413 -0.0663591987501335 0.997287349981294
-0.208054081843326 -0.062489272440973 1.0
0.268424148053316 -0.0421446975035572 0.255051522253309
0.267372313150071 -0.0501341767957972 0.263885642359744
0.267714988121893 -0.0475313019692535 0.275641736141548
0.267970975985131 -0.0455868811042548 0.284420555487038
0.268064764120254 -0.0448744894911653 0.299636864418426
0.26788002306488 -0.0462777371223115 0.305505550937455
0.268418778000547 -0.042185487103966 0.310627397882211
0.267593451907315 -0.0484544611709752 0.31675336387362
0.267953462799967 -0.0457199069524909 0.32927063085963
0.267732847562647 -0.0473956460486918 0.345959106131462
0.267782608661527 -0.0470176729772143 0.3509070616098
0.268573824062481 -0.0410077953413735 0.358006986817027
0.268261675981802 -0.0433787954089656 0.368705110378416
0.26812544523806 -0.0444135706410221 0.379959770205121
0.267599650138115 -0.0484073809338809 0.384848245729183
0.268015341549298 -0.0452498911877686 0.391407727753179
0.267908393673263 -0.046062240957006 0.408473138196222
0.268390437208397 -0.0424007567925023 0.408627291000462
0.26793197624008 -0.0458831135781201 0.424045586506128
0.267725109177894 -0.0474544249165064 0.4363966904149
0.268182435181884 -0.0439806890408435 0.433789354111814
0.268184140537496 -0.0439677355789376 0.446173180117825
0.267893548343496 -0.046175002431635 0.454284420738701
0.268547669395088 -0.041206459763795 0.465710939515522
0.267775777158362 -0.0470695633954834 0.480707320995634
0.267539311772104 -0.0488656963256639 0.489692467953676
0.267976767338955 -0.0455428914046211 0.498234404101785
0.267489326002049 -0.0492453759441373 0.505683928500721
0.268069179701903 -0.0448409498186967 0.512213609298537
0.267513851813201 -0.0490590839132146 0.526574518602521
0.268327966270825 -0.0428752706734846 0.531235655718876
0.267556042556948 -0.0487386133978787 0.535972726038938
0.267844291203335 -0.0465491475565964 0.550607871275662
0.268393463672154 -0.0423777685179693 0.561039213526084
0.268134544559816 -0.0443444544303786 0.571356111577641
0.267399480796377 -0.0499278180346298 0.577529617670621
0.268165589460141 -0.044108645001053 0.582439963097883
0.268225146464922 -0.0436562646370427 0.600207951557539
0.268048043398019 -0.045001495985852 0.606600036103881
0.268223641760152 -0.0436676940044911 0.614213678936478
0.26808712454836 -0.0447046451774174 0.617816977531672
0.268431671133024 -0.0420875540399323 0.634052044918995
0.268485179939984 -0.0416811142993961 0.645756864978915
0.268044980074462 -0.0450247642383568 0.655656688758953
0.267710784263266 -0.0475632334457045 0.651769334607558
0.268137888651941 -0.0443190535288603 0.66698761248163
0.268294914469382 -0.0431263240302337 0.674582344771191
0.267477910183155 -0.0493320876974575 0.683205327232729
0.268570552294886 -0.0410326468835316 0.699382981462185
0.268463528131703 -0.0418455761111945 0.701581525165266
0.267912276668773 -0.0460327466778899 0.714540404695734
0.26851849024253 -0.0414280974318417 0.723860933287412
0.268495003936654 -0.0416064936362893 0.732882040144542
0.26760148608229 -0.0483934355533626 0.745852441883472
0.268354214636165 -0.0426758945445025 0.755092678625239
0.267700164471967 -0.0476438987691382 0.760714807133836
0.267780855972338 -0.0470309859733299 0.764316397013981
0.268269826231026 -0.0433168881198996 0.780448255208152
0.268185190224822 -0.0439597624121151 0.785459151179355
0.268198762724274 -0.0438566690435771 0.800123079455807
0.26754872058547 -0.0487942292928511 0.805222337977975
0.267645975536986 -0.0480555045948845 0.814919806273185
0.268082335610708 -0.0447410207702804 0.81869474711153
0.267822333907881 -0.0467159297738497 0.828195803002091
0.267877279402108 -0.046298577310095 0.844517308679661
0.267766954534679 -0.0471365778756079 0.852494968418379
0.268398803487585 -0.0423372085929545 0.853360028097323
0.267506020446359 -0.0491185690501093 0.86450594433334
0.268325274600311 -0.0428957159408611 0.881119088258122
0.268489981882117 -0.0416446399276882 0.894304557339272
0.267637376714579 -0.0481208191355465 0.894750390823536
0.268254660500365 -0.0434320832809504 0.911574911251987
0.267894191399731 -0.0461701179346025 0.915315036619926
0.267512236880828 -0.0490713505424272 0.919319780006732
0.268523970345584 -0.0413864719165319 0.931103410905627
0.262317483849402 -0.0477054314452647 0.936835448732817
0.258059326377287 -0.0450101601602145 0.941408980575303
0.251453496245317 -0.0446046533294985 0.948011226177285
0.244907429440504 -0.0468248753359139 0.954211493348747
0.240019381113273 -0.0423090241331992 0.95964716060705
0.237018567682438 -0.0469528729756379 0.962016157756343
0.22886238572739 -0.0498799051964712 0.969720508073814
0.226092878855205 -0.0423202103247693 0.97345305961673
0.221315934457942 -0.0424354681047248 0.978174092433324
0.212495360431757 -0.0480291399030948 0.986189084545583
0.212070459927877 -0.0503963284227275 0.99383547663131
0.2119711251836 -0.0511508507151058 0.998967014018379
0.184581357476892 -0.0442962680202681 0.986301369863014
0.169610170313919 -0.0436082382469789 0.986301369863014
0.155652420838475 -0.0475559058433461 0.986301369863014
0.130340810621487 -0.0506718025321568 0.986301369863014
0.126371820132012 -0.0440012273510578 0.986301369863014
0.0980417823193213 -0.0488982522324587 0.979452054794521
0.0882760431599493 -0.0466649097583295 0.979452054794521
0.0797972743290073 -0.0527935144885599 0.979452054794521
0.0581852783274369 -0.0527926874516955 0.979452054794521
0.0350520847657638 -0.0499170322287699 0.979452054794521
0.0265022099992296 -0.0507183605016437 0.979452054794521
0.0124162312549804 -0.0493329815390965 0.979452054794521
-0.00821752023993322 -0.0530261699661014 0.979452054794521
-0.0219735397958256 -0.0467886145687911 0.979452054794521
-0.0248570579941127 -0.0456194264565519 0.979452054794521
-0.0525003101664143 -0.0477823607750467 0.979452054794521
-0.0687353112676797 -0.0556933257551695 0.979452054794521
-0.0712878716915237 -0.046895697921648 0.979452054794521
-0.0842752714333275 -0.0491654926576562 0.979452054794521
-0.107108882674729 -0.056507623475117 0.979452054794521
-0.122833329451543 -0.0494981427697855 0.980433006488102
-0.135056364064247 -0.0525416667974029 0.986301369863014
-0.157376611133068 -0.0485193991938298 0.986301369863014
-0.172638788395739 -0.0502007567355771 0.986301369863014
-0.185257640308074 -0.0479319965915158 0.986301369863014
-0.202561460861131 -0.0526780236577065 0.986301369863014
-0.204467281694729 -0.055089285602986 0.993179077160972
-0.203435866375185 -0.0575793424558677 0.999279095793337
0.269077775757157 -0.0371799021839223 0.256934166448872
0.269662245230846 -0.0327404157753862 0.26904771595438
0.269590319173169 -0.0332867484238037 0.284900453329077
0.269619017361312 -0.0330687640431857 0.286885556061202
0.26924008954754 -0.0359470065430669 0.298902413210573
0.268911797910078 -0.0384406290984933 0.308194866008258
0.269002126956142 -0.0377545118753485 0.307865746962239
0.269018171040849 -0.0376326449529578 0.328480406272163
0.269759662874516 -0.03200045530783 0.332984399011915
0.26861388577269 -0.0407034964412859 0.339445047746696
0.268854487987523 -0.0388759411784457 0.354800834452163
0.268992663134946 -0.0378263967341232 0.353230893412163
0.269450782587132 -0.0343466340210581 0.372721369558324
0.268967653102642 -0.0380163667898574 0.382344316166325
0.269444346825507 -0.034395518483891 0.386418208281679
0.268822416116116 -0.039119551227579 0.397236490294219
0.26901730132695 -0.037639251085878 0.404391767479525
0.269294544465742 -0.0355333803741768 0.412799072517016
0.268839227075475 -0.0389918593138915 0.425827552677553
0.26888037877557 -0.0386792811186478 0.435189363276249
0.26953345216269 -0.0337186962525231 0.438272604977938
0.269091122481588 -0.0370785237469345 0.450949073584974
0.269503496655195 -0.0339462309217807 0.466508065692829
0.269541646801047 -0.0336564517945158 0.468846858107607
0.268911811912986 -0.0384405227358469 0.478776321095999
0.269613734214579 -0.0331088935267064 0.481933285501834
0.26977199594865 -0.0319067763092496 0.494726962928345
0.269440834603544 -0.034422196458322 0.5060440039845
0.268745806287818 -0.0397014606459498 0.516454867201738
0.268984427499858 -0.0378889525932106 0.519932766495139
0.26932446096038 -0.0353061420369976 0.532711461154987
0.269300421019112 -0.0354887435197484 0.538705648211467
0.269686083325795 -0.0325593474676343 0.551663709757027
0.269059195718189 -0.0373210315913288 0.563340775194486
0.268967392129199 -0.0380183490799655 0.569726568576154
0.268670433663023 -0.0402739725707247 0.573176264782347
0.269686398028003 -0.0325569570670437 0.583750858485888
0.269508397730812 -0.0339090035565002 0.599202221673962
0.269492550067655 -0.0340293785091062 0.610539930542752
0.269583904948515 -0.0333354692970948 0.615595063602889
0.268733492807737 -0.0397949908129212 0.620853538548029
0.268745161213989 -0.0397063604681417 0.62754110526186
0.269106369190331 -0.0369627134962933 0.642342508770037
0.268845176057609 -0.0389466723083755 0.654113489350036
0.269353650143005 -0.0350844281830202 0.666938797196657
0.269638878677762 -0.0329179023670715 0.664127941088678
0.269533135241508 -0.0337211035078967 0.68003139382239
0.269784142145053 -0.0318145167879674 0.687057736162432
0.269322750495453 -0.0353191343079905 0.694063353367596
0.269405546470198 -0.0346902364423143 0.70814932145487
0.269644053545064 -0.0328785953474809 0.718703271018156
0.268707274111822 -0.0399941415802504 0.724338397898091
0.269017020438867 -0.0376413846426913 0.731255273289619
0.268933313425985 -0.0382772025300527 0.742314591777387
0.269567217635925 -0.0334622220203289 0.746905074270124
0.26951346007053 -0.0338705512687707 0.765807788375805
0.268651249628671 -0.0404196897785528 0.766844313308656
0.268883306064474 -0.0386570461519157 0.778452004924374
0.268689570973181 -0.0401286102683884 0.787213091180973
0.2689472106859 -0.038171642360903 0.794602029442091
0.269495886762059 -0.0340040337988598 0.805724540694541
0.269517353201611 -0.0338409800023494 0.814057152674313
0.269145130164208 -0.0366682946695507 0.828646201588043
0.26940781726896 -0.0346729880132738 0.830696951855256
0.269260669766843 -0.0357906842576537 0.846875608718667
0.268613246259101 -0.0407083540292581 0.849717222756749
0.269063312521826 -0.0372897613631704 0.861220914733134
0.269701499335572 -0.0324422512479677 0.867229818904228
0.269716471179844 -0.0323285288002688 0.87848447162673
0.2689996691563 -0.0377731807186107 0.887715600122322
0.26977808133949 -0.0318605531767495 0.896441761864564
0.269495831904779 -0.0340044504812714 0.909237242907336
0.268609243951218 -0.0407387545758314 0.914632330611207
0.269626747649107 -0.033010046677873 0.925643589011667
0.268352032053113 -0.0396881736191675 0.931898989061621
0.261877857894272 -0.034523514649962 0.938991899032409
0.258884084923607 -0.0365460083824749 0.9416960714546
0.252911094785197 -0.0333191954678941 0.94803914543711
0.245769130840779 -0.0406868350691685 0.954158338947118
0.244779511283068 -0.0361466161187728 0.955732109663765
0.233389464046451 -0.033949100150399 0.967311546859009
0.227997334971305 -0.0415327249199789 0.971667683858028
0.222432243071396 -0.03289970924083 0.978312000289239
0.222722788246506 -0.0412706139110244 0.976931318456343
0.215422263831884 -0.0368082205738739 0.98475184508304
0.213962207834014 -0.03602707648445 0.990611299077849
0.212009997184929 -0.0403728279135621 1.0
0.175845737726854 -0.0359725682918143 0.986301369863014
0.16300554523429 -0.0361264734237317 0.986301369863014
0.154057048012477 -0.0376214210811056 0.986301369863014
0.138661830419269 -0.037627147638293 0.986301369863014
0.108721757411858 -0.0353520930250106 0.979452054794521
0.0956431671963173 -0.0430772463373655 0.979452054794521
0.0928946577070141 -0.0382287093304319 0.979452054794521
0.0712433120205738 -0.0369968861602253 0.979452054794521
0.0540096680502325 -0.0442076515516322 0.979452054794521
0.0478330073239118 -0.0404239571860891 0.979452054794521
0.0209573882927682 -0.0372093871300788 0.979452054794521
0.02507525248204 -0.0378327629113008 0.97945205479452
0.00243681487558124 -0.0443294156370426 0.979452054794521
0.000299023432090996 -0.0366976024556359 0.986301369863014
-0.0345551755128362 -0.0369452008045553 0.979452054794521
-0.0370336944344559 -0.0365229983441327 0.979452054794521
-0.0634003798595782 -0.0427978036630342 0.979452054794521
-0.0803374315997658 -0.0391567649548715 0.979452054794521
-0.0970287938781815 -0.0433822460927848 0.979452054794521
-0.109440942709168 -0.039564813840398 0.979452054794521
-0.122338368327164 -0.0457385397736451 0.981323030889642
-0.124221529649452 -0.0443403933093296 0.986301369863014
-0.14256158875507 -0.0420969101486424 0.986301369863014
-0.163375060682979 -0.047305540886512 0.986301369863014
-0.179257918448612 -0.0441896058011497 0.986301369863014
-0.201908160695153 -0.0417844735549893 0.986301369863014
-0.206739063050285 -0.0384176672539091 0.991263214358857
-0.213707153546169 -0.0379644061403173 1.0
0.270706534856773 -0.0248082485543738 0.267581325612127
0.270693684635402 -0.0249058556762052 0.267505099017051
0.270013754093989 -0.0300704408825067 0.28297098316069
0.270345359135022 -0.0275516505282789 0.286101174314724
0.269976612571289 -0.0303525587563122 0.296165997793644
0.270420593280656 -0.026980190457161 0.305778248452944
0.270605522447063 -0.0255755139808623 0.31072890423796
0.269834355089858 -0.0314331116059469 0.326019985586781
0.269840156127612 -0.0313890483495746 0.333561768621608
0.27005673287192 -0.0297439846532743 0.34257349518306
0.270663241304623 -0.0251370957311762 0.355334886662522
0.270592596749498 -0.0256736944013019 0.361779277598079
0.27006986510484 -0.0296442354410652 0.363434768208172
0.270138719116675 -0.0291212372974972 0.380830802090616
0.270010289732368 -0.0300967553215369 0.395344713088929
0.269882431336895 -0.0310679362547955 0.400873441045846
0.269805210514998 -0.0316544866303077 0.407973807770553
0.270036179643428 -0.0299001019231232 0.415686759295772
0.269852646947086 -0.0312941711561864 0.425541845355923
0.269979412283995 -0.0303312928270077 0.432611394310333
0.270648483948873 -0.0252491889768045 0.439892029864551
0.270789656967178 -0.024176873442404 0.456594300793004
0.270070891653446 -0.0296364380302729 0.459322381574147
0.270628495096705 -0.0254010193828702 0.471700519738255
0.270833484767873 -0.0238439682450299 0.484094425310102
0.270258150239788 -0.0282140678529198 0.485442586581033
0.27015761046143 -0.028977743287879 0.498760755509415
0.27049023864756 -0.0264511813750729 0.49915523411491
0.270424407444931 -0.0269512190031863 0.51536378928217
0.270770576665081 -0.024321802725527 0.529163647850593
0.269910825283348 -0.0308522628192557 0.529525981146209
0.270032831281488 -0.0299255352571042 0.540578132202321
0.270941702139989 -0.0230219756957117 0.555189915689988
0.269767090181104 -0.031944039313261 0.553217114970569
0.270768686640407 -0.0243361588882262 0.562943696649023
0.270442263444603 -0.0268155892202399 0.586529640486975
0.270053468177491 -0.0297687824694109 0.586508212855571
0.270242513990823 -0.028332836955304 0.595470380063122
0.270184167294069 -0.0287760241171363 0.609124326670379
0.270761330608867 -0.0243920334950483 0.616225139931432
0.27055508171473 -0.0259586493809355 0.625777182369618
0.27042697010206 -0.0269317536897613 0.631490423584067
0.270634407942897 -0.0253561068570865 0.642037902919928
0.270760622711238 -0.0243974105113752 0.648251193940741
0.270792095942888 -0.0241583475826294 0.660250524060219
0.269990603334452 -0.0302462883594717 0.668863582889143
0.270437324264416 -0.0268531060184654 0.678210352432019
0.270221164762503 -0.0284950004441198 0.688353123380426
0.270505032620252 -0.0263388099961445 0.693290276671646
0.269892560512763 -0.0309909975255431 0.711143560127588
0.27016798025684 -0.0288989768717458 0.718856291345164
0.27017883352765 -0.0288165380953481 0.722486376542055
0.270902664581841 -0.0233184953885645 0.734989274610969
0.26993112514247 -0.0306980700808367 0.745230430566778
0.270504231146744 -0.0263448977918507 0.753307554520725
0.270393979077341 -0.0271823454014486 0.767254412660074
0.270808930668886 -0.0240304751433922 0.775670305650686
0.270018479024009 -0.0300345514758683 0.777920195839074
0.270034935550075 -0.029909551750326 0.790543477337376
0.270637265966301 -0.0253343980140601 0.795293623160499
0.270453915013893 -0.0267270867648814 0.805721756931505
0.270922922428175 -0.023164621768953 0.815684937176998
0.270359534667593 -0.0274439766684537 0.830463855980342
0.269899566642694 -0.0309377806853016 0.833775127221058
0.270938984381253 -0.0230426191228046 0.840595850094046
0.270164321140136 -0.0289267706224899 0.850133622990645
0.270099498716265 -0.0294191458152087 0.85977591207703
0.270532529319924 -0.02612995182653 0.876036430430697
0.26998265101548 -0.0303066922190113 0.881764802103526
0.270833666475996 -0.0238425880348046 0.886875266189626
0.270573517262569 -0.0258186174926141 0.899237542309855
0.270272275182598 -0.0281067782604835 0.904775056784198
0.270889278317912 -0.0234201741578554 0.91656309616623
0.270222876724051 -0.0284819968051533 0.920745181987292
0.269617729567758 -0.0286101440029138 0.932090092787783
0.26069999965985 -0.0252888275959127 0.941365049063863
0.2560687204493 -0.0304059624520268 0.945288786910905
0.25363477767757 -0.0316357968014564 0.947541381370121
0.2441060815455 -0.0289245815492581 0.957342442789013
0.245169084105097 -0.0245852940227152 0.956854925041461
0.237264231935576 -0.031355302624172 0.963808486660807
0.231881699516898 -0.0288119750652175 0.969476941630322
0.224550771273732 -0.0276452050401226 0.97689744681468
0.220022479280012 -0.0250134432551131 0.981730512487282
0.21551853758134 -0.0242055784054419 0.988961163310915
0.215272074294245 -0.0260776529320291 0.991154153346393
0.188085466195096 -0.0315350982734137 0.986301369863014
0.176267340937667 -0.0307742381418915 0.986301369863014
0.163205321485869 -0.0271980340416259 0.986301369863014
0.152210100822404 -0.029972362921412 0.986301369863014
0.135846459609829 -0.0240665880853849 0.986301369863014
0.106098538632962 -0.0303189338220305 0.979452054794521
0.105844374641265 -0.0313214357091557 0.979452054794521
0.0833267939873246 -0.031006194207678 0.979452054794521
0.0743226510049817 -0.0283290662886407 0.979452054794521
0.0546380964920636 -0.0298834536721742 0.979452054794521
0.0508333595992709 -0.0289875888947681 0.979452054794521
0.0294124200224588 -0.033020831355759 0.979452054794521
0.0219744355628186 -0.0273633597257512 0.986301369863014
0.00827281672738452 -0.0336108514978878 0.986301369863014
-0.00106358490275061 -0.0269825128739949 0.986301369863014
-0.0209790350052083 -0.0272886072285865 0.986301369863014
-0.0437638790928658 -0.0264561295849453 0.979452054794521
-0.0646047947987347 -0.0281954556892059 0.979452054794521
-0.0736535920868279 -0.030252093229954 0.979452054794521
-0.100327054301181 -0.0293875838477787 0.979452054794521
-0.102861714339146 -0.0261341849220077 0.979452054794521
-0.120001273756164 -0.0279865440741467 0.98175013872256
-0.133200056544622 -0.0324911209394991 0.986301369863014
-0.136894117563006 -0.0362502898241884 0.986301369863014
-0.155480039693076 -0.0292403059652969 0.986301369863014
-0.171011411982761 -0.0272701108726141 0.986301369863014
-0.199400199462002 -0.0330365111664193 0.986301369863014
-0.207765138439979 -0.0306238508926798 0.990058921297352
-0.207504905497494 -0.0326005163358228 0.999647248477109
0.271264616197945 -0.020569199911929 0.262303824614536
0.27204439283934 -0.0146462082810512 0.270481358983923
0.271506085217889 -0.0187350606105996 0.278245742724499
0.271286863301512 -0.0204002163835177 0.291771145092005
0.271377122854737 -0.0197146270108935 0.29559910849828
0.272030386637883 -0.0147525959433642 0.309920272822709
0.271801754760065 -0.0164892274696036 0.314750576216916
0.271606353002377 -0.017973451174195 0.329052317796068
0.271709912920363 -0.0171868355012442 0.342605009918586
0.271274582652787 -0.0204934971715765 0.341789524385239
0.271405434301926 -0.0194995802194672 0.35019524559912
0.271657193533095 -0.0175872790039056 0.366631070886974
0.271781072561814 -0.0166463243620295 0.369138276942818
0.271127302424906 -0.0216122015682258 0.372731911393601
0.272046438874889 -0.0146306670981107 0.392170808016105
0.271703950340594 -0.0172321257910433 0.394660214894827
0.271180148422933 -0.0212107963613714 0.410282224602838
0.271611789898791 -0.0179321538459031 0.417009973856918
0.271214603102744 -0.0209490870854941 0.431113358306518
0.27152797921156 -0.0185687592181283 0.439185597595875
0.271386098419829 -0.0196464508254344 0.442110631286996
0.271682836788514 -0.0173924991410921 0.449287980529092
0.27135094088329 -0.0199134988281931 0.457236963041235
0.271300575261342 -0.0202960637082444 0.472411285439659
0.272035190404702 -0.0147161077117968 0.480460107530151
0.271819836357342 -0.0163518841027287 0.495746485369391
0.271955994172114 -0.0153176628211924 0.502165991428647
0.272181324752468 -0.0136061071387417 0.508476293052512
0.271224717036381 -0.0208722641324736 0.511046836922905
0.271172104775535 -0.0212718939291759 0.52789215927563
0.272133552233431 -0.0139689754466944 0.535932228071524
0.271888008264242 -0.0158340670605222 0.538021642588613
0.271666002128311 -0.0175203710805632 0.556538693745808
0.271534069112445 -0.0185225018284327 0.567572072838929
0.272014466878719 -0.0148735185195128 0.578325471753376
0.27120065500105 -0.0210550334363051 0.575083125054793
0.271761232512781 -0.0167970244960677 0.592309396716704
0.271150807956296 -0.0214336593314974 0.598454373358407
0.271049443830851 -0.0222035963042311 0.600509627453941
0.272036547127325 -0.0147058023803521 0.616985591052032
0.27150249757781 -0.0187623114424798 0.630640949016604
0.271547056724407 -0.018423851121453 0.63699006816138
0.271317243070103 -0.0201694591312985 0.646304009287434
0.271107819935542 -0.0217601857669365 0.659396039438596
0.271642294232258 -0.0177004504295119 0.65942015702303
0.27139340852832 -0.019590925038804 0.673618170156005
0.271797175382249 -0.0165240112974847 0.677274578795607
0.271393897472382 -0.0195872111399285 0.691578552273429
0.271177796644041 -0.021228659895569 0.698450937553999
0.271565609593802 -0.0182829280874472 0.705363415176245
0.271846346839207 -0.016150517001067 0.72121449306531
0.271218025745598 -0.0209230895319591 0.7258802893231
0.271805803286565 -0.0164584758577935 0.733083829808706
0.27135577577007 -0.0198767742170428 0.743420228541129
0.271223841518452 -0.0208789143513853 0.758102893111666
0.271756768688957 -0.0168309306042371 0.761890431421699
0.271162881559964 -0.0213419512067843 0.767565827651249
0.271792991404575 -0.0165557917631119 0.777292397454566
0.271528218124474 -0.0185669444943795 0.789394811605095
0.271270308688377 -0.0205259611543195 0.802285460728987
0.271986028407396 -0.0150895301550223 0.805536326501028
0.271777470768403 -0.0166736826991462 0.822511020117674
0.271732111162183 -0.0170182231146399 0.829512964434821
0.271560714252379 -0.0183201118971967 0.836542793170544
0.270975989357702 -0.0227615384207521 0.839921644777897
0.271117634170836 -0.0216856392488452 0.849350940856738
0.272138784649007 -0.0139292313045602 0.868575483146211
0.271554088767599 -0.0183704374504657 0.870277800841095
0.271053892213279 -0.0221698074851062 0.880764881427484
0.271309482642503 -0.0202284054311557 0.891750821434424
0.271773274337071 -0.016705557759699 0.900882393813686
0.271525810808141 -0.0185852298773188 0.909315174946457
0.271105653355267 -0.0217766425779762 0.915984985278535
0.271661815929186 -0.0175521684197906 0.92552557219769
0.269698666395544 -0.015683831007541 0.93369707080051
0.264535642475335 -0.0205022545011563 0.938186993864226
0.259992198670775 -0.0180915058632673 0.943006233717301
0.252188755155367 -0.018014423035912 0.950752979019614
0.252052632724976 -0.0167047060369919 0.951058889276497
0.239861624952954 -0.0149882783689088 0.963369640054772
0.237699609158188 -0.0197466379410734 0.964892068948534
0.233101527203863 -0.0199139598797783 0.96942897377879
0.227348338775073 -0.0193719640906373 0.975203687529586
0.222907088681847 -0.016867182040893 0.979933881775885
0.217246892725828 -0.0226733066643491 0.984787802632194
0.216117024679364 -0.0196596175692145 0.993703404655588
0.188828418862263 -0.0224147231465901 0.986301369863014
0.173388727589336 -0.0208110371015231 0.986301369863014
0.161599982547572 -0.0160503882584067 0.986301369863014
0.150918727367364 -0.0160128930503268 0.986301369863014
0.13995624527949 -0.019098444690933 0.986301369863014
0.119383586781229 -0.0188976967624225 0.986301369863014
0.0948385425566798 -0.0200292471989725 0.979452054794521
0.0775620784963022 -0.0170542782516672 0.979452054794521
0.0735708024971149 -0.0189028815426929 0.979452054794521
0.0555419626310911 -0.0233721972721041 0.979452054794521
0.0471393579932904 -0.0203896841826853 0.979452054794521
0.0396176092113022 -0.0166453481008908 0.979452054794521
