ply
format ascii 1.0
element vertex 836
property float x
property float y
property float z
end_header
-0.260284548556357 -0.0814175881897791 0.421243453726803
-0.261332270766892 -0.0788881630195035 0.429093045631406
-0.261657116005652 -0.0781039172384172 0.430702787791882
-0.260510828132397 -0.080871300968415 0.450101654362907
-0.263935640687795 -0.0726030720485849 0.446458696072671
-0.263133964606789 -0.0745384893159815 0.462951402749311
-0.260800308382038 -0.0801724338236925 0.479586726738816
-0.260766420734301 -0.0802542458424539 0.479145654834839
-0.258884385172759 -0.0847978816199993 0.490194197739301
-0.260179295339816 -0.0816716919326347 0.500383303738543
-0.25934894455853 -0.0836763360503426 0.512351194466017
-0.259484671768077 -0.0833486615802709 0.521931401941253
-0.260329701106712 -0.0813085802903352 0.526402252259978
-0.260679229133647 -0.0804647449872785 0.538287218139605
-0.260744532813735 -0.0803070879571378 0.542814605231896
-0.26209171388797 -0.0770547051367496 0.550098517586228
-0.260937405865988 -0.079841451218572 0.563368021277513
-0.260342204463935 -0.0812783945157516 0.570222022807599
-0.262239557758105 -0.0766977784603538 0.574519680612075
-0.260834940158571 -0.0800888253190974 0.588594498923634
-0.261840776465174 -0.0776605216661683 0.598912118905735
-0.261943809254888 -0.077411778507873 0.611546551756034
-0.261403314803859 -0.0787166475419365 0.616300152361082
-0.26139934790956 -0.0787262244719509 0.623899787666004
-0.260020640543481 -0.0820547184936828 0.640833377274922
-0.260620982685379 -0.0806053643526488 0.652559403604639
-0.25974448405706 -0.0827214192285372 0.655509571438292
-0.260980318942801 -0.0797378498865268 0.665798921607547
-0.262069888373789 -0.0771073965890887 0.674991982879826
-0.261238319996491 -0.0791149802436019 0.683781747893984
-0.261027634622341 -0.079623619731269 0.694490447992228
-0.261374038491057 -0.0787873268133578 0.704059044435151
-0.261303742354762 -0.0789570366989829 0.706881132892064
-0.261885492518658 -0.0775525675633918 0.709906180821032
-0.261127882758325 -0.0793815993217747 0.734527816349731
-0.259262789431393 -0.0838843329267454 0.735523947280947
-0.261291020290255 -0.0789877504796547 0.748084814691458
-0.261390072553118 -0.0787486171632675 0.75581538661292
-0.259175454274357 -0.0840951786473323 0.766298912958844
-0.262042249903552 -0.0771741217587793 0.775135555271727
-0.261368977848622 -0.0787995442849588 0.785336468994162
-0.261042565975756 -0.0795875722553502 0.792822625842732
-0.259179434120682 -0.0840855704483582 0.809483411783303
-0.262711694989487 -0.0755579383530516 0.809515445287545
-0.261498825754914 -0.0784860637085396 0.820846886031956
-0.26095729195325 -0.079793441957003 0.825311908705231
-0.259485408376216 -0.0833468832509127 0.838397927816164
-0.262971569811829 -0.0749305450324344 0.845576964628164
-0.26014784602802 -0.0817476172876995 0.854677617243082
-0.261123516652508 -0.079392140033651 0.873988464644139
-0.260933082141747 -0.0798518896122769 0.879304149001222
-0.263458555429249 -0.0737548577501762 0.882502424035692
-0.262539089927248 -0.075974643835241 0.896466714278037
-0.263744328624095 -0.0730649402274172 0.897016819644318
-0.258618875601322 -0.085438878428301 0.91160260898812
-0.261975928138165 -0.077334236664256 0.917434047905383
-0.261519531016086 -0.0784360767862061 0.926697031236851
-0.253728014832156 -0.0775955435811134 0.939026929776574
-0.255484642628257 -0.0697534312921177 0.940405063757261
-0.253032139897719 -0.0715649621540824 0.941977637985342
-0.246287007047077 -0.0606606093516802 0.951037792542195
-0.241536706702637 -0.0534095460565967 0.956693907090127
-0.242088538015652 -0.0530006355197965 0.95620017030582
-0.236290083406403 -0.0433735675770166 0.963205602852883
-0.231683970297404 -0.0446000211769289 0.967612225707376
-0.226727589324012 -0.0388389543430119 0.973278174271414
-0.21735338189689 -0.0327370865791451 0.983368637619134
-0.218899801124362 -0.0330457816859398 0.98179515542568
-0.214754967526745 -0.0300054687879867 0.995415626205269
-0.194571361109664 -0.012798272494416 0.986301369863014
-0.212161036028602 -0.0201335696415175 1.0
-0.177111063799633 0.00778211557229092 0.986301369863013
-0.180710565583474 0.0134829433848573 0.986301369863014
-0.161900466664543 0.0202551083928382 0.986301369863014
-0.151703701197855 0.0369176416725373 0.986301369863014
-0.139026231896252 0.0566900414988642 0.986301369863014
-0.129276509541831 0.0607181881367824 0.986301369863014
-0.129492088691176 0.0673877928004609 0.986301369863014
-0.110741466279512 0.081624497682758 0.986301369863014
-0.108309644588063 0.0939057029393767 0.986301369863014
-0.0863006684751312 0.109629756726239 0.979452054794521
-0.0789900030706048 0.113884665007466 0.979452054794521
-0.0654157555637686 0.130971383569358 0.979452054794521
-0.0567244052131586 0.145846761331093 0.979452054794521
-0.0405692983991395 0.159675683826896 0.979452054794521
-0.03704560531512 0.165987525503364 0.979452054794521
-0.0289629122989614 0.178888231312547 0.979452054794521
-0.00968618345594276 0.19624898497535 0.97945205479452
-0.0136635510213843 0.197328079666463 0.979452054794521
-0.00839722061682864 0.202312517240022 0.986301369863014
0.00466852112101861 0.211182222430122 0.990708457223229
0.0120746375561239 0.216034539948343 1.0
-0.26514065196216 -0.0670853264420758 0.231260344401566
-0.264626574180138 -0.0709901348691367 0.233570363752682
-0.265341105596823 -0.0655627299221792 0.240827507940932
-0.265365206018954 -0.0653796690416565 0.250555749349632
-0.26490399951323 -0.0688828802543251 0.269218240705339
-0.26334377642066 -0.0740319587893881 0.274664720353183
-0.26503179231901 -0.0679121975242454 0.287611056922673
-0.265479700457275 -0.0645099974408968 0.288739242947469
-0.265260437578328 -0.0661754643554316 0.29517942978949
-0.264815392102638 -0.069555920357751 0.313041493592993
-0.264475943620864 -0.0712986653797812 0.315417273412861
-0.265168354774497 -0.0668749026913368 0.326091859653491
-0.265272503078322 -0.0660838177842284 0.334419591979279
-0.265352888058619 -0.0654732332395375 0.34884264046412
-0.264637212681937 -0.0709093274253481 0.360129307742483
-0.264637212681937 -0.0709093274253481 0.360463756768139
-0.265645607900504 -0.0632498052966656 0.3752339538184
-0.265099433868544 -0.0673984089461823 0.38657249789624
-0.2643556559595 -0.071589065483234 0.395827443796029
-0.264634198660721 -0.0709322211893887 0.4072742028263
-0.264609767325789 -0.0711177956021762 0.414027457175186
-0.265704726284946 -0.0628007565848923 0.413386373337724
-0.263543283448757 -0.0735503062163664 0.429903363366893
-0.263123848850524 -0.0745629109119516 0.440032354966203
-0.264765655062443 -0.0699337106853634 0.447369160083718
-0.265180748357798 -0.0667807640800096 0.456985977377807
-0.26504655581325 -0.0678000576521567 0.461408711107908
-0.264406454351919 -0.0714664273153072 0.480061988336426
-0.264437369616075 -0.0713917912652987 0.488165024071421
-0.264791621205299 -0.0697364782489769 0.500710814301823
-0.265033545763108 -0.0678988787940282 0.501046010322506
-0.265011085337867 -0.0680694826614282 0.515771398512481
-0.264971119366104 -0.0683730543558128 0.51922744886146
-0.264680597886726 -0.070579784077634 0.528803075398182
-0.26517072213389 -0.0668569208114913 0.538196242998565
-0.263376622041318 -0.0739526624465317 0.553279063350986
-0.265225542745876 -0.0664405169225362 0.554934299938118
-0.26489983405348 -0.0689145200623583 0.558193709305146
-0.264970435689692 -0.0683782473937313 0.572812891208637
-0.264834191346569 -0.0694131259233407 0.584568520364915
-0.265064803374742 -0.0676614536619023 0.592396176189454
-0.264977026443841 -0.0683281856457977 0.597606190903085
-0.264677871007317 -0.0706004967831206 0.616191529527434
-0.264858174431816 -0.0692309563049453 0.624388529989455
-0.264761831985521 -0.0699627498376214 0.635043201089809
-0.263693824458003 -0.0731868680701539 0.644302236831976
-0.263484896839137 -0.0736912639611735 0.657153657917079
-0.265646335456938 -0.0632442789568828 0.660054228946934
-0.265398257205558 -0.0651286203550781 0.665976042764882
-0.26491448181451 -0.0688032592712708 0.680040394444311
-0.264794694723875 -0.0697131325576138 0.689772147147466
-0.265031183934022 -0.0679168186670236 0.694576161549073
-0.265792978796602 -0.0621304122065256 0.706525597813545
-0.265098037973973 -0.0674090118181154 0.71960612112431
-0.264704171140554 -0.0704007274379263 0.725186413264752
-0.263593868251385 -0.0734281836998107 0.735742855386468
-0.265162493987648 -0.0669194197871564 0.74267386324574
-0.265227005866573 -0.0664294034174858 0.750223938284055
-0.26473705862211 -0.0701509222146311 0.757991926919143
-0.265235211663876 -0.066367074198874 0.771505642478894
-0.264637212681937 -0.0709093274253481 0.782092094871413
-0.264802729963753 -0.069652098851258 0.787615443401708
-0.264559953758151 -0.0710958469669675 0.798710026113199
-0.264273072191957 -0.0717884403348679 0.802514810483688
-0.263818558480153 -0.0728857335021899 0.817301851893432
-0.264971353879573 -0.0683712730491676 0.82379488982797
-0.26435195664673 -0.0715979964142934 0.836294451946652
-0.265390991401505 -0.0651838096161006 0.845172838572516
-0.265120736531917 -0.0672365991532542 0.848235431765895
-0.264863463941118 -0.0691907784929115 0.862085876132491
-0.265467680387307 -0.0646012989367894 0.868429528107512
-0.264677550238686 -0.0706029332627666 0.885083097494155
-0.265425584974423 -0.0649210453423365 0.890187725548079
-0.264465630034447 -0.0713235645799854 0.902571373631395
-0.264880116487405 -0.069064289845972 0.906461087956508
-0.26492310495785 -0.0687377599947858 0.920606041132616
-0.26285455222173 -0.0728883033539922 0.932396491526729
-0.258842463246734 -0.0688921064967708 0.937515324032222
-0.257262194688509 -0.0703128261932019 0.938548748630026
-0.253516464072609 -0.0574168224512091 0.9442935836762
-0.250603858969944 -0.0479576574086621 0.948415939833033
-0.248310083059383 -0.0489640656123528 0.950558729542056
-0.242338669795371 -0.0479607276653554 0.956610018419532
-0.23516408832985 -0.0402401255794412 0.964730961137951
-0.234926251981631 -0.0327001152076964 0.965950931606363
-0.228948938214085 -0.0317731088595606 0.971998107234802
-0.224008209407239 -0.0244353003076031 0.977854343631318
-0.220815163644034 -0.0161695007797544 0.982098975783403
-0.220907038046939 -0.0180481103873275 0.981762679620007
-0.215549139469743 -0.023973133985751 0.995374442335103
-0.215442144136064 -0.014240650533838 1.0
-0.189187512551657 0.0148457618468241 0.986301369863014
-0.175040918957794 0.0264854614188225 0.986301369863014
-0.169446830235614 0.0311915807461661 0.986301369863014
-0.159894065223076 0.0486264989502016 0.986301369863014
-0.157979116466283 0.0564434118273972 0.986301369863014
-0.144597043659625 0.0697515259211167 0.986301369863014
-0.130003837536911 0.0793975893097894 0.986301369863014
-0.125553269180056 0.0859649289239295 0.986301369863014
-0.115591691563305 0.100150119835429 0.986301369863014
-0.105215724985113 0.103842609881234 0.986301369863014
-0.0851050438202699 0.129222875133098 0.979452054794521
-0.0668162391611419 0.14356586512899 0.979452054794521
-0.060745141902786 0.152781384659586 0.979452054794521
-0.0627628729979733 0.162771381146955 0.979452054794521
-0.045130560236163 0.168506012200343 0.979452054794521
-0.0240362558130687 0.194770355149401 0.979452054794521
-0.0201286626666864 0.198677606727493 0.979452054794521
-0.0204532493306062 0.202553416679013 0.986301369863014
-0.00620801856289705 0.208012310338616 0.986301369863014
-0.0154032117477478 0.210584616908561 1.0
-0.267130484301229 -0.0519710492689648 0.219170693396718
-0.2662864372932 -0.0583822228015324 0.238609490243456
-0.266780294376627 -0.0546310058289958 0.236076961533394
-0.266923836647455 -0.0535406940350026 0.244017746491663
-0.26648607293113 -0.0568658395836797 0.255380051740899
-0.265960748939203 -0.0608560714558732 0.266865123800898
-0.266646461781391 -0.0556475653146728 0.276878963878814
-0.266156600821342 -0.0593684287166319 0.288415809546341
-0.266504429946697 -0.0567264042071944 0.297419847849598
-0.265967236283855 -0.0608067951810499 0.304950109234243
-0.266242902549841 -0.0587129020074484 0.303994434569451
-0.26609519295083 -0.0598348678016241 0.323640780964959
-0.266150500060445 -0.0594147685963051 0.331211668394681
-0.265816154608447 -0.0619543744383862 0.336992943381214
-0.266984480784197 -0.0530800560839337 0.344863203124117
-0.266720796901553 -0.0550829340199798 0.351335728851449
-0.266470230467228 -0.0569861750440185 0.370891832510088
-0.266102386503587 -0.0597802273436819 0.384786529460205
-0.266648093723975 -0.0556351694800845 0.386770824010697
-0.26636009631079 -0.0578227270157338 0.394341088868405
-0.266553549158521 -0.0563533067519642 0.409880796856298
-0.266854640128098 -0.0540662937814946 0.408460108066099
-0.266242774259121 -0.0587138764722125 0.430710350428774
-0.266617672466963 -0.0558662418681445 0.430877079698794
-0.265909505743777 -0.0612453021682809 0.442783140240457
-0.266491060903575 -0.0568279521714645 0.458280801808449
-0.26578506541596 -0.0621905203000897 0.459657592955511
-0.267234954766986 -0.051177517299031 0.464059334870127
-0.26686634390547 -0.0539773947663912 0.474305672184608
-0.266755923962677 -0.0548161175009832 0.489651375274333
-0.265374504566532 -0.0653090395606503 0.497180572513766
-0.266677558588066 -0.0554113616174799 0.5123557153405
-0.26732267710268 -0.0505112000069031 0.514919192417199
-0.265917612407342 -0.0611837259451697 0.529474520692028
-0.26571827112552 -0.0626978733063965 0.539052642623751
-0.266747784233234 -0.0548779448843754 0.540342161102609
-0.26659062247783 -0.0560717069343481 0.548677536249726
-0.266460748782 -0.057058195593586 0.559153837511605
-0.266326185457349 -0.0580803055202276 0.568440312514594
-0.267008326554441 -0.0528989294765346 0.577436887945151
-0.267455972327128 -0.0494987222576037 0.588503852287188
-0.26602139668432 -0.0603954060964725 0.60313834396493
-0.266458522442911 -0.0570751063178761 0.613316116091121
-0.265457489962631 -0.0646787028969391 0.620188030897287
-0.266503607770367 -0.0567326492564338 0.626807508991434
-0.265851047757673 -0.0616893346566517 0.637650455146851
-0.265380056031872 -0.0652668719949623 0.652210707023468
-0.266261665686919 -0.0585703818318218 0.650833898730992
-0.266098433329552 -0.0598102546816215 0.67101913996565
-0.265974137512571 -0.0607543751446438 0.674772059815388
-0.266412909468434 -0.057421571256355 0.685247417908989
-0.26645076508871 -0.0571340292729565 0.689633650076562
-0.266809616361909 -0.0544082832386959 0.701221989142083
-0.266011672340336 -0.0604692698222821 0.707494877665188
-0.266708330173883 -0.0551776282179579 0.713314345421515
-0.266415771833584 -0.0573998294344936 0.729398967571206
-0.26643420166536 -0.0572598409639851 0.738093745039694
-0.266642123335517 -0.0556805190827643 0.738966085726036
-0.266542249897055 -0.0564391331637151 0.762759412647581
-0.266954110111218 -0.0533107442481181 0.76116610860504
-0.266592608386073 -0.056056622463648 0.769038255182022
-0.267045888455267 -0.0526136185138507 0.781880837244764
-0.266215463064977 -0.0589213255874578 0.791410488625521
-0.266674780971989 -0.0554324597062218 0.799943905637894
-0.265882424299281 -0.0614510061616852 0.809476943936994
-0.267270400464302 -0.050908280497863 0.820192037422781
-0.266218755518515 -0.0588963169199519 0.835163744033224
-0.267126183323876 -0.05200371843538 0.832875214529713
-0.266261950473003 -0.0585682186667514 0.844439174811345
-0.265968977235595 -0.0607935713397095 0.859309540102246
-0.266847960853905 -0.0541170279059168 0.867666083592494
-0.266238645166299 -0.0587452400460009 0.87310658221818
-0.26584277379003 -0.0617521816804054 0.889468004307401
-0.266077356237423 -0.0599703510908458 0.897465165630872
-0.266608839704607 -0.0559333333591334 0.89663065512307
-0.266221370514593 -0.058876454052741 0.916881601284283
-0.266713131413196 -0.0551411591846993 0.927197358379871
-0.266061175574624 -0.060093255426853 0.931584444971693
-0.2638820294442 -0.0472613799946857 0.935342248387463
-0.2596434637861 -0.052529710265476 0.938856897439178
-0.255420515757501 -0.0378694894365833 0.944957260363881
-0.249234177074842 -0.0409084707165651 0.950694007406818
-0.245635090104943 -0.0328812896880852 0.955310061062669
-0.241481096975998 -0.0250670158364941 0.960448483615357
-0.237504372834638 -0.0206506000806149 0.964967644262286
-0.236297896688482 -0.0207159859963261 0.966155264263159
-0.232344239183674 -0.0107334887926002 0.971378075028783
-0.222382993424808 -0.00815036392559606 0.981591266402211
-0.217898698907862 -0.00972553100075256 0.985831596597493
-0.217874326121188 -0.00631158791518126 0.990035860977145
-0.218311538483814 -0.00299063031363571 0.999147679581808
-0.189823193334027 0.0229840773231148 0.986301369863014
-0.186606943863604 0.0349461866179432 0.986301369863014
-0.176956068077694 0.0358019351720848 0.986301369863014
-0.165302046885507 0.0485255700907635 0.986301369863014
-0.152259364817019 0.0619449185435547 0.986301369863014
-0.149971882298557 0.073714863001391 0.986301369863014
-0.131522505269014 0.0859789762718605 0.986301369863014
-0.12824503633801 0.0931155495548009 0.986301369863014
-0.126377617050778 0.106812283010779 0.986301369863014
-0.109038087866482 0.117310120642942 0.986301369863014
-0.0996451282144764 0.131796004493853 0.986301369863014
-0.0953572254785459 0.133039535779059 0.986301369863014
-0.0697127138807162 0.155594489520445 0.979452054794521
-0.0723650432239928 0.168052331370746 0.986301369863014
-0.0519532734544828 0.181106093403786 0.979452054794521
-0.0534779115414098 0.186966495106079 0.986301369863014
-0.0382458447644818 0.198187512701784 0.986301369863014
-0.0335961379802764 0.20737382942135 0.994456518978179
-0.0291761830637895 0.207955727525329 0.995136652675177
-0.268939467601707 -0.0382304569245071 0.212475166114815
-0.267904705659289 -0.0460902542043188 0.218540853427019
-0.267993421998169 -0.0454163867084079 0.225852404028769
-0.267612745142526 -0.0483079145002788 0.246337793086594
-0.268893232688233 -0.0385816459586771 0.249296916523664
-0.267556933671863 -0.0487318447081025 0.260718319896273
-0.267092013783607 -0.0522632618614126 0.27364751532807
-0.268046450890656 -0.045013592280206 0.283218422771898
-0.267473755703504 -0.0493636441033544 0.284548213277612
-0.2686528234105 -0.0404077357187551 0.29054412480803
-0.26774008966246 -0.0473406368392512 0.305750247887916
-0.267600225813984 -0.0484030082415367 0.321258952018502
-0.268215556211546 -0.0437291098435752 0.315959860164674
-0.268392139409803 -0.042387827289172 0.33078086946651
-0.268138488479409 -0.0443144973869094 0.345071581772725
-0.267872512579015 -0.0463347849262118 0.347394042073038
-0.268348718220138 -0.0427176439691528 0.362189040636138
-0.268167039510841 -0.0440976307724875 0.373755486252523
-0.268257082009251 -0.0434136900948652 0.382135468975034
-0.267556441768487 -0.0487355810851885 0.392702407452933
-0.268164227038784 -0.0441189936186839 0.394866333738366
-0.267975846144614 -0.0455498885703313 0.405461367600734
-0.268210558994723 -0.0437670674738031 0.411156211933758
-0.268354357535455 -0.0426748091166346 0.425686318915547
-0.268113585026541 -0.0445036578914517 0.431697710327463
-0.268455458554982 -0.0419068706317685 0.441576714921498
-0.267749966084672 -0.0472656179646184 0.454367467774244
-0.267908209875186 -0.0460636370420125 0.46065100129488
-0.267571614575031 -0.0486203321774871 0.477672804217443
-0.268252213700024 -0.0434506685747072 0.48035614553976
-0.268052250695029 -0.0449695383922876 0.489034153430557
-0.267570567680736 -0.048628284129134 0.507038107185911
-0.269096821736916 -0.0370352336048429 0.500052923051738
-0.267868696236804 -0.046363772923257 0.514201305312196
-0.267809926451944 -0.0468101737583101 0.522751351582413
-0.267763742740064 -0.0471609738777636 0.53213750521307
-0.267664521778654 -0.0479146319034627 0.544533085373601
-0.268228819748151 -0.043628363280856 0.550736923350382
-0.268971543103968 -0.0379868192962924 0.558021303363088
-0.267562077772722 -0.048692771382851 0.573625923101084
-0.268449201666787 -0.0419543964160021 0.585085348331498
-0.26846661703228 -0.0418221135819389 0.588567108745313
-0.267366114553955 -0.0501812598077433 0.602652627755506
-0.268169930543962 -0.044075671195767 0.606832312414055
-0.267645960933524 -0.048055615519192 0.625946945510559
-0.267711894587834 -0.0475547996933061 0.630248120094604
-0.267554265885003 -0.048752108561115 0.645903336439469
-0.268259292692674 -0.0433968982871678 0.645671134014811
-0.268508709569088 -0.0415023890223623 0.649444553160622
-0.267964724051392 -0.0456343692556645 0.665885388826102
-0.267863330054694 -0.046404533123089 0.678092799220716
-0.26788390986017 -0.0462482139810106 0.692923729111659
-0.267718431120256 -0.047505149800275 0.702095214768271
-0.267919745539014 -0.0459760149760466 0.705184796663579
-0.267559654494765 -0.0487111780063514 0.713834194996953
-0.267936321655866 -0.0458501068682968 0.721655229122113
-0.268410181038861 -0.0422507875110614 0.728694373666026
-0.26867529721825 -0.0402370302011144 0.736971084837145
-0.267541367276393 -0.0488500832205121 0.750356589688652
-0.268301848746958 -0.0430736529628206 0.756125148507477
-0.267604752292951 -0.0483686262203048 0.769201287753181
-0.26742902698826 -0.0497033924261266 0.777002742580297
-0.267840344702512 -0.0465791242064571 0.787893878297548
-0.267298502000374 -0.0506948281396754 0.801107385821632
-0.267132752106754 -0.0519538235758211 0.803999772183824
-0.268258836557027 -0.0434003629813813 0.809887007466139
-0.268512284408369 -0.0414752354221903 0.822290481930767
-0.268207743041607 -0.0437884567612718 0.834605760564622
-0.267845110500717 -0.0465429243751384 0.843338260411554
-0.26815028830605 -0.0442248688051708 0.850743194324799
-0.268616856835115 -0.0406809289816564 0.854630494194668
-0.267855840968348 -0.0464614183815031 0.870680974064383
-0.268008773880068 -0.0452997775883371 0.87454076580904
-0.268110325738422 -0.0445284146425851 0.884450738787763
-0.268085029477885 -0.0447205588175984 0.896722618667873
-0.268380836215412 -0.0424736835744522 0.89983431080092
-0.268480344165016 -0.041717845657008 0.907399865102937
-0.268270591830021 -0.0433110728181953 0.924053361017111
-0.267952631624274 -0.0457262203586833 0.92850846883789
-0.261989157572151 -0.0360848783261073 0.938677752683385
-0.259670594303456 -0.0308944030628869 0.941653973293823
-0.256934056569098 -0.0293455377823895 0.944569267055834
-0.24565920128644 -0.0222346214071347 0.956675825226215
-0.242634368544898 -0.0175929787681348 0.960280636043648
-0.245312559421369 -0.0137316290431123 0.958129364737829
-0.238056428349432 -0.0117816314458272 0.965577944363767
-0.232244715689419 -0.00166031270004185 0.972661034212451
-0.228392302815389 0.00294204710844401 0.976313189248533
-0.22456424688572 0.00312339400072024 0.980084825109735
-0.219261826334979 0.00814099555711547 0.984686954292377
-0.217037841849798 0.0126653167598257 0.994886243487514
-0.216504723992959 0.00791563775244862 1.0
-0.208247967268826 0.0275465379458916 1.0
-0.176244561112373 0.0539760668306848 0.986301369863014
-0.175427294397266 0.058459372151948 0.986301369863014
-0.167691292865076 0.0654437158449178 0.986301369863014
-0.159277219417107 0.0788422278953463 0.986301369863014
-0.147421627055805 0.0959335743176493 0.986301369863014
-0.130962681545181 0.110007489786916 0.986301369863014
-0.130499008184429 0.105433335708677 0.986301369863014
-0.112852624227272 0.124781925833246 0.986301369863014
-0.106947141409245 0.132613357375149 0.986301369863014
-0.0894325106952836 0.154228807161603 0.986301369863014
-0.084164978865858 0.157488907633631 0.986301369863014
-0.0738893656047977 0.171126585206549 0.986301369863014
-0.0734150289306271 0.178841998550876 0.986301369863014
-0.053611970094437 0.201303230470807 0.986301369863014
-0.0499955635579623 0.203658021837112 0.986301369863014
-0.0422218045724642 0.206238238871132 1.0
-0.0425731866411324 0.206191978544184 0.99738551544772
-0.270029856958863 -0.0299481274804194 0.206437676748804
-0.269149402949493 -0.0366358396431539 0.217545419687654
-0.270145505204153 -0.0290696918456269 0.217879428981933
-0.269978149386882 -0.0303408854829516 0.237806920435825
-0.269392982750537 -0.0347856673675941 0.249019170621124
-0.269088804138771 -0.0370961333089256 0.253237157560061
-0.268744633124054 -0.0397103717094429 0.265277620347384
-0.268799138770368 -0.0392963602222837 0.278806069863622
-0.269460062038249 -0.0342761495920788 0.281917085959626
-0.26962396948359 -0.0330311489400297 0.290924535660258
-0.270055695062808 -0.0297518675961095 0.300929958642195
-0.268853613234864 -0.0388825855845468 0.305386143816697
-0.269724582174611 -0.0322669196784089 0.318485598185856
-0.269426348929225 -0.0345322260786057 0.329055503379851
-0.270016313018142 -0.0300510039238512 0.337388362453149
-0.269358852836811 -0.0350449098001527 0.344327137380572
-0.269845452706167 -0.0313488168412359 0.353767146945974
-0.270338342611105 -0.027604946318684 0.357482204008749
-0.269625304507324 -0.0330210084280124 0.369902349188802
-0.268920118141764 -0.0383774306644457 0.384749894252062
-0.268968830484208 -0.0380074236889851 0.391413683265279
-0.269801854066174 -0.0316799813902729 0.403496986566832
-0.269847096623829 -0.0313363300468939 0.40680885918671
-0.268879708182863 -0.0386843747759707 0.427171274620486
-0.270470290264289 -0.0266027043893505 0.426837712743051
-0.26955255410072 -0.0335736026281768 0.444709103113777
-0.269906296927045 -0.0308866591002658 0.44997249147384
-0.269201934727137 -0.0362368211770665 0.464227856569352
-0.269550417329401 -0.0335898330177052 0.464916465779354
-0.269571834554392 -0.0334271530428946 0.476306079571713
-0.269572976108015 -0.0334184820822704 0.478582273381292
-0.269384859468783 -0.0348473698183902 0.500673858800922
-0.269552964545455 -0.033570484990889 0.504718834782547
-0.269821583668989 -0.0315301201785483 0.510044611077953
-0.269188159839088 -0.0363414518396159 0.523015931779981
-0.2695874325397 -0.0333086745818458 0.529639141149347
-0.269266927352585 -0.0357431531750246 0.543038530648713
-0.269343573071359 -0.0351609711414191 0.550021780952293
-0.269442586504867 -0.0344088894466425 0.555807870165689
-0.270057220339599 -0.0297402819686537 0.564276735522216
-0.26951781767747 -0.0338374519579354 0.575744191011311
-0.270225465531883 -0.0284623328574202 0.583236592354952
-0.270160629167768 -0.0289548139367998 0.590310584318687
-0.269426333742782 -0.0345323414310911 0.606914431487851
-0.268853013621374 -0.038887140101185 0.620355267588425
-0.269275256911629 -0.0356798838926612 0.616673789259202
-0.270309643601454 -0.0278229369392654 0.629638058730833
-0.268888340877205 -0.0386188029524101 0.639638574973224
-0.268969593891499 -0.038001625034916 0.656046764189255
-0.269870050839719 -0.0311619754671466 0.662341106105161
-0.269514810581764 -0.0338602931175142 0.676057510236077
-0.269233467445541 -0.0359973064015655 0.684764899139527
-0.268998984535556 -0.0377783809294491 0.689796552376033
-0.269474242868436 -0.0341684354928656 0.690743251113219
-0.269310455823323 -0.0354125216143929 0.709954019095537
-0.270031669655424 -0.029934358683057 0.714017344179282
-0.26937516986174 -0.0349209696909391 0.729642263642576
-0.270171987531559 -0.0288685385983235 0.73735916272546
-0.269603508248282 -0.0331865674522703 0.745911935061852
-0.269668559928979 -0.0326924508810766 0.757606605691131
-0.270059440408411 -0.0297234188718455 0.762961049379261
-0.269567592678062 -0.0334593732924757 0.775954718398873
-0.268749456279216 -0.0396737362087784 0.785742151353234
-0.270261174376806 -0.0281910972517308 0.78324600621904
-0.270095058999856 -0.029452868809386 0.794073968782602
-0.26900100710657 -0.0377630179773476 0.807878581434553
-0.269683172023341 -0.0325814610052269 0.824601748476266
-0.269841741457406 -0.0313770065742792 0.828390712276189
-0.269931142373891 -0.0306979391952045 0.830908922287537
-0.26983925256727 -0.031395911571763 0.847480023734954
-0.269771454178018 -0.0319108914657573 0.85693405975595
-0.270496035872274 -0.0264071470816092 0.863035685446794
-0.269113933278935 -0.0369052585391794 0.86999353664326
-0.269861442283341 -0.031227363944656 0.878702596132693
-0.270086178212752 -0.0295203250845589 0.88885226547386
-0.269360006525149 -0.0350361466672142 0.896355939576575
-0.269373032731844 -0.0349372028041378 0.908185538260461
-0.269416067918474 -0.0346103181083018 0.925995945991807
-0.269568537603171 -0.0334521958736967 0.926553231454649
-0.266414364481349 -0.024768264800192 0.935767518505109
-0.259190246040871 -0.0261963291496269 0.942743433809099
-0.257415583993127 -0.0221678016848148 0.945028741727246
-0.253397860995491 -0.0154312365765219 0.949891390739904
-0.24716542519109 -0.0140404748164936 0.956252038028841
-0.24357903894879 -0.00373652568700254 0.961152677484373
-0.242454635162681 0.0043590020528595 0.962186212370437
-0.234812278406963 0.00209507118085734 0.970058689980851
-0.231743985757383 0.00799810305065103 0.972330232688951
-0.222973675461457 0.0173014876068542 0.97981117640362
-0.221519831616415 0.0167455875280989 0.981325141933562
-0.218573366030997 0.0207454829881347 0.983724308973762
-0.214962584000988 0.0284284650998891 0.994159156523579
-0.214160006904127 0.0277898896559851 1.0
-0.188748146808815 0.0571178933691727 0.986301369863014
-0.180574922970314 0.0693016173554041 0.986301369863014
-0.178812851058027 0.0763222112361441 0.986301369863014
-0.166256818437398 0.0839963517139525 0.986301369863014
-0.149512439446254 0.097318936832067 0.986301369863014
-0.141929863906897 0.114508607746035 0.986301369863014
-0.126178972618895 0.123053578039254 0.986301369863014
-0.116098917830574 0.136603628545236 0.986301369863014
-0.11983143697182 0.137018594249126 0.986301369863014
-0.102296690528987 0.150954502190704 0.986301369863014
-0.090760326807322 0.16863507725743 0.986301369863014
-0.0825284754683391 0.167342824450173 0.986301369863014
-0.0692746002517031 0.191474274897599 0.986301369863014
-0.072906926190866 0.19708697331374 0.98984245923556
-0.067943317127496 0.201195018988602 1.0
-0.0552226801497823 0.205381813113687 1.0
-0.270250011613473 -0.028275886857225 0.205776830054524
-0.270674929294732 -0.0250483166322371 0.207467458520593
-0.271588798646738 -0.0181067897432392 0.218411017959124
-0.270830762667142 -0.0238646446528564 0.232998716043852
-0.272117827872623 -0.0140884138249741 0.22696339598049
-0.271212233505322 -0.0209670859648586 0.248630770793238
-0.271261999565801 -0.0205890752063065 0.247658877507665
-0.27118010744797 -0.021211107597118 0.258289041199476
-0.270936238759722 -0.0230634741888439 0.271952157777402
-0.271882389018973 -0.0158767494658773 0.278688309369623
-0.270246362155957 -0.0283036072391672 0.29111664458105
-0.271270037470239 -0.0205280212606139 0.305540528983325
-0.270754404820244 -0.0244446400824613 0.316703102190449
-0.272098159320994 -0.0142378113069071 0.31248809268309
-0.270665552183284 -0.0251195428650782 0.331959865971093
-0.271605915703863 -0.017976772786187 0.333392266522246
-0.271240254437521 -0.0207542458538684 0.349770548257218
-0.271910354503877 -0.0156643305189106 0.351952098930678
-0.270244839006315 -0.0283151767093223 0.367771861768808
-0.270637233789255 -0.0253346424229893 0.376832587699798
-0.271779851678404 -0.0166555978922147 0.378896862620204
-0.271775136935514 -0.0166914099199123 0.392080451334071
-0.271497608803178 -0.0187994453725013 0.39571824943575
-0.270425086647223 -0.0269460599495857 0.420438818711067
-0.270675410285132 -0.0250446631474249 0.423632733916352
-0.271603636242047 -0.0179940870176502 0.428686262039599
-0.270825926025305 -0.0239013825949744 0.437197915031411
-0.270241370048011 -0.0283415260636272 0.451247996198089
-0.272031189219292 -0.0147464997323306 0.457627287578359
-0.270846003860701 -0.0237488762941921 0.472091121363347
-0.271780924804263 -0.016647446692061 0.472967408998532
-0.270765921791457 -0.0243571600010125 0.488887978537536
-0.271375382922251 -0.0197278431102365 0.493598752540805
-0.2716445329979 -0.0176834453161843 0.501642256312308
-0.271945932912919 -0.0153940856721055 0.512249693448632
-0.271262863936764 -0.0205825096570043 0.529672928041803
-0.271363727612486 -0.0198163739773148 0.536667688171096
-0.270402224078193 -0.0271197184023292 0.542680324877041
-0.272034029047073 -0.0147249290987892 0.553053878281611
-0.271348797092866 -0.0199297825331254 0.558937963699133
-0.271235609320754 -0.0207895290186587 0.574838022912241
-0.271245663590908 -0.0207131592547781 0.582523994286735
-0.271177633886595 -0.0212298961611037 0.591185504480573
-0.270735566941615 -0.0245877279765372 0.596382573884256
-0.271187399701971 -0.0211557174287945 0.613109537559624
-0.27077664804786 -0.0242756859948198 0.615019710818437
-0.271775514294659 -0.01668854359264 0.627350996465314
-0.270772402173011 -0.0243079366161681 0.640542149956809
-0.270534103710942 -0.026117993139484 0.644863922199716
-0.271696807951069 -0.0172863776256618 0.646763674904617
-0.271686400545561 -0.017365429718847 0.659723627538755
-0.271344232838409 -0.0199644514876903 0.667507036012482
-0.270951748834672 -0.022945663473257 0.680885477580417
-0.270564908599549 -0.0258840067801609 0.689682695677984
-0.270254867496828 -0.0282390027612659 0.702050397105783
-0.271700683584747 -0.0172569392652147 0.701695358960653
-0.272270929961155 -0.0129254880063403 0.713379129550942
-0.270629448522737 -0.0253937773931646 0.73282681549439
-0.27085487036653 -0.0236815284960789 0.743858813515379
-0.271023608038443 -0.0223998386306748 0.753135613623643
-0.271316731452922 -0.0201733452496125 0.755335930298236
-0.270616174185872 -0.0254946059920045 0.768428869279253
-0.271148786430474 -0.0214490143445777 0.774021520407631
-0.271099828656242 -0.0218208855595512 0.780004956567643
-0.270838560989547 -0.0238054105133745 0.792523983868784
-0.271580445099125 -0.0181702412368823 0.797778047758113
-0.270439946136124 -0.0268331909256532 0.812360820204415
-0.27148076072829 -0.0189274192066237 0.819018381843598
-0.272033422679507 -0.0147295349177225 0.83228286088928
-0.271366495146221 -0.0197953524715706 0.840473672645768
-0.270252254762928 -0.0282588484455293 0.853882121359318
-0.27136436909222 -0.019811501454989 0.859619904189949
-0.271524365578699 -0.0185962074847924 0.865263375426229
-0.271395574578796 -0.0195744722519897 0.877224048031051
-0.27094800708265 -0.0229740849015632 0.889614193414665
-0.272271526080013 -0.0129209600340747 0.891948709890084
-0.27056942633556 -0.0258496911682725 0.90649747708335
-0.271405557202839 -0.0194986466943618 0.917295216201983
-0.271115878480023 -0.0216989750445641 0.924809151837688
-0.271394906426426 -0.0195795473731065 0.925177938622155
-0.267226373852527 -0.0177277814272863 0.935881423472721
-0.264893341869448 -0.00393686709066971 0.939994571579357
-0.256262876374844 -0.00948661909861573 0.947826814247883
-0.249477979155891 -0.00360074869965553 0.95532192598164
-0.252650397491763 0.00868960713855048 0.951512418809636
-0.247702083791565 0.0128683268481019 0.95587296662812
-0.239780326908521 0.017331068386752 0.963144447122965
-0.233943581958615 0.0205772557998612 0.968507545428432
-0.226199747946215 0.0247632107607028 0.975638753105516
-0.222482470391745 0.0323798037609021 0.978330063953189
-0.218220688307598 0.0322283576867307 0.9825751535802
-0.215210811215907 0.0452537503104866 0.983859125854773
-0.212122853335822 0.049998360978859 0.991337394622603
-0.208602633189702 0.041236792073035 1.0
-0.1797095372242 0.076615194258253 0.986301369863014
-0.177976986361492 0.0826949310772462 0.986301369863014
-0.169421983173632 0.0876870283843433 0.986301369863014
-0.159099113441088 0.105094192579167 0.986301369863014
-0.145831957434883 0.119747439004939 0.986301369863014
-0.139608365725719 0.128767732594902 0.986301369863014
-0.134484620003955 0.133695946178036 0.986301369863014
-0.125556882254725 0.148498761337894 0.986301369863014
-0.109550587596108 0.161538301563859 0.986301369863014
-0.095408775699038 0.177308237992233 0.986301369863014
-0.0875184081093312 0.189318097722144 0.986301369863014
-0.082635152725569 0.193057409945228 0.992589832494359
-0.0897376291315599 0.190115467891432 0.999283327773167
-0.0755349792031491 0.198951457139332 1.0
-0.27252383886001 -0.0110044541977211 0.19558399311265
-0.273233933537584 -0.00561074963011326 0.193428320833544
-0.273716340830137 -0.00194650245369512 0.205549937589732
-0.272412157999394 -0.0118527545540534 0.220892671451287
-0.27314755543543 -0.00626685645479672 0.224038570940342
-0.273817472525282 -0.00117833096436714 0.231752967085472
-0.27220854907987 -0.0133993178419187 0.251689618275966
-0.272504018634816 -0.0111550037547465 0.257457721348803
-0.272909068396228 -0.00807834536364896 0.263162458551258
-0.272279999828771 -0.0128565955221009 0.27335767566232
-0.272576031772361 -0.0106080096690746 0.28690962480054
-0.272252520378164 -0.0130653226720647 0.30223380236803
-0.273128233751304 -0.00641361921646249 0.300004896733593
-0.27226836149552 -0.01294499743975 0.320687615411572
-0.27301481309817 -0.00727513460897368 0.314490618172222
-0.272758470561306 -0.00922224948762136 0.329928071951932
-0.272885416904964 -0.0082579962756855 0.341404489741834
-0.27313525058321 -0.00636032108665591 0.350733959506254
-0.273423825321622 -0.00416837833052714 0.350852574853966
-0.27278472639694 -0.00902281661612246 0.362888928274835
-0.27329053077762 -0.00518085091133674 0.375876226706223
-0.272681188247813 -0.00980926693817659 0.386577831271684
-0.272998143300839 -0.00740175429060505 0.396360850481299
-0.271873013132361 -0.015947966395174 0.412628490821591
-0.272464790236543 -0.0114529730222698 0.409466187476456
-0.272386411739982 -0.0120483168098723 0.421189223628682
-0.272953007135072 -0.00774459750736507 0.425623219583285
-0.272875556062841 -0.00833289680779515 0.446775317175521
-0.273169633434238 -0.00609915740455202 0.451851623463904
-0.273302227699523 -0.00509200396869147 0.462989405410763
-0.272831727793144 -0.00866580556760654 0.479606454670829
-0.273245705952909 -0.00552132925799031 0.47255603889483
-0.273681867797523 -0.00220835113295127 0.486469388179788
-0.27246280618942 -0.011468043356364 0.498772263163279
-0.27334666276294 -0.00475448615298777 0.502108953894052
-0.273435060352133 -0.00408303980132002 0.5201528422081
-0.273208439879135 -0.00580439319112159 0.522240762786968
-0.272973633472536 -0.00758792491973914 0.537671874324268
-0.272971414937667 -0.0076047763650968 0.538229487087872
-0.272707292100683 -0.00961098849038366 0.555261706589488
-0.272820371594773 -0.00875206445808337 0.566291147794942
-0.272138885221727 -0.0139284673789104 0.57885116805759
-0.272678895684925 -0.00982668068216181 0.57487602524243
-0.273431612007295 -0.00410923258080533 0.588616250060984
-0.272019573499387 -0.0148347298845771 0.597882906105138
-0.272004596802554 -0.0149484891911403 0.617935966186985
-0.272546500274618 -0.0108323236645047 0.620216834108274
-0.272035272462878 -0.0147154844180743 0.630328918658287
-0.271976002251535 -0.0151656863696484 0.643816176191246
-0.272785130722905 -0.00901974545551137 0.650356128487686
-0.272088809349302 -0.0143088313928381 0.658441722836326
-0.272086730561181 -0.0143246213562544 0.669928795618441
-0.272557094695734 -0.0107518510467493 0.674026228661926
-0.272299770761672 -0.0127064203772001 0.692357466855032
-0.272794195018002 -0.0089508952987466 0.684493767664887
-0.272557045572429 -0.0107522241752891 0.703370449265798
-0.272555901032369 -0.0107609178201631 0.713309021123049
-0.273525385230098 -0.00339695423804197 0.718861067905049
-0.272209566054573 -0.0133915931521332 0.735076153259812
-0.273004322222898 -0.00735482071796674 0.737587014131345
-0.272340605836784 -0.012396247187476 0.755877682957548
-0.27261493710288 -0.0103124943447777 0.762001765222885
-0.272571688211463 -0.0106410022896288 0.772586657588542
-0.273003814985493 -0.00735867356856898 0.776275555913456
-0.272325473649374 -0.0125111875622255 0.789452481489422
-0.273095571203187 -0.00666171590065214 0.797682336825706
-0.272414591172101 -0.0118342727724642 0.807324984729534
-0.272564311144111 -0.0106970366793054 0.813781857848377
-0.272156467826427 -0.0137949142369511 0.824859001869889
-0.272968149485211 -0.00762957993901829 0.83119081171874
-0.273357719850907 -0.00467049923158572 0.841339790241858
-0.272180953945318 -0.0136089236986819 0.858047695209043
-0.271871500198229 -0.0159594582708347 0.862518302996646
-0.272807202980081 -0.00885209001728848 0.879255449796586
-0.272939694459714 -0.00784571731596959 0.885845673318345
-0.272165122261743 -0.0137291772743059 0.890292182089817
-0.273546107268293 -0.0032395547311941 0.897781754375999
-0.273111614092173 -0.00653985806065627 0.91051856502303
-0.272490953483605 -0.0112542434307974 0.922035425399912
-0.273113993705823 -0.00652178310049568 0.930268722622353
-0.271029146198292 -0.00120650123177291 0.934267644166059
-0.26272850618951 0.00113425514476408 0.942506701055519
-0.264974455313579 0.000420098293211684 0.940373182512034
-0.258565605211909 0.00746034355911805 0.945808267605798
-0.249968331454361 0.0164180008592367 0.953162781595945
-0.243897179461917 0.0268288124327865 0.957823110448857
-0.243435119717534 0.0204176711917527 0.959118039062051
-0.237207988233707 0.0316511587383258 0.963825632217984
-0.230246570291603 0.0384468147613535 0.969840483160236
-0.229835852803901 0.038706720856958 0.970213762349901
-0.220800702184956 0.0508186717544949 0.97759068917178
-0.216704246553452 0.0540170041022434 0.981234632914674
-0.211348903003953 0.0558770973951943 0.991283223458533
-0.20632685013534 0.0684980130600298 0.99126639449225
-0.207773302414391 0.0650059683506196 0.998117142018101
-0.196136634584632 0.080215814344291 1.0
-0.176362226278256 0.09890002951252 0.986301369863014
-0.168827887584778 0.105984451757212 0.986301369863014
-0.154634954542948 0.127529711461685 0.986301369863014
-0.145135130962376 0.130457638258276 0.986301369863014
-0.137315892256458 0.146954451922954 0.986301369863014
-0.124318577859239 0.162187433186488 0.986301369863014
-0.117061513015432 0.173455354188157 0.986301369863014
-0.10792783225722 0.177275849597893 0.986301369863014
-0.0969855095829033 0.187113297510026 0.992532356308809
-0.0995267233297767 0.190223963895254 1.0
-0.0996506171943216 0.18897748837011 1.0
-0.273431608132141 0.00410926201553009 0.187282784990319
-0.273972602739726 -4.86673106685e-017 0.190949858734195
-0.273825683170735 -0.0011159649204009 0.200254455702162
-0.273428658266528 -0.00413166846938892 0.217953138216131
-0.273478221984919 0.00375519465157666 0.214774316787364
-0.273120781085145 0.00647022783609607 0.225062926555424
-0.273808094885604 -0.00124956120952198 0.238308173770741
-0.272945592564225 0.00780091676436838 0.240747757412477
-0.272831104005943 0.00867054370179931 0.243758755447101
-0.273535185407663 0.00332251449899136 0.262589881243508
-0.273451734711519 -0.00395638546743514 0.278793641364471
-0.273903309749751 -0.000526332513583534 0.286336242135436
-0.273413739671913 0.00424498644579308 0.283476061792582
-0.272761276157169 0.00920093887131102 0.300419239987707
-0.273674878598805 0.00226143936785535 0.317577020333976
-0.273894610913272 0.000592406736543467 0.322141579083852
-0.272750449345542 0.00928317667025607 0.319843707333854
-0.273370307710157 0.00457488494792316 0.345286682682564
-0.273175828922807 0.00605209799676935 0.350265091522912
-0.273118489283714 0.00648763579623656 0.355189379106032
-0.271820500888073 0.0163468364906947 0.357797337866455
-0.27297321389068 0.00759111196035441 0.37695224853245
-0.273635876269703 0.00255769146953521 0.392001080793642
-0.2729783174439 0.00755234662499292 0.389738803488734
-0.273219772777994 0.00571831127801123 0.400012527266877
-0.273271113332719 0.00532834104831055 0.417136825153205
-0.272941684603093 0.0078306006762139 0.4191543484396
-0.272141036502798 0.0139121267768726 0.425447950099886
-0.272406910686613 0.0118926118516974 0.44069303245102
-0.273793265247361 0.00136220349519789 0.458340977368187
-0.273513827137574 0.00348474666686819 0.457893871077828
-0.273172656929919 0.00607619167480203 0.468649529740583
-0.273484428931149 0.00370804821422632 0.481696629312678
-0.272009458570282 0.0149115603989263 0.479129590628251
-0.27338412628444 0.00446992245547723 0.490083377460215
-0.273227825355559 0.00565714587885339 0.514427709422997
-0.273841695098687 -0.000994342252805208 0.517718540514043
-0.273060421707859 0.00692870282435433 0.521900959955811
-0.272958804874225 0.00770055930635895 0.534539183785888
-0.272253817457092 0.0130554703794579 0.540129393073568
-0.27384075862732 -0.00100145545903985 0.556741530749469
-0.272857277292176 0.00847173785525705 0.561612815333682
-0.273832047635105 -0.00106762201398036 0.579302872774145
-0.273338309746026 0.00481793361557303 0.582724584884055
-0.273546036057561 0.00324009563040744 0.598171836227902
-0.273302833904277 0.00508739938643599 0.605582868844207
-0.273770246464843 -0.001537048507177 0.615321570545464
-0.272751467259393 0.00927544484693762 0.612073350831144
-0.273454495642481 0.00393541411473067 0.633866035289284
-0.273118123106285 0.0064904171899462 0.638433486328316
-0.273589516527772 -0.00290982866997507 0.657603223580211
-0.273208004428659 0.00580770076587013 0.654626212604104
-0.273716903259753 -0.00194223037662523 0.666431129964515
-0.272898824483283 0.00815615560753392 0.67105558782351
-0.273495181363498 0.00362637538198979 0.682536108290117
-0.272856415791399 0.00847828160332768 0.694179817560795
-0.27221619842474 0.0133412152991696 0.699420847717954
-0.273862353802311 0.00083742381979084 0.721646906278136
-0.27384679633303 0.000955594531070663 0.722512670287072
-0.273531624097357 -0.00334956533639587 0.7365030020318
-0.272363937223376 0.012219027711818 0.740531330331354
-0.272380830200551 0.0120907128109604 0.743016256916156
-0.272602185978845 0.0104093487476185 0.75969003248031
-0.272297102105513 0.0127266908332014 0.76512486655034
-0.271811143031188 0.016417916470618 0.776838225373467
-0.273712743972075 -0.0019738233031098 0.794931665237557
-0.27341418704583 0.00424158830352301 0.797993398828653
-0.273466246289659 -0.00384615908809761 0.817667252011703
-0.272331418231367 0.0124660339791102 0.816796052569313
-0.273571784993396 0.00304451304514335 0.830386611567188
-0.273495185315103 0.00362634536656999 0.83756417276543
-0.273007008327041 0.00733441773137622 0.847511913060989
-0.273507563609592 -0.00353232288529336 0.86308608061493
-0.273564703162215 0.00309830489345343 0.865503581332665
-0.273861765929994 -0.000841889153359704 0.87341841966481
-0.272830733596043 0.00867335724432766 0.876973016839953
-0.273462951193342 0.00387118782950392 0.897926626672552
-0.273905330279973 0.000510985062844483 0.905534232578192
-0.273778771508269 -0.00147229437351536 0.915204873673234
-0.273582457349597 0.00296344845163719 0.923565371749702
-0.27232890505137 0.0124851234764085 0.926455298790651
-0.269303410767929 0.0103493562550457 0.934785233638375
-0.262809465689183 0.0104399430541026 0.941211798166795
-0.260875583745879 0.0127664041119772 0.942825471378755
-0.257670293637052 0.0296411646488747 0.943800741548857
-0.252464381658467 0.0344806896566735 0.948330431457368
-0.246333485577708 0.0450358426952467 0.953031152937828
-0.239187776176386 0.0368024866929289 0.961190398412815
-0.231878931945089 0.0550891821489619 0.966049821742351
