ply
format ascii 1.0
element vertex 844
property float x
property float y
property float z
end_header
0.0967540330591136 -0.227062795070424 0.75453835022504
0.0976318229987022 -0.226699202572531 0.770076144269707
0.0968969431716793 -0.227003599763599 0.770073645695709
0.101423213128259 -0.225128757360622 0.781207804761592
0.0957191121797215 -0.227491473334651 0.787632470870214
0.0933384842991255 -0.228477561689758 0.803427163488865
0.0971473447704464 -0.22689988002535 0.806415762135034
0.0947553578143074 -0.227890673463602 0.819450038567271
0.097062590714284 -0.226934986304878 0.836295769311817
0.0979989146333297 -0.226547148238836 0.835480116608505
0.0987412289777063 -0.22623967156985 0.845657580924093
0.0956632052382558 -0.227278999510522 0.851298017905921
0.0922948564852524 -0.223975994828418 0.86443215128911
0.0874471912076999 -0.225202965957881 0.866615472930045
0.0886153918361238 -0.219245450869871 0.881917307934534
0.0887460169698507 -0.219768410360582 0.880304087678627
0.0800337583868981 -0.219618744161216 0.890810906640807
0.0801214956118334 -0.216771319065896 0.89866944406852
0.0838457072134314 -0.212740287920523 0.905625937105521
0.0805095424648513 -0.211665557999544 0.912493538246993
0.0749392229861243 -0.210769162639989 0.921449649933684
0.0729365976404915 -0.208796282158039 0.92928389933849
0.0749164187998841 -0.205439476079019 0.936375487884392
0.0694918278248387 -0.204327548177971 0.945765385327446
0.0741904935959479 -0.200901383764666 0.949902564362551
0.0694111685507455 -0.198662996343721 0.961694351244159
0.0691250859296214 -0.199444688964355 0.959840357873277
0.0661031929804211 -0.19634149987645 0.972014714935232
0.0683914118786584 -0.192943660608624 0.98288852722681
0.0627720938398782 -0.195271258351574 0.988041878721075
0.0652099111824272 -0.191866076634483 1.0
0.0130925110620198 -0.148048017012018 0.962659824457922
-0.0011143611964512 -0.133907472894358 0.962659824457922
-0.00267120902985067 -0.131107651688505 0.962659824457922
-0.0111255363888563 -0.123464712123816 0.962659824457922
-0.026329489326482 -0.114324750067911 0.962659824457922
-0.0319220998700575 -0.107367652347808 0.962659824457922
-0.055090687791133 -0.0907404628419846 0.962659824457922
-0.0572324596800913 -0.0862175114048313 0.962659824457922
-0.0748753597643436 -0.0758573480952204 0.962659824457922
-0.0789425587309807 -0.0587691432725709 0.962659824457922
-0.0949883637290695 -0.0545401677240226 0.962659824457922
-0.107702136552085 -0.033809279957056 0.962659824457922
-0.112269333191534 -0.0325653368215078 0.962659824457922
-0.12566111882917 -0.0200896432777508 0.962659824457922
-0.128756850930563 -0.0107460884455319 0.962659824457922
-0.14012211105392 -0.00640752774374873 0.962659824457922
-0.157908813159573 0.014323009528013 0.962659824457922
-0.172695618042002 0.0202046847598664 0.962659824457922
-0.175984797312027 0.0339948687810753 0.962659824457922
-0.203952005130696 0.0540207629119929 0.953530041995798
-0.202008323904808 0.053862593813282 0.963747335363152
-0.199387402300632 0.0552348857457157 0.974045835761691
-0.199901696984825 0.0477869525229607 0.990247415276785
-0.194146118968902 0.0466653909302926 1.0
0.0837198553886344 -0.232461728235917 0.215702985997431
0.0903745554073225 -0.229705261234651 0.223524763155903
0.0863029345975882 -0.231391781794885 0.23809957120446
0.0878424476764198 -0.230754094598182 0.24242157647879
0.086876389672304 -0.231154248925526 0.250203137024473
0.0878466579887135 -0.230752350629728 0.258521108178787
0.0815267719947651 -0.233370133121073 0.267319770846033
0.0890889915738853 -0.230237759209758 0.28523828776942
0.0900452174760887 -0.229841677472373 0.289367043361658
0.0871989550293541 -0.231020637979883 0.302551321716244
0.0895556353731475 -0.230044469019307 0.309587706484339
0.0846985859453197 -0.232056324765429 0.311568660984041
0.0844023682186175 -0.232179022165244 0.328827298660581
0.0862548177570223 -0.231411712442825 0.333323491457937
0.0890232365267042 -0.230264995842095 0.341439415430681
0.0866956801399005 -0.231229101264697 0.352048972377933
0.0860725296712695 -0.231487218640203 0.360082177291046
0.0887913420796107 -0.23036104966712 0.377919026028089
0.091965457634865 -0.229046287955594 0.387257088096017
0.0857343153396356 -0.231627311603354 0.391356050088576
0.0889839057033091 -0.230281287202564 0.400907086357131
0.08630753397031 -0.231389876672325 0.417337618458846
0.0835682569252697 -0.232524522375477 0.419130673407435
0.0895925095443024 -0.230029195237512 0.424606425193349
0.0873547158057658 -0.230956119753808 0.446162086188681
0.0864971049449878 -0.23131135380358 0.443793840938361
0.0885645124527951 -0.230455005574895 0.456811292535557
0.0852914656707722 -0.231810745942291 0.463323330116578
0.0855315307055835 -0.23171130774902 0.478354909025123
0.0883544833171148 -0.230542002491387 0.481778571871809
0.0894353352744674 -0.230094298951734 0.499236238303865
0.0858836764793172 -0.231565444193607 0.502808933892685
0.0832663742008769 -0.232649566294167 0.510057524334749
0.088038820902718 -0.230672754144562 0.518731679716668
0.0876660584866451 -0.230827157392842 0.524783457461418
0.089034760726303 -0.230260222362325 0.533811916998057
0.0906981493256569 -0.229571224244976 0.550183034919048
0.0863446306228449 -0.231374510735726 0.556023847539922
0.0888516304943503 -0.230336077388081 0.571171507654096
0.083558884752692 -0.232528404456468 0.570678683552944
0.0851050414727111 -0.231887965373482 0.585794482797651
0.0860473352561304 -0.231497654508649 0.590533634446808
0.0897791645728819 -0.22995188019319 0.60792764549716
0.0905933188552145 -0.229614646447583 0.61102785680531
0.0875894776997554 -0.230858878193389 0.62057660944432
0.0864361604010122 -0.231336597860248 0.624131083471122
0.0878906360768873 -0.230734134309158 0.642226056964879
0.0894410357711713 -0.230091937728687 0.650510564520499
0.0849816009329973 -0.231939096119178 0.654193417897069
0.0881423266280303 -0.230629880669354 0.665153602315362
0.0847350174482173 -0.232041234342831 0.675585761478038
0.0846560073513806 -0.232073961396505 0.680678963857509
0.0832575608590057 -0.2326532168999 0.695734209915601
0.0826251224705877 -0.232915181457748 0.704974267482529
0.0884005565236272 -0.230522918344388 0.715371495157636
0.0861015497574147 -0.231475198126941 0.721529244581316
0.0924180554243427 -0.228858815812892 0.740397906016168
0.0925100697251115 -0.228820702241582 0.744934203411792
0.0870730187418814 -0.231072802498149 0.754182817191358
0.0872284418444628 -0.231008424141154 0.760284359529196
0.0883253347213377 -0.230554076235082 0.774957975201261
0.0891240057106355 -0.230223255879441 0.780231067704999
0.0878196337699441 -0.230763544427654 0.795476164307452
0.0868531506192737 -0.231163874856467 0.793335702435572
0.090247644530488 -0.229757829441049 0.81368843604409
0.091645497406407 -0.229178819821641 0.819819939622368
0.0865365034784084 -0.2312950343967 0.825976537852792
0.0868399106835911 -0.231169359017392 0.827258731958224
0.0840299775834602 -0.232333271416828 0.844097124560862
0.089926621343585 -0.228858887473321 0.853524070481407
0.0835043292128585 -0.229016878986929 0.860519133224389
0.0878810978452702 -0.22356478408118 0.870692655265197
0.0823171294785891 -0.223993523065455 0.875936926754089
0.0768053996486523 -0.223429740902953 0.883895355687827
0.0813868161889806 -0.219443852648561 0.889733043023327
0.074219556094872 -0.219416823505149 0.898107981883802
0.0704000054820844 -0.220180946509102 0.900394708552211
0.0675069300271665 -0.218778074677232 0.907666570188724
0.0682264917756048 -0.216070132141304 0.91440355096661
0.0655363837945313 -0.212199992008436 0.928337769172016
0.0677557401281033 -0.209198671173968 0.934158207801631
0.0650708856525752 -0.208429396660601 0.93941770241882
0.0564803041729801 -0.208677201776212 0.948672471649321
0.056903066385205 -0.205494941629336 0.957079114410652
0.0549465443896265 -0.204594168148721 0.961862844085979
0.0568689434929615 -0.200385184714163 0.971403233522035
0.048824726841469 -0.199992444268014 0.978181784171102
0.054819545500805 -0.198565311729046 0.989956404920981
0.0525220943503954 -0.199278303736812 0.995534667876163
0.0475596815521267 -0.195572641632756 1.0
0.00122536042861164 -0.149612568882566 0.962659824457922
-0.00767488185637575 -0.140841228694838 0.962659824457922
-0.0209285182246296 -0.132316715192904 0.962659824457922
-0.0309731942540204 -0.11582555454326 0.962659824457922
-0.0389806013996842 -0.110500373865291 0.962659824457922
-0.0537045898483518 -0.0980589164622724 0.962659824457922
-0.058188637388173 -0.0903668697233595 0.962659824457922
-0.0804432909072999 -0.0758917167790388 0.962659824457921
-0.0920679590070162 -0.0645636620729745 0.962659824457922
-0.0910442527263131 -0.0635830503611088 0.962659824457922
-0.106904262446479 -0.0542244950866003 0.962659824457922
-0.117970600925639 -0.0371744990512756 0.962659824457922
-0.136309511352722 -0.0252431160291779 0.962659824457922
-0.147115434017551 -0.0140739848562776 0.962659824457922
-0.147589513311534 -0.00500705250287232 0.962659824457922
-0.17055352585608 0.00428942058324089 0.962659824457922
-0.175019954785086 0.00880546967245733 0.962659824457922
-0.190088207745486 0.0332610953429331 0.962659824457922
-0.203959447602982 0.0375759578865896 0.964751392597376
-0.201641352318579 0.0396755756473771 0.975370047458024
-0.201392768048103 0.0364611433617028 0.981941674992349
-0.200426143278365 0.0438033874319006 0.984618791388963
-0.201562584298156 0.0339720011686345 1.0
0.0807900793171762 -0.23367528121943 0.214733632277323
0.0791051315968586 -0.234373209417076 0.220002537255028
0.0789556033906419 -0.234435146028049 0.231134280333442
0.0837268206974667 -0.232458843110532 0.240074430776179
0.0792010840350687 -0.234333464615827 0.24340751985446
0.0803273306958033 -0.233866957974373 0.261374814096753
0.0828066664829168 -0.232839983465673 0.265282601908845
0.0775717837132287 -0.235008342906312 0.271688122034009
0.072347955939124 -0.237172123217847 0.286243600519232
0.0778054716837692 -0.23491154617955 0.292285190571692
0.0796172821409027 -0.234161069715756 0.30894062452448
0.0808714894077962 -0.233641560055782 0.314548923239148
0.0749532330444061 -0.2360929821071 0.318651869377491
0.0786812636297381 -0.234548781277713 0.32871690038743
0.0804231320937531 -0.233827275736048 0.342415008935616
0.0759172710538684 -0.235693664488937 0.351216246794179
0.0788542859527888 -0.234477113084912 0.354006589990212
0.0771011356125492 -0.235203291732718 0.364394814335445
0.0814414448333981 -0.23340547678855 0.385804664449318
0.0802301797287591 -0.233907199222521 0.383894770752944
0.076268664628711 -0.235548112504506 0.402114806890513
0.0769102493739139 -0.235282359401632 0.411104814270523
0.0770448879526505 -0.2352265902763 0.412537198551568
0.0780974758969643 -0.234790594074175 0.418469495237565
0.0780538368400241 -0.234808669963409 0.434977278511873
0.0799583105684641 -0.234019811115905 0.447722365180302
0.0789537215060381 -0.234435925530174 0.455491643580743
0.0798422854314341 -0.23406787030124 0.460746907374186
0.0840240968530384 -0.232335707295125 0.478168420281653
0.0808248239129198 -0.233660889536655 0.482348451041057
0.0735720817720489 -0.236665073695798 0.483533224058135
0.0780162710913349 -0.234824230205996 0.499900255987497
0.0736980028543615 -0.236612915475716 0.508984836294214
0.0765385657184801 -0.235436315812625 0.520644021358161
0.0788656989305247 -0.234472385674747 0.526304658047089
0.0775780021248606 -0.235005767155877 0.535977572772929
0.0732414738660585 -0.236802015974288 0.546701752187626
0.0744209542112719 -0.236313459218747 0.553445749735095
0.0774666302095243 -0.235051898913677 0.567184326807839
0.0760985670070801 -0.235618569246313 0.567386664682558
0.0757857807446819 -0.235748129558323 0.581839245830522
0.0760911075339709 -0.235621659061243 0.590512436645386
0.0790185954484281 -0.234409053863391 0.601894688175731
0.0765044642875336 -0.235450441087819 0.611671038524397
0.0749792754053953 -0.236082195007982 0.621711650673474
0.0797292033126607 -0.234114710448498 0.624616939542302
0.0760400170826842 -0.235642821419074 0.639405350331895
0.0828602633314093 -0.232817782924128 0.64912949336774
0.0787336795136209 -0.234527069907725 0.651652852550155
0.0773866822768835 -0.23508501443166 0.66671077214894
0.0731628140586384 -0.236834597933334 0.671178418503198
0.0778061898087795 -0.234911248722432 0.685544418491428
0.0787581190169745 -0.234516946733979 0.699489698248457
0.0820352317605266 -0.233159522190174 0.710028289562936
0.0756848384584762 -0.235789941222286 0.70938736235801
0.0767082921185133 -0.235366012835838 0.724215603453473
0.0790056489607887 -0.234414416474156 0.731368280716798
0.0792967720329254 -0.234293829349358 0.741811229204526
0.0782369324492585 -0.234732829278853 0.754288597198062
0.0796490870362627 -0.234147895696748 0.755922241096936
0.0808910236670159 -0.233633468700682 0.76726836882553
0.079841735919755 -0.23406809791643 0.779337740820627
0.0803376997287308 -0.233862662980306 0.783162680472103
0.072254371479668 -0.237210887170181 0.795800736067957
0.0799932273451526 -0.234005348113447 0.80523981055771
0.0769233550976487 -0.235276930833116 0.812492213320896
0.0761821873849269 -0.235583932551718 0.826468769756772
0.077093444350268 -0.235206477557867 0.829424666671971
0.0833020231619573 -0.232634800011003 0.845766687696012
0.0821402875513648 -0.233116006656802 0.847575595819243
0.076561568547085 -0.233501643964614 0.856021143026689
0.074118521813955 -0.232459835849518 0.861762517391093
0.0707480881031621 -0.228971426006177 0.875417375382971
0.069660409672758 -0.2281418979218 0.878995851342443
0.0694445876906889 -0.224404138853251 0.889694874764288
0.0659584514082434 -0.225601574818046 0.890384171853113
0.0589787583548827 -0.225151346898093 0.898694665452898
0.0621585564296309 -0.221761035514751 0.905520724688427
0.0566423991021406 -0.218532722698552 0.919473300644179
0.0585417987819538 -0.216411004821491 0.924665078548982
0.0490549104930826 -0.215922839107625 0.930299686894351
0.0536872645428911 -0.212599328197061 0.938440636684945
0.0525488283529338 -0.20919531778303 0.949102301830296
0.0475880589748972 -0.21071292987263 0.946508758597216
0.0528088387498846 -0.204913807250193 0.961844140374336
0.0476338054835521 -0.205595266376185 0.961843681160189
0.0445442552547199 -0.200716287765251 0.977700858005135
0.0454981361201851 -0.200203025380769 0.982095042694974
0.0417937407674053 -0.200690718281013 0.991852531445871
0.0404416269269148 -0.196146544949349 1.0
-0.00914923770889339 -0.148528231172993 0.962659824457922
-0.0124114272891263 -0.153258977573139 0.962659824457922
-0.0384237666634719 -0.132824007140167 0.962659824457922
-0.0390457629982846 -0.124792499843996 0.962659824457922
-0.048483874267818 -0.119093920176834 0.962659824457922
-0.0682080003255972 -0.106669696261755 0.962659824457922
-0.0710976041040206 -0.104797728993298 0.962659824457922
-0.0807997341929373 -0.0873176601956916 0.962659824457922
-0.0944557091179497 -0.0758642992828694 0.962659824457922
-0.106853570033231 -0.0675201227729564 0.962659824457922
-0.10995297335578 -0.0570236650938882 0.962659824457922
-0.130299433807915 -0.0473456130732099 0.962659824457922
-0.136171980217383 -0.0363833194872478 0.962659824457922
-0.153045928219163 -0.0252392143547139 0.962659824457922
-0.162621605911176 -0.0121286449470061 0.962659824457922
-0.169598398270496 -0.0073014239221706 0.962659824457922
-0.182082442043016 0.00540847164720516 0.962659824457922
-0.192126133052482 0.0193702532799156 0.962659824457922
-0.205188709886444 0.0216996808753089 0.969228835904492
-0.204720293570454 0.0199173336489896 0.972885452239263
-0.203551771457227 0.0200618843374618 0.984568936912817
-0.199466913633866 0.0214088334414276 1.0
0.0671960648430157 -0.239306106381725 0.210489209414951
0.0728072101269064 -0.236981893904691 0.224754430781392
0.0670270258370702 -0.239376124630557 0.233715569734386
0.0726508718019985 -0.237046651359187 0.233766824277577
0.070464718874009 -0.237952185551382 0.244911555734498
0.0698673481787284 -0.238199624595131 0.25823357663823
0.069480143172379 -0.238360010160179 0.262127907452578
0.0643461875879998 -0.240463167307667 0.273937680991171
0.0692861232737979 -0.238440375833542 0.279056916220135
0.0637302488760343 -0.240544257177458 0.291546418842552
0.0667189883599399 -0.239503717931304 0.295329841431957
0.0678576207331212 -0.239032080959775 0.310319993754004
0.0634674983154411 -0.240578848945003 0.321201050126875
0.0682447357251183 -0.238871732679892 0.329871520754356
0.0687011155373038 -0.238682693972091 0.348077725438825
0.067884793726776 -0.239020825537272 0.342083191004573
0.0675516922434632 -0.239158800689307 0.36024955202777
0.0631523673772295 -0.240620336720085 0.359934084462009
0.0650010647171551 -0.240215305203267 0.372151919661747
0.0704082262117171 -0.237975585578277 0.38359015518012
0.0678763126810413 -0.23902433850144 0.395434073461662
0.0712081946726451 -0.23764422779229 0.405943828999901
0.0683504729038264 -0.238827934906424 0.413999154627432
0.0700488124608761 -0.238124459628379 0.429860455765078
0.0682701285790761 -0.238861214615395 0.425698754081786
0.0733355175028965 -0.236763061824454 0.440949138696968
0.0697825788357401 -0.23823473720667 0.451477000875508
0.0684785270142191 -0.238774893157182 0.454778719630955
0.0674825651550017 -0.239187434066876 0.469075827490887
0.0696707820734478 -0.238281044941841 0.480153829378456
0.0665359477161129 -0.239579535848442 0.485811320676912
0.0647992105416601 -0.240298915940378 0.494080057662896
0.066574184858521 -0.239563697505471 0.505091921775424
0.0707950752271671 -0.237815347469487 0.51623354181054
0.0694576545478098 -0.238369325253475 0.527865608073281
0.0681933644090044 -0.238893011375743 0.528585445894254
0.0680499495691351 -0.238952415747462 0.541566107952036
0.0636237650937614 -0.240558276033346 0.550076672554225
0.0679471124504506 -0.238995012276737 0.566609904556656
0.0676930581642739 -0.239100245007651 0.569473173737749
0.0678247922849493 -0.23904567894824 0.577796305302067
0.0710001823331204 -0.237730389324463 0.587121197900588
0.0693347359497358 -0.238420239803866 0.602068078142401
0.0715828357187826 -0.237489046389958 0.605765140430868
0.067736209091393 -0.239082371308409 0.620263604828449
0.065619964761073 -0.239958948411322 0.618894471288914
0.0691838562001439 -0.238482736242434 0.635473695190958
0.0717502003686206 -0.237419721682133 0.649724991549964
0.0705812588121868 -0.23790391312843 0.657954830701216
0.0688669461016067 -0.238614004703301 0.658827050322766
0.0682036490815151 -0.238888751324904 0.669138914971209
0.0700414814360361 -0.238127496238294 0.684843558881185
0.0732613981013668 -0.236793763085803 0.697303245648944
0.0707473039546337 -0.237835134978462 0.698264578618998
0.0657980677730754 -0.239885175728251 0.710048993846001
0.0690517815353959 -0.238537443359819 0.714893560420494
0.0629369924307115 -0.240648691369712 0.72591642720674
0.0662065403333531 -0.239715980853927 0.736638535542831
0.0679349433461533 -0.239000052884779 0.748869199199652
0.0670946561323794 -0.239348111245013 0.756285348613338
0.0655579160016581 -0.239984649849 0.758298028845477
0.0666166153705808 -0.239546122211917 0.772065503500138
0.0682870681232659 -0.238854198026451 0.784230033269817
0.0675151510470509 -0.239173936548447 0.792673362463144
0.0683015747883512 -0.238848189169028 0.794437063137219
0.0732597545372282 -0.23679444387236 0.816802134717405
0.0684529970262113 -0.238785468024462 0.8275475155991
0.0711657178453633 -0.237661822270237 0.83213346951307
0.0727875324698211 -0.236990044657131 0.843336176084846
0.0717432538619456 -0.237206843034761 0.851242455544236
0.0667717973674093 -0.237718018765984 0.855570167438189
0.0611810357582719 -0.236523036785714 0.863709789828427
0.0599400888647829 -0.234670086028238 0.869758763374561
0.0606507332210689 -0.230157904407488 0.883014633923606
0.0587996713947858 -0.228682542300225 0.888171810983248
0.0541445703064735 -0.22717240074394 0.8945408027065
0.0537322575602132 -0.225476467690282 0.899791447875972
0.0561619140765208 -0.224266763674699 0.902460948876767
0.0513680248664242 -0.222087400489129 0.910892420896477
0.0459657271740286 -0.219582194737772 0.920541716102292
0.0449703255302268 -0.216783378163872 0.929331307161519
0.0437376489346326 -0.215287994127697 0.934304314127622
0.039253558725324 -0.212953026607001 0.943080241716099
0.0415917187367433 -0.209106136112259 0.953697439384539
0.0362173359746499 -0.20837709932636 0.958007202483097
0.0358445584737282 -0.206283866884083 0.964434131077047
0.0350471346799227 -0.203055256204635 0.974434911617664
0.0290021221614849 -0.203066826216583 0.976787724569817
0.0266226355564079 -0.202688032173203 0.990619431086853
0.0279915350270197 -0.20250781313895 0.995755148192142
0.0220740538911979 -0.1973856714428 1.0
-0.0267295676965926 -0.155018746107928 0.962659824457922
-0.0383082534673774 -0.143848993115246 0.962659824457921
-0.0495473426275105 -0.131401937658767 0.962659824457922
-0.0588437922103594 -0.123564051814217 0.962659824457922
-0.0614697005650526 -0.114247484618646 0.962659824457922
-0.0777148463380517 -0.111958973110388 0.962659824457922
-0.0862254018032741 -0.101232554992503 0.962659824457922
-0.0994398311119174 -0.0819168106518078 0.962659824457922
-0.115711111893513 -0.0688979165648162 0.962659824457922
-0.123954927394674 -0.0603116621022884 0.962659824457922
-0.131859894139342 -0.0546589986529391 0.962659824457922
-0.144411138814421 -0.0401488811578321 0.962659824457922
-0.156997701334917 -0.0382057233898971 0.962659824457922
-0.170425778251852 -0.0240544700822058 0.962659824457922
-0.179680472164795 -0.00477967421782381 0.962659824457922
-0.18328427214745 0.00145679386515347 0.962659824457922
-0.20820676660418 0.0176850155256088 0.956280983549295
-0.205205534475265 0.012578353406526 0.975386871647292
-0.203881912097899 0.0175542172082962 0.982308722867343
-0.201721148594676 0.00248644162129736 1.0
-0.200906898662549 0.014053749542004 1.0
0.06060147836274 -0.240956167629911 0.205102940317392
0.0573986567329728 -0.241377827096797 0.212801214764683
0.0553207040088443 -0.241651394762797 0.223671132591318
0.0590053796272225 -0.241166298014838 0.231291612704481
0.0619143622885114 -0.240783323182041 0.237574074871922
0.0609566710715308 -0.240909405622674 0.258337800550149
0.0545139485950405 -0.241757606127966 0.25105540749463
0.0614116908032563 -0.240849501138541 0.270452879097893
0.0584336043009016 -0.241241573664607 0.277507331331031
0.0570229669118518 -0.241427287600066 0.281722967173419
0.0531711933282748 -0.241934383212485 0.295979968480219
0.0545511820498648 -0.241752704250645 0.305919277731342
0.0549103059017289 -0.241705424698604 0.318177684824418
0.0517713182527449 -0.242118680262488 0.317369871305527
0.0560933848010126 -0.24154966940667 0.336683780235429
0.0502907462289792 -0.242313601267276 0.339727942888787
0.054992442744776 -0.241694611178073 0.340629777384166
0.0556746829134835 -0.241604792555908 0.361523654438059
0.0507257486769409 -0.242256332108544 0.369508157570805
0.0538020121058596 -0.241851334344891 0.375885748845748
0.0643855397937018 -0.240457986491501 0.395613817398463
0.0556195642309843 -0.241612049068123 0.393244298542185
0.0596115458148624 -0.241086494722282 0.413381255623878
0.0572959273246787 -0.241391351679975 0.410223995374729
0.0570966653192044 -0.24141758502067 0.41977236919985
0.0622279222211212 -0.240742042233769 0.437888797686501
0.0617048520301353 -0.240810905730826 0.442441831225062
0.0578852913038419 -0.24131376044013 0.447077226116565
0.0583038021040569 -0.241258662448014 0.46363648359973
0.0615159853527462 -0.240835770500616 0.476103273127618
0.053979459649321 -0.241827972932603 0.479729322270532
0.0557458628464412 -0.241595421539956 0.488141340505011
0.0525616007196934 -0.242014637601915 0.496702583942102
0.0559673895634241 -0.241566256994383 0.507818525420836
0.0570055563441074 -0.241429579744794 0.524703916994295
0.0625850771966348 -0.240695021889218 0.531495150007393
0.0623809045503712 -0.240721901728037 0.536659788988212
0.0605057019375077 -0.240968776835503 0.54878423741707
0.0594301872283908 -0.24111037103315 0.556291246835443
0.0508915583873717 -0.242234502846042 0.566664193518503
0.0599056881169811 -0.241047770153562 0.573712206969381
0.0630102118701091 -0.240639051847643 0.585557413873312
0.0605062661033169 -0.240968702561665 0.593565022529202
0.052981271802031 -0.241959386855761 0.600354992511774
0.0587899617819716 -0.24119465831219 0.606999984619557
0.0555938892735552 -0.241615429240394 0.618100661848212
0.0649808685891007 -0.240223670713414 0.638710867614783
0.0590069644305342 -0.241166089371524 0.633788408419883
0.065046021864496 -0.240196683343113 0.656149614109861
0.0563740798964648 -0.241512715196294 0.663487140880864
0.0527444740053464 -0.241990561877117 0.662753985670572
0.0562942099616825 -0.24152323027269 0.670253612199596
0.0570909381379883 -0.241418339018381 0.682607142763513
0.0555182187904039 -0.241625391448494 0.698748211293507
0.0560565475139 -0.241554519127523 0.704545915905031
0.0522381892833241 -0.242057215525262 0.707939226123243
0.0585924981447759 -0.24122065489321 0.726282447854106
0.0576463193086953 -0.241345221700144 0.73642670977258
0.0583462678905033 -0.241253071721166 0.743193293722849
0.0538206594961893 -0.24184887936938 0.749722421315973
0.059585199884508 -0.241089963229814 0.75747999333783
0.0569177993319662 -0.241441133174623 0.764163194243774
0.0592740739381025 -0.241130923737723 0.775590998347619
0.0577651312672389 -0.241329579809058 0.779347539837912
0.057441629984051 -0.241372169560963 0.80322861552713
0.0575393992474736 -0.241359297993247 0.801939529991207
0.0514458312929964 -0.242161531433671 0.816240932734622
0.0556885843952862 -0.241602962391108 0.822620920361692
0.0497044914430041 -0.242390783174071 0.833742652141118
0.0528199675554817 -0.24198062296269 0.838956208562242
0.0606069066910612 -0.24095545297693 0.85020245705478
0.0547066122538559 -0.239791412562987 0.856461784570996
0.0557459943978744 -0.235828097444092 0.867941218162058
0.0432117275182671 -0.236579987608429 0.870636050289426
0.0532079893899919 -0.232045537703365 0.880291301478766
0.0452858456174393 -0.23194399330985 0.883724844701023
0.0410431923526953 -0.23044971388131 0.889883350682742
0.0384837777989265 -0.225911857011548 0.904507781247126
0.0402021463954225 -0.224914890272092 0.90681999891298
0.0383746115583958 -0.221486090864828 0.917828195711942
0.0274974291308459 -0.221289252004765 0.922714736992029
0.0297847623659841 -0.216956139175382 0.934810676080517
0.0361414036168371 -0.214655491742597 0.939202015288046
0.0334995247666127 -0.213405720279049 0.943994759525558
0.0211915357981193 -0.214116913547441 0.946722312184322
0.0196728721851738 -0.211253645425291 0.955911924123688
0.0188072804968323 -0.210422733677239 0.95874653129083
0.0200208603514574 -0.203557172367445 0.979108151477839
0.00984004950310875 -0.204897501543095 0.979188125771028
0.0198364291224172 -0.203581453199381 0.99163675518341
0.0133150825201213 -0.204440004767207 0.998055017837708
-0.0340701079589338 -0.15812809834863 0.962659824457922
-0.0414185128858565 -0.154326481404403 0.962659824457922
-0.047606222890893 -0.145842157636893 0.962659824457922
-0.0707913765041728 -0.12543122380173 0.962659824457922
-0.0736310420229636 -0.118943297217563 0.962659824457922
-0.0829619878969978 -0.107767089273791 0.962659824457922
-0.0970016369680036 -0.103708298182555 0.962659824457922
-0.102535087455758 -0.0919525750431914 0.962659824457922
-0.123845680802667 -0.077802649563705 0.962659824457922
-0.124071044209655 -0.0734473832232 0.962659824457922
-0.140514558644971 -0.066279807563735 0.962659824457922
-0.152414634091525 -0.0481209124868058 0.962659824457922
-0.158583459142437 -0.0406055889166648 0.962659824457922
-0.172151541437597 -0.0289353180854945 0.962659824457922
-0.180678993455291 -0.0233285931847236 0.962659824457922
-0.195107576639867 -0.0121777833756285 0.962659824457922
-0.209088626817953 0.00148149881268484 0.962789315231061
-0.204724612683324 -0.0111532707707548 0.985500441297693
-0.205279212374136 -0.00694066788835655 0.991400244320291
-0.205048587441155 0.00501563640422694 1.0
0.0523714599820056 -0.242039670104925 0.198331166678518
0.0474531676474765 -0.242687175574631 0.206082598855178
0.0451440038883666 -0.242991182750855 0.222247166293781
0.0439761784967968 -0.243144929880401 0.222297909250939
0.0384461328763338 -0.243872974198108 0.224573147627031
0.0439455013932794 -0.243148968597699 0.242834591591354
0.0464522807801024 -0.242818944830523 0.249723036457983
0.0440692522591673 -0.243132676487126 0.261140915102753
0.043486332338516 -0.243209419350574 0.273667579632968
0.0428749922236222 -0.243289903803574 0.273086060494869
0.0482650970578705 -0.242580283039888 0.29314227485313
0.0474945586196196 -0.24268172634977 0.302205972996591
0.0390689965021905 -0.243790972646108 0.303357268284944
0.0529076887342249 -0.241969074250417 0.322811607561039
0.0513513149616841 -0.242173974744752 0.330779848019311
0.0480826696976001 -0.242604300057496 0.332934836658807
0.0507343265128669 -0.242255202815021 0.345429293281955
0.0421936677432756 -0.243379601873079 0.350933274612185
0.046581924852648 -0.242801876864575 0.356457594353197
0.0484267331489242 -0.2425590032448 0.378910012163136
0.0432236401519384 -0.243244003433033 0.381128936606646
0.0406420332380082 -0.24358387843104 0.381690145512316
0.0423999216269845 -0.243352448034152 0.397550939261049
0.0424267585178988 -0.243348914890436 0.404412975088448
0.0413659881004139 -0.243488567965264 0.414741846915622
0.0535380411315138 -0.241886086782954 0.433168160291319
0.0448146884330774 -0.243034537953038 0.432514712244072
0.0425508368929318 -0.243332579662466 0.442840154134913
0.0492725576403422 -0.242447648337984 0.455960115321944
0.0447859584366299 -0.243038320328826 0.46710631106793
0.0435098545877277 -0.243206322587715 0.474234132848738
0.0384915774087745 -0.24386699131191 0.482420096638969
0.0413918837875638 -0.243485158733374 0.488904816015653
0.0454548725727774 -0.242950256112131 0.503550901837613
0.0453940101929601 -0.242958268796443 0.507846689664612
0.0477185763130173 -0.242652233860931 0.52066719535597
0.0466513575550711 -0.242792735875886 0.528340985133911
0.0489556172490079 -0.24248937433209 0.546652847274271
0.0481910170167223 -0.242590035862326 0.550661603796004
0.0417553180359593 -0.243437311706864 0.556809467496777
0.0403707742192535 -0.243619590358353 0.568544646973325
0.0493663042316607 -0.242435306365097 0.573647647310302
0.0494831126739953 -0.242419928241924 0.58980815620849
0.0438961593222732 -0.243155464604582 0.597843595012216
0.0415955614129246 -0.243458344065293 0.601798331382698
0.0496500308486707 -0.242397953047336 0.618767141463805
0.0422389370881929 -0.243373642050757 0.627735944755444
0.0405945639510698 -0.243590127881225 0.626517465333404
0.0440327813088702 -0.243137477978822 0.646105161869526
0.0438663511074687 -0.24315938893051 0.651705098061189
0.041024572363487 -0.243533516199746 0.655682093091663
0.0438033593048482 -0.243167681958653 0.674612539490322
0.0412787670405268 -0.243500050835641 0.678385001746152
0.0491676649213732 -0.242461457726416 0.689757433485174
0.050550407096619 -0.242279416265525 0.703237848731248
0.0426253256503813 -0.243322773031506 0.704925986586809
0.0516022068701323 -0.24214094419838 0.724866439049104
0.0405586107950064 -0.243594861204016 0.722364561968054
0.0457072730499023 -0.242917026958926 0.740184681391416
0.0459801775394211 -0.242881098401277 0.747117417085888
0.0482204791669899 -0.242586157096659 0.754958093868711
0.0437634118383435 -0.243172941142391 0.757043040429635
0.0517460024824779 -0.242122013146872 0.771127150725333
0.053212364370924 -0.241928962941892 0.787957782167364
0.0397817631723639 -0.243697135133782 0.787784596293669
0.0414048506164139 -0.24348345161797 0.795366079466628
0.0421714208748409 -0.243382530728872 0.802247344096673
0.0515127261126625 -0.242152724563587 0.817247220343207
0.0521664927578022 -0.242066654551914 0.831671677169961
0.0422556212710905 -0.243371445536409 0.841093189285738
0.0469020559966728 -0.242759730799908 0.845206863816054
0.0450778763449214 -0.241707573830959 0.854516242160139
0.0375770927533179 -0.240904508338058 0.859887929319933
0.0378455602235602 -0.237438430571831 0.870180129379681
0.0367060251792806 -0.235621572644502 0.876080771065672
0.0393152511644647 -0.231779147486743 0.886577513185789
0.0297641051334441 -0.232053239677952 0.889527533301581
0.0324089837186634 -0.228502604843728 0.899134823189573
0.0236190860749196 -0.2283107472536 0.903182031894967
0.0284014523731414 -0.224610422114868 0.912394175908547
0.0268809050247512 -0.221606569206282 0.922006286202648
0.0209186620062901 -0.220004933063198 0.929166027185712
0.0261967603677304 -0.217862956858527 0.933507331304338
0.0116010423679 -0.217768268075429 0.939556085839909
0.0149888903917924 -0.216368478607291 0.942417398282947
0.00896744826621772 -0.213986426049245 0.951941769641815
0.012199992367287 -0.210266066594343 0.961826130493118
0.00755629544078243 -0.208380580801657 0.969316650766415
0.00937148653647079 -0.205338450055719 0.977726119680192
0.0102312689528953 -0.204845996525426 0.98457740949759
0.00404609592016743 -0.205660290003195 0.996311178297118
-0.0468379855667087 -0.161839019326628 0.962659824457922
-0.0493884887264893 -0.157751415226875 0.962659824457922
-0.0659983988598268 -0.141602742886582 0.962659824457922
-0.0705086881014575 -0.136276406116087 0.962659824457922
-0.0901008035793317 -0.12391557094599 0.962659824457922
-0.0875060595895595 -0.120398707376819 0.962659824457922
-0.108065227783687 -0.105437696725967 0.962659824457922
-0.106804568336261 -0.0981186768955577 0.962659824457922
-0.126134227923994 -0.0864087386359604 0.962659824457922
-0.144915178134891 -0.0723481291571893 0.962659824457922
-0.147957944953557 -0.0668475517466841 0.962659824457921
-0.152850471554957 -0.0659522689073843 0.962659824457922
-0.172101665012326 -0.0463482549982679 0.962659824457922
-0.174966481641544 -0.0422720464483888 0.962659824457922
-0.208767132480127 -0.0192586533893014 0.952289049113084
-0.210013570335023 -0.0105324542857116 0.951781374087856
-0.206238778307384 -0.0143109284919385 0.9688266946004
-0.203864872623134 -0.0176836448688159 0.989287001148159
-0.203316004533174 -0.0158799717759874 1.0
0.0301458015142757 -0.244965733552726 0.189902992797058
0.0309369783767638 -0.244861573142746 0.201496337725818
0.0359827703215026 -0.244197282030915 0.204013719376204
0.031381553148752 -0.244803043763649 0.213061877974073
0.0302310506975174 -0.244954510284835 0.216381137366679
0.0341139365432448 -0.244443318665398 0.229920308605385
0.03716087232981 -0.244042181959109 0.250262472779004
0.0413423174129348 -0.24349168427039 0.259367726671026
0.0354682191562702 -0.244265023976954 0.263618212085664
0.0257675511094487 -0.245542141153584 0.272278759869579
0.0381867999535411 -0.243907116025101 0.282928617545177
0.0321827655044715 -0.244697562155921 0.287191287896481
0.0325797507533101 -0.244645298056406 0.294198854596147
0.0321588406538271 -0.244700711922263 0.311941827398375
0.035093618874189 -0.244314341039687 0.314846973975126
0.0339959803138662 -0.244458847897602 0.320248015302815
0.0300930257045844 -0.244972681619884 0.329557082206808
0.0281724808554528 -0.245225526146001 0.340275635905852
0.0327592114294028 -0.24462167161018 0.350983219329229
0.0360251697228345 -0.244191700043833 0.367944520213689
0.0290227454198289 -0.245113586692491 0.372998132849431
0.0350098102239812 -0.244325374657807 0.384638512956361
0.0326617129805628 -0.24463450752448 0.393238794497169
0.034044650673505 -0.244452440323197 0.400569734769486
0.0360415553193313 -0.24418954283913 0.413119357876319
0.0267438542700561 -0.245413608404088 0.4191124483514
0.0309510989824151 -0.244859714129745 0.431596986087048
0.037510971646624 -0.243996090509646 0.445852334845202
0.0367056953709112 -0.244102107142592 0.445252419953466
0.0339763210422505 -0.244461436089811 0.456448877117033
0.0369833110405938 -0.244065558346308 0.466114915412778
0.0368741822975012 -0.244079925417895 0.485029509286608
0.0342757105772317 -0.244422020709779 0.488679172252127
0.0351918560169312 -0.244301407874489 0.491138591190751
0.0343429637503454 -0.244413166661568 0.507335431147556
0.0301629850851734 -0.2449634712927 0.509861754969318
0.0356977396414196 -0.244234807031837 0.523570776465005
0.0380928420594338 -0.243919485816528 0.539858345488482
0.0307781253037267 -0.244882486546561 0.543086867795792
0.0337121748404292 -0.244496211597008 0.553427586509243
0.0391332397928192 -0.243782514856443 0.561800733035863
0.0350503310268418 -0.244320039992906 0.569721390386854
0.0375886906830106 -0.243985858604396 0.579945952317493
0.0325068278024473 -0.244654898545019 0.590168429960248
0.0336044293740897 -0.244510396556757 0.605382003687866
0.0265846270608769 -0.245434571063861 0.607079223615215
0.0290086258310209 -0.245115445571622 0.615858968461097
0.0320294666993678 -0.24471774432649 0.633675991661469
0.0327515264046374 -0.244622683362884 0.637625553171353
0.0290870167258405 -0.245105125214531 0.642329176149662
0.0310522474124018 -0.24484639768631 0.658129592709165
0.0355627840558672 -0.244252574271738 0.663545438114694
0.0293602087480303 -0.245069158802488 0.672296923899627
0.0321168179181871 -0.244706244320366 0.685819589633116
0.0338821482153072 -0.244473834177683 0.689085887039971
0.0334638673726265 -0.244528901895314 0.695992060983725
0.0322130798966765 -0.244693571190474 0.718221535104703
0.0301528548105609 -0.244964804968654 0.7179385007266
0.0310256906401333 -0.244849893951707 0.720453730610468
0.0290074419911603 -0.245115601427097 0.730845406478146
0.0283509558361608 -0.245202029469034 0.746925879458099
0.032985914702096 -0.244591825558119 0.757585080328316
0.0312589081250683 -0.244819190287334 0.762758381396509
0.0318444711387694 -0.244742099454085 0.78130265646433
0.0278943965193786 -0.245262136643385 0.787183073422764
0.0320355276864396 -0.244716946382404 0.789478748464199
0.029032507527429 -0.245112301486644 0.801431433044702
0.0316927076239551 -0.244762079499854 0.80977361664411
0.0372468111246065 -0.244030867902134 0.821769311571153
0.0283478844253514 -0.245202433827938 0.829848813537827
0.0357404673527895 -0.244229181821918 0.837211579229531
0.0271380765960221 -0.24536170805027 0.847967206127278
0.0266225033020348 -0.245064457547566 0.851734678875329
0.0274006896036206 -0.24067930844838 0.86458277566231
0.0265787650807446 -0.240048510988811 0.866799793289814
0.0237637554895036 -0.23709380512402 0.876775720014444
0.024684303264349 -0.231891377395539 0.892019425958763
0.0226684099471016 -0.230633150136358 0.896590299906564
0.0158309959462538 -0.230042208431946 0.901063612910552
0.0205083541270071 -0.226787882280119 0.908979233706209
0.00792144081475604 -0.227216318273273 0.912665221450172
0.00949545310208911 -0.223388014320733 0.923528465361208
0.0136902402329358 -0.219440626868212 0.933713865110901
0.00582815398435189 -0.217676901988949 0.942110229621313
0.00850342296361337 -0.216036555971493 0.945974650145166
-0.00740125058525916 -0.21471659727269 0.950369837480721
-0.00153132381790636 -0.211002022170342 0.963831934346495
-0.00299113476713026 -0.20974459821411 0.96702764294278
-0.0135130519101744 -0.207341358028717 0.970081653485091
-0.0161950273545085 -0.204060852836845 0.97904644182493
-0.00807045764546891 -0.205130472730863 0.994283861599484
-0.0221183486064363 -0.203281032800016 0.99057921799317
-0.0212483601185888 -0.198629431572458 1.0
-0.0723354924448175 -0.154874429495033 0.962659824457922
-0.0781296889843518 -0.139509974626325 0.962659824457922
-0.089846967970351 -0.1403372534458 0.962659824457922
-0.0964730041981468 -0.121767375351492 0.962659824457922
-0.112788902815583 -0.117671370730773 0.962659824457922
-0.124548171854098 -0.097729782578217 0.962659824457922
-0.137898831369467 -0.0969964528617142 0.962659824457922
-0.138976281319776 -0.0919196932556315 0.962659824457922
-0.15523052520958 -0.0709583775479505 0.962659824457922
-0.162087572312507 -0.0738142436529313 0.962659824457922
-0.179879089354685 -0.054692547986876 0.962659824457922
-0.189173878567857 -0.0419368321381565 0.962659824457922
-0.203013868637427 -0.0387735890537883 0.968849263138598
-0.201107604616168 -0.0411019400736576 0.977169385665562
-0.201292080998504 -0.0372259374327889 0.983022857889436
-0.201910629912477 -0.0325275919755611 0.988248452173233
0.0230843286747976 -0.245895394088689 0.183201103095675
0.0217658994695515 -0.246068968586451 0.188372576617028
0.0279384725930557 -0.245256333918201 0.202336297581597
0.0214421834244401 -0.246111586612299 0.200845516207294
0.0233919866728565 -0.245854890144842 0.221129396657356
0.0178795549130027 -0.246580615553806 0.219635685442705
0.0218586368450579 -0.246056759479346 0.243875078002778
0.015819177286327 -0.246851869414331 0.234829160843826
0.0189949036620197 -0.246433777105317 0.252600491998298
0.0267998579239011 -0.245406235383185 0.267399854506458
0.016313803250622 -0.246786750670761 0.266821755230889
0.0269056106360837 -0.2453923127745 0.289099262956402
0.0253479425409301 -0.245597383669639 0.2953150695187
0.0221363990960756 -0.246020191385265 0.29878943275583
0.0235476210369106 -0.245834400492104 0.312039746888633
0.0239424472765673 -0.24578242063154 0.323291215653484
0.0226246936280238 -0.245955906190575 0.324074463704082
0.0200131844752429 -0.246299717893011 0.333917631712476
0.0199020449583426 -0.246314349687992 0.348361307408079
0.0238041434772811 -0.245800628672142 0.353663849461224
0.0138329358095184 -0.247113363065565 0.363832464780014
0.024465903231519 -0.245713506347694 0.378479061283348
0.0179836124388259 -0.246566916120639 0.386946877498589
0.0190103623011956 -0.24643174193686 0.393484228116854
0.0183712011015694 -0.246515889105152 0.400629063345854
0.0211664918042603 -0.24614788210266 0.41435481498584
0.0232001582600847 -0.245880144834492 0.428287923620012
0.0213277665959076 -0.246126649873541 0.432041143150202
0.0255253980845273 -0.245574021204114 0.439637142225925
0.0184932557617845 -0.246499820304293 0.443456418836288
0.0145392488137405 -0.247020375194481 0.460839022127239
0.0200400797347043 -0.24629617706493 0.47526266829138
0.023380841107073 -0.245856357486414 0.48243651503702
0.0243082945681779 -0.245734255921864 0.490053427821126
0.0211734480545236 -0.246146966294939 0.490656406597255
0.0137832517195358 -0.247119904100102 0.501216171842642
0.0226331447320358 -0.245954793581625 0.520367820231468
0.025239693464345 -0.245611634930933 0.528031582407329
0.0196426677681936 -0.246348497342892 0.5333518657834
0.019686838421884 -0.246342682166013 0.543486367495814
0.0134237638206712 -0.24716723157984 0.548042582739701
0.0210623804202209 -0.246161588626396 0.563603268511093
0.0204786108137802 -0.2462384433531 0.576574653635824
0.0198754127855446 -0.246317855880057 0.584188738410897
0.0284249061814449 -0.24519229372138 0.59389511930457
0.0224676196322429 -0.245976585374426 0.595831526889776
0.0155783654018618 -0.24688357290037 0.613291491979455
0.0155795485873396 -0.246883417131047 0.623547832802397
0.0182185663855483 -0.246535983846735 0.627606018923171
0.0219047872994158 -0.246050683656765 0.640988031711912
0.0270788724054985 -0.24536950242982 0.648571785514144
0.0238562521674912 -0.245793768432929 0.660175807865596
0.0211531723072763 -0.246149635647705 0.664333447877152
0.0221453906507844 -0.24601900762463 0.67719230470769
0.0244834840381101 -0.245711191790596 0.684208762222631
0.0224604912277396 -0.245977523846682 0.693154111378147
0.0241997706554846 -0.245748543366017 0.706871322257072
0.0220600397973623 -0.246030244277654 0.722455965101793
0.0202158396402821 -0.246273037834385 0.722896337422533
0.0213361543253367 -0.246125545608013 0.730522034118683
0.0213460942773999 -0.246124236988499 0.744839864254976
0.0193693822815782 -0.246384476059759 0.745277027668788
0.0181641589897969 -0.246543146716272 0.751405732331845
0.0153867059874469 -0.246908805340964 0.768227209238149
0.0147478016541549 -0.246992918692161 0.777244954029572
0.0193557687518833 -0.246386268314944 0.786422374946147
0.0253224032092268 -0.245600745986444 0.803387999670933
0.0280970593927219 -0.245235455569941 0.806698281991576
0.0211943372009132 -0.246144216186645 0.813367622800347
0.0230444862186726 -0.245900639447548 0.82945156685306
0.019501918402107 -0.246367027348471 0.837060238967158
0.0139695253275342 -0.247095380714374 0.839852458519552
0.0186089291758042 -0.246484591610432 0.849402737190755
0.0239114807481136 -0.242701445917438 0.85989445243643
0.013801784559887 -0.242340867647776 0.864969087504506
0.013135463712885 -0.239277909576645 0.874421130129008
0.00901082477519131 -0.237346451480624 0.881844561470449
0.00774902503401476 -0.236382554937851 0.885234608360912
0.000994309942167447 -0.233801052195517 0.895646941924912
0.00544083791575781 -0.229260828379925 0.907511423831739
-0.00381056304716243 -0.228080328320796 0.911696813283743
0.000638396683124341 -0.226730303115384 0.916999759773744
-0.00558618602024504 -0.224159070480305 0.922759291207675
-0.00813095915721719 -0.221270155721433 0.930420958266464
-0.0172294301795477 -0.218709610337359 0.934509085115737
-0.00668038589644741 -0.217832082833198 0.941308091709313
-0.0125339578836708 -0.213820384681365 0.951031274049033
-0.0208095871604135 -0.209710498969352 0.960092409394901
-0.021450664496683 -0.207990836903218 0.964998197295904
-0.0265276338283784 -0.20717606540236 0.965437324720401
-0.0217994988307254 -0.203323010169344 0.980421642739626
-0.0235583237156923 -0.203091456480419 0.985012099781786
-0.0290253866007364 -0.202371703997136 0.996155826802719
-0.0328204754584998 -0.201872071070445 0.998445995115668
-0.0837338248502037 -0.151574302684295 0.962659824457922
-0.0942052836442483 -0.136522475350487 0.962659824457922
-0.105932767850367 -0.128609740857299 0.962659824457922
-0.12013162271085 -0.122673150924253 0.962659824457922
-0.130349538771485 -0.112793065948544 0.962659824457922
-0.145468996285664 -0.0953869099102099 0.962659824457922
-0.148783832132323 -0.0913597645675238 0.962659824457922
-0.159487112130195 -0.0804335639003267 0.962659824457922
-0.174035199960122 -0.0762038353812235 0.962659824457922
-0.184584680663291 -0.0654949937410956 0.962659824457922
-0.205537443105512 -0.0414644561112608 0.953881788472626
-0.205322178839764 -0.0370070105988179 0.958053461917545
-0.197682135982314 -0.0569517203665262 0.986629866273005
-0.195550708573944 -0.0584091459492385 1.0
0.0072139389389973 -0.247984770535092 0.177679198738005
0.00847570785954826 -0.247818655505324 0.187663791416636
0.0107187809939781 -0.247523349324904 0.193457770610276
0.00598996213110359 -0.248145910138841 0.194452094686287
0.0093786597344699 -0.247699779635789 0.218731926481494
0.00925310680622053 -0.247716308992372 0.211779338255711
0.0071981975556097 -0.247986842927531 0.226710331844528
0.00589460243540266 -0.248158464480948 0.238404022749397
0.00996912438706564 -0.247622043489538 0.244531459958539
0.00732579564527369 -0.247970044320339 0.258079266140715
0.00348684339631537 -0.248475451972033 0.269007450920679
0.00594420005096664 -0.248151934830985 0.271675558879592
0.00402869062367253 -0.248404116431241 0.280783627195075
0.0124481291466633 -0.247295676321406 0.294632558076795
