ply
format ascii 1.0
element vertex 847
property float x
property float y
property float z
end_header
0.131360628098609 -0.231757228938638 0.750666284421137
0.132657983902525 -0.231219846569433 0.759847491307832
0.127432673357344 -0.233384241064858 0.765557478167632
0.133037154377845 -0.231062789016103 0.782713875762442
0.12845342404514 -0.232961432286171 0.793102624709857
0.129174926392543 -0.232662576228593 0.798305364087364
0.128310615348569 -0.233020585585116 0.800548752431477
0.127537569742916 -0.23334079155931 0.813409397221887
0.130878342569174 -0.231956998145867 0.823657765888414
0.133333458022051 -0.230940056028093 0.830270443992625
0.130167134100429 -0.232251590339295 0.842200051207899
0.130702106665547 -0.232029997447326 0.851076108695833
0.130749914555386 -0.232010194770967 0.858276507857008
0.127030317179171 -0.233550902450762 0.86393259315354
0.124705931202684 -0.234513694646412 0.874310574988809
0.126694411705321 -0.230338731237706 0.882847513351043
0.120728423065399 -0.230570865574021 0.888090554850233
0.123757136720327 -0.225070229285866 0.898033342588003
0.123144444096783 -0.22204028550619 0.905722612424687
0.11878766076385 -0.220913724288171 0.912586389823216
0.112618453849662 -0.220932695713412 0.918525687638123
0.114799444245251 -0.215705859407674 0.92864957328043
0.113130996674136 -0.215622786861164 0.930462381771595
0.111015030101956 -0.213085448814026 0.938456228748505
0.106976216484254 -0.211206715983696 0.946772902062512
0.103190009134742 -0.209439912649695 0.954582466891952
0.0992029442497243 -0.208669668081089 0.960253281162243
0.100623946950367 -0.205342210949203 0.968205879352958
0.101275114604378 -0.205072488475532 0.975096787213753
0.105946349119564 -0.203137599786317 0.98381867181758
0.101094330820686 -0.205147371570594 0.990901565086417
0.0816773664979927 -0.183556365837537 0.983333333333333
0.0655619585043155 -0.174005045946805 0.979166666666667
0.0545564878848928 -0.16018070536312 0.983333333333333
0.0493884559260876 -0.154649379276097 0.983333333333333
0.033613608486763 -0.142075862687891 0.983333333333333
0.0267165417738021 -0.134714078945315 0.983333333333333
0.0235854601070421 -0.127598644122249 0.983333333333333
0.00970709150869579 -0.120340339741542 0.983333333333333
-0.000487885830768544 -0.106949515316088 0.983333333333333
-0.0119786719349763 -0.101118742656862 0.983333333333333
-0.0114983540722718 -0.0954791782148795 0.98818136326954
-0.0170391974416863 -0.0935720887681567 0.99035502600894
-0.0442974525776982 -0.0731077642622509 0.983333333333334
-0.0423244033508026 -0.0638955883491812 0.991666666666666
-0.0656102554625172 -0.0482333803023722 0.983333333333333
-0.0811573812970997 -0.0370083512458256 0.979166666666667
-0.0864136249737465 -0.0266005295018366 0.979166666666667
-0.105176374348166 -0.0120107193310648 0.983333333333334
-0.100506485554817 -0.0140830406549935 0.983333333333333
-0.125699118858123 0.00134229197040795 0.983333333333333
-0.128264457319877 0.0157796289349151 0.983333333333333
-0.142075934894799 0.0206685707677519 0.983333333333333
-0.160685795671424 0.0437975207930397 0.983333333333333
-0.172268572082511 0.0436615168678389 0.983333333333333
-0.173583512269314 0.0578308027772949 0.983333333333333
-0.196943388657555 0.0705586835931802 0.983333333333333
-0.197247990868865 0.0746562522159212 0.983333333333333
-0.205015476836268 0.0879721672401007 0.992857976183348
-0.206294141843571 0.0908814172375488 1.0
0.117606146451427 -0.237454521780313 0.243648759645845
0.118661954445796 -0.237017191789783 0.257370811197576
0.119577817307389 -0.236637828971238 0.263169019118009
0.12220211538586 -0.235550809115425 0.275255798441448
0.118150907340386 -0.237228874431856 0.271820207302579
0.11815918836963 -0.237225444317232 0.284567859111467
0.122028358387388 -0.23562278162075 0.297815335955149
0.121323189102745 -0.235914872302218 0.311481214077756
0.122152029945352 -0.235571555184162 0.321831272082654
0.117716072013718 -0.23740898912156 0.32293102051994
0.120704824618635 -0.236171007258025 0.336013168354416
0.115803189732163 -0.238201330905804 0.344480505318117
0.117651636841738 -0.237435679043688 0.351894924171744
0.114679739515531 -0.238666679222183 0.358047390366934
0.120173900043083 -0.236390923417817 0.370264841521603
0.122591754364657 -0.235389415365978 0.381623373462848
0.121928963535136 -0.235663952316582 0.392835077533099
0.11938753107463 -0.236716648109579 0.399852605476104
0.120662167325847 -0.236188676487233 0.408845833897195
0.118576400224884 -0.237052629508404 0.422247538544107
0.120978977413915 -0.236057449452059 0.427803462028786
0.118166358884647 -0.237222474192663 0.43752323871522
0.120018646174834 -0.236455231675656 0.442496932463922
0.117562598762726 -0.237472559823583 0.454658603552348
0.11544695424309 -0.238348888476777 0.464544799612888
0.125361607979897 -0.234242104432758 0.475504810977119
0.120200932252737 -0.236379726309957 0.485602876553363
0.122244418495906 -0.235533286593514 0.49091108007996
0.118187931899606 -0.237213538357286 0.494663919277958
0.122470002239224 -0.235439846747581 0.505349691866129
0.117468380992951 -0.23751158610164 0.514108254764952
0.119865141709526 -0.236518815307072 0.532042764551355
0.12549381438189 -0.23418734274802 0.536295088432385
0.117888798896294 -0.237337443304211 0.546172781419653
0.123786579148245 -0.234894502735956 0.554504810327007
0.121609208322348 -0.235796399262359 0.5672200289163
0.117371509906876 -0.237551711419294 0.572885914774717
0.116392891306738 -0.237957068515862 0.575179090379482
0.123740158713851 -0.234913730709454 0.596937449338264
0.120198195362776 -0.236380859966898 0.602710817839547
0.119313714211855 -0.236747224055273 0.609355517617097
0.123222180056311 -0.235128284494427 0.615290874046931
0.123775754195397 -0.234898986578239 0.632403830690308
0.115171902049087 -0.238462818825893 0.640700160472879
0.123207761228157 -0.235134256968602 0.651791450865307
0.11893173420848 -0.236905445353226 0.65084187522132
0.115866599077115 -0.238175065895143 0.663210336624902
0.119066997793199 -0.23684941734194 0.667040025977228
0.122686318256743 -0.235350245719366 0.6866308838108
0.117916105534423 -0.237326132524356 0.688666830691809
0.119877951559822 -0.236513509293348 0.696636566603526
0.120151828003625 -0.236400065955909 0.709304924292295
0.114242402848192 -0.238847830001118 0.721897269615859
0.116701440132257 -0.237829263407677 0.724260548786309
0.114630727004264 -0.238686980869076 0.737632375597447
0.122161368735948 -0.23556768693044 0.74751764904905
0.115206984474107 -0.238448287209648 0.748926489782206
0.121501971477755 -0.235840818217775 0.760021301111815
0.118504598915075 -0.237082370584722 0.771007899497566
0.121477959419271 -0.23585076433806 0.788550609641647
0.124095584825342 -0.234766508393653 0.799066242564532
0.124537107525075 -0.234583623703328 0.802440549604834
0.122209784366644 -0.235547632519575 0.809345197086473
0.120578010670244 -0.236223535315348 0.824405968290241
0.118891815956388 -0.236921980034628 0.828903310273054
0.12472600056745 -0.234505381643338 0.836976922227088
0.124329866731016 -0.234669465650904 0.84940277878761
0.119808846466061 -0.236542133560412 0.854383060341295
0.117801241819017 -0.237373710633101 0.861113228344507
0.123694464653394 -0.233590510238739 0.878142809182291
0.115897775055732 -0.234728349944705 0.883040684995484
0.112209279715992 -0.233977479862664 0.888376538772034
0.115436937467562 -0.230833724602739 0.892607427330108
0.109229842423879 -0.229389343623592 0.902010099831325
0.111216652749049 -0.225524490441346 0.909133070619791
0.107330601165659 -0.222811895696637 0.919254168578752
0.105981920975592 -0.220360611897155 0.926302291657629
0.102495445746928 -0.21901817125297 0.932827437002201
0.104386509011803 -0.214560696685513 0.941430974415094
0.102944627756342 -0.213651204889855 0.944959194343035
0.0961008686343866 -0.213977770609835 0.950832491940965
0.0991356240904096 -0.209672658842336 0.957969946862803
0.0926968752364836 -0.208625711562997 0.967330374426106
0.091502066261058 -0.209120617645063 0.972845066501867
0.0904371933245813 -0.209561702457556 0.986966756831367
0.0893056507549785 -0.210030402736287 0.993150598234794
0.0709722330663049 -0.186341859716844 0.983333333333334
0.0628772128906164 -0.177741299362726 0.979166666666667
0.0526022823929699 -0.173524835275669 0.980839927184993
0.0422172094889893 -0.165983864333326 0.983333333333333
0.0317619640200504 -0.159200514343775 0.983333333333333
0.0209789529858803 -0.144274688781838 0.983333333333333
0.0081812337332627 -0.132547241215278 0.983333333333333
-0.00169156703161621 -0.124885322244119 0.983333333333333
-0.00512692315258962 -0.116838568593781 0.983333333333333
-0.016021613280398 -0.112823208200417 0.983333333333333
-0.035024255330808 -0.0951195397079794 0.983333333333333
-0.0392205434212069 -0.086594873304071 0.983333333333333
-0.0565651438318073 -0.0742611824456929 0.983333333333333
-0.0660224342348315 -0.0692388497641042 0.983333333333333
-0.064546248538723 -0.0658827101032777 0.983333333333333
-0.0900868016217834 -0.0430972766930652 0.979166666666667
-0.0986591207667643 -0.0351430157439558 0.983333333333333
-0.0981666216402625 -0.0315907288072968 0.983333333333333
-0.11174282383015 -0.0203295696945407 0.983333333333333
-0.132334618041678 -0.00422076151237259 0.983333333333333
-0.132224479084631 0.00273989070708321 0.983333333333333
-0.142672758069675 0.00903598004025248 0.983333333333333
-0.170333297476862 0.0290171794424245 0.983333333333333
-0.170010073355229 0.0415686084109986 0.983333333333333
-0.187501829957555 0.0570057250677709 0.983333333333333
-0.187151657288868 0.0597641366430775 0.983333333333333
-0.211682111012404 0.0718774885966916 0.986748921876597
-0.210366390636102 0.0750539185734521 0.994766702126691
0.105546360053753 -0.242449848865552 0.232300378182058
0.108304644486566 -0.241307330044598 0.252449461804939
0.109986667068438 -0.24061061347897 0.256099116531677
0.107543155731555 -0.241622749014519 0.261363871553935
0.105042354228067 -0.242658614914066 0.27275634166387
0.116070505447739 -0.238090605110976 0.28802298313664
0.108749896137884 -0.241122900771953 0.294445952164401
0.108853566352202 -0.241079959163169 0.300437687584822
0.114149937527386 -0.238886130391045 0.317944753526118
0.114915871269782 -0.238568870247066 0.323901670284565
0.108728296689121 -0.24113184755657 0.334789052994037
0.115791963449758 -0.238205980984231 0.34024192972061
0.108391611183342 -0.241271307259319 0.351908840794709
0.110860704769263 -0.240248575209262 0.354305082038204
0.107191690240212 -0.241768330787739 0.365176856491954
0.109495153428176 -0.240814205094857 0.375172160764064
0.106429734484293 -0.242083943195768 0.378801863019943
0.108824966204668 -0.241091805732163 0.3989896585465
0.111908378022108 -0.239814614738998 0.409598541682947
0.107654638870888 -0.241576571186231 0.415497729066335
0.116517872130867 -0.237905299763472 0.424471296157312
0.107564755603884 -0.241613802054455 0.428803339968908
0.106822894034553 -0.241921091177874 0.436814322324672
0.10972644401764 -0.240718401395852 0.451490082605895
0.109345115908207 -0.240876352670493 0.454796479211736
0.106742771990646 -0.241954278815106 0.468665453612027
0.115817986514432 -0.238195201877908 0.478184074529012
0.109419653270131 -0.240845478284281 0.486200868875976
0.106128944310372 -0.242208534565235 0.489654555972951
0.113877660020913 -0.238998911426956 0.503817326167076
0.113227811509287 -0.239268087493959 0.516320417774041
0.106358001423879 -0.242113656002263 0.517283656067009
0.111858188793823 -0.239835403798039 0.532655634514648
0.107572291856539 -0.241610680436395 0.54297095135984
0.104750175632941 -0.242779639250802 0.547369426491567
0.111342263164537 -0.240049107190865 0.565738067183343
0.112886856295266 -0.239409315767769 0.572172205511412
0.108093268478882 -0.241394884853741 0.575381511984084
0.113004609733282 -0.239360540696726 0.589160889951871
0.107277795567111 -0.241732664793544 0.594693260488231
0.110133834017317 -0.24054965493281 0.605779205687178
0.111818889689267 -0.239851682020135 0.61131375876881
0.109986468480958 -0.240610695736597 0.620195642743355
0.110366772019881 -0.240453168852956 0.635013301914513
0.108573802628462 -0.241195841091802 0.643861497921492
0.11557630394822 -0.238295310074622 0.653536045599312
0.108617891458663 -0.241177578900383 0.664578076014625
0.113121803321233 -0.239311997523174 0.665204990576993
0.107950996106147 -0.241453816000079 0.682667712144326
0.110713445783648 -0.240309571878285 0.687749196158776
0.107765371773353 -0.241530704116229 0.700644796061411
0.108880433382099 -0.241068830475004 0.70894051103711
0.110521200633821 -0.240389202426644 0.714488836351138
0.109613387661651 -0.240765230871815 0.731487258244678
0.109985448959088 -0.240611118036382 0.73435072425238
0.11063237980158 -0.240343150507505 0.745918016850779
0.109012356901742 -0.241014185963973 0.752201097893607
0.108537648393853 -0.241210816666114 0.757542008489746
0.114186189683793 -0.238871114256197 0.770466462797958
0.115436467208835 -0.238353232348594 0.779833075746559
0.108971341651103 -0.241031175037051 0.788849836138909
0.108065771105287 -0.241406274638814 0.790116860372543
0.110175250657151 -0.240532499598883 0.807801345524168
0.108493639879633 -0.241229045589564 0.808257306974986
0.109032983412057 -0.241005642183655 0.826200875289837
0.110799155387422 -0.240274069797976 0.835651109108346
0.111335232050554 -0.240052019573635 0.846323275324108
0.109668845330496 -0.240742259553242 0.858947036691062
0.109568812792942 -0.240783694386975 0.867094483593612
0.111856376627589 -0.23983615442187 0.874018062098549
0.107685316897465 -0.238124366570245 0.883054020384193
0.109142256636065 -0.237364874902676 0.88341933170664
0.101597985053937 -0.237418297261442 0.890611679870744
0.0997826814641848 -0.234625683591252 0.898911664010508
0.100628151480203 -0.229495528334744 0.910104524935109
0.096948249778506 -0.23051733125615 0.911281104229388
0.0960877962769118 -0.225632124588201 0.923555019635593
0.091803788581443 -0.223747696851709 0.932122850300722
0.0900558995536556 -0.222787053214138 0.936067656027504
0.0933470999751524 -0.218108558363589 0.943830700292206
0.0862816735515654 -0.21853982230136 0.949673836292132
0.0900349213292309 -0.215005020148443 0.95431062337971
0.0850700556587225 -0.214934448040131 0.959291467579292
0.0793834846096476 -0.214140298521803 0.972213715245933
0.0808162837071852 -0.213546813703448 0.974876676549261
0.0865879831124225 -0.211156097531857 0.989633688398087
0.0768246076886804 -0.209780365341765 1.0
0.0549455774153685 -0.183975378857412 0.979166666666667
0.0424067434290456 -0.179142900050653 0.979166666666667
0.0413394962439399 -0.172746228323432 0.983333333333333
0.0289579420008324 -0.167446489713039 0.983333333333333
0.0175295757842599 -0.158887137895635 0.983333333333333
0.00192450270140406 -0.145372679104654 0.983333333333333
-0.00413729604929151 -0.13372677938056 0.983333333333333
-0.00610543877737909 -0.126352849697597 0.983333333333333
-0.0217490309841811 -0.113481558516951 0.983333333333333
-0.0361010951448409 -0.103121004435553 0.983333333333333
-0.0483611950824832 -0.0946099223971797 0.983333333333333
-0.0505106068383025 -0.0907363999477999 0.983333333333333
-0.0701984307609059 -0.073324269630959 0.983333333333333
-0.0769933358653378 -0.0618383286225837 0.983333333333333
-0.0935531061844535 -0.0452733889275665 0.979166666666667
-0.0945788012037268 -0.0425707617765339 0.983333333333333
-0.109230255179832 -0.0301466953054889 0.983333333333333
-0.120793989735724 -0.0306595204299419 0.983333333333333
-0.133472845398647 -0.0143139864038147 0.983333333333333
-0.142156121238655 -0.00697768265956195 0.983333333333333
-0.155243216557721 0.000207527543197372 0.983333333333333
-0.161166302848289 0.0210538123907532 0.983333333333333
-0.181679919783803 0.041587253132789 0.983333333333333
-0.193314728035929 0.0434180360500222 0.983333333333333
-0.20656712294037 0.0557564934143497 0.983333333333333
-0.214391096993758 0.0653374179002304 0.990218299141786
-0.216068425132867 0.0612879895582439 0.990990168739175
-0.219381577998415 0.0667038914179367 1.0
0.0972890803605882 -0.245870126102769 0.233033447237577
0.10377433773871 -0.24318384454127 0.240484297588971
0.102059316223729 -0.243894229712537 0.25583738468257
0.101927683294493 -0.243948753857082 0.268526588396793
0.0993694430061001 -0.245008411680343 0.269055536858962
0.103095101156744 -0.243465193545581 0.282325897164428
0.105621770077726 -0.242418613010883 0.289621073259027
0.0990875019629716 -0.245125195484197 0.297104598409438
0.103471009707723 -0.243309487125553 0.309146175313035
0.106649573808243 -0.241992882766246 0.319782858173581
0.0998803751369483 -0.244796776662294 0.32157466934994
0.101320575819291 -0.244200226007129 0.334551091886785
0.102899871819602 -0.243546060184798 0.346012879846023
0.102294712521659 -0.243796725373402 0.359817868534484
0.0980366791441186 -0.245560460547417 0.361969623962975
0.102039937689414 -0.243902256564269 0.372422777326093
0.0998140328574007 -0.244824256534241 0.382276447967394
0.0993406627099345 -0.245020332869344 0.391509098946418
0.105477716393175 -0.242478282000734 0.400354123579206
0.105526420258067 -0.242458108199356 0.410435427631017
0.101588687060113 -0.244089170694955 0.427051214114014
0.103615285763407 -0.243249726026563 0.423899924977635
0.100184787166124 -0.24467068507126 0.431372074445118
0.103698505542252 -0.243215255265508 0.4503435837328
0.0997844137152746 -0.244836525184616 0.452045652900093
0.097276109809717 -0.245875498680851 0.467087164576197
0.0997893378877679 -0.244834485525586 0.467914779225581
0.100020004837217 -0.244738940146732 0.484234128190203
0.0977392911385475 -0.245683642692612 0.486908868307787
0.100504562267192 -0.244538229887489 0.495816246904366
0.0967846903731673 -0.246079051276284 0.512929380941029
0.100166280812134 -0.244678350654072 0.517494289805994
0.0958327395385702 -0.246473362222686 0.531842803818985
0.100725682264463 -0.244446638985707 0.542649733348288
0.104511197256361 -0.242878627335496 0.545763936315097
0.106410921738865 -0.24209173569007 0.55701952427131
0.1041143220557 -0.243043018426179 0.565179440481046
0.101876436687555 -0.243969980896701 0.575988461179677
0.104057366822989 -0.243066610056016 0.580617975243295
0.102152845468914 -0.243855488630704 0.598467179268174
0.103024344640288 -0.243494501854324 0.602575033324464
0.106410369253288 -0.242091964537089 0.61003790582096
0.103661814513576 -0.243230453187203 0.618543905567746
0.0957596348377644 -0.246503643181233 0.624994787972723
0.0997020319769573 -0.244870648817918 0.645538814601656
0.0986788221421573 -0.245294476208647 0.646943343276792
0.1041523033359 -0.243027286064804 0.660695626190758
0.100647018611622 -0.24447922253758 0.672940715422211
0.0984350598354229 -0.245395445862091 0.681490669226523
0.10225392303586 -0.243813620931623 0.681539292551873
0.096299108914271 -0.246280185702195 0.692683862344356
0.099126196798163 -0.245109167558666 0.701943835989377
0.104731468725453 -0.242787387905594 0.718539639357851
0.10084940933001 -0.244395389557124 0.72326932791711
0.101323519412397 -0.244199006730942 0.735468498582936
0.10084191810792 -0.244398492522913 0.739158191916906
0.10166333538082 -0.24405825034811 0.750730431057716
0.0993043329281516 -0.245035381157677 0.758687418193784
0.100746881133926 -0.244437858126468 0.772569473279652
0.103556048636608 -0.243274262847879 0.775754080653637
0.106666012322481 -0.241986073710703 0.786091457964466
0.105461162432689 -0.242485138875679 0.796628341018926
0.0992633868868704 -0.245052341563301 0.802763869280838
0.103412568404525 -0.24333369430594 0.816089114249685
0.102260352769158 -0.243810957648888 0.828174755624357
0.104876953444971 -0.242727126161651 0.838560170342793
0.102286201041204 -0.243800250944043 0.83797102511392
0.0975520882443524 -0.245761184670302 0.846061416568002
0.0973803462805898 -0.245832322520922 0.860249071478228
0.0982995165193321 -0.245451589741905 0.870186092735936
0.102594018845382 -0.24176586947649 0.879465199998137
0.100159936111842 -0.23913055458935 0.887997023795282
0.0918300564791544 -0.23938240501967 0.895486715140725
0.093396736632831 -0.235716057240929 0.902552358708676
0.0957840461949311 -0.232136033671169 0.90861990702981
0.0901565181051495 -0.23438862291966 0.908803512161813
0.0902322614133198 -0.229940325269404 0.919146300697086
0.0829724434697183 -0.231888006843498 0.921627098887999
0.0854560966861561 -0.224380866061911 0.936797044512256
0.076923301451511 -0.228529837154413 0.935357947015192
0.0744013472146944 -0.222644367086635 0.951585651940859
0.0778820927906138 -0.217903726067536 0.959310373123788
0.0744160171407059 -0.219796233646435 0.958240689659263
0.0718121264249984 -0.217276457767469 0.971230630347302
0.0740618980119841 -0.216344571863898 0.982014792083784
0.0699907760891481 -0.218030885778411 0.993495357188522
0.0719151090844729 -0.217233800953225 0.991230889332516
0.0683039999524335 -0.218729571330926 0.998839153626805
0.0391548535065822 -0.186597178273423 0.979166666666667
0.0292694103326231 -0.172407171222711 0.983333333333333
0.0159052066429977 -0.162384159268125 0.983333333333333
0.0103704306689586 -0.16087351469976 0.983333333333333
0.00145132345700466 -0.154455937080383 0.983333333333333
-0.0151850400371566 -0.142145389489899 0.983333333333333
-0.013519551004486 -0.134903885114694 0.983333333333333
-0.036869136160535 -0.12254190603742 0.983333333333333
-0.0360224650973643 -0.11476708829139 0.983333333333333
-0.0524145551576056 -0.104622449475784 0.983333333333333
-0.0629368113035048 -0.0900550982079271 0.983333333333334
-0.0731791065160918 -0.0860111373638491 0.983333333333333
-0.089235156756043 -0.0615016692556172 0.979166666666667
-0.0915427019691314 -0.058476156272485 0.979166666666667
-0.109983596436501 -0.0437654359571823 0.983333333333333
-0.124043130865579 -0.0337327194959003 0.983333333333333
-0.135536650772735 -0.0261058333543708 0.983333333333333
-0.148120066831442 -0.0185891940431456 0.983333333333333
-0.155272992423356 -0.0121733251718671 0.983333333333333
-0.173703309819122 0.00694789499677012 0.983333333333333
-0.184867808321133 0.022858257047532 0.983333333333333
-0.189779405483874 0.0227950191852248 0.983333333333333
-0.200866532166493 0.043908939831729 0.983333333333333
-0.218040825240231 0.0528601803026865 0.983319110572864
-0.218501769242518 0.0493589630015805 0.990186444490464
-0.218614909780447 0.0551503712172717 1.0
0.0862413453627052 -0.250446247772396 0.227933586459279
0.0892666552180835 -0.249193123399917 0.246569237226615
0.0928253245585812 -0.247719074295082 0.250066472648985
0.0948328211996073 -0.24688754195995 0.262675930466265
0.094932146865075 -0.246846399922221 0.271733627363952
0.0953455096029316 -0.246675179470021 0.279877482212442
0.0912416113095687 -0.248375069801733 0.286166945352123
0.089086349370587 -0.249267808527325 0.295252664511172
0.0904397951194825 -0.248707192942196 0.304753126933845
0.0976643703903733 -0.245714675882609 0.318609002026223
0.0908421872431024 -0.248540516667201 0.320930624489887
0.0910695649367092 -0.248446333742728 0.330976465121185
0.0964041047583919 -0.246236694999568 0.345231779455407
0.0911532703108722 -0.248411661841506 0.346011192340105
0.0855315260465198 -0.250740264559995 0.354298699868448
0.0864309863639399 -0.250367695897702 0.369382820810337
0.096726653785784 -0.246103090817892 0.377217230386076
0.0956863741471534 -0.246533988752873 0.386885507141692
0.0889263258680689 -0.249334092432366 0.398219678961705
0.0934814075909436 -0.247447315805035 0.401387634703011
0.0870108238435905 -0.250127519349659 0.41690925948072
0.0903120363549812 -0.248760112355165 0.424996175159976
0.0903384806000629 -0.248749158790206 0.44038727439231
0.0945657813005387 -0.246998153507839 0.445207644616091
0.0970075067929087 -0.245986757693307 0.456511230538533
0.0929726583268087 -0.247658046650086 0.461924309756461
0.0875050693678548 -0.249922796150366 0.471888946298612
0.0933532030966125 -0.247500419845344 0.476257121251973
0.090880881769465 -0.248524488869592 0.484632042314594
0.0913687171534091 -0.248322420837357 0.498393820492989
0.0915199571999192 -0.248259775158919 0.505864063225599
0.0887496720775105 -0.249407264828261 0.511235643676211
0.0954203959140455 -0.246644160544322 0.526706159429475
0.0910993946431164 -0.248433977873773 0.528560415929575
0.0900021606925585 -0.24888846705719 0.550011730816222
0.0909913575832664 -0.248478728289201 0.554417137829049
0.0896562654536124 -0.249031741556322 0.567515171160636
0.0905480465811972 -0.248662353718608 0.570533531649698
0.0921240338283344 -0.248009558426717 0.583955551391432
0.0911326404721807 -0.248420207000482 0.584673684221145
0.0920596452741217 -0.248036229039133 0.595875783917093
0.0961383768685943 -0.246346763095423 0.606975631753998
0.0904495138541133 -0.248703167310503 0.616860934039987
0.0950522942843038 -0.246796633231693 0.629717228880533
0.0909825642140324 -0.248482370621997 0.635348025010815
0.0916399284845766 -0.248210081425718 0.654478530790181
0.0939739636858716 -0.247243292390286 0.657174021934849
0.0925675518784312 -0.247825847235209 0.655870363572556
0.097290423748846 -0.245869569653133 0.676637101289943
0.0955067738123675 -0.246608381647348 0.684149775426457
0.0866115335623079 -0.25029291079949 0.690976349990044
0.0941499524529072 -0.247170395456154 0.705289363080265
0.0929913351418808 -0.247650310459982 0.711409708417096
0.0921476743278402 -0.247999766211199 0.728022476670081
0.0933759459601606 -0.247490999442814 0.727958220499513
0.0883708936162732 -0.249564160004041 0.72987284384311
0.0916117092986877 -0.248221770195233 0.741227564582397
0.0942856669337249 -0.247114180677589 0.757735184114362
0.0931472386195716 -0.247585733125101 0.766724280236143
0.0875198779161461 -0.249916662248825 0.773808327259016
0.0935822361557828 -0.247405551246003 0.783178214031297
0.0917376510408472 -0.248169603417561 0.791764604315791
0.0969683776083687 -0.246002965532229 0.801148704285332
0.0925625490234858 -0.247827919485578 0.817204941407968
0.0912299613378858 -0.248379895378005 0.814594676202287
0.0939250355671691 -0.247263559080634 0.828309372045836
0.0917156490235926 -0.248178716951508 0.843870416898991
0.0906592125428177 -0.24861630726963 0.847391700493111
0.0873830289393535 -0.249973346951009 0.857815892883776
0.0938892694166404 -0.247278373905256 0.864679512723176
0.0950629745708315 -0.245135817480347 0.878878652075071
0.0894738375628189 -0.245114063812915 0.88435068350978
0.0916037325421479 -0.242690488510361 0.887959936261538
0.0831725725941952 -0.243424070663453 0.894419826721712
0.0776809223685595 -0.242040150472381 0.902986988545711
0.0774873807537726 -0.240287430307555 0.907278928198774
0.0826872272321002 -0.232979262997765 0.919348424702423
0.076820868035431 -0.234873804914182 0.920602093530419
0.0701774687421942 -0.232766408640342 0.931980486847163
0.0734522153758552 -0.229105276299656 0.937377206526783
0.0671538525265193 -0.226281067237627 0.950099445643785
0.0684213708635333 -0.224790502385438 0.952360383984772
0.0646046327113393 -0.223901721718241 0.958143559959318
0.067802138494776 -0.218937449153119 0.967837492603451
0.0613823087940552 -0.221596629683284 0.974741546324347
0.0584969410075055 -0.222486604027366 0.980224020809231
0.0605641299677977 -0.220152831574177 1.0
0.0415233576274261 -0.200311182083344 0.983333333333333
0.0269195546287574 -0.188164808069787 0.979166666666667
0.0189256203458228 -0.186304493593673 0.979166666666667
0.0152892863287236 -0.173389089651068 0.983333333333333
0.0100892228710081 -0.170751852135613 0.983333333333333
-0.00546944207836759 -0.164303255681506 0.983333333333334
-0.0104462438948852 -0.14699724756565 0.983333333333333
-0.0237707340638404 -0.143322089633634 0.983333333333333
-0.0295494081794758 -0.127393370005564 0.983333333333333
-0.0440874777956458 -0.121476922871075 0.983333333333333
-0.0611504045283439 -0.109468808417903 0.983333333333333
-0.0687364098657061 -0.100101648320804 0.983333333333333
-0.0766178193449206 -0.0896513684114763 0.983333333333333
-0.0950702490307248 -0.0757454045546136 0.979166666666667
-0.101827311341759 -0.0665493420988557 0.983333333333333
-0.124092920853767 -0.0556680243564817 0.983333333333333
-0.122724705715141 -0.0482129108404562 0.983333333333333
-0.141073924036147 -0.0378208560795293 0.983333333333333
-0.139904995346499 -0.03432364972994 0.983333333333333
-0.1605650581076 -0.0177460007590952 0.983333333333333
-0.172727115978077 -0.00927049970419195 0.983333333333333
-0.191093082100997 0.0052916797881836 0.983333333333333
-0.188363709165239 0.00910212325922303 0.983333333333333
-0.207471433963661 0.0285730895464118 0.983333333333333
-0.212663240277179 0.0356187337973536 0.983333333333333
-0.21962938119748 0.040793899857121 0.989648082917827
0.08606912338032 -0.250517584453239 0.229244878002897
0.0851887497188095 -0.250882247163792 0.238861856150076
0.0846531250917756 -0.251104110148651 0.242613043761628
0.0858551519643046 -0.250606214315712 0.255907548018945
0.0822717994479579 -0.252090487526747 0.26526983383123
0.0849566389339812 -0.250978390598841 0.273610017952701
0.0866602162378077 -0.250272745775045 0.286041618725865
0.0839427310257947 -0.25139836500541 0.292061697274247
0.0813964179735702 -0.252453082405688 0.295744818009235
0.0825225046982485 -0.251986642011918 0.315598565477463
0.0793672510976244 -0.253293590846023 0.319538665460213
0.0871504681741429 -0.250069676774036 0.333013246062323
0.0815064258144068 -0.252407515666046 0.336677091552257
0.0810682362230799 -0.252589019737665 0.338292250865812
0.085610684307601 -0.250707476134681 0.364157331635734
0.0862111932077183 -0.250458737203926 0.365002250908573
0.081191687196843 -0.252537884670044 0.378730489445644
0.0853843931245161 -0.250801209011759 0.383220062532887
0.0840700696876199 -0.251345619604667 0.401161882225813
0.0888453815590032 -0.249367620662978 0.405814524890053
0.0821642510712213 -0.252135035523002 0.409275862770862
0.083828021346068 -0.251445879310488 0.422789386696273
0.0804380727330509 -0.252850042001747 0.429278100743035
0.0791668381572862 -0.253376604603987 0.441293896476852
0.0846757186817767 -0.25109475157725 0.443210663558579
0.0857758740038809 -0.250639052322117 0.458352045076497
0.0834867636596342 -0.251587232872472 0.468885925313367
0.0838121550477027 -0.251452451346455 0.474620812914965
0.0775575970101632 -0.254043174112254 0.485268001848169
0.0801903439027295 -0.252952654643057 0.493144994138581
0.0801819572866987 -0.25295612849316 0.503364852855278
0.0792808621424841 -0.253329374322882 0.515861865910634
0.0837393474419401 -0.251482609244206 0.52006203393117
0.0835450080677577 -0.251563107248695 0.533163760678407
0.0871809500722817 -0.25005705075842 0.542474212460018
0.0882851588084792 -0.249599672524196 0.551919224914622
0.0834218462160883 -0.251614122558024 0.559811468138111
0.0791452129245603 -0.253385562068671 0.563626596840978
0.0828729714331252 -0.251841473937172 0.584736466818185
0.0812699412173222 -0.252505470793451 0.588476555474353
0.0778488622892807 -0.253922528083395 0.598384272674718
0.0849117324295003 -0.250996991482036 0.608306525590276
0.0801073417402292 -0.252987035264471 0.615935128104256
0.078113622654458 -0.253812860749359 0.625686337713939
0.0803465084231595 -0.252887969180734 0.636398621117992
0.0826251010882152 -0.251944145195744 0.648021038380126
0.0804360476612197 -0.252850880813965 0.648451714111181
0.0823695035811875 -0.252050017149663 0.65587000986634
0.0827493559480198 -0.251892677147622 0.67164805328577
0.0781420536476523 -0.253801084246387 0.679298326773486
0.0820249200054134 -0.25219274834012 0.690467625766609
0.0848286945797793 -0.251031386885581 0.691586916451866
0.0769970090691534 -0.254275377240323 0.705737629870592
0.0848916083907866 -0.251005327131801 0.717323311855176
0.0860311696082775 -0.250533305420361 0.728599987703309
0.0824352934057259 -0.252022766112074 0.735449198772751
0.0836258028790518 -0.251529640942088 0.742388520310706
0.0846554131249925 -0.251103162414261 0.753944860717454
0.0788916838563834 -0.253490577247166 0.764554762012937
0.0852668830761505 -0.250849883267508 0.774015050960381
0.0793288863415127 -0.253309482048322 0.784141243423195
0.0814106902239946 -0.252447170645997 0.794528822516906
0.0788090036312183 -0.253524824517769 0.800764429339585
0.0824980504175805 -0.251996771306629 0.810915874100874
0.0848134580363642 -0.251037698068507 0.822099920004489
0.0817426105899313 -0.252309684728798 0.8257117087916
0.0830409381825762 -0.251771899831521 0.837971272029679
0.0829710023948121 -0.251800868183309 0.843107415126445
0.0826820946641436 -0.251920537683626 0.857939662496205
0.082779601101118 -0.251880149195012 0.863635126803882
0.0867967389356162 -0.250216196222041 0.872444692093346
0.0836775818460361 -0.24898897621429 0.880899067325196
0.0762455925831457 -0.251331408880089 0.882622500412909
0.0745538158740711 -0.247979449319712 0.892112451185177
0.0718621205248078 -0.245236671455043 0.901145780370515
0.0732438586946557 -0.24035528146914 0.911235981218881
0.0719381195218639 -0.239416127565064 0.914701609948199
0.065777728445895 -0.240557887821686 0.91800320417939
0.0640354912585711 -0.236723635070351 0.928671449098589
0.0608476038373154 -0.236190123365323 0.931453768135305
0.0613560971432546 -0.231587667020709 0.942850944736889
0.0564285899204031 -0.229918677280434 0.948675057216604
0.0562743374202963 -0.225721766383412 0.959272402380016
0.0503741330622224 -0.226500589048125 0.95926726097478
0.0503706843612704 -0.223556446010878 0.968781192835535
0.0487643103798058 -0.223767929157598 0.980105258865779
0.0443738541500861 -0.224345943685789 0.990396461554591
0.0506551603857451 -0.223649228076463 1.0
0.0263067319654646 -0.201448849042515 0.983333333333333
0.00978566999576607 -0.180338663182905 0.979166666666667
0.00732733325394929 -0.179759013241978 0.979166666666667
-0.00380416321742597 -0.167301419733643 0.983333333333333
-0.00974086208466451 -0.16150949018973 0.983333333333333
-0.0299133377281709 -0.15265702092598 0.983333333333333
-0.0393317621311972 -0.145931582585503 0.983333333333333
-0.0388251449322555 -0.134158148771204 0.983333333333333
-0.0508650492272694 -0.129403060036383 0.983333333333333
-0.0607726676974058 -0.114152351637805 0.983333333333333
-0.0696083807629452 -0.105880252272327 0.983333333333334
-0.090774441637026 -0.093826325303987 0.979166666666667
-0.094702880729442 -0.0853145899061444 0.979166666666667
-0.109137227006915 -0.0797459255696525 0.983333333333333
-0.119980123607516 -0.0746175468695551 0.983333333333333
-0.139899850833498 -0.0472421606263465 0.983333333333333
-0.140492034820484 -0.0476048079944383 0.983333333333333
-0.152767215071705 -0.0298384771398306 0.983333333333333
-0.171105260111933 -0.0267915568349582 0.983333333333333
-0.169694007262698 -0.0181739163510306 0.983333333333333
-0.196991467962943 -0.00225485617076027 0.983333333333333
-0.201639324878168 0.00543771335321225 0.983333333333333
-0.221818677159185 0.0241645460520302 0.981437731918833
-0.220992946419953 0.0304365937105537 0.991785972570159
-0.221338811052235 0.027809491007446 0.995484538184768
0.0668329428380996 -0.257867942820915 0.223287761442474
0.0691521848012958 -0.257562608823951 0.224944464931534
0.0789644194715559 -0.253460449168894 0.246812540261835
0.0750340712071847 -0.255088452724846 0.250144244466782
0.0731033246223157 -0.255888194145804 0.258560057795112
0.0706856464037541 -0.256889629253387 0.265989552503227
0.0685124632305563 -0.257646829766499 0.276362069816023
0.0728501917255392 -0.255993045224732 0.289103273293152
0.0757214622203904 -0.254803726044523 0.290893622464287
0.0744513763404589 -0.255329812841369 0.303324820919066
0.0694604389524298 -0.257397126796446 0.309299386000462
0.0739726980152829 -0.255528087895671 0.323739379813734
0.0755839265565533 -0.254860695181794 0.341632295914938
0.0734085298401296 -0.255761774005279 0.340997223498929
0.0693002114284947 -0.257463495209925 0.349241041136966
0.0726774723321 -0.256064587939979 0.363720878081025
0.0740200281740318 -0.255508483102007 0.367507976381682
0.0762735938510724 -0.254575025634879 0.378122226528772
0.0751474310327119 -0.255041497547685 0.388654607417184
0.0696243465517362 -0.257329234045837 0.39413248309927
0.0751916028213947 -0.255023200993738 0.406085726102186
0.0692026234750755 -0.257503917463755 0.416745830748051
0.0746808275875705 -0.255234771022912 0.433885633150923
0.0764457875888238 -0.254503700653347 0.434671400018023
0.0745115427618933 -0.255304891093611 0.447272075000849
0.0720534891010692 -0.256323050256965 0.451041916439922
0.0738153871590712 -0.255593248185822 0.470342287922394
0.0724581878270018 -0.256155418556009 0.467790179930519
0.0770738322521384 -0.254243556036026 0.481514006634862
0.074253005888686 -0.255411980572867 0.497869553631939
0.0720599945999374 -0.256320355591104 0.503590641880843
0.0784394598215948 -0.253677894575606 0.509271728270982
0.071805444990375 -0.256425793491682 0.517688918081548
0.0700168381105953 -0.25716665871904 0.524492764163939
0.0713892538804177 -0.256598185493965 0.536719282429363
0.0725228650128637 -0.256128628388449 0.544636741677573
0.0744175208036361 -0.255343836263882 0.558867467461386
0.0746594234179045 -0.255243636920279 0.559704378554677
0.076439082296063 -0.254506478076547 0.579551433262477
0.0733216088396146 -0.255797777862547 0.581362381844162
0.0778775798496621 -0.253910632880407 0.589080303299995
0.0790887769524277 -0.253408938613735 0.603006875224582
0.0738455889424212 -0.255580738197551 0.610169121543266
0.0665186054996892 -0.257909326116602 0.614379577644065
0.0728362461513019 -0.255998821670716 0.631215150461169
0.0726316543468424 -0.256083566370873 0.637341053711786
0.0676294181988227 -0.257763084850409 0.647156135431977
0.0751685312688077 -0.255032757543724 0.652180551882153
0.0703510154299279 -0.257028237941135 0.667519829331104
0.0723834413587902 -0.256186379556882 0.671686543997091
0.0710840612523005 -0.256724600419668 0.682468630136562
0.0732681642154949 -0.255819915350693 0.699274060047701
0.073034785096603 -0.255916584146913 0.706722281076102
0.0675284505431001 -0.257776377494461 0.705995433941727
0.0715658014544716 -0.256525057094388 0.725053863164528
0.0727879824214586 -0.256018813162188 0.737166786623661
0.0679755058395184 -0.257717521548127 0.741496792992778
0.0694413158037389 -0.257405047863989 0.745776243408478
0.0762589307163317 -0.254581099304155 0.759008821507733
0.0738934804703991 -0.255560900877139 0.766804973368018
0.0740037719441597 -0.255515216652894 0.781645946083652
0.0731170441626796 -0.255882511326116 0.790142100240908
0.0739652854938894 -0.255531158262563 0.794211192871228
0.0710431491992308 -0.256741546746913 0.805230514924346
0.0697525347378428 -0.257276136760616 0.811679714475935
0.0749479883912003 -0.255124109394714 0.824042877902748
0.0739784597526861 -0.255525701305896 0.828294418832265
0.0737201856952276 -0.255632681923304 0.839398077242792
0.0715383021188466 -0.25653644769216 0.852241391777397
0.0696506268252751 -0.257318348400114 0.860999551120773
0.070995040367737 -0.256761474077389 0.87202457042105
0.0671398530651886 -0.256558695134355 0.878188442390566
0.0735371873613745 -0.251242319985639 0.885458086941725
0.0721426960525517 -0.247923756815568 0.894581488685396
0.0637782025735981 -0.247497194376501 0.902070987713284
0.0665017201625545 -0.243682781415692 0.909983644536567
0.0662815724903632 -0.242600658960479 0.912731100502118
0.0585858780511669 -0.240961222546987 0.920212828554434
0.0555977020027787 -0.239633962173299 0.92453663588264
0.0508813978767765 -0.23676152273405 0.933314996025472
0.0512003507100466 -0.234918048282796 0.937841899728606
0.0445535766476026 -0.230787973028201 0.950419192325173
0.0520221169130693 -0.229073403958176 0.95225690109146
0.0366281300487737 -0.227241266945063 0.961953569392274
0.0371946338588711 -0.228091525778839 0.959629560463279
0.044254936621527 -0.224361599475431 0.977930856544611
0.034602289913571 -0.225632394522861 0.981002852629688
0.0337521892032772 -0.225744312404572 0.993787893904924
0.0366176006316445 -0.220179201421186 1.0
0.0165892887094083 -0.204116373168917 0.983333333333333
-0.00674321007198276 -0.179642104958732 0.979166666666667
-0.0125784339089297 -0.177458623376372 0.979166666666667
-0.0209119534721122 -0.166333365778143 0.983333333333333
-0.0317646350843605 -0.152935217176531 0.983333333333333
-0.0411782171550704 -0.150993431365092 0.983333333333333
-0.0445932345086068 -0.148186027856211 0.983333333333333
-0.0619994534158478 -0.131228346266462 0.983333333333333
-0.0665681835321882 -0.120873350034456 0.983333333333333
-0.0784750752883955 -0.118996669366102 0.983333333333333
-0.0971468159075452 -0.100941395496175 0.979166666666667
-0.103335902078494 -0.0968085790698578 0.983333333333333
-0.115210860035795 -0.0898117919786534 0.983333333333333
-0.12860261337816 -0.0768511027807837 0.983333333333333
-0.138111411388884 -0.0677630008010221 0.983333333333333
-0.156101431747373 -0.0490186246248073 0.983333333333333
-0.153927067653483 -0.0452549702727518 0.983333333333333
-0.174222939089631 -0.0392218077076207 0.983333333333333
-0.189032172125478 -0.0136546057574106 0.983333333333333
-0.199434082466716 -0.00715853104567433 0.983333333333333
-0.208102734386483 -0.00154848602849608 0.983333333333333
-0.223233029969452 0.0134214698765989 0.98329360301042
-0.223119846088499 0.0142811868058386 0.994334827795633
-0.225584328902778 0.018775887631437 1.0
0.06171078458748 -0.258542287747647 0.218707122418379
0.0625394478036907 -0.258433192165574 0.230251408485381
0.0625818326762734 -0.258427612091239 0.234770478459924
0.062720226649897 -0.258409392178961 0.251499213790801
0.0621267059162205 -0.258487530665919 0.255641083911345
0.0625477422311501 -0.258432100183483 0.266754662105588
0.060899241179963 -0.258649129464147 0.275038605832385
0.0582748574612867 -0.258994636135339 0.280336224865525
0.0569770633141995 -0.259165493976157 0.286884635391745
0.0631469170405286 -0.258353217323337 0.303478330253366
0.0626550687852891 -0.258417970374573 0.304423240820377
0.0681706633927278 -0.257691828568825 0.319118620191432
0.0591877872316539 -0.258874446650948 0.325927534995173
0.0671085156749618 -0.257831662968675 0.339356064167655
0.056118342911475 -0.259278546661905 0.338970043352253
0.0643681448983262 -0.258192439625735 0.351668687266928
0.0585463207922011 -0.25895889730982 0.367006477787939
0.0620384180775875 -0.258499153980381 0.381182399274063
0.0617742472299829 -0.258533932732258 0.376104365501197
0.0581182524546843 -0.259015253575593 0.392200685223058
0.0580927481982838 -0.259018611274647 0.39937278087547
0.0600104835060445 -0.258766136631669 0.411447170481754
0.0643998929214578 -0.258188259919195 0.423858185410858
0.0698636319925493 -0.257230118770973 0.436607348763434
0.0571092031920168 -0.259148097431212 0.439018353441835
0.0605901158433304 -0.258689826586782 0.455222969392728
0.0685879335261896 -0.257636893913586 0.464507484982751
0.0659933054456069 -0.257978483180705 0.469136203569333
0.0618368526606844 -0.258525690570944 0.474997365993841
0.0603398088110066 -0.258722780132752 0.48734320766625
0.0629787398441605 -0.258375358271276 0.497639763108569
0.0601183257788577 -0.258751938927107 0.497723772931374
0.0668752772756463 -0.257862369386478 0.514434928889176
0.0619961275510853 -0.258504721633819 0.522402440654073
0.0639306379128837 -0.25825003851308 0.528986536201483
0.060887825619899 -0.258650632351141 0.546472580929862
0.0579092904567445 -0.259042763944523 0.545543316336972
0.0573121636519351 -0.259121377179752 0.554189898917616
0.0574949570201735 -0.259097311976281 0.56488153217036
0.0618546246981239 -0.258523350837828 0.574523040494437
0.0695764703498438 -0.257349065017976 0.588046217423714
0.0589422678792481 -0.258906769886898 0.59047825662391
0.0627565850512403 -0.258404605504615 0.608967327191858
0.0638293122527579 -0.258263378289305 0.621812130246103
0.0593463516825292 -0.258853571244962 0.620791701303033
0.0682213836375882 -0.25768515112191 0.635841633142409
0.0560982308168189 -0.259281194469398 0.63518670957196
0.0608230375643255 -0.258659161860471 0.65469917189655
0.0628310385879719 -0.25839480351055 0.660732824544472
0.0633715253677496 -0.25832364707608 0.677094031108052
0.0593712911762132 -0.258850287898329 0.672609138408141
0.0636071221024953 -0.258292630177526 0.693662827274192
0.0650482618053954 -0.258102900536268 0.699225316340857
0.0605096478190383 -0.258700420403157 0.701278035093814
0.0630378959627019 -0.258367570220522 0.712776348502163
0.0649530678932724 -0.258115433052553 0.722768115840799
0.0664289945102276 -0.257921123627176 0.733283700513932
0.0602050278564741 -0.258740524382043 0.740977771335041
0.0622856532963221 -0.258466604846343 0.750483373620396
0.0614563811563806 -0.258575780594746 0.758587727424779
0.0598699362331887 -0.258784640031169 0.770621873875798
0.0669808745590821 -0.257848467240376 0.785129951659383
0.0571129621415892 -0.259147602556112 0.788621534827905
0.0563552031363678 -0.259247363421719 0.794545520332909
0.0589621295835147 -0.258904155043925 0.803873005939218
0.0631573152161181 -0.25835184837755 0.818070504261514
0.0649441213748393 -0.25811661088405 0.824803294324447
0.059862300944651 -0.258785645235975 0.834327623173206
0.067170862843257 -0.257823454808252 0.853814175169042
0.062215288189663 -0.258475868588378 0.852691274796288
0.0649563332960924 -0.258115003154117 0.871835108651394
0.0574841488589501 -0.2590987348977 0.867414696102245
0.0635528440919025 -0.255903258112836 0.88102215100641
0.0540275271516182 -0.254328889303834 0.888129569383626
0.0577138271625424 -0.250845242258326 0.895664015431536
0.05286334252868 -0.250525193098486 0.898072927137613
0.0515696510063193 -0.246353838812712 0.908983008149493
0.0521708754773231 -0.242535375726303 0.918379429425601
0.0518419493181128 -0.240826570289756 0.922782262096409
0.0392474747515773 -0.241885763210693 0.92428722599888
0.0371382339334117 -0.239735983522406 0.930387147006841
0.0401981538930108 -0.235278118846154 0.94057690363905
0.0309726601488029 -0.233704947633942 0.947582123197191
0.0337675276856479 -0.230552616598627 0.954578922709138
0.029597913769146 -0.228436387824779 0.961276160117524
0.026817610297307 -0.227510186633065 0.964523385950293
0.0257915179537599 -0.226792354657043 0.97734953841807
0.0256063332271014 -0.226816734688824 0.985160977160203
0.02614665872765 -0.226745599487166 0.992377935247752
0.0184130713581863 -0.225637656296528 1.0
-0.0113415212505904 -0.187290751558719 0.979166666666667
-0.0267196404455849 -0.181598026212514 0.979166666666667
-0.026718653394835 -0.175238351404009 0.980452625716171
-0.0379865129929813 -0.164657683664778 0.983333333333333
-0.0498584370804895 -0.152472312907534 0.983333333333333
-0.0611009794746522 -0.143902930387942 0.983333333333333
-0.0645017204149263 -0.140123257296525 0.983333333333333
-0.0856109761450085 -0.127902588751029 0.983333333333333
-0.0857277537915694 -0.122442896356623 0.983333333333333
-0.106374714406476 -0.11517646345218 0.980902448817097
-0.120155800682682 -0.100315321569298 0.983333333333333
-0.120025922278322 -0.0938177538802008 0.983333333333333
-0.139652184624609 -0.0763036536656129 0.983333333333333
-0.14951828274436 -0.0726758867491752 0.983333333333333
-0.163781555649651 -0.059516676931146 0.983333333333333
