ply
format ascii 1.0
element vertex 842
property float x
property float y
property float z
end_header
-0.145157146666942 -0.0243404856465737 0.983333333333333
-0.167947642796002 -0.0154032799644146 0.983333333333333
-0.175799551514297 -0.0076161940862376 0.983333333333333
-0.188134011425523 0.00192599461697046 0.983333333333333
-0.201797798809601 0.0239234783650706 0.983333333333333
-0.209709449110408 0.0337418321719319 0.983333333333333
-0.220533133280694 0.0339292212541607 0.982446580122805
-0.223574158048175 0.0420238991706856 1.0
0.0778558581745785 -0.253919630292824 0.224189695525937
0.0808074533278862 -0.252697039549689 0.232694222393654
0.0825302617166508 -0.251983428949693 0.245681847387297
0.0821221530805755 -0.252152473081676 0.256203537527998
0.0771790538400605 -0.254199971827254 0.26597349696927
0.0831070298147084 -0.251744523781133 0.271972977535564
0.0821268549087759 -0.252150525520668 0.287588078991194
0.0823187738362367 -0.252071030098037 0.288246781013427
0.0793402336642683 -0.25330478183334 0.297857218395816
0.088355823485371 -0.249570402256646 0.312131569697049
0.0802704628733636 -0.252919468278817 0.31646680905918
0.0858974006854704 -0.250588714322413 0.323964174373539
0.0837500446415074 -0.251478178319066 0.343007269875817
0.0866355526612334 -0.250282961762959 0.346897683287612
0.0802229901773175 -0.252939132113362 0.358643214924137
0.0825710200149761 -0.251966546309747 0.362173068813308
0.0814612355281784 -0.25242623409549 0.380570389198693
0.0799222822937757 -0.253063689397037 0.381376884327229
0.0854075828605173 -0.2507916035086 0.38989986032273
0.0788188145995859 -0.253520760681611 0.396545774682586
0.0848576268150174 -0.251019402761355 0.415865274104978
0.0844148276058151 -0.251202816199215 0.422021141395341
0.079153205222711 -0.253382251550383 0.423562929003844
0.0875837096193677 -0.249890222291641 0.438989389269759
0.0784979411553412 -0.253653670814023 0.444140561200568
0.0775964728512568 -0.254027071211624 0.45417606010005
0.0782598436419278 -0.253752294033246 0.462764363110141
0.0884052085027845 -0.249549946312656 0.479731671591463
0.0790280141163984 -0.253434107404506 0.485000171620872
0.0836558982015927 -0.251517175051327 0.498077972821099
0.0803923232696245 -0.252868992049969 0.504945765451361
0.0837141315459536 -0.251493054010311 0.516989059915162
0.0838291945107684 -0.251445393369758 0.528834479789765
0.0811630601717167 -0.252549742372101 0.527456112551145
0.0850452091246606 -0.25094170362464 0.542222967389674
0.0826770077034707 -0.251922644771728 0.548069726126717
0.0800646876874467 -0.253004703151624 0.558869804281299
0.0819570451830234 -0.252220863012098 0.567026711181718
0.0832247521586712 -0.251695761589669 0.573024936734007
0.0797476934423216 -0.253136006467148 0.584207111655422
0.0823578244008068 -0.252054854824574 0.592793074726463
0.0812222957580149 -0.252525206188882 0.609947414484035
0.0825661431335128 -0.251968566380191 0.611181574693625
0.0846916355942935 -0.251088158576214 0.631183294795608
0.078209054842608 -0.253773331442741 0.631592647694863
0.0854118132140935 -0.250789851238775 0.649600516976546
0.0844594911204258 -0.25118431596572 0.649570181100732
0.0841173028749327 -0.251326054977888 0.665284313132471
0.0816580014059613 -0.2523447310003 0.668664132457448
0.0853480124750852 -0.250816278370162 0.680589302683147
0.0815841777783851 -0.252375309748066 0.685588430446857
0.0870534532506973 -0.250109861671079 0.6991991356779
0.0822923579850588 -0.252081971901857 0.707169726078519
0.0766108326749657 -0.254435336740263 0.70939586615407
0.0821211222122072 -0.252152900081336 0.727760798213935
0.0836703165155838 -0.251511202790126 0.735402059476409
0.0810538982774973 -0.252594958709182 0.748261938904064
0.0842861438074886 -0.251256118773739 0.758610140959236
0.0813428523578876 -0.252475270010181 0.76154009932083
0.0821035144479146 -0.252160193456109 0.764428060198883
0.0804790082592397 -0.252833085951617 0.7782013986575
0.077714941469364 -0.253977999903288 0.787296420435084
0.0827695233870896 -0.251884323520841 0.798594667151164
0.0789753045192342 -0.253455940434519 0.809764513560647
0.0866774213362664 -0.250265619189921 0.814991181685764
0.0822639418242355 -0.252093742261061 0.830192365020479
0.0800034978196375 -0.25303004882475 0.832682987634449
0.0821710330234696 -0.252132226346402 0.848168866576973
0.0805455983891664 -0.252805503416681 0.855081032957878
0.0855500545053477 -0.250732589821058 0.864097957553341
0.0813857913552914 -0.252457484095102 0.866240347508726
0.0838668699262141 -0.249529151299877 0.879450581790091
0.0754478925552237 -0.250874426654818 0.884466298552586
0.0752019309974503 -0.247513893024923 0.892573981728886
0.0740806561821646 -0.244585416820002 0.900518943356031
0.074084635732113 -0.241333594069034 0.908129639878649
0.0691190621902797 -0.238769051270973 0.918951120130853
0.064901082435708 -0.23982979793282 0.920558407753539
0.0596657118497321 -0.236879547155007 0.930112333005193
0.0653375539391686 -0.235633998125215 0.929960058045768
0.0622859098384549 -0.230100425207138 0.94587751511445
0.063806248003114 -0.228071502861175 0.9491538675
0.0542743416573917 -0.225742955361381 0.959880808374887
0.0521069642390656 -0.224067428865933 0.964808223293717
0.0469081857035681 -0.224012292607058 0.967845909855338
0.0515760289327318 -0.223397759387592 0.984543300438762
0.047102179909093 -0.223986752785383 0.984012524490241
0.0508787441880839 -0.223489558665755 0.99742466512589
0.0244042395479747 -0.201232177430205 0.983333333333333
0.0131403498802808 -0.184589700163617 0.979166666666667
0.0051636784987054 -0.175238351404009 0.982812336018612
0.000713533384248904 -0.175238351404009 0.980256070713809
-0.015826528886648 -0.157967943247515 0.983333333333333
-0.0233070096431516 -0.154250792504636 0.983333333333333
-0.0356414866610346 -0.150484900129782 0.983333333333333
-0.0390004211992638 -0.143045161910798 0.983333333333333
-0.0483055498218877 -0.125931344454018 0.983333333333333
-0.0608669050540961 -0.124500564129513 0.983333333333333
-0.0736284794530556 -0.108337298929197 0.983333333333333
-0.0925636111448959 -0.0898303964923664 0.979166666666667
-0.0977687413287929 -0.0799277698495733 0.979166666666667
-0.110376605075387 -0.0762235136206229 0.983333333333333
-0.116604897015055 -0.066284455601595 0.983333333333333
-0.135478324218831 -0.0573367789362275 0.983333333333333
-0.145374646379286 -0.0431738093427611 0.983333333333333
-0.151077093936286 -0.0292384334099465 0.983333333333333
-0.171777430919638 -0.0159761884018039 0.983333333333333
-0.184750191724284 -0.00574108094038407 0.983333333333333
-0.18876984628459 -0.00470553775303273 0.983333333333333
-0.201587629800631 0.00427650805255687 0.983333333333333
-0.221324308398188 0.0279196496015732 0.980942846846439
-0.222127280024631 0.0218204745676182 0.989743050741524
-0.223506954496675 0.0280004547662787 1.0
0.0742154236317336 -0.255427547653402 0.220599106588524
0.0675139709564557 -0.257778283768207 0.23271747201871
0.071918047131027 -0.256379152157871 0.241793434428677
0.0763141533757345 -0.25455822532968 0.25634387597115
0.0713564476864833 -0.256611774264422 0.268429574370735
0.0728222761355307 -0.256004608240715 0.273512706112493
0.0682072071018879 -0.257687017498242 0.278655189230077
0.0779359965647963 -0.253886435884728 0.290791824668581
0.073614341804434 -0.255676523898365 0.295373725345249
0.069849833438133 -0.257235834319354 0.311041624759247
0.0722136315476142 -0.256256717083695 0.314638666002563
0.0677708704033978 -0.257744462314388 0.32412534772943
0.072022016882976 -0.256336086476538 0.329633312802846
0.0664669351752471 -0.257916128643866 0.338698785614893
0.0693785461532898 -0.25743104790451 0.350152449480289
0.0756579096068366 -0.254830050398981 0.363084015374034
0.0753433170816708 -0.254960358889526 0.366134275500924
0.0736704202130239 -0.255653295460971 0.380615353847116
0.0723247939462875 -0.256210672110539 0.384705773534841
0.0729079920786505 -0.255969103534563 0.399527327594537
0.0766782775413826 -0.254407400161881 0.40367079092886
0.0721319346270146 -0.256290557056211 0.419560242618516
0.0692117231400322 -0.257554770452954 0.418583238794032
0.0740861847282464 -0.255481080160012 0.43721682835777
0.0773698514861499 -0.254120940854575 0.450954882023168
0.07337254455322 -0.255776679599162 0.448473546260678
0.0715883050237145 -0.256515735810805 0.470777450457736
0.0743460539534398 -0.255373438802494 0.477703146704162
0.0712918529173355 -0.256638530293862 0.482045090033049
0.0691385950091626 -0.257564397954027 0.494257218207321
0.0684957590829112 -0.257649028909257 0.501203523163643
0.0666349711894195 -0.257894006282915 0.509366126676917
0.0683412279819402 -0.257669373314654 0.515430634061379
0.0738274612487752 -0.255588246934113 0.531280332385839
0.0738884517886864 -0.255562983825306 0.534597557983764
0.0749893453927518 -0.255106978763772 0.545761250367851
0.0740599671952551 -0.255491939817749 0.551780720700369
0.075595064634389 -0.254856081638895 0.571652010324812
0.0759158803435165 -0.254723195421153 0.581096608318189
0.0725570522009475 -0.256114467591485 0.580017398532929
0.0672911919038946 -0.257807613186887 0.595234667507243
0.0683419700692973 -0.257669275617001 0.604239612025312
0.0766281832801646 -0.254428149884275 0.613013288888276
0.0691030438168112 -0.257569078357293 0.618085504490802
0.072023547156462 -0.256335452616506 0.623239499425855
0.073742224027054 -0.25562355334737 0.641752507522593
0.071421391285148 -0.256584873745066 0.643140389066738
0.0761320496411662 -0.254633655166297 0.662660715965293
0.0714464454453232 -0.256574495972128 0.659834117981976
0.0732541255577701 -0.255825730353121 0.675746735705411
0.0717876836590018 -0.256433150476022 0.681650899447376
0.0771198182354776 -0.254224508018047 0.698432173369942
0.0754479928450678 -0.254917000768675 0.699446403971199
0.0725691336442442 -0.256109463293819 0.708919142629081
0.0697852730969135 -0.257262576088278 0.721395793355166
0.0765491026926102 -0.254460906136161 0.730768690685724
0.0726283847194512 -0.256084920694882 0.740191976313557
0.0706461274265869 -0.2569059985497 0.748185167763017
0.0724767483931938 -0.256147730517767 0.753972591035406
0.0751931972093434 -0.255022540576626 0.765913615387069
0.0734276268194654 -0.255753863777437 0.77277427750894
0.0753982616910133 -0.254937600087157 0.784282570429964
0.0709879500069103 -0.256764411001005 0.794279153822338
0.0724744201710219 -0.256148694898967 0.797612391090476
0.0701664473804321 -0.257104688530417 0.814781013834775
0.0754877840069442 -0.254900518729763 0.819372073228011
0.0752510917775954 -0.254998559861268 0.827634107302706
0.0738930704518153 -0.255561070712398 0.846747590332326
0.0723124558240876 -0.256215782728088 0.844960636119906
0.0673844247365067 -0.257795338851615 0.856908475541872
0.0730146373843666 -0.255924929602572 0.863802453058113
0.0699561058529546 -0.254358051420256 0.881635617353326
0.0703613187803157 -0.25074258830027 0.889708654251995
0.0684455926480674 -0.250529503204419 0.892065747472775
0.0699012448398694 -0.246519748659832 0.900043211409406
0.0581849548428117 -0.249391634770547 0.899160888565807
0.0663657337963728 -0.242990858428214 0.911735767948037
0.0553115373592381 -0.244556039292553 0.912262739906585
0.0504742665786608 -0.242010465046652 0.920259747482687
0.0579585277323337 -0.236623474333658 0.931320593567896
0.0518860518555891 -0.232601157913297 0.943437108674101
0.0406471972886636 -0.233629258535157 0.944571728862895
0.0398987159702039 -0.230925451739044 0.951613675920073
0.0375945508356031 -0.228288599619822 0.95900203538012
0.0351043006018906 -0.228362339642977 0.959640576230627
0.0430607248497968 -0.224518820437827 0.969357133002098
0.0414153161643767 -0.224735442600814 0.987635053760023
0.0426278305063415 -0.224575812059334 0.994640851617964
0.0185595645450186 -0.20115912718339 0.983333333333333
0.0140005417417218 -0.195771800312186 0.983333333333333
-0.00152683659927975 -0.183079258946039 0.979166666666667
-0.00606149849165185 -0.182255477603158 0.979166666666667
-0.0154787293192863 -0.173963876442589 0.983333333333333
-0.0316729519749414 -0.157876764966762 0.983333333333333
-0.0484300052371644 -0.144140662661769 0.983333333333333
-0.0579874462641986 -0.137731933351583 0.983333333333333
-0.0641946964309177 -0.136999451552556 0.983333333333333
-0.0678545653654024 -0.130745002756286 0.983333333333333
-0.0756533002854378 -0.115982967447901 0.983333333333333
-0.103095316127017 -0.095475257944173 0.980146178109496
-0.107311932831087 -0.088436050007843 0.983333333333333
-0.126221890907891 -0.08310634777122 0.983333333333333
-0.133427248988258 -0.0668508480325674 0.983333333333333
-0.147519276888299 -0.0560072396749153 0.983333333333333
-0.15023656809243 -0.0605987729570927 0.983333333333333
-0.156808575694681 -0.0420690973765606 0.983333333333333
-0.165335381711694 -0.0340642196128187 0.983333333333333
-0.188022142844511 -0.0171749380818388 0.983333333333333
-0.190127204764936 -0.00923261849739009 0.983333333333333
-0.223618575695096 0.0104929593453938 0.980116311550992
-0.222912836337319 0.0158535819747342 0.983252911933332
-0.223875934448344 0.00853812553695916 0.994156666369195
0.0636016791766904 -0.258293346752303 0.221128895132539
0.0633334906234561 -0.258328654445161 0.225647921589913
0.0619857111629697 -0.258506092977331 0.232627266222533
0.0661291558333514 -0.25796059813786 0.244631972529263
0.0691093139230528 -0.257568252882146 0.257555372392847
0.0586303991476266 -0.258947828184336 0.261647774536102
0.0583845465190292 -0.258980195296929 0.273919475103736
0.0652082007750465 -0.258081844171452 0.290032068710305
0.0628325211384315 -0.25839460832908 0.28476951445439
0.0690184120273387 -0.257580220343752 0.303750382245787
0.0569535910377397 -0.259168584159977 0.304948914074013
0.0646994251979417 -0.258148825746889 0.329684609954932
0.0687424064339803 -0.257616557169465 0.336827177014996
0.0623541792097009 -0.258457583238698 0.347911788361113
0.0620111305494416 -0.258502746451615 0.33916978319102
0.0589643096776104 -0.258903868029093 0.347314253153399
0.0563890395877518 -0.259242908768385 0.360225386115804
0.0678562723549963 -0.257733218934161 0.381042047490445
0.0626774070370733 -0.258415029487935 0.389510362206792
0.0654666299201796 -0.258047821329046 0.40083506554424
0.0575531731339963 -0.259089647679496 0.403443112479509
0.0651173286459515 -0.258093807714208 0.411741769395997
0.0592233108910497 -0.258869769872465 0.413480126678229
0.0664879098950687 -0.257913367269615 0.436797131820394
0.0588554750445316 -0.258918196380362 0.438660493003709
0.0642698058590249 -0.258205386205869 0.457103854732249
0.0673841424917616 -0.257795376009842 0.463659252593691
0.0613979653770576 -0.258583471177993 0.462890346163318
0.0631453802721282 -0.258353419642735 0.484228494993538
0.0664475724288101 -0.257918677797795 0.489212008892466
0.0554047443027926 -0.259372493701013 0.490158412380476
0.0635865793129363 -0.25829533468708 0.506905443996627
0.0569299815510766 -0.259171692407863 0.508117738205018
0.0585108708012239 -0.258963564389672 0.526806317151181
0.0642154300618464 -0.258212544915376 0.535546980338376
0.0635005673979471 -0.25830665837051 0.539354617767254
0.0580381107342635 -0.259025804433247 0.548765728456201
0.0670760724462332 -0.257835934200767 0.565249305069978
0.0633432781538573 -0.258327365892338 0.573343378413904
0.0662825420959891 -0.257940404453288 0.58016569517915
0.0590388567390996 -0.25889405372226 0.585658508211949
0.0642326519592206 -0.258210277609574 0.601022518087908
0.0618774879610155 -0.258520340832165 0.604693832026335
0.0600567068255291 -0.258760051216212 0.608895197767743
0.0579449849990751 -0.259038064668875 0.626319045193001
0.0654873837428347 -0.258045089036458 0.635872256607288
0.0623368893234428 -0.258459859495406 0.634328914503525
0.0586132622081455 -0.25895008430522 0.651489535262946
0.0627839289752917 -0.25840100560872 0.659464370950393
0.0588895395673536 -0.258913711700853 0.670110806539094
0.0604058267871325 -0.258714088701309 0.678554649913808
0.061320067762482 -0.258593726593508 0.690530070284146
0.0632172359006582 -0.258343959669773 0.69236844141526
0.0626546698788254 -0.258418022891606 0.708888928267896
0.064878038121284 -0.258125310909429 0.720005053651395
0.0663658533477446 -0.257929436318917 0.723267058993051
0.064899093997667 -0.258122538850715 0.737489352456015
0.0604233847448556 -0.258711777152322 0.747588696009004
0.0598686740261565 -0.258784806203878 0.752827627698246
0.066736045585091 -0.257880699586283 0.766496518624396
0.0639292530477494 -0.258250220834034 0.769504534717465
0.0614591679718406 -0.25857541370353 0.786701817308558
0.0599109241941463 -0.258779243863738 0.78923820513613
0.0613452718659063 -0.258590408410342 0.797021836471228
0.0602632675074246 -0.258732856986537 0.814062114951437
0.0601291895048107 -0.258750508690452 0.812666624697674
0.0630184043124074 -0.258370136344966 0.828703291088398
0.0666866743864823 -0.257887199427889 0.838391005024594
0.0635849506377099 -0.258295549106241 0.840900555245802
0.0613846704686029 -0.258585221485896 0.860882069615292
0.0606339910863379 -0.258684050301459 0.860806913654098
0.0660249947944419 -0.257974311198784 0.87128725050749
0.0591399119343684 -0.25629056520059 0.881508810681046
0.059702234712887 -0.252528947404567 0.89077525652642
0.0569472302687651 -0.250073790624255 0.897856187743262
0.0557176773804174 -0.249595729045217 0.899464265419765
0.0432835337244573 -0.248352396011465 0.906702148588872
0.0452400008192579 -0.244224717496698 0.916427239781863
0.0500908153560043 -0.241598998326679 0.921420567863947
0.0410753582288658 -0.238878508839529 0.931239369709783
0.0446126632936336 -0.235173431007456 0.93937953519714
0.0436632842835648 -0.233359896712645 0.94425080058454
0.0356257704935462 -0.23297435116024 0.94787864972593
0.0336790510114704 -0.232162696794872 0.9505622621187
0.0244786911303451 -0.23047381467704 0.957849933827641
0.0298196540982278 -0.226262040473002 0.969629795856494
0.0268906212159558 -0.226647654967469 0.978521327144775
0.025348341411536 -0.2268506999557 0.989629782940334
0.0220961913444458 -0.227278853634561 0.993614844961561
0.00404610542949417 -0.205831002951647 0.983333333333333
-0.00622766678582355 -0.202186831552689 0.983333333333333
-0.0167098038664088 -0.183333860966574 0.979166666666667
-0.0352583194226041 -0.175875453219507 0.979166666666667
-0.0359699140976128 -0.166663628288447 0.983333333333333
-0.044075717889589 -0.159974917130031 0.983333333333333
-0.055903225954558 -0.14854573590774 0.983333333333333
-0.0731062195620327 -0.13732410385977 0.983333333333333
-0.0747462555868313 -0.13465155477658 0.983333333333333
-0.0836364567889045 -0.123803248156241 0.983333333333333
-0.103944009917133 -0.107176471531125 0.979166666666667
-0.110733664525395 -0.0985530503300309 0.983333333333334
-0.124139124309722 -0.0896796327403208 0.983333333333333
-0.138664718860224 -0.0798148306259122 0.983333333333333
-0.147370905181279 -0.0627901830913513 0.983333333333333
-0.164943195451487 -0.0581474876418766 0.983333333333333
-0.162992289122604 -0.052935769344825 0.983333333333333
-0.177612693710462 -0.0383312320409141 0.983333333333333
-0.195046501670074 -0.0242433467354501 0.983333333333333
-0.209071548771387 -0.0131455140177648 0.983333333333333
-0.224885176119608 0.000872173961727552 0.986575860712587
-0.224961095491459 -0.000295509080754721 0.990570610813719
-0.224487148899971 -0.00389549085225792 0.996842813323019
0.0438714555581532 -0.260890879969641 0.209868276012694
0.0504084875801674 -0.260030263377135 0.224719709552991
0.0422359687779562 -0.261106195889025 0.223270449328694
0.0516004659983804 -0.259873336441306 0.240627544987825
0.0522062588468772 -0.259793582299781 0.248977704451579
0.0527190923778518 -0.259726066484582 0.261626496232303
0.0553252267664234 -0.259382962383278 0.274428037507587
0.0538873980495332 -0.259572256124959 0.283134953447757
0.0452472319057593 -0.260709755577357 0.285340355931412
0.0516106295032603 -0.259871998390504 0.299346277965523
0.0559053048265245 -0.25930659365787 0.308981441852229
0.0486193167703611 -0.260265812182856 0.308422966282986
0.0517581400210771 -0.259852578262413 0.324863782166223
0.0465492059190648 -0.260538347446712 0.332538621726432
0.0557064106227386 -0.259332778576554 0.34628833408429
0.0525219010842868 -0.259752027210882 0.355302059080484
0.049009113020314 -0.260214494532999 0.362183074277583
0.0443502559981312 -0.260827844695872 0.368684375991659
0.0551457505694553 -0.259406590872866 0.381077582902724
0.0556114009927662 -0.259345286831635 0.390729310632065
0.0542209445657148 -0.259528343893043 0.402382303326363
0.0484696032390514 -0.260285522343175 0.407199726660169
0.0508743878689761 -0.259968926440486 0.42327705487022
0.05119602869171 -0.259926581622847 0.428514192466253
0.0528568727092542 -0.259707927359834 0.438619786201119
0.052088802601917 -0.259809045707788 0.441401272120853
0.054130225720387 -0.259540287255608 0.453367849052852
0.0542213463089118 -0.259528291002547 0.460641609454381
0.0471786691289403 -0.260455477042992 0.465885879484342
0.0520855118720444 -0.259809478940594 0.486637281091436
0.055629622321464 -0.259342887948202 0.496054441235568
0.0476620745585982 -0.260391835510831 0.502002923436993
0.0502735895749561 -0.26004802303644 0.500587374111172
0.0502068696482385 -0.260056806881431 0.517056850920104
0.0460539193358565 -0.260603553162413 0.52181603674024
0.0509273328869032 -0.259961956096641 0.537112224574437
0.0509389115108307 -0.259960431741882 0.543353531405895
0.0437668327859469 -0.260904653818907 0.547219078772638
0.0526641735041438 -0.25973329669147 0.560683823171989
0.0520317109748249 -0.259816561963086 0.570091141980925
0.0541452012076466 -0.259538315695308 0.588358600475075
0.0438307478665152 -0.260896239238916 0.589019971167636
0.0511545216684643 -0.259932046126125 0.605821581236859
0.047265963718777 -0.260443984492215 0.607624890264349
0.0585800863902752 -0.258954451984502 0.621512771465982
0.0524886100229112 -0.259756410062259 0.629921731372334
0.0553637140238775 -0.259377895439709 0.643349937797985
0.0510972595257299 -0.259939584830233 0.652682477398629
0.0547379236696009 -0.259460282302815 0.657861875319013
0.0544485855699045 -0.259498374386288 0.667890389545389
0.0509712001853318 -0.259956180857241 0.676001851257937
0.0478234148327896 -0.260370594660772 0.679424657556264
0.0463081446648566 -0.260570083762899 0.69167629325814
0.0461632189937041 -0.260589163589471 0.702750161856568
0.0509255542895071 -0.259962190253431 0.714934454598697
0.054416653397971 -0.259502578336476 0.715411854935961
0.0494948647846858 -0.260150544100012 0.724722054251932
0.045476698861742 -0.260679545679488 0.734176516443175
0.0489668562954979 -0.260220057736361 0.745813628951733
0.0486517880406942 -0.260261537259017 0.764445980184833
0.054903290330873 -0.259438511368842 0.767670551183028
0.0453113927189062 -0.260701308646059 0.775372590144888
0.0493506217008801 -0.260169534062255 0.782338601190282
0.0518458284021884 -0.25984103386803 0.79118663851853
0.0445579074708656 -0.260800506860859 0.796085803849627
0.0472620484082092 -0.26044449995263 0.804496990585359
0.043403497698255 -0.260952487790662 0.819651680732106
0.0481056223570287 -0.260333441335368 0.832690088785891
0.0513436650096525 -0.259907144932855 0.833701498827702
0.0484312421691909 -0.260290572673832 0.855698422141228
0.0482010866387571 -0.260320873224248 0.857014963941269
0.0445834147859288 -0.260797148759124 0.866466783165081
0.0507780828811132 -0.257452061827894 0.881356427531213
0.0433814260987328 -0.258606640395495 0.880902124203965
0.0456846347248495 -0.252518206467761 0.895439638317002
0.0462305152274474 -0.251527772810277 0.897747883100436
0.0386109621370426 -0.250748646224488 0.902226479955525
0.0343381718990217 -0.248066126120363 0.910380870391223
0.0331344023257361 -0.243381838338957 0.92255014084535
0.0281223991320564 -0.242524224937252 0.926363319131969
0.0291223535772985 -0.241225484794363 0.929296080099009
0.0280343607123306 -0.239133167090829 0.934913750583967
0.0199585829992831 -0.237648820665267 0.941315408181357
0.0194858577118984 -0.233248085156246 0.952530298392439
0.0209314970617018 -0.232743379325459 0.953320305725971
0.0137267326887037 -0.228380713770044 0.967582821512323
0.0173926677451019 -0.227898084263876 0.973525966322467
0.0197571500855393 -0.227586794258256 0.988690390033241
0.0159437154436313 -0.22808884245325 0.994485291006609
-0.0107047359736589 -0.205111077812747 0.983333333333333
-0.0176924609035854 -0.195485093658576 0.983333333333333
-0.0213091251224776 -0.196571761905691 0.983333333333333
-0.0433829053133003 -0.174738589294408 0.979993172969915
-0.0434834503621185 -0.17472535228761 0.982224489967768
-0.0590043946812226 -0.165268120679333 0.983333333333333
-0.0683500475884902 -0.153584709031384 0.983333333333333
-0.0803387107824237 -0.148967773502094 0.983333333333333
-0.0919205550168662 -0.136845841885006 0.979166666666667
-0.10136368133964 -0.121248966708952 0.979166666666667
-0.107271821368497 -0.116428710437906 0.983333333333333
-0.118454975645131 -0.105018425991068 0.983333333333333
-0.132390412625078 -0.0941880871859923 0.983333333333333
-0.149089152914445 -0.0830225663433016 0.983333333333333
-0.157769623779497 -0.0696817079254485 0.983333333333333
-0.170935779927232 -0.0663803383326681 0.983333333333333
-0.186353283362019 -0.0516309754759925 0.983333333333333
-0.182083491889217 -0.0519390009840355 0.983333333333333
-0.204716507700136 -0.0371556076658945 0.983333333333333
-0.223197152896222 -0.0136939833031384 0.983379354703445
-0.224015165773769 -0.007480558624252 0.982706538518851
-0.226632381995655 -0.0138489651232224 1.0
-0.229575116755346 -0.00465434130084512 1.0
0.0319439863667976 -0.26246116107858 0.200481621131828
0.0380592066453095 -0.261656077055617 0.210997120969672
0.0433530472550862 -0.26095912971751 0.226765884758445
0.0340373425853618 -0.262185565504066 0.230453485979374
0.0383655319455376 -0.261615748564768 0.235096155572569
0.0401825878355418 -0.261376528618593 0.246306123331664
0.0356238983882115 -0.261976691470059 0.258273059448097
0.0360696172264529 -0.261918011471783 0.260169744559416
0.0443940351003534 -0.260822081067723 0.287360390489148
0.0332128496567921 -0.262294112057356 0.278037900901609
0.045926540575719 -0.260620322894325 0.29987608940329
0.036289694976677 -0.261889037686302 0.304613790378054
0.0366248644034783 -0.261844911794149 0.315666635853384
0.0340145141287017 -0.262188570927401 0.32394933411397
0.0363284562708269 -0.261883934665118 0.33674961371058
0.0387056529844244 -0.261570970780516 0.339630763209485
0.0458474792198822 -0.260630731519283 0.359031665079396
0.0328966977178651 -0.262335734249732 0.353753897962345
0.0401955689566697 -0.261374819621575 0.37218986201078
0.0437984812417757 -0.260900487220652 0.382196507764543
0.0444606021938642 -0.260813317343605 0.392450839120864
0.0400038175579344 -0.261400064172134 0.395794324930865
0.0315038775243161 -0.262519102506903 0.398051174668117
0.0356533842145065 -0.261972809587384 0.411036971080002
0.0447540719058757 -0.260774681323052 0.431519281254329
0.0431757145153273 -0.260982476015603 0.439273376563893
0.042205485983229 -0.261110209025085 0.444120855523663
0.037811874542146 -0.261688638944732 0.444725646428043
0.0416712446114196 -0.261180543235998 0.464813809386602
0.0345165043683772 -0.262122482658584 0.467745979981536
0.0436648126350605 -0.260918085026575 0.483679059182315
0.0352042617606275 -0.262031937680159 0.492645373731419
0.0370488991577022 -0.261789086559692 0.493487512118576
0.0389010869813135 -0.261545241406712 0.504487762797694
0.0366937037580169 -0.261835848921192 0.518477837165642
0.0443378725607271 -0.260829475006335 0.532017144500346
0.0458686546878563 -0.260627943716037 0.53762747223734
0.038136026482781 -0.261645963532149 0.552623109302515
0.0371262994044907 -0.261778896623888 0.558211115314369
0.0368899541514694 -0.261810012066741 0.564536242024158
0.0380823965258569 -0.261653024049924 0.572668295696926
0.0323253612537549 -0.262410952122195 0.578376649165334
0.0416741037408713 -0.261180166824465 0.594990774690644
0.0439397337423874 -0.260881890976157 0.60438962620782
0.0380727924637343 -0.26165428844869 0.612698799812375
0.0385950348249752 -0.261585533937487 0.621654661118671
0.0355646311267635 -0.261984494153054 0.627096430165389
0.0343709769281554 -0.262141641709556 0.637888924041655
0.0379173414554766 -0.261674753962179 0.650639901095039
0.0400399440844426 -0.26139530802469 0.658736810645105
0.0391082158789109 -0.261517972370021 0.664763600645932
0.0383396014244798 -0.261619162382629 0.681523852409406
0.0318109722954189 -0.262478672713292 0.687256259808275
0.0397831230859052 -0.261429119150581 0.699391930476548
0.0371075978403949 -0.26178135873151 0.702660735341743
0.0435023263482912 -0.260939476752052 0.712637274221194
0.0435135556445351 -0.260937998387155 0.729122693081407
0.0406890332236526 -0.261309853818356 0.73700259525737
0.042269690766163 -0.261101756305055 0.748906917026194
0.0383072861554087 -0.261623416768512 0.75029881506239
0.039512085898332 -0.261464801873263 0.759403190717055
0.0392358169805521 -0.261501173366295 0.764698567511956
0.040930242654219 -0.261278097994381 0.778910536394689
0.0436835250515567 -0.260915621490208 0.794711698404867
0.0382987671150314 -0.261624538321455 0.801161262071543
0.0369612885783486 -0.261800620711278 0.813602019596335
0.0375309026141211 -0.261725629600808 0.814015635082115
0.0402658767539271 -0.261365563424466 0.829115252090342
0.0299780210095926 -0.262719985328026 0.831876719592978
0.0369096620083749 -0.261807417478157 0.842597788803014
0.0395627430591314 -0.261458132731524 0.847688552879768
0.0403737042763492 -0.26135136766183 0.864501861932757
0.0361463021735435 -0.261907915706971 0.872971915129671
0.0381125755122136 -0.258576675879027 0.882720495802739
0.0403620175787354 -0.257195568816963 0.885446871175528
0.029037626468515 -0.255812608502933 0.89266848494843
0.0305609204678083 -0.25077013975467 0.904835635129839
0.0244813103449004 -0.252326955005549 0.902934847402271
0.0246943291207809 -0.250085791191662 0.908496140718395
0.0181344630048759 -0.246125142497713 0.920618934032522
0.0228339049773052 -0.240723057997411 0.932639000433749
0.00823175094670795 -0.242644110281224 0.93264241232676
0.0148730462042904 -0.240079961715632 0.936888682983174
0.0126378084016317 -0.236582114738049 0.946417812312417
0.012640003629552 -0.234649023404218 0.951274703835985
0.00387315516913945 -0.232580885141289 0.959371982010487
0.00189464114960041 -0.229938438172849 0.96756062916207
0.00433131168065553 -0.229617644411638 0.981591175773834
0.000974031731980502 -0.230059638701982 0.984568260571103
0.00967753250834189 -0.22891380108702 1.00009310490764
-0.0274150974407333 -0.20101644187264 0.983333333333333
-0.0325037787528703 -0.197573856322684 0.983333333333333
-0.0374960618872766 -0.198324135330113 0.983333333333333
-0.0575652127229516 -0.171567096325666 0.979166666666667
-0.0658898026521198 -0.170262033660856 0.979166666666667
-0.0742150110971983 -0.161679482933332 0.979166666666667
-0.0770566541007734 -0.153824955439192 0.983333333333333
-0.0997360509071688 -0.138947511425401 0.979166666666667
-0.106480398751619 -0.13449748705656 0.980137972052984
-0.112347626989076 -0.126453742447768 0.983333333333333
-0.131038533575682 -0.112713673069457 0.983333333333333
-0.135082497432387 -0.100926530033317 0.983333333333333
-0.151995737704844 -0.0924545334589263 0.983333333333333
-0.160745727708161 -0.0860590407252614 0.983333333333333
-0.17523678119037 -0.0671252783950347 0.983333333333333
-0.184263327311758 -0.0574174147200421 0.983333333333333
-0.188394451104047 -0.0580147723329076 0.983333333333333
-0.213872622973716 -0.0397487786360997 0.983333333333333
-0.22015344281123 -0.03681325669916 0.989707671308428
-0.221134055394481 -0.02936476463694 0.999663223362967
0.0247719503368011 -0.263405377534715 0.193974982314507
0.0330853002737144 -0.262310904252203 0.211532499420213
0.0224200099242317 -0.263715016364207 0.213463065187583
0.0274067219909979 -0.263058503265868 0.227767082527339
0.0220263778318662 -0.263766839012298 0.230554041301158
0.0258210210458938 -0.263267264755718 0.249933744268465
0.0182129485745871 -0.264268886498391 0.244641950615946
0.0205249219119735 -0.263964509434169 0.256430813671119
0.0221292276724538 -0.263753298573908 0.263727099859642
0.0303606236654138 -0.262669614732804 0.278679738024081
0.0296059761804433 -0.262768965958998 0.291916761076155
0.0282159774543047 -0.262951962762937 0.305430882318152
0.0219416476211898 -0.263777993956154 0.302958613847541
0.0331293803623237 -0.262305100998444 0.319180630683501
0.0281037434429124 -0.262966738650852 0.319740069307491
0.0263121458179452 -0.26320260695285 0.332352278804482
0.0252915445555971 -0.263336971658079 0.336096175767241
0.022045683134314 -0.263764297421014 0.35717808040335
0.0287978856526813 -0.262875353095255 0.372622019280602
0.0241287078001586 -0.263490062021219 0.377423820859509
0.0302142269976397 -0.262688888219755 0.379102682599662
0.0249004253465163 -0.263388463478809 0.396139552104907
0.0283972470763726 -0.262928098164456 0.404301338820225
0.0260057659072095 -0.263242942633309 0.401354882532049
0.0245395844987428 -0.26343596907765 0.413627116279589
0.0257294322800915 -0.263279322645487 0.422294670091449
0.0242270987694653 -0.26347710860437 0.436457538490284
0.0284487067757908 -0.262921323366502 0.445798078739455
0.0287806802744651 -0.262877618226269 0.453842564113369
0.0279223572539562 -0.262990618595656 0.46967862763974
0.019395366213593 -0.264113218263025 0.473602803007447
0.0296109741375386 -0.262768307965464 0.486895970366019
0.0258287172838154 -0.263266251526774 0.486124061157796
0.0285696727112823 -0.262905397898972 0.507979950888648
0.0259461117940611 -0.263250796246297 0.506514349408592
0.0252013717817313 -0.263348843128973 0.519293856942299
0.0282380635315616 -0.262949055075705 0.530302799363846
0.0263885004733288 -0.263192554671767 0.535366645107102
0.0226104004681075 -0.263689950973588 0.548735853719265
0.0312977837637642 -0.262546235265217 0.55776278634191
0.0326483125808772 -0.26236843477338 0.56848189562635
0.0228065394001145 -0.263664128793316 0.571750022411329
0.0203009040495177 -0.263994001945266 0.580501165767869
0.0221654778079982 -0.263748526153025 0.587579321708625
0.027792052130761 -0.263007773590573 0.604704771889708
0.0279784610180889 -0.262983232394983 0.611696971830571
0.0226197949649741 -0.263688714164613 0.624901189274716
0.0245127556794744 -0.263439501158714 0.638248781561191
0.0261852996713384 -0.263219306564861 0.642550245334091
0.03172094365514 -0.262490525208639 0.651746358960045
0.0320765870626179 -0.262443703865794 0.663288888079382
0.0265701613327754 -0.263168638565907 0.675892897898673
0.0247999431954934 -0.263401692204955 0.677953858929839
0.0339072067157913 -0.26220269821632 0.690274174951974
0.0306606508052988 -0.262630115410495 0.696354655659591
0.0273610933172378 -0.26306451039473 0.715194756716399
0.0242402614066593 -0.263475375710309 0.711163768757644
0.0227799183513506 -0.263667633520874 0.721968792327621
0.0293593994761604 -0.262801428397964 0.741067586433243
0.0217604374803114 -0.263801850723789 0.744596419724014
0.0319591622827053 -0.262459163131348 0.755624164853789
0.0222407907703402 -0.263738611013432 0.762971156452172
0.0275936530567536 -0.263033893324185 0.774363178070559
0.0209784465117184 -0.263904801787895 0.780173701350805
0.0206115978292685 -0.263953098333177 0.785317716770768
0.0250344696136881 -0.263370816216249 0.806278531666365
0.0236139402807286 -0.263557832450829 0.806120476087997
0.020687523995883 -0.263943102463709 0.815773640636188
0.0298756447252342 -0.262733463421556 0.82706801233545
0.0251336317543099 -0.26335776127277 0.840991374818521
0.0295779399400574 -0.262772657000068 0.843528054438592
0.0310164333095219 -0.262583275755215 0.854412933546625
0.0335819439904945 -0.262245519866478 0.872968566087316
0.0256488005795248 -0.26317623671286 0.875285717199281
0.01832508327939 -0.261686277719159 0.881452677095321
0.0218328010065897 -0.256307392963502 0.893808699185665
0.020381073728354 -0.25673890152531 0.893204641519655
0.0169273131158299 -0.253381377840284 0.902784275320182
0.0144378314118846 -0.248782083597159 0.915165315023365
0.0113909825986551 -0.249777074460703 0.913673004715389
0.00319523682254381 -0.24808888546391 0.92062658190044
0.00263062179295392 -0.242955188072006 0.933713713581745
0.000216024472751005 -0.243824488040401 0.93232808339812
-0.00428319352018245 -0.238799837944656 0.943608876679808
-0.00200705294610634 -0.235081286114519 0.953706141529312
-0.00393040439586227 -0.233377121307848 0.957352200140553
-0.0131967928046422 -0.231133049777269 0.959925707140232
-0.016561783916568 -0.228353244442907 0.965797784072564
-0.0146945490467265 -0.228253298329305 0.982529061085256
-0.0143578217923817 -0.228297629313345 0.985346220981312
-0.0119967945352752 -0.226637597284575 1.0
-0.021276343532554 -0.222620546694937 1.0
-0.0570456360988958 -0.19392240939522 0.983333333333333
-0.0532103732472036 -0.194455520967901 0.983333333333333
-0.0754360134452094 -0.171821305768751 0.979166666666667
-0.0804878722557923 -0.163739028992541 0.979166666666667
-0.0976252206909633 -0.15577499192004 0.979166666666667
-0.104237337319737 -0.142458685118157 0.979166666666667
-0.118386752448456 -0.136284502071274 0.983333333333333
-0.122118720227895 -0.125883634584573 0.983333333333333
-0.140203850554678 -0.119098748878735 0.983333333333333
-0.141617842685135 -0.110896147097754 0.983333333333333
-0.149657213851528 -0.107879990036976 0.983333333333333
-0.174235417160841 -0.0895484612945803 0.983333333333333
-0.17850232158389 -0.082563747638586 0.983333333333333
-0.193737287260413 -0.0750286983345146 0.983333333333333
-0.199734425870304 -0.0687357482812392 0.983333333333333
-0.218651522128457 -0.0482214769023194 0.979429686373073
-0.219552581096931 -0.0413772545367194 0.990014263442263
0.0170231294119496 -0.26442552916283 0.192691271346762
0.00918865559500263 -0.265456957208114 0.19189033400216
0.0153170987337977 -0.26465013236257 0.205518052587177
0.015522427420713 -0.264623100328111 0.217699301337241
0.0172341960597601 -0.264397741711489 0.225166824820474
0.0143872346685196 -0.26477255128918 0.234321038162157
0.0186569157744996 -0.264210437107676 0.24385979229945
0.0155462389818477 -0.264619965476616 0.247750721537871
0.0162985672641462 -0.264520919579246 0.261583804348595
0.0124257559620851 -0.265030784859847 0.270890799394412
0.0112360698966786 -0.265187410001702 0.278309496689457
0.0085557479227122 -0.265540281083913 0.285549685834299
0.0122556242137445 -0.265053183129435 0.297693391656423
0.00582198223577076 -0.265900188164418 0.308798409108488
0.0124317023739353 -0.265030001999874 0.316334382879903
0.0166920146920093 -0.264469121242698 0.331704083817904
0.0177081118394759 -0.264335349515442 0.338077102005095
0.0153036944968047 -0.264651897063848 0.354657261641101
0.0121877956357495 -0.265062112931136 0.359335176823569
0.0112129368662174 -0.265190455522939 0.355498878118764
0.0126279868967274 -0.265004160652212 0.372980332499938
0.014266640849032 -0.264788427766709 0.38799509441984
0.0198373232616586 -0.264055033513821 0.397944611179579
0.0144400716653262 -0.264765595166585 0.407505237991327
0.0124833655674977 -0.265023200411409 0.41412955282406
0.011189910860657 -0.265193486954081 0.4162263957261
0.0132451538926293 -0.264922909075773 0.426871767580527
0.0107829498466457 -0.265247064387996 0.434924497371783
0.0127868104371485 -0.26498325113644 0.44988557005899
0.0144873461247713 -0.264759371365928 0.459321861943483
0.0161718432204483 -0.264537603116103 0.470224572019858
0.0152302977200023 -0.264661559932829 0.483479262396447
0.0151904828473387 -0.264666801660256 0.492916069078837
0.0144717867245709 -0.264761419799825 0.505127087028044
0.0172211805867947 -0.264399455231012 0.502466403979735
0.0082195235148601 -0.265584545866957 0.511552566727241
0.0133263454775235 -0.264912220000838 0.526066996273237
0.0176252514245471 -0.264346258296019 0.539167789292293
0.0120133743631642 -0.265085075927304 0.542589110436482
0.0112268092124461 -0.265188629193911 0.549235780144189
0.0132695067626376 -0.264919702959612 0.564734552407689
0.0100716645068744 -0.265340706879474 0.567879396874858
0.0139609655482167 -0.264828670683512 0.578920285463639
0.0136996097793156 -0.264863078823247 0.595641473894813
0.0131154285232834 -0.264939987744647 0.590954522371859
0.0185583631479249 -0.264223411807108 0.606177843997176
0.0140662790956628 -0.264814805891961 0.617835109155944
0.0145088090880888 -0.264756545713201 0.630212351768852
0.0189836240669697 -0.264167425144989 0.63565275519003
0.0182016059002391 -0.264270379789798 0.648864725930155
0.0205269416387497 -0.263964243532095 0.658712320597702
0.0117863317507584 -0.265114966654286 0.660656130251563
0.0124778538492402 -0.265023926042884 0.677002626942821
0.0174838749732817 -0.264364870858928 0.685843268169719
0.0106178408183292 -0.265268801403948 0.688420253840493
0.01357459446356 -0.264879537401803 0.705517492786699
0.0160170556250667 -0.264557981289631 0.717078665341798
0.0153987765557968 -0.264639379273306 0.723587997040771
0.012820148697983 -0.264978862071135 0.728771021766318
0.00956048889139286 -0.265408004425958 0.739858271127589
0.0197733452265644 -0.264063456381932 0.755202461067363
0.0155885813411394 -0.264614390999262 0.760080573448904
0.0127541572725296 -0.264987550007115 0.761585815624645
0.0123562595250275 -0.265039934239359 0.775485341827174
0.0153521651787171 -0.264645515777515 0.785474940917003
0.0123677915050103 -0.265038416025392 0.789403944039657
0.00562001351558927 -0.265926777850864 0.804075778091307
0.0121807489135011 -0.265063040649719 0.811179383140783
0.00963609583713268 -0.265398050582716 0.815682199906936
0.00624810511852666 -0.265844088022624 0.830691539690529
0.0109081212896477 -0.265230585254898 0.84142757978431
0.0201614430427728 -0.26401236233512 0.857310797963544
0.0124079212028432 -0.265033132850445 0.855952682162752
0.0173447436901894 -0.26438318783984 0.872432738449436
0.0128641095058385 -0.264001331465484 0.87744186927158
0.00557960407457005 -0.261449116804369 0.886265173041286
0.0112925157120986 -0.259449167945957 0.88940081384798
0.00750351219849085 -0.255538156209144 0.900482201366317
0.00394580799016937 -0.253480025105049 0.90683101072364
-0.00145530838017845 -0.252782288562019 0.909408258600743
-0.00219018062269618 -0.248133941017872 0.92084586195849
-0.00187711044777114 -0.246357128277756 0.925414342936032
-0.011450822004871 -0.243967844702065 0.928251079130306
-0.00760524505372477 -0.241637327637861 0.935379596363654
-0.0101419384057679 -0.237673926667374 0.944499924424981
-0.0143471568061842 -0.235117413792151 0.949532925907822
-0.0230228064986119 -0.231384905684378 0.956042120568182
-0.0206765002959164 -0.228714931872078 0.963527652092638
-0.0298214208919022 -0.226261807870203 0.968763590115886
-0.0312050226913232 -0.226079653237642 0.975145457809395
-0.0380462150125358 -0.225178993182079 0.979242361753837
-0.0261462888092234 -0.226745648187851 0.991864197280653
-0.0327459323409266 -0.222865643055485 1.0
-0.0682187108459971 -0.193496094460273 0.983333333333333
-0.0741419235415172 -0.18425235809258 0.983333333333333
-0.0900407767603096 -0.17752618540283 0.983333333333333
-0.101460812074361 -0.162686184053196 0.983333333333333
-0.112919596454836 -0.151641704533994 0.983333333333333
-0.126313284137695 -0.149076781017094 0.983333333333333
-0.126011668655514 -0.139105574515 0.983333333333333
-0.147472067415825 -0.12771448406574 0.983333333333333
-0.152321349616744 -0.123063852269385 0.983333333333333
-0.171443331129052 -0.101466285991173 0.983333333333333
-0.178344312056091 -0.101518607980883 0.983333333333333
-0.191564030408838 -0.0822138935143417 0.983333333333333
-0.197544986296717 -0.0755321877829825 0.983333333333333
-0.215674376778451 -0.0622393064397049 0.979423552003114
-0.215346715090507 -0.0630303517306093 0.988076136594925
-0.219055459560857 -0.055946274814792 1.0
0.0 -0.266666666666667 0.185936138649999
-0.00367974394883261 -0.266182219185321 0.183557750547147
0.00886072204885627 -0.265500130478507 0.20398255463159
0.00480387737033125 -0.266034224212759 0.210359429845553
0.0022760272230632 -0.266367021998173 0.220910798999464
0.00507823351372434 -0.265998104541253 0.224389872991988
0.00238236492287128 -0.266353022374406 0.240774501311885
-0.0036269982341471 -0.266189163290396 0.242957786823217
-0.00459477404099516 -0.26606175318832 0.247112446951844
0.00585339692008653 -0.265896052342767 0.269381583611503
-0.0058190699031401 -0.265900571580282 0.270054456180281
0.00156750288705246 -0.266460300996611 0.284695374965423
0.000991655403457023 -0.266536112756055 0.300684546848446
-0.00303967106794705 -0.266266486378727 0.29508664489475
-0.0047773858796078 -0.266037711883677 0.308414386214268
-0.00260750697752437 -0.266323381860599 0.317989904453512
-0.00271631234760454 -0.266309057361877 0.331619307938244
-0.00872972121088421 -0.265517377066012 0.328632437633457
0.00463327698627174 -0.26605668417941 0.349763531488701
0.00659736445407189 -0.265798107158794 0.367191340088421
0.00798292090380322 -0.265615695191639 0.369383272116137
-0.005652465207311 -0.265922505504598 0.373439390909614
0.000491071877244152 -0.266602015827533 0.391593589825187
0.000603110883403509 -0.266587265612544 0.390731558556886
0.000581782266654368 -0.26659007357821 0.409068299592676
-0.00135205495333783 -0.266488665255184 0.418425257457922
0.00320235737374063 -0.266245068320246 0.426481766267944
0.000934855154999571 -0.266543590650629 0.43456324555755
-0.00177694429128433 -0.266432727512645 0.434223422379467
0.0038202090171237 -0.266163726608256 0.452318112162059
0.0028240257451363 -0.266294876624068 0.470519250445755
0.00298361974354554 -0.266273865675578 0.476048009618807
0.00719250007493173 -0.265719756067904 0.480145564435433
-0.00153731086373655 -0.266464275851887 0.491608209950011
0.00144416213366761 -0.266476539114848 0.495713738228285
-0.00443688914356881 -0.266082539129398 0.50541722365764
-0.00192177341236878 -0.266413660397131 0.51105940386257
0.00225492374941352 -0.266369800323187 0.524802536219541
0.00508663535469513 -0.265996998417905 0.538445219978441
0.00365804235323154 -0.266185076254583 0.549844217107447
0.00393547930221769 -0.266148550987326 0.553306801450731
0.00376369544117011 -0.266171166761678 0.568619398581401
0.00179028802355737 -0.266430970776964 0.575792287488394
0.00965933588589306 -0.265394990972253 0.590689049935534
0.00104962269880812 -0.266528481216844 0.598452702395919
0.0030237031268708 -0.266268588598051 0.610731301819342
-0.000735652369890068 -0.266569816194815 0.602264525809225
0.00334558701985947 -0.266226211779607 0.620503870370772
-0.00190724528603465 -0.266415573061249 0.626974916122685
0.000153832974809136 -0.266686919162011 0.646581064057111
0.00177784133258819 -0.266432609414917 0.653524801235645
-0.003252929630999 -0.26623841035627 0.649667213876773
-0.00682699133511694 -0.265767876206391 0.660214856127175
-0.00728196444564467 -0.265707977860055 0.672458498320386
0.0050970963681471 -0.265995621199356 0.69450994775484
0.0 -0.266666666666667 0.696964000271214
-0.00829049497029643 -0.265575202297592 0.696860719347398
