ply
format ascii 1.0
element vertex 850
property float x
property float y
property float z
end_header
0.317344750240408 0.0213472858846191 0.91903618062914
0.313428731889571 0.0228845690686209 0.923341206785484
0.315805595558706 0.0308584000798125 0.923341206785484
0.308743550221723 0.0376490905168525 0.923341206785484
0.299085015142576 0.0496064583158847 0.923341206785485
0.285046911715238 0.0665065150731411 0.923341206785484
0.272286225723161 0.0726982896874902 0.923341206785484
0.261620390733622 0.0901790165725737 0.923341206785484
0.258575976786936 0.092107213384402 0.923341206785484
0.246894344725916 0.111847276827258 0.923341206785484
0.238221947281804 0.113614860070018 0.923341206785484
0.230949448796098 0.123534788877524 0.923341206785485
0.228240829734884 0.136555475580755 0.923341206785484
0.20722442527986 0.147687889530375 0.923341206785484
0.204478225707909 0.158400446905797 0.923341206785484
0.196256256662757 0.167105031662081 0.923341206785484
0.185716406436423 0.183333399859451 0.923341206785484
0.170779093685563 0.192518639649641 0.923341206785484
0.161737523720965 0.208850644886391 0.923341206785484
0.157366603547098 0.215293206435541 0.923341206785484
0.150571524175259 0.224886092556885 0.923341206785485
0.149326176096619 0.235183197069572 0.923341206785484
0.124417216318179 0.248457214107467 0.923341206785484
0.123063563731003 0.256672713594963 0.923341206785484
0.105421539916557 0.273063949825276 0.923341206785484
0.0970293131529982 0.289474474064123 0.923341206785485
0.0952354292076767 0.295729947507712 0.923341206785484
0.0882417298785326 0.305428121755499 0.923341206785484
0.340855421983862 -0.0206103127198133 0.250997749439602
0.341795761640797 -0.0134677239032876 0.250086005620447
0.341412183627424 -0.0163812881759224 0.262580014047564
0.340365291845353 -0.0243332207351559 0.281351395148466
0.341499083812456 -0.0157212157380631 0.286446386070651
0.342180751758662 -0.0105434336321542 0.282441483489771
0.341018129204747 -0.019374428677602 0.309678055111671
0.341790358364507 -0.0135087658613921 0.307890027538225
0.340846078261323 -0.0206812853387152 0.324346092035015
0.341711230732792 -0.0141097998954208 0.32622499983968
0.341924522710084 -0.0124896864816905 0.333694483145221
0.340759534557984 -0.0213386500292828 0.343556549067564
0.341547195590792 -0.0153557704998965 0.348383125546579
0.34150160718355 -0.0157020488316955 0.364919512383056
0.3405203570776 -0.0231553833595781 0.375312507226366
0.341730641832578 -0.0139623579543815 0.384230916712666
0.340563235545619 -0.0228296890597789 0.395623477618081
0.340832354246962 -0.0207855295772427 0.394616543624687
0.342160983611226 -0.0106935876193465 0.40085058543112
0.342073128919075 -0.0113609102585706 0.41274344635283
0.340901034733216 -0.020263849491316 0.434249493183606
0.341121082419252 -0.0185924213751088 0.437085808175134
0.340258881365752 -0.025141488573227 0.450863506835235
0.340376387383106 -0.0242489417586444 0.463696790588687
0.341473072851755 -0.0159187885997891 0.462898910834329
0.340699658973841 -0.0217934502437867 0.48293032420876
0.341240536727723 -0.0176850758202604 0.48316846563883
0.340714757939297 -0.0216787622148297 0.496938243543906
0.341491320617945 -0.0157801830546968 0.496365588158362
0.340472840696337 -0.023516306107984 0.509473159192648
0.340823682038094 -0.0208514015434155 0.51562623057138
0.341565155116475 -0.0152193543588276 0.52812966376273
0.340508044727477 -0.0232489049436616 0.541889446612939
0.34058534246054 -0.0226617703698443 0.548214775785301
0.341392367592363 -0.0165318059057264 0.55603937145435
0.341260104204671 -0.0175364460767565 0.566393087254532
0.340302876296763 -0.0248073138950567 0.576892748552295
0.341805897747875 -0.0133907325262667 0.577408355616376
0.340993500677191 -0.01956150091708 0.597407648023601
0.341356907679068 -0.0168011506879799 0.601137349090851
0.341254032344619 -0.0175825664327217 0.613334999060588
0.340329282489463 -0.0246067389482596 0.624908179572629
0.340513386032188 -0.0232083337064443 0.627319180604633
0.342151132212329 -0.0107684164230342 0.629773457050548
0.34185652112052 -0.0130062098352939 0.647024545887601
0.341622180935689 -0.0147862002580027 0.656444777662473
0.341312304512269 -0.0171399453756307 0.663643300993205
0.340618788381589 -0.0224077233774864 0.676975553798809
0.341662102337218 -0.014482967108152 0.682161480793402
0.341657817958411 -0.0145155101960984 0.685983300858523
0.341147664371813 -0.0183905113996197 0.708327754205411
0.340518556508482 -0.0231690600398673 0.712565929120647
0.340226221810652 -0.0253895625231969 0.72578380640973
0.341373712932826 -0.016673502112632 0.733444651376758
0.340940348426326 -0.0199652323451903 0.741369164529473
0.340348030940959 -0.0244643303207034 0.753943140869127
0.341657104079383 -0.0145209326456556 0.75894078528525
0.341379162645032 -0.0166321074387263 0.761347931417555
0.341590440002639 -0.0150272965807596 0.77753798318475
0.340263633235105 -0.0251053945420471 0.791443899027108
0.340383919337873 -0.0241917308822361 0.799377811052246
0.340645317595992 -0.0222062139880815 0.808207916905394
0.340720312880896 -0.0216365682443331 0.815640741455144
0.340409281344989 -0.0239990873123784 0.82863893170135
0.341153914679735 -0.0183430355975164 0.832933929748457
0.341605397797734 -0.01491368084715 0.844775833717363
0.340542460648974 -0.0229874900664111 0.851215332540402
0.342175396789487 -0.0105841086612926 0.853425600216312
0.341220238615621 -0.0178392552887411 0.870694702576351
0.341203561873204 -0.017965927723539 0.877687186966522
0.341160328524848 -0.0182943176071138 0.892367330117488
0.341570211185619 -0.0151809497008363 0.892183307609288
0.340497858077171 -0.0145945589372101 0.901868155464892
0.334761198117163 -0.00722503540177795 0.901868155464891
0.327482801608867 0.00305546478719804 0.901868155464892
0.318317028952091 0.0139620958616426 0.902213046434759
0.319769908764452 0.00292637805159942 0.921080113010424
0.319634922603232 0.00395169974085218 0.922238609271747
0.307314188978746 0.0223717748158684 0.923341206785484
0.29967542745771 0.0283779932897241 0.923341206785484
0.294757822595027 0.0430929505461135 0.923341206785484
0.288323744963773 0.045914294850672 0.923341206785485
0.279439543940795 0.0607171355906549 0.923341206785485
0.274334608293083 0.0633429913853538 0.923341206785484
0.258921545169961 0.075733015909887 0.923341206785484
0.255286661886342 0.0874755899432506 0.923341206785484
0.244212721773758 0.101639386160181 0.923341206785484
0.237807729850099 0.111467365455195 0.923341206785484
0.223566208357273 0.117268743176246 0.923341206785484
0.218988694690858 0.134411331520666 0.923341206785484
0.211429355563724 0.133525059284942 0.923341206785484
0.199075149989051 0.155052734985666 0.923341206785484
0.197462112448414 0.158745841641375 0.923341206785484
0.177404451140765 0.17327389410807 0.923341206785484
0.170237681311959 0.180440159933416 0.923341206785484
0.160498094095743 0.200610143072888 0.923341206785484
0.158068939280178 0.202966087938226 0.923341206785484
0.139600735201728 0.223686749088346 0.923341206785484
0.130802234851548 0.234539550665713 0.923341206785484
0.127158125397081 0.236985681999629 0.923341206785484
0.113175346159076 0.255182852842264 0.923341206785484
0.103138102923345 0.258767868513077 0.923341206785484
0.095767303043634 0.281777814344431 0.923341206785484
0.0815042880379934 0.29124674903073 0.923341206785484
0.0638284549676626 0.3068376252399 0.923341206785484
0.338824447518372 -0.036037095368893 0.262449179731391
0.339599352217642 -0.0301511098124455 0.261999069827993
0.340184314073434 -0.0257078833905229 0.264948493478238
0.339031513242244 -0.0344642750451903 0.287261272650468
0.339881550501715 -0.0280076010355959 0.290814848774648
0.339195019124774 -0.033222324565506 0.305595761688574
0.338975786251967 -0.0348875635607797 0.314130012908214
0.339001148705901 -0.034694916597001 0.321858571381019
0.340056841377235 -0.0266761346469379 0.320965235545206
0.340178640913045 -0.0257509753218858 0.331137641990384
0.338920357571052 -0.0353085861917972 0.352860203942097
0.339077612862582 -0.0341141136644159 0.356206449456535
0.339260844063962 -0.0327223345129553 0.363981829587939
0.339817053582356 -0.0284975037760783 0.370674897649058
0.339117261225669 -0.033812954447433 0.387147792623046
0.339981909769952 -0.0272452967111378 0.383407978623671
0.339304674890142 -0.0323894063347309 0.399120209657536
0.339213277129476 -0.0330836412512058 0.405633548835226
0.340266204888917 -0.025085860892029 0.414908010639852
0.34050926978021 -0.0232395997443317 0.416851190558874
0.340250407515946 -0.0252058538527394 0.430576995367238
0.33901141049516 -0.0346169705690306 0.443188334735474
0.339796694579818 -0.0286521457533322 0.4523360027636
0.340157172304051 -0.0259140455969462 0.458712147480846
0.340288441386967 -0.0249169579205137 0.473362435771255
0.339798752603157 -0.0286365135140975 0.48841192772957
0.339147628675716 -0.033582290763844 0.497023367048147
0.339204747203289 -0.0331484324731231 0.504416155285221
0.339985559049998 -0.0272175776772094 0.509761319562466
0.339561321455718 -0.0304399821287359 0.517248614036225
0.339866756271426 -0.0281199743711552 0.530117506082909
0.340535818234313 -0.0230379442148891 0.529244008762138
0.339605993727737 -0.0301006625348283 0.551525883943706
0.339678657995792 -0.0295487226219031 0.549042822570754
0.339783701920788 -0.0287508347965963 0.563053102903326
0.339899501060086 -0.0278712530080225 0.567341815159432
0.339728091252049 -0.0291732397623819 0.578296688759117
0.339763868891569 -0.0289014816098568 0.585992643739783
0.339778651005747 -0.0287892003052882 0.598737642669547
0.339979003823055 -0.0272673695692282 0.613419739870635
0.339223436034266 -0.0330064767083679 0.615658330981485
0.33946504130013 -0.0311713025165263 0.631032257822641
0.340139016855618 -0.0260519499190518 0.633005291727766
0.339829331777871 -0.0284042416219913 0.651090979916219
0.339584231622658 -0.0302659621339808 0.647198226748874
0.339863665736372 -0.0281434493155044 0.65798093359863
0.340534763530783 -0.0230459554835709 0.668860734692911
0.34013806148065 -0.0260592067123919 0.677854665725391
0.339138759871214 -0.0336496560221144 0.691034293015789
0.340209396099106 -0.025517366490872 0.699390718689995
0.339145020389024 -0.0336021026682128 0.705520913758804
0.340192518234806 -0.025645566598045 0.713438719050464
0.340091414349951 -0.0264135268472454 0.729956718512795
0.339850446656939 -0.0282438581924733 0.734576295191807
0.33998230146668 -0.0272423214791014 0.742435114762026
0.339364650563099 -0.0319338458702052 0.756859922315089
0.33952773974034 -0.0306950605814404 0.763623914056476
0.340596820467208 -0.022574586253497 0.766172384592075
0.339961994807766 -0.0273965658670598 0.787766812201121
0.339474232110683 -0.0311014913794633 0.794763050091395
0.339290567569231 -0.0324965620755587 0.803896806692241
0.340361242103033 -0.0243639815820414 0.807584629173321
0.34042876906613 -0.02385106337438 0.818353413927428
0.339474899195512 -0.0310964243671343 0.827715294970277
0.339270238061072 -0.0326509800207705 0.837166947412524
0.33996349522561 -0.027385169062054 0.84098538366849
0.339396668712234 -0.0316906438822286 0.859098280630195
0.339140300309077 -0.0336379552348835 0.870167416739041
0.339636696316747 -0.02986745321808 0.873131759520101
0.339642511845266 -0.0298232798934206 0.884987040838094
0.339380488545781 -0.0318135444481086 0.895653679551826
0.339905335852973 -0.0278269333559538 0.901457240599406
0.336039626023498 -0.0253607409742819 0.901868155464892
0.325415883161957 -0.0132889247287116 0.901868155464892
0.323445999531313 -0.00987835396704577 0.901868155464892
0.318919815109485 -0.0093834804275234 0.915216464777178
0.320155173743831 -6.67516527582229e-017 0.922756071631444
0.311334009033161 0.000507853982960245 0.923341206785484
0.299160096096483 0.0166930895741515 0.923341206785484
0.297772622484503 0.0190999033922287 0.923341206785484
0.286694408907086 0.034207713640096 0.923341206785484
0.275085491944214 0.0377819106065725 0.923341206785484
0.275083114613265 0.0430935112440345 0.923341206785484
0.26159944466424 0.0658289747032022 0.923341206785484
0.245910771262062 0.0711013469868235 0.923341206785484
0.249854661390767 0.0813355529679908 0.923341206785484
0.238482136382054 0.0884344412037586 0.923341206785484
0.225036618690207 0.10007602426899 0.923341206785484
0.211523400624025 0.114495479392132 0.923341206785484
0.216127538747129 0.116390850038428 0.923341206785484
0.20516366554477 0.136614485054547 0.923341206785484
0.19106023145812 0.145265876600858 0.923341206785485
0.179176127824507 0.150789180557358 0.923341206785484
0.170718234801252 0.165338512991646 0.923341206785484
0.164943493474329 0.178006759303193 0.923341206785484
0.151635716054597 0.189339551683351 0.923341206785484
0.139100802548847 0.205269142047204 0.923341206785484
0.132443955609928 0.202773140244193 0.923341206785484
0.125341065193773 0.219069382262248 0.923341206785484
0.115242203917363 0.24111013924659 0.923341206785484
0.101169632100823 0.249726858288825 0.923341206785484
0.0862698871668789 0.259504811711518 0.923341206785484
0.0809279157007444 0.268385302464387 0.923341206785484
0.0805418600421031 0.274906692283301 0.923341206785484
0.0728262079220655 0.288744984333362 0.923341206785484
0.0551815957897064 0.300017932796005 0.923341206785484
0.337431490121705 -0.0466176572434753 0.262494373817673
0.338145273578552 -0.041195933615538 0.267008963843664
0.337862249419261 -0.0433457155374755 0.278409136438184
0.337694136882681 -0.0446226570286083 0.287960702734056
0.338009410538166 -0.0422279158633202 0.295047379639489
0.338073584512428 -0.0417404661343897 0.307780172245647
0.337906309874692 -0.043011043151929 0.311997022418155
0.338045532111856 -0.0419535452714108 0.324131091134925
0.338053300061955 -0.0418945418324932 0.328259202287411
0.338168324106252 -0.0410208474749566 0.335788044487712
0.338891366246932 -0.0355287971612182 0.346003526538956
0.338008509756109 -0.0422347579823346 0.35427333281429
0.337935501855135 -0.0427893080464158 0.367597119765088
0.337084377943174 -0.0492542360011326 0.380156417027923
0.338313896576919 -0.0399151147821969 0.390725095604594
0.337109649444827 -0.0490622798885197 0.397674569740811
0.337969922757895 -0.0425278553327126 0.413875818016823
0.338154627090383 -0.0411248866395804 0.408364940657778
0.338785793345752 -0.0363307029595454 0.42571010816164
0.338835402040503 -0.0359538875123669 0.432641647666702
0.33884934097784 -0.0358480107717601 0.441224258622503
0.338184712584871 -0.0408963646210916 0.44892690585862
0.337534963060824 -0.045831702240611 0.457413108870064
0.338584859111147 -0.0378569499984355 0.464632707722944
0.338366160375254 -0.0395181318210433 0.478520700136427
0.337685227809991 -0.044690328154132 0.487687924074491
0.337536921596868 -0.0458168256824016 0.502252462583305
0.337873903024229 -0.0432571976196132 0.506817527558527
0.338145284862371 -0.0411958479064234 0.52243478491862
0.337941322702032 -0.0427450943246601 0.52210563976194
0.33908730897194 -0.0340404644018782 0.526016882595332
0.338031909855542 -0.0420570165808249 0.534021729146563
0.337964215305663 -0.042571207736477 0.555756251148558
0.337636706925628 -0.0450588808610829 0.565777451545146
0.337586418098365 -0.0454408624275925 0.568497516113787
0.337311582250529 -0.0475284479491116 0.579998772432439
0.338495149531716 -0.0385383619053551 0.588392765520191
0.33818511059993 -0.0408933413965712 0.599755818637964
0.338076163401816 -0.0417208775247132 0.606199515761741
0.338099669382721 -0.0415423318735772 0.619105809558465
0.338234798593557 -0.0405159236146287 0.62291153286046
0.337562196996436 -0.0456248399621839 0.630252760051843
0.338157426818288 -0.041103620594829 0.639432063956461
0.338248834701053 -0.0404093087933837 0.650773226790685
0.338181190702121 -0.0409231159764751 0.660380538223519
0.337570751369341 -0.0455598630490071 0.6729117395955
0.338932124515549 -0.0352192073747435 0.677989639775509
0.33836909669486 -0.0394958282593208 0.684523386424049
0.337925657175184 -0.0428640858146459 0.695563350430351
0.337748509291918 -0.0442096575775197 0.714773604350126
0.337181164328076 -0.0485190704199543 0.721194595913246
0.337226493588251 -0.0481747605055551 0.72537960373892
0.338539706190484 -0.0381999204812619 0.730632597876834
0.338318343808915 -0.0398813347014665 0.737011490683969
0.339015885356704 -0.0345829806210574 0.744669050971148
0.338521155423183 -0.0383408275482803 0.761013992490891
0.3386863309063 -0.0370861951930757 0.769361508962819
0.338042700306739 -0.0419750549667731 0.777885813708979
0.338161577556835 -0.0410720926054444 0.79276254858513
0.3380805866754 -0.0416872794261975 0.796404212169715
0.337434651161024 -0.0465936467660722 0.806034247506858
0.338092033726572 -0.0416003304401747 0.816278253727167
0.337470762511166 -0.0463193538297155 0.826158309696435
0.337809816692253 -0.0437439816392859 0.828502803647914
0.337969232596794 -0.0425330976267392 0.844329505089461
0.338483728951519 -0.0386251098243533 0.843468287779413
0.338269885409402 -0.0402494127888665 0.852470736391926
0.338469135338687 -0.0387359593190375 0.866453587235098
0.338847040320727 -0.0358654859974884 0.875798145695224
0.337564323225137 -0.045608689651779 0.889181716082149
0.337886187906561 -0.0431638846741119 0.893229475944399
0.335747394650595 -0.03220376726913 0.901868155464892
0.321899853990758 -0.0256812301073739 0.901868155464892
0.319750357433883 -0.0150970343801313 0.901868155464892
0.317370065987079 -0.0211549936977308 0.911437081865256
0.317950536407175 -0.01674588311697 0.917060981672718
0.308390482941848 -0.00909822659543019 0.923341206785484
0.297871501378064 -0.00100752288703138 0.923341206785484
0.29902130821958 0.00623585817766915 0.923341206785485
0.286597975069179 0.0139861076950828 0.923341206785484
0.276089526230591 0.0260033275605583 0.923341206785484
0.275127276709136 0.0330709885396256 0.923341206785484
0.261252040638476 0.0415685120266969 0.923341206785484
0.260760882928142 0.0556773741485027 0.923341206785484
0.246651868804741 0.0646414448504038 0.923341206785484
0.23466848062013 0.0716613410554125 0.923341206785484
0.229351147323336 0.0853173257929188 0.923341206785484
0.226632241809335 0.0938642063025551 0.923341206785484
0.216455408162428 0.105372696102314 0.923341206785484
0.208365772287536 0.114170968934472 0.923341206785484
0.194371590817699 0.121925642522368 0.923341206785484
0.178020189212872 0.141663752838715 0.923341206785484
0.179667394540608 0.143947038967793 0.923341206785484
0.168602029621637 0.153670736143654 0.923341206785484
0.157927546746701 0.167816843724702 0.923341206785484
0.153122589962104 0.181193168428367 0.923341206785484
0.136241999278779 0.195215440091428 0.923341206785484
0.127396405507572 0.200433840850538 0.923341206785484
0.118411510672143 0.220587629137406 0.923341206785484
0.102021471575438 0.23347717452124 0.923341206785484
0.0965090964154676 0.2448284144047 0.923341206785484
0.0899605057126997 0.248274072284789 0.923341206785484
0.0811313230279202 0.258269366580423 0.923341206785484
0.0625029076655694 0.283612893041773 0.923341206785484
0.0598538076383376 0.283281961706547 0.923341206785484
0.0512533373719834 0.298338354880632 0.923341206785484
0.0288697500425549 0.311508060155269 0.923341206785484
0.336230982558427 -0.0557364175046077 0.265718930566465
0.336017153916752 -0.0573606072890318 0.279545837132012
0.336998826650958 -0.0499040625808315 0.28533433036154
0.336292888434425 -0.0552661956923891 0.299954709071518
0.336592447898894 -0.0529908156581426 0.294745484631419
0.335867610014487 -0.0584965059996903 0.317929136556534
0.337497969025961 -0.046112699833072 0.320315855710514
0.336544487243621 -0.0533551130026863 0.334820802954425
0.336928284538491 -0.0504398831217221 0.330126731114867
0.33683502496195 -0.0511482599337914 0.345814912750591
0.335334331847988 -0.0625471558261045 0.361626083444376
0.33637633292573 -0.0546323718543787 0.368045881985241
0.336853275861436 -0.0510096305889525 0.371977763680727
0.335763203120917 -0.0592895550909231 0.386192956043128
0.335955004547652 -0.0578326786149749 0.395475491458719
0.336741200482602 -0.051860927608669 0.403986815627617
0.337262956548883 -0.0478977968223741 0.409266646372512
0.335764521989909 -0.059279537286349 0.424014613344847
0.336752197481346 -0.0517773971102292 0.428278541185806
0.336459877713147 -0.0539977861917603 0.440202959067875
0.335980018887391 -0.0576426758410206 0.448829905119257
0.337467331053153 -0.0463454183410338 0.456006722695478
0.336925807155331 -0.0504587007150538 0.464825100771283
0.336478143488608 -0.0538590438526777 0.473494562396513
0.33642189153681 -0.054286319846902 0.478296779313102
0.337123350876926 -0.0489582071793072 0.493375344431573
0.335747111864502 -0.0594117803180167 0.507353462773506
0.336777847730952 -0.0515825641212991 0.512911094117643
0.337270996373486 -0.0478367282915824 0.518940516300585
0.335689997138002 -0.0598456097367242 0.537886555215939
0.336822162952349 -0.0512459565961164 0.537082159349926
0.336108861373779 -0.0566640199951477 0.547942165257657
0.336444216101489 -0.0541167479429233 0.557673520442582
0.337170922752452 -0.0485968629101298 0.567594572009624
0.336368264659602 -0.0546936564200077 0.580555032216119
0.33712026208524 -0.0489816688814545 0.581727430516461
0.336376650016717 -0.0546299633092067 0.585269579044941
0.336158322733685 -0.0562883236672225 0.601431637139885
0.336366468203636 -0.0547073018577944 0.612825862884394
0.336597161535887 -0.0529550120305742 0.620429128702613
0.336403119993894 -0.0544289038712046 0.633745842863377
0.336328756305567 -0.0549937521626517 0.640831468558988
0.337317233548743 -0.0474855220774588 0.649010242004907
0.335499681478366 -0.0612912006911193 0.659981748608385
0.336496214219207 -0.0537217830264109 0.669842376952904
0.3365935178436 -0.0529826886212468 0.672208728116219
0.337058255241466 -0.0494526576200659 0.679356676098207
0.335341937008663 -0.0624893888956228 0.696821887017152
0.335796347439671 -0.0590377989954372 0.703968723022881
0.336088175995845 -0.056821141039663 0.708926933251567
0.336437628085864 -0.0541667888896977 0.727094868997934
0.336970302720264 -0.0501207233447194 0.729567832367588
0.335840335466331 -0.0587036767610209 0.741659100808535
0.33631582647786 -0.0550919639546362 0.750425871327739
0.336674370589597 -0.0523685510433101 0.753667356894242
0.336515478129249 -0.0535754591024889 0.763659003198898
0.336085591983751 -0.0568407685601518 0.77213814490654
0.335811440747652 -0.058923153939264 0.78191239847688
0.336975106214316 -0.050084237185014 0.795547102100314
0.336258622341113 -0.0555264725115907 0.806174239556876
0.337165704696792 -0.0486364979778646 0.812132443119766
0.336410204801198 -0.0543750894169836 0.814674946228754
0.33698471136099 -0.0500112788526603 0.825669171094899
0.337162535627154 -0.0486605694515997 0.833593042677727
0.336437764495383 -0.0541657527565359 0.848700996569575
0.336320671213785 -0.0550551645318099 0.854666862204949
0.335445046923905 -0.0617061913328613 0.871624934796938
0.336569209084202 -0.0531673319804148 0.879532973814101
0.336167800005532 -0.0562163366406126 0.88621388410214
0.335669575669203 -0.0600007261923401 0.893436044900524
0.336803639239749 -0.0513866581622771 0.901216189289491
0.323214409709653 -0.0410360005044523 0.901868155464891
0.316345329799419 -0.0289386378096036 0.90193582492538
0.315820960609896 -0.0329216172375157 0.903705552936992
0.316237950626563 -0.0297542636034516 0.916904526323979
0.312884662749347 -0.0284503566058548 0.923341206785484
0.314861248479074 -0.0231445335823747 0.923341206785484
0.29812312926644 -0.0111527155710811 0.923341206785485
0.287158945026251 0.00449085240988558 0.923341206785484
0.276971046336349 0.0154493253424783 0.923341206785484
0.27378321953497 0.0263476746561693 0.923341206785484
0.268639200977464 0.0246041426781853 0.923341206785484
0.259285174907785 0.0379781479163509 0.923341206785484
0.255932036702257 0.0413703466392013 0.923341206785484
0.242397418524797 0.0625536151009787 0.923341206785484
0.228255045551849 0.0687567223755799 0.923341206785484
0.224975776655607 0.0768426722043645 0.923341206785484
0.213774257253447 0.0870988938003094 0.923341206785484
0.209770524164967 0.0961496386897491 0.923341206785484
0.188976038562179 0.110173336164192 0.923341206785484
0.195813031378339 0.118583697212942 0.923341206785484
0.176640376435757 0.122186011746827 0.923341206785485
0.168655523476786 0.141139937414055 0.923341206785484
0.155886329634732 0.15363477044095 0.923341206785484
0.150087418190203 0.168458447756851 0.923341206785484
0.135650983393203 0.173291732818163 0.923341206785484
0.126592215026765 0.195088560127728 0.923341206785484
0.119356107225898 0.19935793247096 0.923341206785484
0.11641037784213 0.201672052104909 0.923341206785484
0.102299427256202 0.217061448557563 0.923341206785484
0.0936562246686918 0.236063448025212 0.923341206785484
0.0797062955671248 0.241065139814248 0.923341206785484
0.0677664305966212 0.263477590269295 0.923341206785485
0.0532234535146997 0.269478512388956 0.923341206785484
0.0414812034572614 0.288970056114723 0.923341206785484
0.0343418440144989 0.300664778885058 0.923341206785484
0.0231654334899916 0.311074277977657 0.923341206785484
0.0264324390861403 0.31115014798405 0.923341206785484
0.335286229099653 -0.0629125324746007 0.275649666351485
0.335327784500019 -0.0625968878713617 0.279766153255156
0.335227887630559 -0.0633556799284167 0.292473165301733
0.334904070729814 -0.0658153134840117 0.303903347891741
0.335743614045552 -0.0594383488906923 0.309540360614937
0.334696218854692 -0.0673941052193179 0.314653712609098
0.334787249773037 -0.0667026567469105 0.335893778174757
0.334868749017807 -0.0660836085232636 0.338110123555969
0.334234315953196 -0.0709026060830314 0.352903141613499
0.335134891802411 -0.0640620533725323 0.35223481618092
0.334633959808832 -0.0678670096229563 0.368561296924163
0.333916285920887 -0.0733182840089151 0.383231864038237
0.335126236456075 -0.0641277972550619 0.389577473699348
0.334167494905788 -0.071410162328698 0.397754650016089
0.335022249655884 -0.0649176554202828 0.405620988291243
0.335734890240205 -0.0595046127710368 0.408128214882075
0.33475830731391 -0.0669224965498544 0.424372551194079
0.33464957914747 -0.0677483689672581 0.429447492883089
0.335230642382342 -0.0633347555112248 0.434537665637345
0.334799342813921 -0.0666108009818767 0.44647626047026
0.334273008950279 -0.070608703591303 0.454976872226144
0.334581715679727 -0.0682638431814728 0.458778188033123
0.335537032911449 -0.0610074883896669 0.473617469476054
0.334928985919165 -0.0656260638320361 0.481805221027381
0.334764697101619 -0.0668739612935868 0.502057619989771
0.334713311175629 -0.067264276152261 0.503383871450152
0.335111101066581 -0.0642427619520644 0.510870082738855
0.334903738711475 -0.065817835413685 0.52062907683489
0.334137343864868 -0.0716391822217709 0.532888105641758
0.33534484739461 -0.0624672823195974 0.540263564954211
0.334908063828051 -0.0657849828916588 0.553958057557425
0.334253444682095 -0.070757308961829 0.556432220390407
0.334888823183853 -0.0659311300939551 0.562821678980408
0.33539361996408 -0.0620968178744564 0.573246610776297
0.335322341964618 -0.0626382280320172 0.581101028672373
0.334866097724034 -0.0661037470988428 0.59180782733437
0.334606537178208 -0.068075305182302 0.600589812892378
0.335180486757892 -0.0637157253019183 0.609396536962581
0.334917001788908 -0.0657170923387241 0.618105667467081
0.334878469706087 -0.0660097725652816 0.632564733347174
0.335253661790111 -0.0631599057499939 0.634188660410275
0.334227832844969 -0.0709518501790064 0.647603332686908
0.334316090095491 -0.0702814698053807 0.655024636324295
0.334309401311515 -0.0703322761637708 0.664729243422273
0.335520839789242 -0.0611304873642667 0.666688047282397
0.334330808456326 -0.0701696727555286 0.683971599493847
0.334847844711378 -0.0662423924947988 0.689879436888311
0.334895698449462 -0.0658789072669361 0.70323230996388
0.334375884393044 -0.0698272870238189 0.70632418054473
0.3352393961901 -0.0632682637399507 0.716295398625236
0.334978897108502 -0.0652469507103584 0.719109434189745
0.335141890688105 -0.0640088915577435 0.741062953555644
0.334689386969008 -0.067445998543091 0.748163477851757
0.334595149025291 -0.0681618067916567 0.755339557766281
0.335207457252145 -0.0635108640592751 0.756663197027427
0.334888640853317 -0.0659325150318745 0.777160301877565
0.335068549095285 -0.0645659762630355 0.773522788952906
0.334036525879968 -0.0724049708452061 0.790795818993939
0.334661661585384 -0.0676565937397771 0.797720544753581
0.33535679387442 -0.0623765397964482 0.808641647597494
0.335300256261503 -0.0628059856022839 0.813122311871083
0.334725171402054 -0.0671741887886127 0.833343528681829
0.334947722742531 -0.0654837435289005 0.830891323758417
0.335122360702209 -0.0641572365284332 0.842745318643213
0.334153011312248 -0.071520176143893 0.852762969182464
0.33483304515953 -0.0663548062516086 0.868735556901491
0.33428379374464 -0.0705267849451854 0.872336003550811
0.334447647696151 -0.0692821906191057 0.883513967714015
0.334187376640576 -0.0712591455599105 0.88859192502735
0.335642379393697 -0.0609263692836264 0.901868155464892
0.335015144951548 -0.0649716210074633 0.901571392571688
0.32757234211205 -0.049531673413632 0.901868155464892
0.314213798195527 -0.0451292277562697 0.907565647755261
0.314171541689647 -0.0454501977846002 0.913056638525379
0.314531218274986 -0.0427181828822607 0.914882113861327
0.309664791414022 -0.0387054219003353 0.923341206785484
0.292524593110337 -0.0197816891502054 0.923341206785484
0.292227779156822 -0.0116377088974771 0.923341206785484
0.284343125652462 -0.00636552021950947 0.923341206785484
0.27795741037696 -0.00117955014529555 0.923341206785485
0.271978916437525 0.00967816092019289 0.923341206785484
0.258521491905072 0.0200459933199117 0.923341206785484
0.249168472634048 0.0369984127789086 0.923341206785484
0.242296100736861 0.0439306870259615 0.923341206785484
0.237704814592983 0.0525798164508079 0.923341206785484
0.22470504768353 0.0579172295526775 0.923341206785484
0.214521625448195 0.0748700926950155 0.923341206785484
0.198371687716756 0.0893741729550767 0.923341206785484
0.199777074464459 0.0944401136263589 0.923341206785484
0.182021509013241 0.102671321356872 0.923341206785484
0.183755803154124 0.107611862409279 0.923341206785484
0.169750723822139 0.124490788180789 0.923341206785484
0.15279200392275 0.140963276737075 0.923341206785484
0.155344395920423 0.141885766725186 0.923341206785484
0.148217430913508 0.149718456638708 0.923341206785484
0.132487380657611 0.168321583254788 0.923341206785484
0.123787449642909 0.179755682679063 0.923341206785484
0.108755012782066 0.18644337888439 0.923341206785484
0.100063677212631 0.207892162637539 0.923341206785484
0.0913212182976578 0.219994101706399 0.923341206785484
0.0820825327264913 0.224463548888285 0.924844320377926
0.0741011250820928 0.228555271273488 0.924844320377926
0.0621185218696484 0.256449109429919 0.923341206785484
0.0540166719469137 0.266258347913047 0.923341206785484
0.0419057273787348 0.262058559434152 0.924844320377926
0.027091775091448 0.284718131696248 0.923341206785484
0.0191951984311481 0.299525592439825 0.923341206785484
0.0115569962719256 0.308403576189999 0.923341206785484
0.33288903328887 -0.0811210424133645 0.285546450689432
0.332738169397902 -0.0822669674336443 0.292091085773403
0.33421901044494 -0.071018862960313 0.296126719340094
0.333398856968739 -0.0772485471002357 0.308591065627221
0.33272480231869 -0.0823685004805463 0.327634552610045
0.332646202480387 -0.0829655255255932 0.328899744586734
0.333848863282936 -0.0738304097884215 0.333167162833033
0.333486740783085 -0.076581003255975 0.345779684946289
0.332995550614537 -0.0803119629988506 0.352028407851233
0.333167096445484 -0.0790089430479181 0.36468843452586
0.333637399082167 -0.0754366398611011 0.36806052292636
0.332714961013628 -0.0824432526139411 0.381440937131441
0.333582371035439 -0.0758546193733556 0.385556522769026
0.332809363090843 -0.0817261976476886 0.403140080401611
0.333865153647644 -0.0737066721836934 0.403602444210035
0.333752345925276 -0.074563531904815 0.412765701645431
0.333324438092049 -0.0778138145889155 0.427099628211923
0.333017882993183 -0.0801423317419049 0.440506167797138
0.333295563637351 -0.0780331378469421 0.444663340726414
0.333294080483497 -0.0780444035189285 0.447252974681655
0.333378455999901 -0.0774035078431843 0.461570437234583
0.333488729366909 -0.0765658984622124 0.470805117941063
0.332483233535287 -0.0842033975605822 0.4882200251253
0.332914599280553 -0.0809268494268898 0.49577363808679
0.333122040376071 -0.0793511778724652 0.499731374529494
0.333352360874626 -0.0776017199983159 0.506175832630603
0.332381161506957 -0.0849787115895647 0.517018589364659
0.33306253738547 -0.0798031479580389 0.523438650746634
0.332918314466206 -0.0808986297901887 0.539742257356749
0.333122836860713 -0.079345127970964 0.542469966431695
0.333296611441389 -0.0780251789851088 0.552103766344581
0.333079480997776 -0.07967444844518 0.564536648473547
0.333463727198662 -0.0767558087845063 0.565090436320213
0.33373136399526 -0.074722905486026 0.581819365798688
0.33323551426214 -0.0784892581356668 0.585441012709718
0.334029169830968 -0.0724608455846513 0.593971048218936
0.333058289572318 -0.0798354133022587 0.607317743532731
0.332393039314369 -0.0848884906850654 0.623412127059207
0.33348182346913 -0.0766183539636729 0.62008149660439
0.333087883093169 -0.0796106281945403 0.6362170760516
0.333121741049925 -0.0793534514802654 0.642463398185998
0.334148853075591 -0.0715517610870835 0.650907790075021
0.332599304424289 -0.0833217516280803 0.667520407831326
0.333595194922793 -0.0757572122782451 0.673334015420086
0.333493968371646 -0.0765261042704347 0.677165806569958
0.333557595243895 -0.0760428101938732 0.69054862493289
0.332994956062824 -0.0803164790674719 0.693157975649155
0.332757412036786 -0.0821208050801989 0.709158456933743
0.333296215028745 -0.0780281900380818 0.712215091981834
0.33321779397485 -0.0786238570807249 0.7240972842405
0.333210092377801 -0.078682356518187 0.739115371827189
0.333838576109832 -0.0739085486258303 0.744153280020859
0.333177446102231 -0.0789303296001162 0.749709922587795
0.333470189619303 -0.0767067218263472 0.762547284057938
0.333609408556782 -0.075649249009415 0.764145158377933
0.333069683508296 -0.079748867766198 0.775557006781002
0.332298794393821 -0.0856043519279223 0.788390894360292
0.332549165407018 -0.0837025952747255 0.800704428222469
0.333565702921267 -0.0759812262701251 0.805852175972411
0.333020897658212 -0.0801194330876126 0.813928418840866
0.332669329887407 -0.082789855428606 0.827949776458878
0.334250283539755 -0.0707813202217537 0.828162531328364
0.332324715477129 -0.0854074617527756 0.84908103694533
0.333950156896023 -0.0730610084102205 0.851676850440242
0.333285164087448 -0.0781121302708831 0.859625509281407
0.333520591780854 -0.0763238794004515 0.872833041756254
0.333591586434963 -0.0757846214645199 0.87795180048587
0.333629217410351 -0.0754987858284531 0.885933709703837
0.333375177644052 -0.0774284094281119 0.892335978018819
0.331921865202043 -0.0778595139298275 0.901868155464892
0.320369537418675 -0.0644510157955044 0.901868155464891
0.313669935258675 -0.0574019949605463 0.901868155464892
0.313243425273005 -0.0524999418733971 0.912014559444043
0.312113193535113 -0.0610849042448247 0.920788738801843
0.307585238284483 -0.0529565690497351 0.923341206785485
0.302123860186121 -0.043409288914903 0.923341206785485
0.294442004314818 -0.0265638644871043 0.923341206785484
0.285337960195542 -0.0236282911206748 0.923341206785484
0.279355690757461 -0.021114414688405 0.923341206785485
0.269630686487958 0.000746004198575015 0.923341206785484
0.265042514544497 0.00380800794963154 0.923341206785484
0.257204134087385 0.0159984404448922 0.923341206785484
0.23792032500286 0.0264892914465729 0.923341206785484
0.229175579767571 0.0355157640526398 0.923341206785484
0.230615449774485 0.0409930931756529 0.923341206785484
0.213574994607863 0.0570060789323631 0.923341206785484
0.211053232624145 0.0646645543832228 0.923341206785484
0.205043519061752 0.070745656752204 0.923341206785484
0.195977306707405 0.0862881907082773 0.923341206785484
0.17763867826733 0.0973036558523519 0.923341206785484
0.16914263564477 0.107112683809436 0.923341206785484
0.16077534150986 0.120223492548766 0.923341206785484
0.155802886989212 0.119215136119721 0.923341206785484
0.144713575310793 0.135356500858171 0.923341206785484
0.134772379712351 0.148539137621684 0.923341206785484
0.129697967172264 0.15555081143187 0.923341206785484
0.114357290748702 0.176498754538786 0.923341206785484
0.101778119717448 0.183416456586967 0.924844320377926
0.0957930094677577 0.188705205672703 0.924844320377926
0.0826781181547986 0.212744188920796 0.924844320377926
0.0723390143544429 0.219653323723321 0.924844320377926
0.0607739225430408 0.234138301121262 0.924844320377926
0.0525164249487229 0.236641646588575 0.924844320377926
0.0443809120867488 0.254578017574054 0.924844320377926
0.0346037838397592 0.262138631861639 0.924844320377926
0.0169957604121099 0.279916098005648 0.923341206785484
0.0173982809738338 0.2889596494021 0.923341206785484
0.000221244801153612 0.295583181627816 0.923341206785484
-0.00745025765519643 0.31153255787601 0.923341206785484
0.33166836504217 -0.0893896241646156 0.285442333890924
0.332368589917907 -0.0850742022887934 0.297352138524073
0.332241696232782 -0.0860380555194582 0.308967969609873
0.330017624128862 -0.0933748652654889 0.316003416978962
0.330938052092733 -0.0911527555919235 0.323666359910355
0.331846390812128 -0.0890406982941774 0.343206484274332
0.331439609747787 -0.0899418882987789 0.340618878130802
0.332214176085331 -0.0862470917926472 0.346744372062245
0.329616761866437 -0.0943426323760782 0.363962924839986
0.331960108621899 -0.0881769257729183 0.36848263441994
0.330923547950695 -0.091187771688339 0.382631363220843
0.330450563915004 -0.092329656162092 0.393555476289827
0.329891114973992 -0.0936802853829396 0.402150672405323
0.330328608107113 -0.092624083527514 0.405944906394905
0.332509710128619 -0.0840022878678907 0.408593796088129
0.331492598310186 -0.089813962592784 0.426712723970489
0.33179642642842 -0.089080456629114 0.43280128901656
0.330894719435243 -0.0912573698813286 0.448703804262171
0.330424878896313 -0.0923916652825666 0.449058440186716
0.328955696081011 -0.0959385863608752 0.460368752726264
0.330683142633916 -0.0917681614645748 0.472087492734209
0.330940993886762 -0.0911456534728802 0.478489070544052
0.332614249322747 -0.0832082338541493 0.479199127390023
0.332290039005588 -0.0856708557041021 0.489773258633606
0.330152505976439 -0.09304923167975 0.504687305967812
0.332190760182576 -0.0864249532323003 0.509612218195021
0.330256546708045 -0.0927980551344665 0.525606610512027
0.331858743128286 -0.0889468731379186 0.530006934225764
0.33098446552294 -0.09104070365924 0.540933133123593
0.332508797704294 -0.08400921841871 0.545686717910288
0.332119215247415 -0.0869683909677986 0.557720177365534
0.331051929631721 -0.0908778308928491 0.564857227057265
0.331325482325941 -0.0902174162684383 0.577823464111525
0.331127190723913 -0.09069613454336 0.578057833552658
0.331167036991305 -0.0905999371442105 0.596901850936849
0.331901569370301 -0.0886215755340023 0.604432717475119
0.33072299366089 -0.0916719525747809 0.616286631515212
0.33266742695564 -0.0828043096304007 0.618301882358289
0.33216090310842 -0.086651740226116 0.624408355164895
0.331859520228386 -0.0889409704766398 0.63966894134521
0.332057147440704 -0.0874398427658894 0.648286200082349
0.331912947805572 -0.0885351477374931 0.660686418962005
0.330576412297629 -0.092025831289956 0.668515422034572
0.332306018325618 -0.085549480718265 0.672554131390337
0.33140378789101 -0.0900283699112382 0.686607838874175
0.331441071959048 -0.0899383582085211 0.689499287030337
0.331979571984437 -0.0880290868568798 0.70194009805003
0.331993891898838 -0.0879203163081654 0.718918448418853
0.331861997436656 -0.0889221542117316 0.723725729270571
0.331861997436656 -0.0889221542117317 0.731255373019116
0.330229817785496 -0.0928625844617922 0.738567265812455
0.331966503171791 -0.0881283543442756 0.744732646381065
0.332118172287199 -0.086976313037145 0.760145645925213
0.32975907415215 -0.0939990601258155 0.762817107554167
0.332260900963533 -0.0858921811068782 0.769664307391708
0.330902274178289 -0.0912391311182062 0.77705211816307
0.331301393289673 -0.0902755723465015 0.791713536798156
0.33139611026571 -0.0900469053383651 0.800427939398589
0.33085500695702 -0.0913532442848505 0.814790885299273
0.331983092091429 -0.088002348989713 0.817085152437379
0.332214534451919 -0.0862443697281595 0.831553772315026
0.332717351661397 -0.082425093841321 0.837277608529906
0.329380081319913 -0.094914029761446 0.847443707178907
0.331918025412507 -0.0884965794837321 0.856527215012249
0.332588220986536 -0.0834059386959756 0.865278865260387
0.332670768562877 -0.0827789276034895 0.869328213272719
0.331071137516855 -0.090831458956052 0.877372654932243
0.332311875879779 -0.0855049881771568 0.894449040190202
0.324954512501883 -0.0839466439239037 0.901868155464892
0.325217500144575 -0.0824882178805912 0.901868155464892
0.311396694368079 -0.0665272557395823 0.902173737173969
0.31561790260143 -0.0680590640547231 0.901868155464892
0.310796429912476 -0.0710867169469547 0.91585309053346
0.305305047725856 -0.0630739508136423 0.923341206785484
0.303567909421277 -0.0596931362657674 0.923341206785484
0.301168541726603 -0.0474542356146712 0.923341206785484
0.283081805635393 -0.038854335236812 0.923341206785484
0.278718383699597 -0.0264898213390648 0.923341206785484
0.268811857701754 -0.0168038176986129 0.923341206785484
0.263308446685386 -0.0139336589312103 0.923341206785484
0.251070951996434 0.00453324359842164 0.923341206785485
0.239945477732498 0.014672799796075 0.923341206785484
0.23219958756836 0.0244536788389577 0.923341206785485
0.228283085467527 0.0280991528965108 0.923341206785484
0.221125904739911 0.0345185942472092 0.923341206785484
0.214199265914453 0.0455357696622651 0.923341206785484
0.198427166525095 0.0627688595179145 0.923341206785484
0.191676147266409 0.0658455542634701 0.923341206785484
0.183166472829826 0.0749770236501795 0.923341206785484
0.179242877411777 0.0917783076122038 0.923341206785485
0.164323219093547 0.0998051411832348 0.923341206785484
0.160275409214762 0.109387958709142 0.923341206785484
0.147501701446481 0.115988237310252 0.923341206785484
0.140119944163382 0.125279572949944 0.923341206785484
0.121852938917945 0.148427146757165 0.923341206785484
0.118039990404083 0.148667069342667 0.923341206785484
0.108320640668957 0.164460794932449 0.923341206785484
0.0976053875190682 0.180266475468503 0.924844320377926
0.0865921193179916 0.186685593016889 0.924844320377926
0.0783856474217356 0.198557963860449 0.924844320377926
0.0756766419686843 0.2000306869984 0.924844320377926
0.0536038230319109 0.219588945947185 0.924844320377926
0.0477882375359399 0.234707113098703 0.924844320377926
0.0363997044395062 0.242776798126462 0.924844320377926
0.02559085606392 0.256854157438044 0.924844320377926
0.0138201190942598 0.269814766259659 0.924844320377926
0.00599416801916447 0.28065618469249 0.923341206785484
-0.00648607464998672 0.291164300246665 0.923341206785484
-0.017062993417408 0.301337973500152 0.923341206785484
0.328094206583888 -0.0980184059886688 0.294800026355581
0.32725553541458 -0.100043137299985 0.302308140631182
0.329458065619272 -0.0947257590082823 0.311883665408613
0.329459250129601 -0.0947228993473802 0.314024412054874
0.329068035804292 -0.0956673742773353 0.328930012382512
0.328284722536277 -0.0975584597925649 0.336130960051549
0.328722395613677 -0.096501823513219 0.348158138117389
0.329024193198457 -0.0957732196909517 0.358974584387081
0.32939506238335 -0.0948778622749157 0.362336524491522
0.329442126208158 -0.0947642401507691 0.369507893587409
0.32787849914879 -0.0985391698039876 0.38001359201066
0.328134514546052 -0.0979210939597407 0.390850860703255
0.326061600705389 -0.102925550667501 0.401173156917604
0.326343026469272 -0.102246128771534 0.410903946494251
0.32797399891558 -0.0983086129718003 0.414783042668327
0.327806585597128 -0.0987127844757303 0.432463510959697
0.328144869915468 -0.0978960938864547 0.442079460002125
0.32857646106953 -0.0968541406689177 0.445177508048578
0.327898023337679 -0.0984920342423795 0.452050554313308
0.328970530301574 -0.0959027733844038 0.459360320388963
0.329123894895264 -0.0955325185023284 0.473999975203376
0.326620176529414 -0.101577029337526 0.486128812160174
0.326106185098086 -0.102817914421983 0.490290864473329
0.328474448482348 -0.0971004208404246 0.493302018011392
0.328745677705908 -0.0964456155703932 0.508071169521862
0.328986832364337 -0.0958634167233852 0.516224435499045
0.329141163680933 -0.0954908279657597 0.529234666031831
0.326997414544391 -0.100666296205526 0.53431243183638
0.330238123148963 -0.0928425335406684 0.546949260531469
0.327113291073071 -0.100386545518428 0.551666641993379
0.329307931083782 -0.0950882158400412 0.561404946068147
0.326847613063739 -0.101027948971779 0.574523922686332
0.326816071447035 -0.101104097170606 0.584400393581188
0.328735374951635 -0.0964704886194923 0.590956311070413
0.329356776945192 -0.0949702914989604 0.592690365779669
0.327878004781729 -0.0985403633116513 0.609950871054705
0.327439842421062 -0.0995981808252943 0.611482408878136
0.326438994967474 -0.102014440321613 0.629040356066329
0.326179532674718 -0.102640837707711 0.634138574516983
0.328746360101109 -0.0964439681226466 0.646284004752088
0.326371069901361 -0.102178425937449 0.659576102233518
0.327814368012272 -0.0986939960635388 0.665862875608148
0.328794746269236 -0.0963271535793217 0.674019793188345
0.326000974679893 -0.103071914840486 0.683107612344245
0.326544507428754 -0.101759710706592 0.68992367300419
0.327312114853711 -0.0999065424506826 0.696527213544816
0.327756989883449 -0.0988325191203274 0.711799518377403
0.328968699647511 -0.09590719297427 0.710796097045245
0.326643555937827 -0.101520586452655 0.725803790343275
0.328848031068924 -0.0961985126932483 0.736369399860467
0.328759393630366 -0.096412502399547 0.742724556328603
0.327127882108231 -0.100351319643455 0.756457670554224
0.32756919555677 -0.0992858947307332 0.75986515096253
0.32938719391282 -0.0948968584431839 0.770226528614368
0.32718202682421 -0.100220602735806 0.781972844261571
0.32741881048262 -0.0996489564163252 0.790616736855043
0.325653764592231 -0.103910154143113 0.801058967861953
0.328450564819535 -0.0971580811031074 0.80240763496949
0.326903668634764 -0.100892618851964 0.819566218022329
0.326542384892226 -0.101764834963065 0.824625368217074
0.327632393615229 -0.0991333211208854 0.826732167653551
0.32662025654396 -0.101576836165324 0.839431649972061
0.327687442813343 -0.0990004206002011 0.848849216371569
0.327956183314233 -0.0983516236381922 0.856435232755418
0.329758105622147 -0.0940013983640843 0.864298760152817
0.327337427946856 -0.0998454312379076 0.874002363064978
0.328540099915165 -0.0969419242609294 0.883110382287361
0.326541058642974 -0.0985154477717168 0.901868155464892
0.321524054245483 -0.101123226065454 0.901868155464892
0.311083357101416 -0.0878393258854199 0.901868155464891
