ply
format ascii 1.0
element vertex 833
property float x
property float y
property float z
end_header
-0.135203090087625 -0.102262805578817 0.959589950318533
-0.146177666331366 -0.102096188533065 0.959589411482631
-0.150520848571513 -0.0918574286126091 0.959588770822976
-0.15701959135182 -0.088348932117288 0.959588308478436
-0.138511881931679 -0.107558984548331 0.989725505890561
-0.179388962297636 -0.0655177887152188 0.959586265182797
-0.207902557238342 -0.0443426331891114 0.959583993710969
-0.217994044980694 -0.0300627146143606 0.959582904693432
-0.206393303107812 -0.0424278418801926 0.980137126773614
-0.207928168638139 -0.0444095041468426 0.988253829826886
-0.213857519743062 -0.0413892298856954 0.988546157382981
-0.253784360781535 0.00204189221274448 0.959586307154426
-0.268449041318242 0.014678652926876 0.959586307154426
-0.281310342925134 0.0251529044113195 0.958849193955347
-0.299137022432992 0.0434421989440283 0.958167688529854
-0.301301980802044 0.0370301972305378 0.96714705359312
-0.3015592262722 0.0362683080325702 0.97579824631392
-0.304628485209928 0.0358426463656994 0.994760160910338
-0.299041310834584 0.046118668819741 0.993220925597737
-0.0775740167263173 -0.174580237478879 0.124299541609102
-0.0382700914088273 -0.20562615849882 0.186662560432901
-0.0379565682786798 -0.205470911615262 0.19454875528636
-0.0378622735794306 -0.20542421981875 0.201966284730802
-0.0379056492968431 -0.205445698122272 0.212430970296615
-0.0404647220612222 -0.206712871205427 0.225034816569703
-0.0358117788779933 -0.204408878743272 0.228995605239185
-0.0359898440850987 -0.204497051084688 0.237683032203913
-0.0379383346642924 -0.205461882897642 0.25647691006359
-0.0392935514665636 -0.206132944024773 0.253853318926235
-0.0334096773685843 -0.203219432933799 0.276808396300137
-0.0405486799207407 -0.206754444521036 0.288552119534926
-0.0394762620909743 -0.206223416632071 0.295734753728338
-0.0384516653539421 -0.205716068257955 0.300104244921607
-0.0420621095939776 -0.207503847731397 0.308494197435258
-0.0360329056701411 -0.20451837383965 0.314495877714391
-0.0374041430387421 -0.205197367851971 0.330725685278293
-0.0398250540719175 -0.206396127551442 0.336120723923396
-0.0390687112873063 -0.206021610174821 0.357322195570133
-0.0403629420039517 -0.206662472892893 0.354764244135325
-0.0433289601770528 -0.208131152660587 0.361443279374351
-0.0346753562484759 -0.203846157672087 0.381488780391683
-0.0409065005566384 -0.206931626148975 0.386904434032939
-0.0354385011797561 -0.204224043259759 0.391874849025373
-0.0358798769579251 -0.204442598790277 0.406225878560899
-0.0386817965520979 -0.205830022055578 0.411270944147952
-0.0424433656705974 -0.20769263385925 0.423876128878715
-0.039298498632829 -0.206135393707337 0.439490299637208
-0.0380942505224899 -0.205539087571731 0.437176151877702
-0.0442286857875672 -0.208576668744279 0.448548353688596
-0.0393710185076426 -0.206171303289368 0.463994328056438
-0.0357087780584695 -0.204357875947314 0.477177209726253
-0.0368082294558196 -0.204902290016484 0.481010568100384
-0.0371568004910418 -0.205074891530419 0.491286033588982
-0.0427377164399968 -0.207838387187244 0.500829156614769
-0.0414248882366858 -0.207188315573339 0.508144399951899
-0.0341773263957296 -0.20359954880938 0.522084473957263
-0.0359307981116055 -0.204467813358696 0.528077083780567
-0.0420604976353852 -0.207503049539736 0.546514629708053
-0.0421608485375374 -0.207552740179193 0.550088363374894
-0.0389927643324547 -0.205984003609554 0.559558235864771
-0.0420027122202075 -0.207474436002938 0.566669890004993
-0.0420116648118839 -0.207478869047342 0.576919471434991
-0.043432280616434 -0.208182313722339 0.590611301130767
-0.0404023852090802 -0.206682003938883 0.602167714486137
-0.0437688081244369 -0.208348951656912 0.604985090809759
-0.0387408622768186 -0.205859269561763 0.621515563361606
-0.0382884351079704 -0.205635241726981 0.629877518125287
-0.0404739516332432 -0.206717441401865 0.640803505866774
-0.0358256610288194 -0.204415752751744 0.651800128420188
-0.0413282823393774 -0.207140479343574 0.658707541437463
-0.0397583451393001 -0.206363095366896 0.658760942360865
-0.0360192867951173 -0.204511630197151 0.675499067973218
-0.0404632266059498 -0.206712130702579 0.689619886701156
-0.0382431741421454 -0.205612829907197 0.693761817506853
-0.0415695931069447 -0.207259968915575 0.70072890872232
-0.0392716489762243 -0.206122098594116 0.70930179665195
-0.043527157948224 -0.208229294020326 0.727028142857495
-0.0389588975575612 -0.205967233838035 0.739362840480712
-0.0422620581613703 -0.207602856030865 0.742290635616126
-0.0382340102249472 -0.20560829222098 0.752428283685243
-0.0398647958190446 -0.206415806426126 0.764567887831604
-0.0342068860402818 -0.203614185824179 0.769840638160681
-0.0389505498000966 -0.205963100288684 0.785966089362886
-0.0419369477381498 -0.207441871480877 0.78998878216073
-0.0401288427571014 -0.206546554241214 0.798227050253098
-0.0389310464836712 -0.205953442854183 0.808027434372729
-0.0406319860195293 -0.206795695105043 0.820036307980494
-0.0359155227579045 -0.204460249479577 0.829225867826784
-0.0411079410196346 -0.207031373188652 0.84357201682928
-0.0332522445627776 -0.203141477114527 0.853510303949413
-0.034653146972275 -0.203835160330632 0.861917060478447
-0.0422227641690043 -0.207583398870385 0.866120131376671
-0.0378218970894425 -0.205404226639182 0.87008239632761
-0.0371793896346339 -0.205086076970368 0.886815773030924
-0.0380992407744176 -0.205541558588971 0.895254965484517
-0.0425944310770966 -0.207767436740815 0.903396667909352
-0.0389249077957779 -0.205950403167241 0.916998700149121
-0.0377923223260821 -0.205389582138021 0.928599110351575
-0.0376030374576489 -0.205295854169959 0.936208849307386
-0.0407258021653015 -0.202954244423147 0.943041640359568
-0.0485477698664895 -0.204595220769128 0.945604079899847
-0.0476490294876841 -0.1956241279378 0.955391440333574
-0.0529754320444791 -0.19698003788094 0.956862585187572
-0.0523107961574263 -0.187630115159448 0.967217887332634
-0.0632430390085781 -0.190104894892641 0.969597708133283
-0.0672687253789624 -0.186676063492117 0.974918359460926
-0.0648100547603731 -0.181164328087316 0.981221303312155
-0.0633302962785595 -0.176368188956342 0.993689694826112
-0.114630044061483 -0.140482727345213 0.959586307154426
-0.128306684154191 -0.124333833603019 0.959586307154426
-0.140416342620855 -0.124690331402466 0.959590639983349
-0.151576167698339 -0.10685013741131 0.95958934960689
-0.155177611931824 -0.101073738658679 0.959588932380471
-0.146669130323516 -0.111185840923075 0.991498113424402
-0.151707468114646 -0.105749284291383 0.991241066900166
-0.194542074804949 -0.0631805797558751 0.959585432653799
-0.199453755020752 -0.064640363693763 0.959585255963921
-0.224723840836176 -0.0384996466266151 0.959582933044447
-0.207492303180239 -0.0627644996754813 0.988582169928904
-0.208215413401998 -0.0464515153352615 0.981399014452197
-0.218557292504035 -0.0449810264872533 0.989831982997112
-0.276703684323489 0.000864426665666415 0.959586307154426
-0.285881747805481 0.0101513946110968 0.958849193955347
-0.285303658974724 0.0205108497356325 0.958849193955347
-0.302345243794699 0.0297646849558314 0.956485839667279
-0.302465525377324 0.0278826493024929 0.96722121920781
-0.302033481559789 0.0346428020262779 0.983652140953002
-0.302885728379623 0.0258883459068202 0.991384659893058
-0.305038818573728 0.0328404781240291 0.994750768288323
-0.0465022879739476 -0.209702485693481 0.185125914577169
-0.0459660781926811 -0.209436971319993 0.190106671917645
-0.0476957453096106 -0.210293448573747 0.200202960578571
-0.0483514421657154 -0.210618129223055 0.212860775587843
-0.0485042540619484 -0.21069379691191 0.229470415335168
-0.046419931565561 -0.209661705366566 0.237852312828815
-0.0480910914110289 -0.210489211642785 0.241988831271262
-0.0476569343685113 -0.210274230605201 0.255783414514416
-0.0464555554529202 -0.20967934520542 0.26321150172205
-0.047896790325398 -0.21039299980029 0.261121914455363
-0.0521436226611851 -0.212495898826644 0.278501462962551
-0.0488220040410481 -0.210851136799346 0.28568190901048
-0.0481671187067808 -0.210526857990361 0.300058978552081
-0.0438095461399843 -0.208369123852671 0.314327429947077
-0.0487096466543379 -0.210795500922901 0.317556837653907
-0.0505750985813463 -0.21171921458307 0.316971932035154
-0.0468963033541774 -0.209897589830858 0.339670555014755
-0.044984604239949 -0.208950976004803 0.344369830840339
-0.0487167890341071 -0.21079903760678 0.363300131388748
-0.0504764924953635 -0.211670387922206 0.365338426083723
-0.0455011699408092 -0.209206763241854 0.374469041410319
-0.0464840466054222 -0.209693453136254 0.389616350749138
-0.0447082660626042 -0.208814141951058 0.396426824565245
-0.0524165713308873 -0.212631054501833 0.403551627671593
-0.0454416690133864 -0.209177300236853 0.417883567398908
-0.0436577881843037 -0.208293978042333 0.41924476720874
-0.0464159088632273 -0.209659713449732 0.426976060727303
-0.047474475890714 -0.210183882853048 0.439348834596872
-0.0430859854268574 -0.208010839136244 0.449656815880712
-0.0480966482165351 -0.210491963199702 0.45972304098458
-0.0484016449543062 -0.210642988079469 0.471835091432361
-0.0459186578644934 -0.209413490251261 0.481519769269884
-0.0454536942915907 -0.20918325477987 0.490831670983277
-0.0475995881833784 -0.210245834561433 0.503160616490915
-0.050750930456266 -0.211806281047987 0.507350994940047
-0.0506908647500678 -0.211776538382137 0.516083636345306
-0.0469383721423325 -0.20991842098374 0.52084428702958
-0.0440070983164392 -0.208466945534026 0.536651272538678
-0.0486378013264648 -0.210759925355493 0.544390698877289
-0.0461942650619342 -0.209549962346538 0.563062240136793
-0.0468332801596221 -0.20986638270894 0.566196244207168
-0.0425750603544099 -0.207757844962601 0.583676627590986
-0.0542703889563593 -0.213002936893632 0.58630361189258
-0.0507819879471583 -0.211821659749615 0.599165222553103
-0.046568094507479 -0.209735071038122 0.608631430602598
-0.0447603432847428 -0.20883992896855 0.613494534195188
-0.046585648477099 -0.209743763216835 0.627429293954459
-0.0439711823799705 -0.208449161081555 0.637217914743562
-0.0473254926773517 -0.210110111008635 0.650300095913754
-0.0432423214650228 -0.208088251870358 0.653239880944541
-0.0482816350523456 -0.210583562915951 0.667201775981119
-0.0458161830845439 -0.209362747933706 0.673303068063392
-0.0478236256695359 -0.210356770942777 0.677506487943186
-0.0462064065442171 -0.209555974430192 0.691418103032087
-0.0478382936535022 -0.210364034071331 0.698867130090342
-0.0504143966843038 -0.211639640011694 0.70952659936026
-0.0511716932405329 -0.212014629666298 0.721544857923353
-0.0499687572289192 -0.211418973241091 0.724242156173098
-0.0432919522855985 -0.208112827506035 0.743770705159058
-0.0546100152539227 -0.213071067133694 0.750031847489562
-0.0468753698711821 -0.209887224222439 0.757908685859099
-0.0525286291546761 -0.212653533698793 0.769235638087013
-0.0467499702808605 -0.209825130253208 0.779692344123326
-0.0471323670083719 -0.210014481195836 0.790810226813057
-0.0524526532453157 -0.212638292661862 0.796657990384086
-0.0449521551049939 -0.208934908204403 0.807453730396719
-0.0508893364453257 -0.211874815380548 0.816867206044163
-0.0429935844775062 -0.207965085065665 0.825256311766072
-0.0469347073907378 -0.209916606312957 0.83480013725794
-0.0481386394631613 -0.210512755956436 0.838981539856285
-0.0477124767790658 -0.21030173347601 0.857300310016299
-0.0482363517837098 -0.210561140052509 0.864710788842973
-0.0479973181152201 -0.210442778029008 0.873562803081387
-0.0469315432601621 -0.209915039534101 0.888884050605034
-0.0447576246502355 -0.208838582785464 0.89972815366382
-0.0465707772896659 -0.209736399468256 0.90706117208102
-0.044598657919793 -0.208759867414516 0.910906277602232
-0.0494123755490175 -0.211143470372027 0.92189404992466
-0.0443358549999764 -0.208629735598492 0.932054848787208
-0.0527494140350435 -0.207800770350834 0.944312623797067
-0.0549501128695201 -0.202644653798458 0.951482429767123
-0.0585502316806687 -0.198954994768226 0.957300204618183
-0.0624056939983442 -0.20017732944252 0.956736395139048
-0.064404151036645 -0.191482325530715 0.968160278378888
-0.0677119006006393 -0.193035452777143 0.967043020356011
-0.0712063005337195 -0.187826630048299 0.974465374208755
-0.0754056417531563 -0.182746340189905 0.981903905606139
-0.0852092302509427 -0.182779705141033 0.984331971380236
-0.129891247059664 -0.141478260797115 0.959586307154426
-0.139326210773301 -0.130693103204861 0.959586307154426
-0.14781996718496 -0.11647292629768 0.959589935940713
-0.156120825786501 -0.105773627821411 0.959589084139642
-0.164184191904617 -0.105404573499506 0.959588677877466
-0.18472926763243 -0.0933068606625645 0.959587173958317
-0.191181228170931 -0.0896419432194848 0.959586707308779
-0.161424485463327 -0.10819175879213 0.99302191562724
-0.16641585435196 -0.107410877073473 0.9935782259234
-0.222488703535131 -0.0513595545878958 0.959583581675527
-0.208067685161856 -0.063516941741257 0.984424255277139
-0.217705285726871 -0.0624717967153608 0.992793754495667
-0.261666390074083 -0.0193103534712644 0.959586307154426
-0.285204730221632 -0.00952526025247876 0.958849193955347
-0.287909767927945 -0.00468417559465957 0.958849193955347
-0.302876972539999 0.0214447706786999 0.950319495057087
-0.303507351452078 0.0115812856650076 0.963764744039744
-0.303590022805176 0.0102877340618125 0.981267586367337
-0.304735749265953 0.00829563413401453 0.993450594760484
-0.303886913510822 0.0130526584749293 0.992424692053872
-0.0981593257472842 -0.178368143905782 0.124236224281123
-0.0519387356539342 -0.212394445165657 0.191667375975177
-0.0583432685867639 -0.213819970995396 0.203231721433251
-0.0588701146417098 -0.213925658182921 0.201273273152891
-0.0549052421481788 -0.213130290695953 0.218392480957954
-0.0616900528332379 -0.214491347787432 0.215704720110204
-0.0532543684913756 -0.212799119584182 0.235543748755044
-0.0568328645331551 -0.213516978584319 0.250692406610452
-0.0586424055929114 -0.21387997893997 0.244536019644571
-0.0633384033486886 -0.214822012748098 0.256655725164091
-0.051657522914359 -0.212255197380604 0.281430797033649
-0.0559422373270154 -0.213338315607406 0.286365945358549
-0.0534350950979974 -0.212835373982569 0.297205709025209
-0.057883362967632 -0.213727712296754 0.303996941684175
-0.0553391750415105 -0.213217339173664 0.314640319483014
-0.0534167250064572 -0.212831688877041 0.327532973425737
-0.0576781456457532 -0.213686544974008 0.337972311942504
-0.0615896556732839 -0.214471207761002 0.33898103564332
-0.0591722850844861 -0.213986274645645 0.348258522923476
-0.0590169045317422 -0.213955104755576 0.356805022735684
-0.0589630798802325 -0.213944307339549 0.364506699059691
-0.0617184994914222 -0.214497054287974 0.37542795794712
-0.0662269715367956 -0.215401469773377 0.38475696740932
-0.0575852885212907 -0.213667917505446 0.399370226480501
-0.0555592844893954 -0.213261493909714 0.414215948915452
-0.0592955354497341 -0.214010999106125 0.413388769210877
-0.0579240349615361 -0.213735871243009 0.430118761665669
-0.0532354647924792 -0.212795327435125 0.443558615769754
-0.0603582831732812 -0.2142241900694 0.449016292860431
-0.0597946380007817 -0.214111120848353 0.450290942305804
-0.0661399041334931 -0.215384003743416 0.459639844810654
-0.053980453540904 -0.21294477482079 0.476543650177274
-0.0540235462050382 -0.21295341936208 0.488178825724443
-0.0598081969235306 -0.214113840816355 0.494621302186882
-0.0531664433017081 -0.212781481479234 0.506658665522189
-0.0518617767794462 -0.212356337529322 0.520660064655487
-0.0596811047159671 -0.214088345668678 0.525207060415661
-0.0646231785937475 -0.215079743219796 0.526468979653386
-0.0649298004765407 -0.215141252657178 0.540304886916876
-0.0567512568004483 -0.213500607783647 0.55264096273757
-0.0577501939202558 -0.213700998113454 0.560163633723673
-0.0620006190674458 -0.2145536484757 0.568347209569079
-0.0558783964311124 -0.213325508897223 0.588445509080631
-0.0631859467766131 -0.214791429418924 0.58489333235998
-0.0550109708939577 -0.213151500257413 0.607474605479478
-0.0559051271841323 -0.213330871181102 0.611973794524658
-0.0520256002269422 -0.212437457795204 0.626592942668623
-0.0598992731721898 -0.214132111034915 0.632312022593154
-0.0590158801379583 -0.213954899258549 0.640589253457546
-0.0528883500343408 -0.212725694983307 0.652459752592605
-0.0573178284039508 -0.213614264057134 0.654190683358224
-0.0596407469020125 -0.214080249748036 0.667687111315765
-0.0575419753797155 -0.213659228735599 0.684305261225596
-0.0540681616418904 -0.21296236937698 0.686945005354753
-0.0597797539862669 -0.214108135062243 0.688911677198529
-0.0657449339087746 -0.215304771315242 0.704819583725801
-0.0594050271053168 -0.214032963520639 0.718565486064556
-0.0540949757245509 -0.212967748377079 0.730728384554986
-0.0516007197172165 -0.212227070207567 0.741285682553126
-0.0651631259187566 -0.215188058568572 0.740949809355888
-0.0628186282396243 -0.214717744017399 0.750531600323355
-0.0580155549805954 -0.213754230483485 0.763194254960228
-0.0615531800820149 -0.214463890628003 0.773323765233053
-0.0535536560354236 -0.212859157727194 0.784543872215825
-0.0561580809909601 -0.213381614612065 0.793983409244357
-0.0606905090572365 -0.214290835760241 0.799530933801024
-0.0559396505284365 -0.213337796686435 0.813353366069429
-0.0543185773890197 -0.213012603664164 0.822750352862246
-0.0621793374181461 -0.214589500010826 0.83278900000727
-0.0611765825442793 -0.214388343826011 0.839451270462122
-0.0522987129971473 -0.212572694727848 0.85619301381357
-0.0591844566014414 -0.213988716295123 0.868784347168846
-0.0580613361731217 -0.213763414353108 0.868067018894688
-0.0576486255617028 -0.21368062314043 0.879773163935477
-0.0573109409875562 -0.213612882416973 0.890460280732606
-0.0519229810919392 -0.212386643997525 0.905207404950154
-0.0592017783498867 -0.213992191099307 0.901621555643009
-0.0579703897385722 -0.213745170175718 0.922293406940126
-0.0612582669108362 -0.214404729999705 0.931643184965876
-0.0647655697910857 -0.214820596740214 0.938939927569608
-0.0666499354153311 -0.211296696083566 0.943840483796523
-0.0681600530528356 -0.204724398211834 0.952475346125102
-0.0701337588439182 -0.201688774073566 0.956785166444149
-0.0770848071274935 -0.201432853133733 0.958857872512228
-0.0828438914566117 -0.192980071897521 0.97092501237048
-0.0785344004805291 -0.191070969423223 0.972236968763386
-0.0842197724183088 -0.188913271690172 0.976379306044649
-0.0995828763491724 -0.185392865499315 0.984671380985105
-0.0933125924665458 -0.179442037049486 0.994843993741652
-0.141726478488362 -0.140757530712731 0.959586307154426
-0.151337773755637 -0.13288313328249 0.959586307154426
-0.170239352672523 -0.115292173240791 0.959588799872211
-0.177963062090799 -0.109078709360108 0.959588164514536
-0.186693979744292 -0.103615128674801 0.959587511853546
-0.16982128702067 -0.115239996828047 0.990022395550325
-0.174696492842038 -0.112847477992791 0.99568668967772
-0.178650136892651 -0.11282767746314 0.993456504486663
-0.192254904479074 -0.100699294381011 0.995988052483967
-0.205806043206532 -0.0880905050952745 0.995651267998858
-0.210267262242732 -0.0846156246923123 0.995659459059899
-0.271705815227429 -0.0259848135686713 0.959586307154426
-0.287994262324197 -0.0123904068841673 0.959014257541726
-0.304249276171154 -2.75470666303391e-005 0.953131109883948
-0.303838100791739 0.00640607898769622 0.960910746533824
-0.30410104920678 0.00229174758885603 0.967282050367857
-0.304226830819498 0.000323653434268201 0.978282021204975
-0.0701956242805272 -0.216197595591946 0.185245359934469
-0.0704239468001506 -0.216243397899321 0.188816472201859
-0.0650185091943383 -0.215159047940648 0.201974000396709
-0.0745131464339094 -0.217063705851649 0.21191572785767
-0.070682929623205 -0.216295350772326 0.218909866481559
-0.0738097444522559 -0.216922600918921 0.221352911641249
-0.0651766573616435 -0.215190773024016 0.243217462727099
-0.0646330680066439 -0.215081727071105 0.249475704043307
-0.0662188006189726 -0.215399830658277 0.263978534067855
-0.0782712595748456 -0.217817596679041 0.263646127787505
-0.0704133443368343 -0.216241271007569 0.27925811997453
-0.0640199452918898 -0.214958732479568 0.287528703464196
-0.0729687895161943 -0.216753902375591 0.298386128035845
-0.0745655739428202 -0.217074222995916 0.302745284605645
-0.0698749772727641 -0.216133272664743 0.315391680386991
-0.0698069161297513 -0.216119619358018 0.325658560267293
-0.0652863232887133 -0.215212772398009 0.337437585636795
-0.0662069023851128 -0.215397443830357 0.349076640168479
-0.0690019089561436 -0.215958132063355 0.352044799730718
-0.0691859199309665 -0.215995045317655 0.363478794318806
-0.0722419628887106 -0.216608098375814 0.380298042705098
-0.0760250827466117 -0.217367005639336 0.381520700594089
-0.0691176371779869 -0.215981347555185 0.399826054263434
-0.0719355344088101 -0.216546627735738 0.406659825814679
-0.0722198067888293 -0.216603653783583 0.406553181860162
-0.0723353797621668 -0.216626838132011 0.424071430566975
-0.071866076785476 -0.216532694290107 0.43436344220468
-0.0657169581417385 -0.215299159277136 0.441857219243947
-0.068330433657293 -0.215823431736452 0.450990446917929
-0.0763641163154761 -0.217435016975918 0.455708352500947
-0.0680407240984445 -0.215765314971248 0.472430974041567
-0.0697917149430851 -0.216116569946049 0.48290605828991
-0.072368410950118 -0.216633464305487 0.48058970748792
-0.0714464550485914 -0.216448516681146 0.497680045180877
-0.067718318266954 -0.215700639217767 0.513688936437899
-0.0732909787468953 -0.216818534678185 0.516869727969622
-0.068622288447621 -0.215881978842701 0.534903634885093
-0.0736019526208486 -0.216880917140432 0.540841814295365
-0.0705626308666451 -0.216271218415019 0.546090362583331
-0.0719830571442313 -0.216556160965043 0.552665270246175
-0.0766274041275682 -0.217487833444996 0.558280927975569
-0.0707854989209488 -0.216315926537302 0.57215890406022
-0.0658739028590889 -0.215330642944173 0.585130164366126
-0.0751859546631963 -0.217198673569127 0.59458881739117
-0.0692007222927434 -0.215998014723937 0.603518941636474
-0.071478452499357 -0.216454935483276 0.615501536349723
-0.0716392074696526 -0.21648718350057 0.618724059414156
-0.0727482999999389 -0.216709671396478 0.636092451231441
-0.0702696271527337 -0.216212440830624 0.639632291936201
-0.071843553421514 -0.216528176023399 0.649376100034736
-0.0722228935572538 -0.216604273000278 0.661938966964481
-0.0691445513472689 -0.215986746633017 0.667364112088644
-0.0711507550659195 -0.216389198215673 0.678590028412282
-0.0722988935987773 -0.216619518878206 0.692619139050759
-0.0779102659443088 -0.217745180076187 0.696681041458041
-0.0654556276488874 -0.21524673545324 0.715889248737955
-0.0659868572721147 -0.215353302000114 0.722226359618186
-0.0646398916103474 -0.215083095910214 0.73627940193184
-0.0657411639562091 -0.215304015049384 0.736427377496155
-0.0665463170535008 -0.215465531616856 0.751637423320475
-0.0699841811882846 -0.21615517935758 0.757388253653527
-0.0709488712065588 -0.216348699597333 0.762699985738694
-0.072073037975386 -0.216574211438966 0.78055788526705
-0.0695863109013238 -0.216075365166633 0.789538137983523
-0.068705595101763 -0.215898690453039 0.791959657616598
-0.0696178756926213 -0.216081697175738 0.812889688244064
-0.0709896898578979 -0.216356887963589 0.822118018966768
-0.0748985014087962 -0.217141009426598 0.823248104675493
-0.0747388366148996 -0.217108980102557 0.831194976613375
-0.0688900264828107 -0.215935688042319 0.846276154384344
-0.06440674133474 -0.215036325137862 0.860640097678289
-0.0687626971107033 -0.215910145318594 0.871965818091496
-0.068518028154006 -0.215861063857954 0.881310215889475
-0.0657239614451366 -0.215300564164641 0.887287903291451
-0.0716941321284355 -0.216498201581958 0.898745401299606
-0.0674808319567404 -0.215652998621492 0.905986091792484
-0.072470940551585 -0.216654032107249 0.912276253391718
-0.0687118312212847 -0.215899941440737 0.920619499235034
-0.0674799294819531 -0.214658253381736 0.939827691397954
-0.0781103331128073 -0.215904799466035 0.940940389920279
-0.0765607727182619 -0.211504449827859 0.946076549010332
-0.0809120684027265 -0.208102582414593 0.951445371060214
-0.0856295436992167 -0.202391739992615 0.959806378583523
-0.0955772699948141 -0.200004037981285 0.965311467875435
-0.0964682735489571 -0.193927574741906 0.973167609913217
-0.0935233618559269 -0.193341315563887 0.973161957498667
-0.104709498847147 -0.186073505272931 0.987385261957168
-0.105738331309329 -0.186281644029049 0.988660141410897
-0.144707195322844 -0.144031956705266 0.959586307154426
-0.151497650639722 -0.141640018337591 0.959586307154426
-0.175040013599953 -0.123527175433727 0.959588913226242
-0.183027927321174 -0.113026920008129 0.959588084953574
-0.195286499461583 -0.112028738305769 0.959587448955799
-0.199866098240019 -0.0983964872883263 0.959586654260185
-0.210517789817618 -0.0940903332202215 0.959585957146986
-0.236370395356957 -0.0763657047322241 0.959583959603954
-0.203731513155325 -0.0987226737717538 0.993072975554465
-0.209487205211815 -0.0894840853341116 0.996408385227337
-0.258396428738365 -0.0509732710676857 0.959586307154426
-0.303471870447977 -0.014382902956385 0.944844043172862
-0.303905709211204 -0.0176515811511922 0.950560589497958
-0.303857276134096 -0.0178930179440546 0.956766643624333
-0.304380638196795 -0.0152840807162319 0.96378054802357
-0.304347121143833 -0.0154511617743956 0.982582350644453
-0.304924469799205 -0.0149712473401214 0.992231121907589
-0.0895040215243795 -0.220070928572587 0.178997517827496
-0.0802609462284435 -0.218216734879855 0.192858496537844
-0.0804867950848602 -0.218262040961616 0.20989706193537
-0.0844727262950657 -0.219061632901852 0.204601201945208
-0.0806618322238866 -0.218297154032622 0.217671272888829
-0.0886405738249328 -0.219897717901132 0.232813163573188
-0.0853157487014207 -0.219230746187058 0.243512439426334
-0.0834200677133366 -0.218850465856216 0.250001382638037
-0.0832833219828719 -0.2188230341776 0.253203842235013
-0.0821876714180576 -0.218603242787649 0.26529252926608
-0.0792016257283872 -0.21800423142977 0.28486486366054
-0.0781710498743532 -0.217797494257644 0.287519010576729
-0.0845135220373375 -0.219069816672469 0.294886164832697
-0.0832339930101199 -0.218813138610679 0.308823147370024
-0.0806354174529736 -0.218291855135874 0.320675366724935
-0.0751479493602204 -0.217191049570532 0.336608712231698
-0.0846443887925478 -0.219096069007793 0.336762508176645
-0.0806764541828509 -0.21830008724946 0.350905351897901
-0.0866319709317973 -0.219494785035564 0.355667963143395
-0.0830254545776898 -0.218771305061376 0.373636842701032
-0.0824744765459995 -0.218660776913711 0.372189681343407
-0.0804471219253998 -0.218254082385095 0.389803541617587
-0.0815897577107595 -0.21848329917696 0.391053463273601
-0.078557696533793 -0.217875056949097 0.410005242776051
-0.0843214718874546 -0.219031290731134 0.410823813561906
-0.0828250056637361 -0.218731094298176 0.429636475601695
-0.0809052329191072 -0.218345981075509 0.435939815660886
-0.0757467594236001 -0.217311172993431 0.446342715900441
-0.0872812948575537 -0.219625041718446 0.456118802014651
-0.0890380850524618 -0.219977460063483 0.459005602840397
-0.0807984524197604 -0.218324560528553 0.480668816814024
-0.0800625877072594 -0.21817694345686 0.489889059991208
-0.084550201299473 -0.219077174662567 0.493056811433762
-0.087639433754098 -0.219696885651534 0.496140504709917
-0.0853747689635962 -0.219242585861015 0.513435279727786
-0.0816501175341248 -0.218495407571644 0.523942033350468
-0.0824158770513431 -0.21864902164721 0.528229387250466
-0.0889486654261063 -0.219959522169234 0.537937286438034
-0.0856411670901885 -0.219296026270215 0.547372573153713
-0.0775751960878318 -0.217677963874369 0.561100095277421
-0.0894127903485879 -0.220052627275094 0.567672673265692
-0.0855371979453411 -0.219275169690945 0.576158513387612
-0.086470207052138 -0.219462334627472 0.581110646396192
-0.0798496137040042 -0.218134220116315 0.598220412047683
-0.0836248342484058 -0.218891542749528 0.607336170621539
-0.0823497039604905 -0.218635747090446 0.620718393680564
-0.0787732724121385 -0.217918302235014 0.631000718499187
-0.0858783073633582 -0.219343597450231 0.64224841679022
-0.0852650893274982 -0.219220583736942 0.642504129089251
-0.0845799476256861 -0.219083141881126 0.659547858609973
-0.081295637715921 -0.21842429766265 0.665349258162782
-0.0816833512037613 -0.218502074363663 0.680096427473318
-0.0804810769511344 -0.218260893883707 0.686844772815163
-0.0861941134304597 -0.219406949267565 0.687380634590441
-0.0806956956815405 -0.218303947162353 0.707419579854355
-0.0825364892133021 -0.218673216874752 0.715838092898656
-0.0849991561018594 -0.219167236588522 0.726035452479559
-0.0789366611887042 -0.21795107860319 0.73626024249489
-0.0799179768720789 -0.218147934010339 0.75129231119855
-0.0818165070367038 -0.218528785896102 0.750429213218318
-0.0797443372569553 -0.218113101287585 0.772194015709959
-0.0784579665364742 -0.217855050757858 0.77508926103168
-0.0742736714724867 -0.217015666324888 0.791290396922733
-0.0818317925419918 -0.218531852222686 0.790898153816096
-0.0851463007557258 -0.219196754328061 0.801332624262904
-0.075378976363224 -0.217237394406867 0.810235779951043
-0.0759340904201543 -0.217348752255867 0.82195985936887
-0.0819902867278141 -0.218563646718595 0.831359908452902
-0.0803999824556886 -0.21824462604025 0.845095282674733
-0.0773370653318096 -0.21763019399998 0.847691530000753
-0.0777577303224767 -0.217714580889351 0.861977844413353
-0.0834691795399971 -0.21886031786286 0.874725253302563
-0.0864791758379974 -0.219464133797731 0.875942251619012
-0.0811777974942521 -0.218400658496164 0.895621037521774
-0.0793243006009863 -0.218028840444384 0.907125180768098
-0.0833122504014186 -0.218828837320979 0.908351252464506
-0.0778596852640035 -0.21773503341229 0.918418072382861
-0.0834704982576843 -0.218860582402306 0.925929256094987
-0.0830900209989723 -0.218663380542642 0.938730394644358
-0.0855135861783345 -0.214896052266289 0.944072529638034
-0.0903038442017289 -0.207674726224966 0.954348947375158
-0.0921421896118261 -0.208244038736915 0.954097089339977
-0.0975727906976583 -0.204209814223528 0.960532038494088
-0.112755642378902 -0.201234271239799 0.967662984685316
-0.10813333878686 -0.195871497469694 0.973665125340116
-0.112064276712969 -0.191147629730136 0.980588389849775
-0.113943238201153 -0.187508453713785 0.985813175844213
-0.119479751036273 -0.184741154006997 0.994674533304812
-0.168972999491007 -0.144795502238255 0.959586307154426
-0.182939805467882 -0.134822448367982 0.959586307154426
-0.191433841603053 -0.121538872306221 0.959588035230765
-0.203946788009662 -0.120385077219621 0.959587380367673
-0.207137520914593 -0.113933768780574 0.95958695468797
-0.223905944853511 -0.0993956757942508 0.959585531254261
-0.23715377635427 -0.0815535483163358 0.959584139610357
-0.241187894264643 -0.0824777041710516 0.959586307154426
-0.262377256381898 -0.0658658431283213 0.959586307154426
-0.267251185016629 -0.0611353025581912 0.959586307154426
-0.300745286215868 -0.0334061529779764 0.949888879683165
-0.301734467549115 -0.0284751268503442 0.95808503450421
-0.301313041047092 -0.0305759197206793 0.964783504858515
-0.301500369900799 -0.0296420934938366 0.974998611330236
-0.303107784832052 -0.0237340854917646 0.991989707537401
-0.0864678729377645 -0.219461866395849 0.188068223741022
-0.0928200012479463 -0.220736125868055 0.191671003466096
-0.0917490232214428 -0.220521283876811 0.202202840231786
-0.0949961840005063 -0.221172675847887 0.211764602142761
-0.0971634483928005 -0.221607436773013 0.225103800922086
-0.0949761060673378 -0.22116864814327 0.243645054543783
-0.0914292985812405 -0.220457145979813 0.252155776601034
-0.0982339536709207 -0.221822183929254 0.245420195647759
-0.0925614291814238 -0.220684255394266 0.270973912305989
-0.09857111120034 -0.221889818925669 0.277664116667697
-0.0894410610332309 -0.22005829847472 0.284419408435888
-0.0975735397490907 -0.22168970255382 0.289809829064771
-0.0905453990181784 -0.220279832591967 0.298679307929978
-0.0908213817743581 -0.220335195711862 0.314018038235463
-0.0926875893265395 -0.22070956356691 0.323316458187449
-0.0960095969704099 -0.221375970084573 0.335768683688688
-0.0871222883187927 -0.219593144442719 0.348116598940791
-0.0955889412218228 -0.221291585049197 0.345238423872881
-0.094719994898056 -0.221117271334198 0.36166108967675
-0.0934628411698396 -0.220865081836761 0.368570924709379
-0.0941438403655464 -0.221001692691158 0.38144931147255
-0.0987942229150544 -0.221934575927095 0.385692639730277
-0.094788196171943 -0.221130952751673 0.396676169564844
-0.101903059173853 -0.222558219508722 0.411517889141398
-0.0968494833732338 -0.221544454276346 0.42397641933873
-0.0978663826082987 -0.221748447870192 0.428044226053217
-0.0915045335698723 -0.220472238385417 0.441622472996239
-0.0928890521320668 -0.220749977720357 0.444835346495462
-0.0961033191696526 -0.221394771090207 0.453071412485814
-0.0948588650314772 -0.221145129175582 0.473250081456585
-0.0917333583185198 -0.220518141441716 0.477357237173843
-0.0955699889929806 -0.221287783164861 0.481379086773359
-0.0970488723724799 -0.221584452416896 0.500946470415856
-0.0900479234733044 -0.220180037232949 0.515100710969257
-0.0907598519561643 -0.220322852612065 0.517216343203243
-0.0988004294125692 -0.221935820972513 0.525210837224877
-0.088994067177145 -0.219968629921548 0.544535087735663
-0.101786570895387 -0.222534851546837 0.541827148858283
-0.0918237829651599 -0.220536280946599 0.555809206026701
-0.0952608710399836 -0.221225773006942 0.570998551527913
-0.0944012034952094 -0.221053320647923 0.572855720071537
-0.0979373031063618 -0.221762674773682 0.58351719457691
-0.0982645153018474 -0.221828314700831 0.591589010705643
-0.097935250955856 -0.221762263105011 0.597838800894759
-0.0924164130811664 -0.220655164650132 0.609121568403998
-0.0934041229670237 -0.220853302756982 0.622017428900309
-0.100836199198274 -0.222344203613101 0.62496552367732
-0.0992310384053687 -0.222022202663987 0.636810072669486
-0.0939146770206195 -0.220955721711244 0.658194792029578
-0.0930672763900933 -0.220785730138739 0.666932062764063
-0.0965406153384263 -0.221482494252903 0.671885305840159
-0.0953623830773434 -0.221246136681734 0.675636123495305
-0.0930873308285024 -0.220789753130224 0.689689355537801
-0.09073364612427 -0.220317595629226 0.698480833244418
-0.0950884168562591 -0.221191178085932 0.715310386595735
-0.0943979661821262 -0.221052671231436 0.712691019510172
-0.0930407393908036 -0.220780406722546 0.728011247824374
-0.0948872502537912 -0.221150823351871 0.740843005420653
-0.0965903031073831 -0.221492461795615 0.750911496667382
-0.0946683876995558 -0.22110691874711 0.759603210034242
-0.0975383790172119 -0.221682649186278 0.770297464491262
-0.0939611092725629 -0.220965036185696 0.786814345332956
-0.0958610617795367 -0.221346173398379 0.784183415163037
-0.0884461764790622 -0.219858721103956 0.803397673560309
-0.095163943399433 -0.221206328978412 0.803572794118634
-0.0914161655028173 -0.220454511437693 0.81966543268544
-0.097345033084933 -0.221643863306398 0.823941094253773
-0.100144209969369 -0.222205388119059 0.8387334683006
-0.0955163408907705 -0.221277021165249 0.84315783435472
-0.0983396824163649 -0.221843393490647 0.854801438821524
-0.0954368879141742 -0.221261082616297 0.860126813491516
-0.0956900709849806 -0.221311872038428 0.874478665427942
-0.0958106663440854 -0.221336063895257 0.880491127869981
-0.0981383255737347 -0.221803000593733 0.886638008890125
-0.0946185560303408 -0.221096922337495 0.904669326348186
-0.089470764448573 -0.220064257085205 0.914794615596442
-0.0947924881280529 -0.221131813733293 0.922197335998779
-0.0906600017678992 -0.220302822310096 0.935622092775946
-0.0976696144999719 -0.220444873959117 0.940166213423216
-0.095022545032089 -0.213092256085709 0.9487337242494
-0.101737591762338 -0.211311717609585 0.952661795035031
-0.105295614820712 -0.207435236471855 0.95842684075865
-0.109632727286027 -0.202778840803674 0.965367698417426
-0.12206092496552 -0.199729476677956 0.968826399608227
-0.124331877971131 -0.195665147815442 0.973836500742763
-0.127943065266353 -0.188978450972595 0.982089410886401
-0.125910131455295 -0.186541402263432 0.992425985693459
-0.142221834956008 -0.184147006424014 0.994250000630513
-0.187834040412448 -0.143674304553965 0.958849193955347
-0.19884289740141 -0.137305699264546 0.959586307154426
-0.212275002234788 -0.120352416739494 0.959586975404516
-0.224957212704567 -0.11285889824302 0.959586307154426
-0.240568203825812 -0.0982625422796845 0.959586307154426
-0.245678856514772 -0.0948509135171529 0.959586307154426
-0.255482987954021 -0.0775126797217153 0.959586307154426
-0.274058420156265 -0.0662341300893649 0.958849193955347
-0.297544653838417 -0.0493611668340566 0.950122601868893
-0.297251569421877 -0.0508221799637902 0.952410565383728
-0.298882393987715 -0.0426925900964562 0.96775839849094
-0.297906541069488 -0.0475571746521522 0.97803015841192
-0.29889136194665 -0.0440797413255454 0.989987629696002
-0.303180621543745 -0.040526735392962 0.994901060396447
-0.108551140462645 -0.223891848198283 0.193880642290506
-0.0993883586802803 -0.222053761669203 0.204263488633294
-0.104958637669529 -0.223171179394142 0.212674964524285
-0.105753723100341 -0.223330676352004 0.221167209359138
-0.109143808880098 -0.224010739585223 0.221132208436938
-0.10645667119839 -0.223471690234072 0.240277340144044
-0.10592553604452 -0.223365142638086 0.248071104175885
-0.104630825515561 -0.223105419113193 0.256968891014763
-0.110367023555543 -0.224138434684825 0.270537632165713
-0.10295332575539 -0.222768906710635 0.281129245258415
-0.106507007049003 -0.223481787784263 0.283128299168581
-0.101738853237672 -0.222525279215429 0.300111998458847
-0.108649394438612 -0.223911558294403 0.304290825449573
-0.104374284241965 -0.22305395602367 0.312370457722015
-0.100759926410075 -0.222328903021223 0.332454051192548
-0.106386905415343 -0.223457694970509 0.32696956408112
-0.109277375255989 -0.224037533474033 0.344076626455369
-0.111654550353416 -0.224056148379225 0.355682390608749
-0.105043310282541 -0.223188165020674 0.367857300919762
-0.106898758298329 -0.223560374474554 0.376365195129212
-0.108033023724487 -0.223787912142671 0.385765045783682
-0.109039150017813 -0.223989744646188 0.396223155272572
-0.10446018859005 -0.223071188740628 0.399882485536642
-0.113024759197942 -0.223968577833973 0.411287487576481
-0.104049268462688 -0.222988756705404 0.423364634927799
-0.106520400242951 -0.223484474506479 0.431434302133631
-0.107835022674953 -0.223748192429757 0.438260395434924
-0.107624563699496 -0.223705973612709 0.454673116912309
-0.106295108569289 -0.223439280197555 0.465754295998986
-0.110793723018074 -0.224111164167092 0.464899812057126
-0.107397189248952 -0.223660361491355 0.478926478631342
-0.108047721422425 -0.223790860553015 0.492389659101293
-0.10220071643059 -0.222617930610316 0.507802978845906
-0.109812792935463 -0.224144940159846 0.513125532594128
-0.107909137075068 -0.223763060041329 0.513817620434932
-0.104288870237425 -0.223036821671366 0.532515602504036
-0.105546535057641 -0.223289113695671 0.535570931757088
-0.103141230327201 -0.222806601034302 0.55327677647218
-0.100250965552147 -0.222226803667663 0.563445517268308
-0.106803972285781 -0.223541360064198 0.57155780065887
-0.108800416528256 -0.223941853861313 0.574431641722489
-0.103667125400769 -0.22291209745159 0.587301741146133
-0.113172442062397 -0.22395913936843 0.594298471846904
-0.099278884744544 -0.222031800809353 0.610471997241405
-0.101134375311128 -0.222404018799072 0.626379765743355
-0.102603635689709 -0.222698757642988 0.633211403304955
-0.103266807561934 -0.222831792273055 0.643388222782594
-0.103501329655212 -0.222878838236897 0.642001283416114
-0.112450586039241 -0.224005273449227 0.65298151667492
-0.107656832676326 -0.22371244688393 0.665947565385482
-0.109106336053198 -0.224003222403218 0.675234113860796
-0.113393346025318 -0.223945021315874 0.686974727555396
-0.105408988979749 -0.223261521464523 0.698074840503019
-0.106015516648733 -0.223383193066483 0.702734596875976
-0.106635974661712 -0.223507659144865 0.708374655970127
-0.107702692515146 -0.223721646530279 0.730225950569393
-0.108392190579988 -0.223859962287973 0.727581443327705
-0.111698888015498 -0.224053314743127 0.737780696117153
-0.105997571956353 -0.223379593297536 0.751166278596145
-0.104097694804036 -0.222998471201264 0.764476624617937
-0.113652023152467 -0.223928489166662 0.77210471979908
-0.0996668545813838 -0.222109628934885 0.783155720717544
-0.10462872355128 -0.223104997451702 0.797019147488941
-0.105535435830719 -0.223286887151378 0.810087246556105
-0.107703948550896 -0.223721898495506 0.809081289003889
-0.114240257459595 -0.223890894898301 0.822724271636881
-0.102136256163313 -0.222604999652037 0.830794630714536
-0.108297745024112 -0.223841016174433 0.843707392338738
-0.0987371373202697 -0.221923124354279 0.857905078066564
-0.108859003769291 -0.223953606669694 0.859511598323153
-0.105424767524927 -0.223264686696657 0.863680754724359
-0.115393173971258 -0.223817211585017 0.877692381937545
-0.104910135506419 -0.223161449688168 0.89794104986312
-0.106040915923429 -0.223388288251087 0.900314448681607
-0.105502367865279 -0.223280253600207 0.912692973355301
-0.104208333951611 -0.223020665806742 0.919363174762712
-0.104021986350635 -0.222983283816947 0.926292066570016
-0.107398609925232 -0.223660646484056 0.938179041909429
-0.115246301180987 -0.222196462564957 0.940662466121857
-0.115617631363307 -0.212897875551737 0.952518983777288
-0.120043347451049 -0.20846990901102 0.957817897556281
-0.127741518334385 -0.204974180629457 0.961657724932804
-0.126790602239053 -0.201326751543395 0.966398108192447
-0.132886811623645 -0.196560451434528 0.971993051861754
-0.140531191599951 -0.19563291541749 0.972554223423891
-0.146917137103763 -0.188970878215131 0.980548912546308
-0.149532927928387 -0.185292354681832 0.990521222007343
-0.158940158528666 -0.184706585185486 0.98732627274203
-0.207102155546239 -0.139654165283695 0.958849193955347
-0.211510592215154 -0.135324657180859 0.958849193955347
-0.226953211141309 -0.117522702085751 0.959586307154426
-0.237705059865616 -0.115932963754195 0.958849193955347
-0.254234594281339 -0.0993022814924317 0.958849193955347
-0.285328782331526 -0.0744992332808414 0.944844043172862
-0.287956768991373 -0.0655195864576933 0.944844043172862
-0.295753666441589 -0.0582837409341454 0.95397138815373
-0.28683616416205 -0.0762927544724147 0.975774811834435
-0.291542231256269 -0.0667887898694268 0.971073350127294
-0.295775073824512 -0.0590596968604037 0.99037998992955
-0.294084819524259 -0.067840001978349 0.994665232066693
-0.122211619057634 -0.223381442281403 0.18800010346123
-0.116252636793458 -0.223762283003681 0.190053259471581
-0.116963520165116 -0.22371685018903 0.201129501221009
-0.123288860568804 -0.223312595384903 0.204376768502178
-0.128360641614109 -0.222988456014974 0.219182344914555
-0.123578762955659 -0.223294067617995 0.229110836214041
-0.112965833602137 -0.223972343790217 0.24217641151098
-0.118439604929287 -0.223622513075273 0.248787511575539
-0.121378742469617 -0.223434671726849 0.256550744049003
-0.130961890214735 -0.222822209271491 0.258305464896932
-0.119338063100443 -0.223565092287012 0.277036431708552
-0.113511555360479 -0.2239374665143 0.296133406113273
-0.115600719769282 -0.223803947257633 0.303766383325512
-0.120880972305956 -0.223466484398922 0.307820291701364
-0.120362108353519 -0.223499645182702 0.316175398392815
-0.123006074874623 -0.223330668321396 0.316589807589342
-0.118218507248542 -0.223636643508406 0.340559046553792
-0.117499522645159 -0.223682594075722 0.347568532243537
-0.122575699370572 -0.223358173776278 0.356956742448395
-0.118147082955587 -0.223641208260928 0.369474114368528
-0.118077507181558 -0.223645654873933 0.375744721246764
-0.114620721598497 -0.223866579296905 0.385156184208192
-0.125231978390495 -0.223188410018698 0.396177365254779
-0.129373908645819 -0.222923697750708 0.397219347938361
-0.125194050567544 -0.223190833999648 0.412279524450279
-0.119229423803133 -0.223572035463988 0.422229730943167
-0.12960903218584 -0.222908670919811 0.425180307711902
-0.127811851257426 -0.223023529406125 0.438002474973841
-0.111460116058589 -0.224068574745674 0.462290100650372
-0.128483689596912 -0.222980591973671 0.452414696652894
-0.119211271479059 -0.223573195585617 0.472684004787849
-0.121589495431685 -0.223421202428446 0.484054666821143
-0.124352351281691 -0.22324462730692 0.486192725326097
-0.129102573863099 -0.222941038855288 0.489398952103841
-0.126284296186702 -0.223121156005881 0.515441597811973
-0.121902717096954 -0.223401184317979 0.523406028535219
-0.12056302608739 -0.223486804457307 0.532741541911695
-0.132638655913891 -0.222715046566243 0.528495434393868
-0.123094592745795 -0.223325011112078 0.551751292740021
-0.124945200307222 -0.223206738110229 0.550305815874462
-0.120340364083473 -0.223501034866903 0.575104765725088
-0.120658130677816 -0.223480726288367 0.576263142343057
-0.118856356376075 -0.223595878338842 0.591246241688096
-0.120314643272309 -0.223502678693293 0.601891958645136
-0.126971984697782 -0.2230772055832 0.600631436109254
-0.126239163321538 -0.223124040463697 0.61678955589923
-0.117180371749113 -0.223702991125483 0.633375982734073
-0.12004813744319 -0.223519711177692 0.632330675305498
-0.117941513089502 -0.223654346305783 0.650696583886212
-0.126244210655607 -0.223123717886742 0.65136765457147
-0.120416169151921 -0.223496190137428 0.67583896202907
-0.125632218795001 -0.22316283050898 0.681176351520568
-0.11951514579409 -0.223553774867701 0.684733597553186
-0.119115210027228 -0.223579334907917 0.692113193993375
-0.118829947561153 -0.223597566135801 0.702824312396388
-0.129532949102864 -0.222913533417296 0.71323097903305
-0.12155306410449 -0.223423530767808 0.728750332030726
-0.116672608780563 -0.223735442441347 0.731218404043267
-0.126986253487571 -0.223076293659658 0.746104618480403
-0.131230827366479 -0.222805021400379 0.750894605116029
-0.125111576093854 -0.223196104973237 0.767447207836487
-0.122273744483495 -0.223377471822856 0.773818063254093
-0.125721660854159 -0.223157114234472 0.785347838385752
-0.123449524602477 -0.223302327288119 0.795387936381314
-0.11389125160166 -0.223913199989527 0.809934572137353
-0.124959535711436 -0.223205821929336 0.812671135637198
-0.123003100066884 -0.223330858442439 0.826497006828957
-0.115401780002754 -0.223816661570416 0.834483958488561
-0.12201121189793 -0.223394250375816 0.840236304493771
-0.121834056883255 -0.223405572417191 0.852381428808303
-0.118565667281652 -0.223614456384516 0.863193976617951
-0.124545649807855 -0.223232273527859 0.871758127058734
-0.129199737563831 -0.22293482908786 0.876638551570261
-0.121260539267743 -0.223442226136442 0.891174591271613
-0.124057123120101 -0.223263495446027 0.904581733325955
-0.127649531424011 -0.223033903325674 0.906557417815083
-0.11831448003092 -0.223630509853004 0.921213872552132
-0.115573188240233 -0.223416062093365 0.939076683576542
-0.125423706751189 -0.223176156589484 0.937255523844311
-0.12435645016071 -0.218132538989266 0.945113287815922
