ply
format ascii 1.0
element vertex 834
property float x
property float y
property float z
end_header
0.0974993565546243 -0.0113307188381045 0.845504075632528
0.0974301371503803 -0.0124137889461466 0.854020117801139
0.0971223325643089 -0.0172299810231403 0.862798021635692
0.0974842793876905 -0.0115666299817769 0.873953070179905
0.0974489735024856 -0.0121190581530608 0.892142466292252
0.0974697722255092 -0.0117936223097671 0.897677876692436
0.0975044538059702 -0.0112509625815158 0.9042830753453
0.0971339040751234 -0.0170489225814406 0.917243545552771
0.0971388892294906 -0.0169709202967051 0.925417279443531
0.0972143996675502 -0.015404655208473 0.938610015794575
0.0929078482239862 -0.0110190323582239 0.944473603640746
0.093863137153654 -0.00584723553517996 0.943674944429952
0.0857872308539764 -0.00591158380206758 0.953993527710267
0.0844262950447971 0.0029366048553594 0.956456176722835
0.0751116835789231 0.00142783018088847 0.968240250194838
0.0741309020776497 0.00508847451010104 0.969793107042887
0.0668198712110751 0.0143422672891772 0.979408853587556
0.0636709561344168 0.0249210837383598 0.98069840866956
0.0602560412350357 0.0223552965969812 0.989573774246281
0.0121349488486957 0.0738804432866267 0.959586307154426
0.0141023918902138 0.0713794104579445 0.958849193955347
0.00358695647928376 0.085021133321848 0.959586307154426
-0.0204234992778548 0.102644198487265 0.959586307154426
-0.013059908474594 0.102927696579139 0.959586307154425
-0.0262932757779704 0.115061135635292 0.959586307154426
-0.0455235271403877 0.129856645682455 0.959586307154426
-0.0595343931188285 0.143135048163939 0.958849193955347
-0.0716302699122529 0.170688995255709 0.944844043172862
-0.0761153639357826 0.17232491595431 0.958028359886747
-0.0926465541189063 0.177200066214829 0.950774890944545
-0.0860331363652929 0.175673568275854 0.968308941963625
-0.0803491994460177 0.173500141425588 0.986942177842168
-0.0882476193129588 0.180669333445622 0.994838439093173
0.0958765028226837 -0.0367233726177246 0.19080172299249
0.0962940956725822 -0.030189332950672 0.194137222909885
0.0961295596415975 -0.0327638141789252 0.211643053965606
0.0962895018229412 -0.0302612125237708 0.208263520979111
0.0960737101335508 -0.0336376866627338 0.221982197019593
0.0964460727044238 -0.0278113613097016 0.23065534867652
0.0964647415506488 -0.0275192514668217 0.24354383362932
0.0966343429372415 -0.0248655130518657 0.244758967987289
0.0961802138116908 -0.0319712327044684 0.258260868653252
0.0966134231432496 -0.025192843282272 0.272375478775875
0.0966400998657589 -0.0247754348828914 0.28222582359875
0.0961089264010428 -0.0330866607321544 0.298659402098319
0.096672517540582 -0.0242681982928588 0.298309537753882
0.0963996167414337 -0.0285382537960556 0.30879622570429
0.0966936515722918 -0.0239375159031812 0.31819966845231
0.0966817495504936 -0.0241237458220375 0.328864697942445
0.0964302023780151 -0.0280596829519622 0.337535967922112
0.0960208931671531 -0.0344641092262837 0.349615238355771
0.0962349648191547 -0.0311145483654894 0.359708278388139
0.0966317345431463 -0.0249063263715667 0.375761650296899
0.0965141015588149 -0.0267469196335464 0.382133790843353
0.096631537890325 -0.0249094033814741 0.385976589905143
0.0962205324245761 -0.031340370811184 0.393517123097565
0.0959195336129428 -0.0360500735166371 0.416783787514693
0.0964319282553579 -0.0280326782965356 0.41421457191439
0.0962479743432496 -0.0309109894527692 0.43479973664652
0.0963703201244222 -0.028996655461005 0.435337930562639
0.0968740725934856 -0.0211144835894394 0.441433536776246
0.0963351146460494 -0.0295475125751534 0.450795224466442
0.0965594717566586 -0.0260370160217191 0.467491037233902
0.0960573218199921 -0.0338941132057002 0.479827235873356
0.0963507312124603 -0.0293031614939149 0.4815952267791
0.0965055221491751 -0.0268811609236443 0.495323531332796
0.0963343166890668 -0.0295599981399296 0.511184483399015
0.0968559522897573 -0.0213980104347231 0.513499393464914
0.0963024104270274 -0.0300592326978126 0.526127196371663
0.0970142172319586 -0.0189216523972221 0.533624342482634
0.0963595714748285 -0.0291648386634495 0.542726681048387
0.0966999788390026 -0.0238385137012026 0.55845461651885
0.0967002491543524 -0.023834284100005 0.557968131227202
0.0963952876289369 -0.0286059910496615 0.569626363737612
0.0965881688273718 -0.0255879954065211 0.58556794258772
0.0961439547841987 -0.0325385746117364 0.597609620426996
0.0962907130445965 -0.0302422606419562 0.602992872624571
0.0966307027871102 -0.024922470170169 0.611166518768653
0.0963573891727032 -0.0291989849584687 0.628758441443676
0.0966546128819961 -0.0245483509570052 0.635476227260495
0.0964180801888615 -0.0282493578106273 0.648024412627764
0.0959759279546612 -0.0351676760668809 0.657437363950113
0.0966176124434881 -0.0251272936591301 0.657957813951612
0.0968027836681411 -0.022229935317456 0.671475674332803
0.0966925931815324 -0.0239540764530292 0.676112117662869
0.096640864958685 -0.0247634635392134 0.691193268366068
0.0965423748304842 -0.0263045301657961 0.69593851385886
0.0964105039691507 -0.0283679022735528 0.708002080615617
0.0967388998705368 -0.023229519643983 0.710383035017401
0.0963339726124455 -0.0295653818774414 0.725195596225569
0.0964729707632291 -0.0273904896802093 0.740493973288296
0.0965781860571577 -0.0257441949597086 0.744186479116486
0.0965587619049975 -0.0260481230100613 0.761213938275191
0.0963770945021497 -0.0288906573511213 0.771211806668376
0.0965433314429852 -0.0262895621316659 0.782822656942116
0.0962340714194848 -0.0311285273138439 0.786847432627738
0.0968974869147281 -0.0207481217041406 0.791743154119762
0.0963613862837918 -0.0291364425025491 0.812248682139896
0.0967168320936586 -0.023574812264587 0.810215384489675
0.0968545248317224 -0.0214203457487089 0.817454790598792
0.0963438823796871 -0.0294103245955399 0.831743256392126
0.0962329033049449 -0.0311468047023161 0.847400721276648
0.0964148932587982 -0.0282992234332059 0.859204136404291
0.0963470806259841 -0.029360281908813 0.869268834769928
0.0963197498930379 -0.0297879235536456 0.876271937053155
0.096401648433363 -0.0285064640859124 0.88573236837556
0.0964395672260193 -0.027913151974836 0.895056190195331
0.0965464381725127 -0.0262409514000106 0.901186246032262
0.0964305707726597 -0.0280539187124103 0.90909710055297
0.09631495652495 -0.0298629249748362 0.919629110352077
0.0962482769748229 -0.0309062542023825 0.935086268055141
0.0949578733583146 -0.0203152399158676 0.941093453721816
0.0941613748144705 -0.0258478563988268 0.941659644215614
0.0883592919440762 -0.0128247822476646 0.950140724265122
0.0816586787586647 -0.0166952739748029 0.958390239239774
0.0771642615323945 -0.0129083104332631 0.964445075061339
0.0718349155134272 -0.00566891785617434 0.971849305657902
0.0701088731382705 -0.000121382526346244 0.974509025998001
0.0618715215425727 -0.000341853411932263 0.98502123779074
0.0619563017398226 0.00863937535096814 0.988324344921321
0.0615970228505443 0.00985126410453346 0.99294315782695
0.00807808359838615 0.0625803905753415 0.959586307154426
0.0117136056135962 0.0598573834245961 0.959586307154425
-0.00733978677262458 0.0786505444229334 0.959588545505301
-0.0137338891279095 0.0940635993612488 0.959586307154426
-0.0360925050162631 0.103596219429492 0.959586104025325
-0.0427639309910378 0.109481045591273 0.959585533469882
-0.0454938714346825 0.119498615794533 0.959584980282404
-0.0664972220973929 0.141501508339521 0.959586307154426
-0.0710516538239001 0.141668133549793 0.959586307154426
-0.10306432255577 0.177865869581936 0.94679579793331
-0.101063590066299 0.177738002041374 0.957028365727428
-0.103022696687629 0.177863209257575 0.964669904100245
-0.094023318281604 0.177288055712848 0.981940099562469
-0.108802107726436 0.178232573517575 0.97745723402415
-0.104483411300023 0.183799810072864 0.99403572617608
0.0941497473372144 -0.0473095136152496 0.186674629405204
0.0957010742415608 -0.0394682886479459 0.193231422690794
0.0956843281448825 -0.0397303133928417 0.201575808920512
0.0957091437005774 -0.039342026511697 0.21006219432845
0.0957779000324587 -0.0382662020573732 0.227928650045341
0.0959988756970374 -0.03480861470127 0.228716047404006
0.0957258625839839 -0.0390804275705501 0.242871686606429
0.0958382308149648 -0.0373222114547273 0.253084633924568
0.0956073351115 -0.0409350168122799 0.260603019840951
0.0956018426611158 -0.0410209567144756 0.270269183099738
0.09552799954764 -0.0421763736060911 0.286863466900205
0.0947944834867908 -0.0453999853051788 0.292212787807723
0.0956376800386955 -0.0404602123273971 0.297392952947392
0.095905201282976 -0.036274330259888 0.307002686805771
0.0961162692794486 -0.0329717673406929 0.311552122365649
0.0960766960878815 -0.0335909656902646 0.325797842581787
0.0955545255356318 -0.041761323736848 0.336089684234105
0.0953195165585999 -0.0438449840616422 0.354721578060477
0.0954653293981498 -0.0431569680842005 0.35760490475335
0.0953645712428238 -0.0437115446770467 0.370732018498241
0.0958343266106309 -0.0373833002065846 0.377563875397886
0.0955933019473813 -0.0411545925330533 0.390303708309664
0.0957687103847853 -0.038409991689883 0.396116411186137
0.0957342282976216 -0.0389495299635543 0.407923704924574
0.0954377686271494 -0.0434947544789402 0.418883338717138
0.0955661377510171 -0.0415796283942026 0.42863146922336
0.095942227962306 -0.0356949769698638 0.437065761016791
0.0955473936316257 -0.0418729160298946 0.439647612478954
0.0954892951613939 -0.0427819778329859 0.456488387959978
0.0957892261746279 -0.0380889828779133 0.456278668645071
0.0956002009117849 -0.0410466450260834 0.473445706387437
0.0946195639334053 -0.0459180481428136 0.47975733529146
0.0957084006074152 -0.0393536536269723 0.495919952029937
0.0950360442486732 -0.0446845498301852 0.507224847874696
0.0960505490653304 -0.0340000859196114 0.509883420700185
0.0956138859103263 -0.0408325170223727 0.521009036399085
0.0959193875370106 -0.0360523591542791 0.531942516898141
0.095940683663924 -0.0357191404747944 0.535544008876676
0.0958452189497454 -0.037212868706483 0.548218027641144
0.0958091301110428 -0.0377775476842939 0.55884935025258
0.0958218989642087 -0.0375777545290444 0.571681988383836
0.0959814449466129 -0.0350813521648743 0.573156365746997
0.0946712739838162 -0.0457648974233441 0.589573521534248
0.0955658545051264 -0.0415840603184737 0.606936764493483
0.0956008747561309 -0.0410361014411384 0.608304418855729
0.0954495527565911 -0.0434038238476171 0.620151878963135
0.0956715566969534 -0.0399301471481219 0.628165862531156
0.0957221798454194 -0.0391380510664284 0.631789286612835
0.0948192479259825 -0.0453266399564647 0.645828550421604
0.0947594833542165 -0.0455036459174316 0.665812506715644
0.0954575921897965 -0.0432780315226781 0.673242427566772
0.0952924464437742 -0.0439251581772861 0.676486498588466
0.09471621411155 -0.0456317973230591 0.688228967998973
0.0956757624743952 -0.0398643397075921 0.70170417384698
0.095783875438086 -0.0381727053957222 0.703704181071251
0.095625671902877 -0.0406481026032554 0.722250091815356
0.0953992295985791 -0.0436088963122243 0.720779378718173
0.0955914956024366 -0.0411828562581786 0.735176732223372
0.0959672841313925 -0.0353029252315373 0.742244063344187
0.0955631291580698 -0.0416267035911701 0.762523684720795
0.0958411822438808 -0.0372760306984801 0.761556422024371
0.0956098760633324 -0.0408952587559185 0.777154361570479
0.0957320441338099 -0.038983705388218 0.780075411811386
0.0946794541876999 -0.0457406699453152 0.799212654687755
0.0955351535923878 -0.0420644348787583 0.801648141809052
0.0954480627191906 -0.0434271383356027 0.810320593824993
0.0948898049821765 -0.0451176696724703 0.822376695138686
0.0951610755918857 -0.0443142419303307 0.828555555250759
0.0956241659035433 -0.040671666846241 0.835025740545998
0.0955233193393562 -0.0422496044254957 0.852787217866581
0.0943330322634109 -0.0467666748809688 0.860639392439824
0.0946754800707198 -0.0457524401692833 0.874680580738199
0.0956742665365206 -0.0398877465197864 0.878023460266871
0.0941696306945062 -0.047250624667154 0.893858486057145
0.0955550397127176 -0.0417532784518904 0.903589721474857
0.0940592865462465 -0.0475774331997475 0.916758206010661
0.0956048067741677 -0.0409745774906402 0.924295622630378
0.0960371627590513 -0.034209540311008 0.927357858322373
0.0927773642314548 -0.0370055898414714 0.942517309881456
0.0924511550637407 -0.0315248251039531 0.943382097303776
0.0859701787344285 -0.0300837938089526 0.951784790026353
0.0816339864853369 -0.0277413004467159 0.957519345827614
0.0810239202232811 -0.0205077283410056 0.958890206280616
0.0782052534138135 -0.0171598869209171 0.962766969157694
0.0688024983349015 -0.0194467362270534 0.974600152492576
0.0693312001884914 -0.0160334728648182 0.974203149237398
0.0637019395123537 -0.00235420609803745 0.982516912756457
0.0613219279895051 -0.00154842069035149 0.98582925802419
0.0145305268117568 0.0423554615585232 0.959586307154426
0.00340961889413595 0.0561227241339977 0.959590012945281
-0.00181566282623988 0.0580880088798491 0.959589677152262
-0.160388508084455 0.220084843169354 0.821008099345037
-0.0221730382048834 0.0838045017634533 0.959587741067206
-0.156663690520569 0.220832054785878 0.839965247015339
-0.15946738623972 0.220269623478943 0.850413276881551
-0.0573012253366509 0.120866318518184 0.959584350625378
-0.0631025485583749 0.122029503288623 0.959584020617588
-0.0769564322653912 0.140186318255379 0.959586307154426
-0.0994122783781949 0.150808156035879 0.959586307154426
-0.117701733325723 0.178801351824169 0.953591555495431
-0.117545889488976 0.178791391787921 0.957183588351439
-0.107957210506134 0.17817857582915 0.972356668614178
-0.111893068406075 0.178430117938011 0.973874085801854
-0.123121213030565 0.178959697614219 0.986865761434867
0.0927608932599539 -0.0514229112909197 0.18988183612991
0.0913562276597115 -0.0555831382792924 0.202790149381615
0.0924697136036284 -0.0522853040657546 0.218650617955876
0.0932866923931474 -0.0498656411876314 0.211662248384054
0.0913901606030457 -0.0554826383833518 0.230120856844672
0.0918359145603645 -0.0541624397231942 0.245017135753593
0.0914404106623819 -0.0553338117494682 0.248300518725678
0.0925198562450558 -0.0521367955736992 0.257231638118082
0.0937404112697832 -0.0485218526621717 0.267211493722154
0.0932575302373121 -0.0499520113441476 0.276148971099575
0.0942102233019797 -0.0471304007070101 0.280184344965775
0.0920723518096307 -0.0534621786608572 0.299526567272787
0.0946940229002113 -0.0456975214899357 0.305681740567044
0.092448660240527 -0.0523476582441132 0.317134489125351
0.0933833122023729 -0.0495794803121309 0.31987039612625
0.0938314200542172 -0.0482523100741579 0.336610095861808
0.0914806915374964 -0.0552145110534601 0.348237399546016
0.0921698552977619 -0.0531734005753717 0.350025862858159
0.0932811109340435 -0.0498821719098155 0.364603641755836
0.092663485443575 -0.0517114060234099 0.38228085637945
0.0943846353989644 -0.0466138408134317 0.379337539059946
0.0930561767256902 -0.0505483641793754 0.386738153977519
0.0939248529095278 -0.0479755880655923 0.405874277975817
0.0908851162532385 -0.0569784386179638 0.419575712994032
0.0922753971900963 -0.0528608149828879 0.422275515506918
0.0926692070378352 -0.0516944602600504 0.42870086517695
0.0918640698092806 -0.0540790517436036 0.438218430394927
0.0941661907453688 -0.0472608128352402 0.451954254696613
0.091445363455693 -0.0553191429596874 0.461131467143354
0.093547437652422 -0.0490933865922768 0.461305094353583
0.0929155772850555 -0.0509647804334504 0.484004215441831
0.0933534423503567 -0.0496679464669758 0.489609021906518
0.091373779589077 -0.0555311543692192 0.500562185867335
0.0930859707642306 -0.0504601225628614 0.51429392375887
0.0945948402989485 -0.0459912726393036 0.519696713010856
0.0934758163033392 -0.0493055090144013 0.522921570353115
0.0937445956907798 -0.0485094595764754 0.53964205972525
0.093471862085246 -0.0493172203034266 0.550180109930855
0.0906621669225391 -0.0576387522345684 0.558538248763398
0.093796714458657 -0.0483550983500816 0.558572481888025
0.0929810924083646 -0.0507707429457438 0.567898632777279
0.0910810878335998 -0.0563980255592011 0.587225533618687
0.0928158419822758 -0.0512601685302648 0.597569410171623
0.0925525233479667 -0.0520400447433693 0.604439421885438
0.0935962626476747 -0.0489487805999867 0.616610447889944
0.0928246806343447 -0.0512339909127067 0.619261098048147
0.0919380975745287 -0.053859802189245 0.631975276265549
0.0933036360310878 -0.0498154588667785 0.645444941976374
0.093554577953514 -0.0490722390157274 0.650217029262199
0.0926950752683025 -0.0516178457900206 0.660888694315563
0.0915321269222655 -0.0550621738168713 0.679125881822761
0.093205901519776 -0.050104921178368 0.68877229240386
0.0934518211427972 -0.0493765759747235 0.690437093487458
0.0944607735449662 -0.0463883409010066 0.703977135878373
0.0925901115475741 -0.0519287189997706 0.712138450915374
0.0930542753245989 -0.0505539955980822 0.720729737658477
0.0941238269053526 -0.0473862826912219 0.728041772574292
0.0918202005495475 -0.0542089802321132 0.74466485625821
0.0926199744430891 -0.0518402734481394 0.755911610221504
0.0910779503514843 -0.05640731790449 0.757419906222769
0.0908416719662826 -0.0571071084558619 0.773840359714331
0.0909560447919376 -0.0567683681065965 0.774368647654933
0.0927088903737019 -0.0515769293083205 0.795212900433736
0.0935758905487006 -0.0490091170643725 0.791952628934352
0.0909606707081276 -0.0567546674355062 0.810755598131006
0.0922330100752188 -0.0529863537725046 0.813421871987063
0.0936218075122027 -0.048873123849508 0.826336304500424
0.0924553637594369 -0.0523278042943321 0.836179924774462
0.0909151852894854 -0.0568893825350868 0.853016476975541
0.0928283606553838 -0.0512230917187358 0.861260079695005
0.0916133912077091 -0.0548214917118676 0.867809213028978
0.0933239167250991 -0.0497553931183517 0.870373201935188
0.0936361310029832 -0.04883070167237 0.887520377060128
0.0905708382324361 -0.057909242293777 0.894556223965894
0.0927519167547578 -0.0514494971909178 0.904454265356563
0.0922383837839932 -0.0529704383487459 0.917321023234859
0.0933846454829196 -0.0495755315077233 0.922134141956785
0.090439767458914 -0.0582974372985512 0.932614736847314
0.0913473302891035 -0.0504977107836219 0.940673273071385
0.087613729037291 -0.0494266263853135 0.945643451400716
0.0837209151861252 -0.0448878844261873 0.952227825630108
0.0798844845312821 -0.0324821872747793 0.959368493104838
0.0750929564658687 -0.0412709600697567 0.964181251653545
0.0741888072814297 -0.0312058091947286 0.966753846049973
0.0659490370112129 -0.0237740186648985 0.977894338430087
0.0649876287894755 -0.0189089057173348 0.979520834347962
0.060012388046154 -0.0211768527886891 0.991903627652447
0.0581610772401439 -0.0151867022616426 0.994628287611817
0.010357839533802 0.0335083301630698 0.959591299814689
0.00227193586614691 0.0378053453516617 0.959590727425287
-0.172055565859809 0.217744389992552 0.798872207278098
-0.173065534109251 0.217541786779009 0.817245348209364
-0.177035544588447 0.21674538859389 0.823960277218368
-0.168736926539756 0.218410120812509 0.832855698591191
-0.16804939330198 0.218548042418924 0.854192567676217
-0.169133774167091 0.218330511770711 0.865118213238344
-0.0797776866091914 0.125139255853096 0.959583081871433
-0.0867401907768058 0.130774902907409 0.959582507679515
-0.0912113341548678 0.135601299325171 0.95958208822166
-0.107469079790562 0.150855538786838 0.959586307154426
-0.133335689523714 0.179800523646898 0.946719579738551
-0.140388297945323 0.179374963042781 0.950921709433805
-0.137492093434753 0.179955951941435 0.962838954020519
-0.129875056674972 0.179579353343778 0.983683655336343
-0.143289689702222 0.178709094535616 0.986322961279776
0.0545743726420161 -0.0311057540068421 0.130152145818402
0.0880151004429164 -0.0654786234513477 0.18100174854336
0.0882434104046677 -0.0648024331435424 0.199156683338351
0.0881795097525636 -0.0649916890186855 0.204357639726123
0.0879296268988648 -0.0657317722041134 0.209394136078781
0.0895534936160408 -0.0609223327609121 0.217842474953574
0.0877793948611514 -0.0661767175190015 0.23578230291873
0.0898572438080567 -0.0600227095720679 0.240699269743575
0.0909713107098293 -0.0567231547237063 0.246763858909827
0.0909265157640642 -0.0568558248355714 0.256052479416263
0.0908902904160499 -0.056963114193584 0.268072565837925
0.0889288122301902 -0.0627724644649284 0.272098855292809
0.0884686404597719 -0.0641353646585769 0.286146514468015
0.0902743378395518 -0.0587873936034735 0.294764265693538
0.0884143739808004 -0.0642960868050753 0.316202461658974
0.0886851189109158 -0.0634942159789934 0.324137475905428
0.0883759311287028 -0.0644099437905219 0.323523673129936
0.0889722404729799 -0.0626438421453677 0.338082702289944
0.0893551456277317 -0.0615097840759522 0.346386106722439
0.0889966167009366 -0.0625716465698471 0.357387738635564
0.0888775400505303 -0.0629243183335908 0.368535164986989
0.0889652501489561 -0.0626645455317485 0.377430270964227
0.0879940780789646 -0.0655408858188867 0.385042616571144
0.0903025628595436 -0.0587037989814553 0.388456338236616
0.0906305247771094 -0.0577324674272536 0.40210626611513
0.0894694288855488 -0.0611713090015923 0.420559257928571
0.0907381601660174 -0.0574136814829255 0.428181633231762
0.0897398418652518 -0.0603704213198757 0.437895398048634
0.0885642151846515 -0.0638522990308703 0.447581813924707
0.0881009866900666 -0.0652242523873294 0.452147157277891
0.0889429239259675 -0.0627306695654055 0.46698000939095
0.0890019740785334 -0.0625557795144715 0.473720700601913
0.0874954352057202 -0.0670177266687446 0.486644498860905
0.0875939614946182 -0.0667259193332014 0.493231641115929
0.0879676988972468 -0.0656190135837388 0.497282984778045
0.0892722685892481 -0.0617552427047937 0.509905044024137
0.090688469665521 -0.0575608508598894 0.517404786624552
0.0876988579504223 -0.0664152453433611 0.534674525878441
0.0872626350190484 -0.0677072157680198 0.542663773547754
0.0895336919411888 -0.0609809797884478 0.546515001880725
0.0884651102526815 -0.0641458201454976 0.560735662475115
0.0897419215290276 -0.0603642619369131 0.567261929635273
0.0877151384920696 -0.0663670269284319 0.578904536372329
0.0882879509941553 -0.0646705163638962 0.58988455282313
0.0876241977398481 -0.0666363680240444 0.598619790390775
0.0875783906835735 -0.0667720357244115 0.611562090365017
0.0877614711447219 -0.0662298025584658 0.618149545386368
0.0894423184723015 -0.0612516024699011 0.630489058320636
0.089216771423698 -0.0619196098010316 0.644823953583538
0.0897119223959262 -0.0604531109862074 0.646732582932905
0.0879626566410587 -0.0656339473375631 0.657488196417351
0.0889533887178813 -0.0626996757760372 0.670867684856867
0.0882315712636342 -0.0648374973709546 0.682243801526386
0.0899661832872383 -0.0597000612767637 0.687478418509064
0.0887940895474387 -0.0631714754043513 0.697260615807187
0.0898294405697828 -0.060105054994505 0.706016566121156
0.0884866474517691 -0.0640820329801513 0.716905068414028
0.0895919848918416 -0.0608083323579851 0.719581612293474
0.0903235050323163 -0.0586417741177794 0.733192672014326
0.0898608339912168 -0.0600120764527886 0.739010807321687
0.0889919572255503 -0.0625854466339006 0.751717441669995
0.0894045823101572 -0.0613633664371838 0.760739272794166
0.0903456265326494 -0.0585762564154218 0.765120491688039
0.0873486835036598 -0.0674523642019755 0.781522912104684
0.0871158596805203 -0.0681419233058609 0.797155387032293
0.0897923524446165 -0.0602148996573462 0.802514475654583
0.0895081305765606 -0.0610566854076101 0.814862271422598
0.0900964214853537 -0.05931433212769 0.820292839548395
0.0900974413809003 -0.0593113114820815 0.834667228116762
0.087638939680931 -0.0665927065140416 0.839736617715974
0.0887190521325559 -0.0633937152587903 0.844592194328403
0.0884039029498144 -0.0643270990728298 0.857239225624443
0.0913610693598177 -0.0555687985165419 0.867775599995519
0.0898883033275143 -0.0599307199547041 0.876358818708344
0.0890513317218772 -0.0624095959673794 0.894969496220379
0.0896368660749853 -0.0606754068351061 0.897597131954695
0.0907911545979903 -0.0572567267841784 0.909886937251286
0.0877247709868585 -0.0663384981705718 0.91695599376897
0.0886877543056979 -0.0634864106760838 0.928529232959912
0.0903519442296186 -0.0585575451624148 0.932215878868032
0.0848378905232861 -0.0643809909834187 0.942884375728341
0.0827164009335543 -0.0571781149044459 0.948410690749195
0.0820331586604473 -0.0469667602819375 0.953424288825544
0.0767821314650481 -0.049281336779505 0.958848718115517
0.0749360943712215 -0.0438956713139562 0.963296079138926
0.0677195076987498 -0.0368622767353215 0.974561747146293
0.0662773853166716 -0.0386034244344888 0.97597333469322
0.0591951579531885 -0.0357035214427712 0.987854709316045
0.0571274302578571 -0.0303397017120064 0.994665849452445
0.00989717350867159 0.0231188994938619 0.959591714007097
0.00508122998971597 0.0214823897361193 0.959591549381899
-0.186474333456882 0.214851934064252 0.784903248257913
-0.177114911790163 0.216729467251684 0.802452599135548
-0.180726969453967 0.216004875671113 0.811076988085796
-0.186773765897349 0.214791866854505 0.817792625118614
-0.184577713040056 0.215232402847833 0.825978838700463
-0.182111077403171 0.215727218706596 0.843984227941322
-0.182282206668174 0.215692889568983 0.855503306421863
-0.185102409543292 0.215127146868005 0.871807814572681
-0.184189665432263 0.215310246574494 0.869168156878404
-0.106883832532942 0.136328514580869 0.959581298167479
-0.124044841617473 0.151473595035651 0.959586307154426
-0.136524753766508 0.161751553317434 0.958849193955347
-0.149167248076873 0.177613874504437 0.948130254349103
-0.148426459613389 0.177762479298043 0.960134834924475
-0.146069093886896 0.178235375225164 0.972152856979268
-0.14568003618791 0.178225513619858 0.990314894086378
-0.144759613899641 0.179332915095402 0.993621977588032
0.0540309178118562 -0.0371383200829784 0.12643505452107
0.0542436016404654 -0.0352319196290032 0.130097153014807
0.0853641844474222 -0.0733298958584318 0.187095777422689
0.0864710022051337 -0.0700518109490783 0.19970832440777
0.0836920433037916 -0.0782823106629927 0.213893945089305
0.0866950314237144 -0.069388299006334 0.216361701545525
0.0863279590951808 -0.0704754646688145 0.228317715241434
0.0852838458554737 -0.073567836317979 0.236037715519153
0.0855553139123869 -0.0727638237923957 0.246304808493992
0.0841897644599294 -0.0768081996816377 0.260685121800615
0.0850819811507227 -0.0741657031644074 0.267808517870473
0.0857347353069125 -0.0722324277592967 0.274209863598945
0.0864105363957911 -0.0702308937797939 0.284717913503354
0.0859909908384654 -0.0714734704828456 0.293807552127703
0.0857798653417006 -0.0720987652073858 0.302899725307374
0.0856123440344333 -0.0725949165073824 0.308536277114326
0.0860618970053942 -0.0712634662304121 0.319250188213466
0.0857212123979207 -0.0722724788368921 0.335819551813329
0.0843850371786434 -0.0762298564557886 0.345331797713903
0.0850305120363227 -0.0743181402987386 0.349897477735789
0.0863208722310405 -0.0704964539800454 0.354317788625835
0.086814447299638 -0.0690346225514035 0.374977094156165
0.0861113316851682 -0.0711170545229408 0.380037241806834
0.0849428691542346 -0.07457771402457 0.39258550172584
0.0839386082306753 -0.0775520542496305 0.398094407911683
0.0857566797378208 -0.072167434487096 0.414726998459851
0.0852501146368076 -0.0736677387618216 0.424885482636341
0.0849564494379678 -0.0745374930190238 0.43461429656637
0.0859472490889375 -0.0716030213217579 0.442331863369085
0.08746992720778 -0.0670932742306943 0.442611123893436
0.0854431543883631 -0.0730960089607123 0.457142302473488
0.0853635090365822 -0.0733318962366032 0.466944285439142
0.0851897971658921 -0.0738463822555676 0.478813252329494
0.0863000930757627 -0.0705579960314539 0.483866730880222
0.0844708876311293 -0.0759755914055621 0.502431533655639
0.0854485558922485 -0.0730800112156001 0.506209205863639
0.0871822495225391 -0.0679452951457684 0.515945992993796
0.0851888426366257 -0.073849209304522 0.526761181623115
0.0848913057057117 -0.0747304305502126 0.53916112654593
0.0855079129851131 -0.072904212093272 0.539490971096582
0.0865047615598989 -0.0699518251739733 0.550857915145609
0.0851698545507891 -0.0739054467087417 0.57124761768011
0.0860973937989644 -0.0711583346470739 0.576014274165607
0.0870004301091034 -0.0684837934407751 0.57651018833497
0.0858828451608407 -0.0717937677597577 0.596472027968679
0.0842615787984792 -0.0765955056786425 0.609418791913203
0.0858592673907501 -0.071863598526199 0.614631082939847
0.0859010330429089 -0.0717399003354903 0.625493023946538
0.0859248636564776 -0.0716693207173229 0.629481747260669
0.0874367983063717 -0.0671913927791312 0.64041700375944
0.0844225275414222 -0.0761188204775378 0.651659979152033
0.0841287585436077 -0.0769888821582992 0.65952561699647
0.084230639327394 -0.0766871397462753 0.667415709945337
0.0860442644479005 -0.0713156889384678 0.679546709731826
0.0840276158203658 -0.0772884386412343 0.687980459898263
0.0852594244253916 -0.0736401657695601 0.698612239783481
0.0857539890767599 -0.0721754034732789 0.713300013374185
0.0848825035348216 -0.074756500120711 0.716149263348051
0.0874409875901568 -0.067178985291213 0.725196040282113
0.0854165287984152 -0.0731748665178873 0.740415677878635
0.0847688845133924 -0.0750930079125016 0.748079428820544
0.0860568460210599 -0.0712784258345636 0.75735134706909
0.0867022228952876 -0.0693669998771178 0.758770635277851
0.0842214349985983 -0.0767144003961133 0.776609160821867
0.0857544827455136 -0.0721739413643832 0.788791923289762
0.0854688863055439 -0.073019798212545 0.789059244159067
0.0855936033965844 -0.0726504210398093 0.806844164136222
0.0853624053012162 -0.0733351651923287 0.812691078847756
0.0859159467649572 -0.071695730058272 0.823254605585823
0.086432683569821 -0.0701653000391216 0.826311744771101
0.0850556100428402 -0.0742438070168161 0.837112100587139
0.0879871587982645 -0.0655613787947969 0.851620273567954
0.0853826311163255 -0.0732752619798739 0.863675122604606
0.0856220627409242 -0.0725661324145495 0.87250450529238
0.0844624826081489 -0.0760004847349306 0.88419929341058
0.0855642813954005 -0.0727372646135821 0.892833266790174
0.0876730528671199 -0.0664916727891332 0.897344979970423
0.0859602271029994 -0.0715645840706826 0.908198155495204
0.0856007424472276 -0.0726292771667395 0.922213672795787
0.0864993300328321 -0.0699679118393602 0.930448326259073
0.086572099131691 -0.0697523901031273 0.932957260579817
0.0847385853465722 -0.068724876127906 0.941224870658621
0.0756994266802719 -0.0616556347288234 0.955092029939882
0.0754612513303389 -0.0587344621725196 0.956578121438836
0.0727060867078982 -0.0578129088060444 0.960299549139607
0.0665990139438169 -0.0546999586022772 0.968986993513109
0.0640830555893832 -0.0467841149353436 0.97528421224754
0.0585217660463649 -0.0451436117641956 0.982705893052166
0.0578328069994125 -0.0402012344261987 0.987185323565679
0.0547805492126837 -0.0407810352421514 0.994796088519282
0.0111530445094203 0.00555880293602007 0.959592512662802
-0.191509474564682 0.213841866896651 0.780426652974478
-0.195343950599734 0.213072657401814 0.789060886008674
-0.195232064028464 0.213095102244911 0.790294302231705
-0.197830558495058 0.212489814249001 0.806199442744346
-0.193726976794329 0.21339702808314 0.817040927904501
-0.196699014027186 0.212800826871391 0.826184413829626
-0.197161150709528 0.212708120613556 0.838058549294642
-0.192583721446867 0.213626369161361 0.846167635512432
-0.191174237878943 0.21390911656501 0.862672921242765
-0.195417584096764 0.213057886261107 0.87746833812898
-0.119564274666132 0.134665564491406 0.959580753534245
-0.12479813518529 0.132463723352154 0.959580592409158
-0.129555421593478 0.14500766089797 0.959586307154426
-0.145439913796232 0.158849131357044 0.958849193955347
-0.158360371641545 0.175769701306192 0.959816460323515
-0.161992359106693 0.175041111736775 0.965822853150194
-0.166335642188282 0.17416983374349 0.984692469872396
-0.164601557199448 0.174517697343645 0.984633967182609
0.0502268427485507 -0.0481279599029128 0.122842568507298
0.0493657080208162 -0.0507871814374161 0.124605666217699
0.0816029204091358 -0.0844697088927738 0.184837850105134
0.0821556804132229 -0.0828325882238418 0.193941919443146
0.0843751502565164 -0.0762591387563271 0.205318402284766
0.082908640398719 -0.0806025311538283 0.207596240570856
0.081333112161267 -0.0852688055277836 0.219569562211361
0.0828101134685767 -0.0808943403885584 0.2326959055662
0.0830417975078237 -0.0802081570060614 0.238683072266162
0.0834311383081767 -0.0790550383527514 0.244811935144483
0.0833477498166224 -0.0793020117626669 0.262768977997583
0.0808467092658439 -0.086709394983676 0.277293636745696
0.0837620846676998 -0.0780748677154452 0.277021451294922
0.0829474274483324 -0.0804876547515193 0.283593411626997
0.0806336535412844 -0.0873404065035605 0.305932531117964
0.0835133427021975 -0.0788115719088455 0.306707889377695
0.083480337510011 -0.0789093240651364 0.316301683368058
0.0837136157062738 -0.0782184192350301 0.330411217578957
0.0818431542439755 -0.0837582034048853 0.337736359700407
0.0807353413145113 -0.087039235734879 0.350356584703865
0.0814646267104563 -0.0848792961834916 0.356034701363675
0.0819241489995447 -0.0835183195720515 0.365019526126775
0.0818402523080922 -0.0837667981280548 0.377029460207259
0.0807449427158324 -0.0870107990671802 0.384285981775393
0.0821827880045542 -0.0827523031132592 0.394374598849481
0.0822212056247208 -0.0826385208577394 0.401593723693507
0.0836927781569395 -0.0782801342333153 0.409313239528833
0.0822184257170036 -0.0826467541675799 0.415744566594243
0.0822065125860939 -0.082682037532331 0.432897856614711
0.0837451758996041 -0.0781249467615612 0.443858771522271
0.0830842568912176 -0.0800824041772924 0.450766876494887
0.081679996447428 -0.0842414312054666 0.461123650510445
0.0822343176057979 -0.0825996868337978 0.478625270524187
0.0837157980830094 -0.0782119556449835 0.481627253682447
0.0823539479781169 -0.0822453751004847 0.487073276395651
0.0829627131819141 -0.0804423826800938 0.500712483182997
0.0818802198004568 -0.0836484255841808 0.511964778642784
0.082239528029881 -0.0825842550136651 0.523718576584288
0.0829533546953955 -0.0804700999020276 0.527785803356905
0.0815243159465782 -0.0847025133456497 0.543597831321969
0.0826716483375914 -0.0813044354138601 0.544625909535154
0.083814481715808 -0.0779196823007729 0.554712247365923
0.0838078030504963 -0.0779394626411388 0.567817596524452
0.0829379586178465 -0.0805156987814511 0.579530015550415
0.0803843063749704 -0.0880789031326472 0.588731899428573
0.0818173088309383 -0.0838347502960634 0.594068750435096
0.082441158419954 -0.081987082141835 0.59886186334413
0.0818288833897397 -0.0838004696872859 0.623748410102404
0.0818118737645399 -0.0838508474439618 0.629310619587601
0.0820492727139793 -0.0831477380944483 0.643498533437401
0.0828130899129123 -0.0808855249921739 0.64011354002091
0.082764289597728 -0.0810300578889958 0.658650831537038
0.0844522628062645 -0.0760307529322923 0.659193441658682
0.0811768120154556 -0.0857317228831875 0.677696744052523
0.0817880851637815 -0.0839213026319255 0.686761954166823
0.0829683719337115 -0.0804256230385522 0.690066011186437
0.0831963011596274 -0.0797505603638958 0.70315308064655
0.0818142752510523 -0.0838437349119812 0.714854146820268
0.082016439340388 -0.0832449813720743 0.724718528193763
0.0829979071754349 -0.0803381479058894 0.731811638860805
0.0809259770573298 -0.0864746259358734 0.744977289533202
0.0842484720021854 -0.0766343243467026 0.753673370581435
0.083091913534454 -0.080059727339598 0.759808653292377
0.0818073415180725 -0.0838642706915066 0.775710947677428
0.0820064041979633 -0.0832747026597163 0.777255112390914
0.0815049960692097 -0.0847597334236729 0.79262938479267
0.0815138113936849 -0.084733624895929 0.796330893506496
0.0822375066583598 -0.0825902417512583 0.815841417736448
0.082584751369555 -0.0815617999507097 0.819848999877779
0.0824923324463309 -0.0818355189757671 0.832221785052905
0.082908613977636 -0.0806026094056909 0.833557629930512
0.0823828052811798 -0.0821599078326916 0.849442979010582
0.0829596074589632 -0.080451580963613 0.85753093113495
0.0841933424970869 -0.0767976025354242 0.863039490885731
0.081412983071531 -0.0850322502106981 0.876134194101278
0.0838024760966161 -0.0779552395899693 0.884100651783988
0.0816709603223479 -0.0842681936829022 0.893693763295709
0.0809439044148567 -0.086421530112496 0.904453578000006
0.0816183952507504 -0.0844238767361994 0.919602943794252
0.0831073862163558 -0.0800139015794894 0.92018178789825
0.0824415490300325 -0.0819859252639337 0.928015987014141
0.0786523084031826 -0.0810716748379818 0.94355201880684
0.0786171007082603 -0.0742786723402991 0.946378368166487
0.0769600138911124 -0.0730798424176085 0.94888073929795
0.0683952478859043 -0.0699408816498834 0.960561612974653
0.0654965709804697 -0.0705879171986956 0.963814441389463
0.0613658678227766 -0.0671566640268069 0.970233705138996
0.0600010662643922 -0.0576490690204853 0.975786090380275
0.0547858290653232 -0.0571455078556351 0.982321892707679
0.0541795656033049 -0.0510797965041404 0.991074166194116
0.00814304130791376 -0.0163257765044086 0.959586307154426
-0.00293574768211632 0.00170464575083649 0.959591991844519
-0.210994244981486 0.205971566927991 0.769454486860923
-0.208570978550415 0.207171492947098 0.772245859327765
-0.203591985998105 0.209636934895968 0.794444276993189
-0.212974345162201 0.204991083025433 0.80420008074521
-0.213505813518421 0.204727916457868 0.811546821732341
-0.201702183041912 0.210572706426926 0.831262522302986
-0.2120007908039 0.205473156804263 0.837978837948753
-0.207567239262821 0.207668513362245 0.85097267113241
-0.208408342636984 0.207252025183119 0.85777197651563
-0.210203238192057 0.206363248839545 0.872550156799796
-0.20744056781038 0.207731237117962 0.880953593963924
-0.131142300322017 0.132714902069537 0.959580274413224
-0.146034919686111 0.150416211456707 0.959586307154426
-0.15080342886862 0.148680050614885 0.959586307154426
-0.171883107069698 0.173056992609512 0.955844060791018
-0.176424182197412 0.172146036830137 0.970016503969981
-0.176577466356579 0.172115287484056 0.969929596933955
-0.174146104315279 0.172466663438312 0.990729616976781
0.0453871640636156 -0.0582684645282502 0.120141610935644
0.0774765926753278 -0.0966907385799075 0.185847433889901
0.0798871566655592 -0.0895513216484835 0.188994851449133
0.0778674989838961 -0.0955329833287288 0.202687342973234
0.0787579217044774 -0.0928958000499576 0.217907337115191
0.0796254213641474 -0.0903265084719916 0.220057055549906
0.0800324844615682 -0.0891209013270819 0.222821682224572
0.0791344950475092 -0.0917804950374975 0.231928605299211
0.0766674816589304 -0.0990649184850663 0.252244663762479
0.0787421309757418 -0.0929425677759136 0.25641882039055
0.0785758793580815 -0.0934349586100974 0.263245832334426
0.0798281507174325 -0.0897260807782203 0.27521970634795
0.0781465108934302 -0.0947066280197331 0.283525096934709
0.0785536547283049 -0.0935007817530474 0.287111147407949
0.0789149934101505 -0.0924305975498477 0.303232718579163
0.0776421559292661 -0.0962003864867126 0.317997670455401
0.077639281778865 -0.0962088989170492 0.320605068410476
0.0791720885092351 -0.0916691537089759 0.330449435621466
0.079001753364397 -0.0921736388095597 0.339057496949288
0.0810568933384339 -0.0860868884944679 0.350055484899828
0.077811486526024 -0.095698876576832 0.362256884878411
0.0789931906347638 -0.092198999221964 0.364694356543206
0.0774197738583482 -0.0968590200383584 0.3857718129225
0.0768494921362493 -0.0985480351397758 0.38998126778044
0.0794255824971391 -0.0909183753531276 0.393870611286784
0.0796238272670256 -0.0903312297422121 0.40755069594923
0.0801880829758095 -0.0886600620083244 0.414341122251652
0.0803276004476784 -0.0882468502433909 0.424527687812856
0.0787053392382366 -0.093051534621326 0.447285677643626
0.0807442004850039 -0.0870129973474847 0.443449663004728
0.0785862903443021 -0.0934041241781547 0.456450216327911
0.0805178337197031 -0.0876834324504103 0.460851299139399
0.07890022149304 -0.092474347840467 0.471943749558794
0.0788860709034256 -0.092516257932667 0.480385829391489
0.0793570484798643 -0.0911213539611577 0.500748673770683
0.0781731799961411 -0.0946276415899134 0.504258650802133
0.0772468471234752 -0.0973711807044301 0.514358135967189
0.0787457076710429 -0.0929319746039033 0.524971804223926
0.0788952479562201 -0.0924890780667238 0.526739988891879
0.0792325352435122 -0.0914901273732743 0.544733817516138
0.0779451770225611 -0.0953029226845411 0.559492014948926
0.0786592209861453 -0.0931881239967441 0.562611891669836
0.0783626087850782 -0.0940666064510331 0.570003898777948
0.0771227112595165 -0.0977388364449702 0.580457041305312
0.079292245271346 -0.0913132829561919 0.585997742311143
0.0794976724960451 -0.0907048649211847 0.602925512337044
0.0800573396752839 -0.089047287129593 0.608772032832083
0.0795032118305965 -0.0906884589601562 0.621983387022233
0.0786378769529522 -0.0932513390586865 0.631186209305988
0.0801919082583311 -0.0886487325904326 0.639033713850922
0.0796013690658484 -0.0903977446583818 0.653706593757097
0.0792462051121344 -0.0914496410423214 0.659576009648462
0.0787906551960185 -0.0927988525950559 0.670160399905167
0.0774280292340079 -0.0968345699225344 0.674643551319801
0.0778101053942639 -0.0957029671031616 0.690162346252505
0.0784146929039362 -0.0939123478453567 0.69674854005469
0.0785646341821239 -0.0934682636789325 0.705701821059014
0.0803017405878654 -0.0883234399218791 0.711950156578193
0.0775276955373214 -0.0965393861828572 0.72871740140225
0.0790774034652561 -0.091949584350468 0.736713604039795
0.0779465869380924 -0.0952987469087233 0.740932425533989
0.0801523825851513 -0.0887657965893421 0.75225020536487
0.079682024817804 -0.0901588648595207 0.761650872776025
0.0800534889235657 -0.0890586919801299 0.769909122998286
0.0779764387341291 -0.0952103342306453 0.785278679650394
0.0795324862498584 -0.0906017563107397 0.798509235340226
0.0804060871056202 -0.0880143946948683 0.806720281575931
0.0807908351735334 -0.0868748784316507 0.80569139067063
0.0793052076978929 -0.0912748918709791 0.822975398523379
0.0799872496998369 -0.0892548740509341 0.833712183950299
0.0795618642036351 -0.0905147470210238 0.839229812860084
0.0788086686819251 -0.092745501683485 0.857153187683347
0.0792976229533122 -0.0912973557649461 0.859461848549954
0.0801492798652126 -0.0887749859787765 0.865721993404131
0.0804457489500396 -0.0878969273947974 0.878731380723575
0.0790527413546663 -0.0920226266304593 0.886218342780821
0.079374032890907 -0.0910710508817719 0.890898634419401
0.0770308361570354 -0.0980109448249541 0.913447408099221
0.0783091120736276 -0.0942250487612389 0.918117288667515
0.0800082233804292 -0.0891927558699027 0.929122297349763
0.0785492278873052 -0.0935138928190526 0.938464084077691
0.0743649569410788 -0.0929930727127898 0.943870227067067
0.0721261358781769 -0.0834373541486637 0.950503082958098
0.0667541105840237 -0.0839581420126422 0.956809415408962
0.0678492350245647 -0.0782905986830637 0.957802753289398
0.061850263167607 -0.0690077239758179 0.968887297691221
0.0582430652841076 -0.0673620363104945 0.973939526514442
0.0550909530120813 -0.0654319293596515 0.97855599091299
0.0532544255244738 -0.0580808079087564 0.983797210300456
0.0509721057110749 -0.0602331121762901 0.992206131229329
-0.00257237205455744 -0.0167322513553943 0.959592784088462
-0.00301253003537832 -0.00644899764325196 0.959592330702584
-0.218516876419099 0.202246594271911 0.765950325457599
-0.216245744396516 0.203371188072981 0.780071213860516
-0.216858174125548 0.203067931956642 0.787836278440508
-0.218059951589364 0.2024728492082 0.80124987565248
-0.216670534471775 0.203160845265674 0.816891021587101
-0.221066300250251 0.200984199039796 0.823056635295388
-0.215369449171977 0.20380510215971 0.833469241318539
-0.212479560441353 0.205236084999954 0.848536342966037
-0.212102133063966 0.205422975275262 0.863744439833213
-0.220993709313591 0.201020143809439 0.87477467115465
-0.220076029773557 0.201474550119521 0.875261002640775
-0.141234452001577 0.130216529409882 0.959579890310956
-0.153466784317808 0.140432095794667 0.959586307154426
-0.165497984639661 0.157268213759606 0.958849193955347
-0.18378275741408 0.170516187763914 0.955434132012671
-0.179142394309575 0.171600753838004 0.96230054527374
-0.187548419029748 0.168651549483181 0.972602353192209
-0.18572556594989 0.169554169521772 0.984767202288745
-0.187336398972215 0.168748227111873 0.990462454767691
0.0426041541114927 -0.0698040825196956 0.124556004002105
0.0420908950232071 -0.071707191738531 0.133934717692344
0.0712841954864489 -0.107150008747317 0.188153933793341
0.0756078224188235 -0.100656407462058 0.194447540749678
0.0749458089298205 -0.101650677252279 0.198852931460804
0.0732926569872815 -0.104133525506003 0.205670387826019
0.073766893901526 -0.103421275007979 0.221632653983875
0.0748988161466252 -0.101721255126395 0.231288582443997
0.0749451734340613 -0.101651631695422 0.236466755867173
0.0732028836310706 -0.104268354988378 0.254811257989535
0.0724692342984408 -0.105370213757372 0.261945513811197
0.0774222291850807 -0.0968517480466931 0.266168998223469
0.0756002795072451 -0.100667736066741 0.276724547168248
0.0772228712139469 -0.097442190648629 0.283455400255549
0.0734784078186579 -0.103854548652489 0.29203625874446
0.0750565520338694 -0.10148435356755 0.302914041357953
0.0726698915272692 -0.105068849171714 0.315838999512463
0.0730390091412544 -0.104514476037751 0.331375328124421
0.0719775764177387 -0.106108628587321 0.338626684145706
0.0747283926587903 -0.101977212034091 0.338427691469768
0.075364400495271 -0.101021999808568 0.352973695981141
0.0754575318862654 -0.100882126935695 0.366885023125156
0.0757707817866537 -0.100411660822964 0.372701845026017
0.0715981778765121 -0.106678442517494 0.381421738892571
0.0748022663472079 -0.10186626206418 0.393835232706912
0.0752691175586347 -0.101165104060965 0.402094306780328
0.0732508799186589 -0.104196269963549 0.420740585621744
0.0730916878801875 -0.104435358497734 0.429602972948945
0.0733179466928432 -0.104095543213103 0.438516472840806
0.0733874802691122 -0.103991111603416 0.446984193672487
0.073419257052341 -0.103943386449594 0.445022688036459
0.0744704418911069 -0.102364625070127 0.455555641067594
0.0744753748179709 -0.102357216368885 0.461641705137234
0.0762473001549231 -0.0996959838376377 0.471609790285054
0.0736339590577863 -0.103620928189362 0.4949403909506
0.0743561717354583 -0.1025362459896 0.498322007175831
0.0737204791249887 -0.103490984781115 0.503230680543769
0.0745608749188913 -0.102228804835257 0.516561223972377
0.0746626386657536 -0.102075967134929 0.52005853317725
0.0722912208925109 -0.105637569868252 0.537886868683915
0.0743301546676001 -0.102575320698848 0.545425722758581
0.0727074489233755 -0.105012442187614 0.56056800532602
0.0768035828732698 -0.0986840055478444 0.568287061934071
0.071686296146627 -0.106546098788254 0.577099317602452
0.0776012620172094 -0.0963215028268348 0.582961228187793
0.0718360253506441 -0.10632122236694 0.59831905390885
0.0765439126097031 -0.099250505296655 0.599526039442203
0.0773908224454732 -0.0969447660331156 0.614743474838211
0.0741171637685691 -0.10289520906973 0.621103606147164
0.0740660072800899 -0.102972040360804 0.631285756521248
0.0762265860824875 -0.099727094044299 0.637822529889248
