ply
format ascii 1.0
element vertex 875
property float x
property float y
property float z
end_header
0.145625662512147 0.199348184451211 0.665891617113875
0.149590474580654 0.196305877148781 0.678028451492802
0.14986578657629 0.196094622824414 0.677288586666707
0.150992547786293 0.195230028538971 0.687772383548219
0.148171933247946 0.197394362196931 0.697989593393632
0.152339360254088 0.194196582984686 0.710945340381256
0.148277181230695 0.197313602579337 0.715734732109072
0.147184954404433 0.198151697700123 0.723727236718335
0.151142764740695 0.195114763015807 0.738830940238397
0.144910079120364 0.199897270899876 0.747761978697078
0.148684898508968 0.197000750108253 0.754516455050227
0.147149398300832 0.198178980858003 0.774919989302182
0.152037405631582 0.194428280915679 0.779203829684218
0.152245717308647 0.194268437743957 0.786769101620692
0.145989626173237 0.199068905311412 0.789770302791188
0.150894827455844 0.1953050119858 0.797288817815312
0.146534209579116 0.198651031766876 0.815775657979815
0.1477576058474 0.197712286793229 0.82180225432454
0.149550091942943 0.196336863836542 0.83037634721099
0.148076436549169 0.197467639391166 0.842586190437738
0.150537303302346 0.193840242289188 0.854814195195847
0.149373080218536 0.193471065607155 0.857844989043461
0.152095859062498 0.18805916953767 0.865821296713634
0.153793680077341 0.184719974619508 0.87070989987641
0.146569965833898 0.186984359983862 0.878580415971884
0.15030870214988 0.179572260051733 0.889486970388826
0.149893743401789 0.176078965262746 0.89863733695306
0.154150852055713 0.171807796453172 0.901048915827885
0.150882893362173 0.172076261586149 0.90642416027192
0.154288971618852 0.165868656124201 0.915051978840602
0.155451427224389 0.162651472491216 0.920633848245069
0.15183398813007 0.160584489890843 0.932259320600883
0.15625385235269 0.155161491287923 0.936526033458093
0.152289208783057 0.15610703327719 0.942169355478725
0.152122394161537 0.152509741629332 0.951112284432267
0.150873571662162 0.150187678512235 0.958603899756297
0.151050053652995 0.14619745624488 0.965530399418932
0.155684070893296 0.138031995192825 0.969447121565871
0.154847545049948 0.134098961079379 0.978700102215942
0.150046425938747 0.140266978030965 0.994023428534046
0.157741084578949 0.130239103655702 0.987933116388864
0.155332003341234 0.128179380446333 1.0
0.158010299779889 0.0551934724999588 0.962659824457922
0.153075464099009 0.0524514798961405 0.962659824457922
0.154305051902741 0.0351577155380145 0.962659824457922
0.156289714530258 0.0186888855693836 0.962659824457921
0.161937566596747 0.0140020290562557 0.962659824457922
0.15818707627188 -0.00488509182942959 0.962659824457922
0.163863072613941 -0.031310600720762 0.962659824457922
0.165597046004042 -0.0430483512541144 0.962659824457922
0.161923477761867 -0.0489138648397607 0.962659824457922
0.166628592944961 -0.0699556771668193 0.962659824457922
0.165009064741928 -0.0909543052507294 0.962659824457922
0.164694019231323 -0.104873384219266 0.962659824457922
0.170607003941657 -0.11841337196862 0.963083548834308
0.162800608605061 -0.127849634097023 0.965437863898081
0.16850537346964 -0.116210809252761 0.984719052866806
0.17013216809714 -0.113891785626484 1.0
0.161041738696844 0.187519013145953 0.176672173460154
0.156160739948657 0.191264335213728 0.190211271989238
0.159787739893444 0.188481240270695 0.194834109954074
0.154856974750726 0.192264749436088 0.213923525529503
0.158826365165391 0.189218929045091 0.210558306923822
0.156614366721483 0.190916255148469 0.226049869007058
0.164337587961241 0.184990019057071 0.229345857721903
0.157173021164618 0.190487584517297 0.243047768287933
0.162401714988452 0.18647546663439 0.254156303666848
0.155246623246642 0.191965761629346 0.267160715928551
0.160414214480077 0.188000529413089 0.270147020786567
0.162111449063575 0.186698195512239 0.281021224267549
0.155349742085957 0.191886635760971 0.294553840407734
0.164132303832235 0.185147539109461 0.30045159553918
0.157790947704379 0.19001343280675 0.309531342954646
0.154425671717222 0.192595699893693 0.323475626929674
0.162109452863794 0.186699727250205 0.333008119675554
0.16349503726898 0.185636530941983 0.340696834885912
0.163922487544218 0.185308536809774 0.342084530401477
0.160168048873953 0.18818941892618 0.364680891012064
0.156853547697781 0.190732725130344 0.366295929840048
0.16365175021599 0.185516280868377 0.380684607069202
0.162833602264232 0.18614406787192 0.38425820258979
0.159384145336901 0.188790929266132 0.396852459345896
0.156740795866815 0.190819242653189 0.407233295796083
0.156410566333561 0.191072636686282 0.419868728873799
0.164342429427565 0.184986304069299 0.414714185710865
0.16063248988837 0.187833040801493 0.426161934855988
0.161244540898173 0.187363397543652 0.436862079976237
0.157682687008472 0.190096504160456 0.448066150551854
0.15918228436298 0.188945822639241 0.467223579970553
0.160514529735313 0.18792355481044 0.463069261239655
0.161065507153077 0.187500774968023 0.477809462554828
0.164173425849551 0.185115985075774 0.490702546060941
0.158237833895582 0.189670524971685 0.506727257112633
0.157278053987499 0.190406989997677 0.514948321914909
0.156214014570979 0.191223456158246 0.517828289496843
0.157876403279133 0.189947860437968 0.525071390191587
0.155869151895937 0.191488078595953 0.531891341793877
0.160600851798828 0.187857317561446 0.53828528217572
0.163243894744916 0.185829239378526 0.556989093784342
0.163369915559118 0.185732540206742 0.553997556668414
0.154413201253919 0.192605268816738 0.578123269965072
0.156602182710389 0.190925604269003 0.586547302112891
0.157551068956505 0.190197498243836 0.596233748534608
0.155819221352082 0.191526391649777 0.605872716020767
0.158595059575973 0.189396416066322 0.614180276275042
0.154645823460118 0.192426771519919 0.622948991947555
0.163070537164368 0.185962261328651 0.631224917023749
0.158435285540125 0.189519014996007 0.636272103279255
0.159905956947975 0.188390529134314 0.650995546162224
0.156810313068352 0.190765900228321 0.657890604505261
0.160409842297718 0.188003884306609 0.660609402213078
0.158755367958534 0.189273407117984 0.679487902439625
0.157095053005369 0.190547411590092 0.685330889637323
0.157869218096805 0.189953373822282 0.699750227795982
0.158422603167226 0.189528746523004 0.702985909583129
0.16268389796018 0.186258940024635 0.711637582531623
0.163269578249596 0.18580953173224 0.726517935666301
0.156811818485895 0.190764745080812 0.732173974231592
0.155428145450059 0.191826474743747 0.748106717346535
0.156507416067687 0.190998321271509 0.748035043564378
0.161999954299856 0.186783748453459 0.757247571239224
0.159656360664632 0.188582051098623 0.767577196258782
0.162350033883321 0.186515122941126 0.779698059689912
0.155334426707021 0.19189838766456 0.787167696347928
0.161457484913097 0.187199999854071 0.79484304495384
0.160049366696923 0.188280486963607 0.806999289414781
0.158963134748667 0.189113982052709 0.814380855773177
0.159547923940598 0.188665257523462 0.830325596478424
0.161943086910082 0.186827384336369 0.828954945455837
0.156233410746722 0.191208572949135 0.842483422821956
0.161628130989098 0.184914934932591 0.85581048144181
0.162771631021939 0.183694577549759 0.856633691796374
0.161454254759033 0.178790691873891 0.870832611334481
0.163167663910896 0.176854376502242 0.872324751392093
0.158567563441691 0.174767505137206 0.885808073391217
0.156916241136632 0.174272225646167 0.890038847141474
0.164536686321467 0.166305284874004 0.895127075560242
0.161293977753638 0.167301349193073 0.898709135419702
0.156329205723847 0.167348859760693 0.907740406338498
0.159504993519488 0.161773723807203 0.915274125191381
0.156704757914907 0.158717759537492 0.927768420286129
0.165808633970484 0.146771670487917 0.929043261467732
0.15656078330668 0.150350280994423 0.944651673099488
0.16583681537956 0.139105983784011 0.943096135484578
0.157195807459268 0.144762268996984 0.953420595353748
0.157948204482757 0.14018737462472 0.960041546136976
0.160321101611777 0.135769363501717 0.962483342748908
0.162373638786907 0.125812836324746 0.975896380611993
0.163513358879895 0.123696096704746 0.977059497316058
0.166779361736475 0.118460191537244 0.982779325981291
0.16057468856252 0.124475257360552 1.0
0.168436023971235 0.110500212578057 1.0
0.170502365177573 0.0485235251156553 0.962659824457922
0.169517958184541 0.0410393189548252 0.962659824457922
0.165400054210646 0.0234843250208222 0.962659824457922
0.173142736137064 0.00881688546416966 0.962659824457922
0.169972490032195 -0.00661183081446777 0.962659824457922
0.171024557206709 -0.021881679164005 0.962659824457922
0.175722474000124 -0.0438900713212775 0.962659824457922
0.176250593765426 -0.0506792114593576 0.962659824457922
0.173013939287947 -0.0771340131334884 0.962659824457922
0.17497743083028 -0.0855387343830917 0.962659824457921
0.178117105293812 -0.109685167874678 0.959701194742407
0.171546995826188 -0.117768071468162 0.961232234166891
0.175364155144034 -0.107272270947912 0.981140915842292
0.179274122007988 -0.0992536478723508 1.0
0.172100059453233 0.179033665187848 0.170859985556129
0.172487541363353 0.178736339860859 0.177608916227927
0.171399192624708 0.179571459220354 0.193096913541944
0.166073653980837 0.183657888747321 0.195733051412819
0.16665309940792 0.18321326463306 0.212424633823746
0.165594537698486 0.184025527601149 0.226522740470486
0.170606448162752 0.180179753440584 0.22140893250815
0.173904252842111 0.17764925890903 0.233453437842454
0.164443495253158 0.184908753533759 0.254459357669673
0.167307104030828 0.182711429235639 0.257682770491976
0.167515839006045 0.182551261255821 0.268429509290577
0.16498630077639 0.184492244206559 0.281828976868793
0.168357550678619 0.181905393173357 0.278453321086563
0.173726326282634 0.177785786759994 0.291619235137019
0.164766516662411 0.184660890488744 0.30839178184886
0.169379252960835 0.181121413438533 0.312920151903881
0.169537232655635 0.18100019135516 0.320363231215307
0.164831366735971 0.184611129277129 0.332190701608602
0.170303016992777 0.180412584366299 0.347383654508001
0.165562888378743 0.184049812978339 0.354289135656016
0.173641036767389 0.177851231706832 0.356874910566855
0.168181071822102 0.18204081016277 0.369896111647827
0.164261169154337 0.185048657269997 0.38656110780807
0.173718106958701 0.17779209366907 0.388450513566317
0.165817658875654 0.183854320700319 0.397779709231518
0.173597631368327 0.177884537840958 0.401146142521208
0.164133632004391 0.18514651996712 0.419644145712988
0.170747066075217 0.180071853521356 0.423541553609218
0.167317830323865 0.182703198661511 0.436728367753303
0.167459389639012 0.182594576378599 0.448986875354182
0.168930468241883 0.181465778065178 0.448569289096096
0.164827967821131 0.184613737356216 0.464222780303088
0.16746467480567 0.182590520927586 0.478436349774565
0.169432409402788 0.181080625066038 0.48269845702782
0.16991896333654 0.180707279101563 0.48616366952409
0.164348356453059 0.184981756102679 0.507756212282254
0.172060883300143 0.179063726107399 0.508012139392097
0.171138846950808 0.179771229482142 0.519405293221614
0.167079504839088 0.182886072237903 0.530906919927978
0.172284892025869 0.178891838166607 0.534979247589463
0.167533693101208 0.182537561326756 0.544862945179455
0.172928173433287 0.17839823098183 0.554914700526994
0.164692000630073 0.184718068651394 0.570258690695201
0.170627384457323 0.180163688456732 0.57460001020631
0.171149195280196 0.179763288929722 0.587763009663667
0.169239719502617 0.18122848122675 0.58750226530489
0.173550509683849 0.177920695581176 0.604056969601376
0.170886084942958 0.179965180592301 0.619333268268391
0.167489329060398 0.182571603052565 0.623547723084746
0.166454487875206 0.183365664622235 0.636216050813048
0.166717265787783 0.18316402803807 0.647286455311552
0.168865752626178 0.181515436103652 0.64752154054689
0.165931858506418 0.183766692241617 0.654111383640248
0.166417656814652 0.183393926088994 0.668423017713581
0.169272756883713 0.181203130752623 0.677725258738292
0.164833665822453 0.184609365126024 0.684462633184132
0.17261502497865 0.178638518242318 0.697856677923937
0.172891460620232 0.178426401714091 0.699800107049672
0.164717521759815 0.18469848559978 0.714745185115644
0.17356159956469 0.177912186016313 0.723746689824108
0.166017071344206 0.183701306131459 0.73946737828036
0.168251884351455 0.181986473797911 0.742715974576454
0.173570932512588 0.177905024593513 0.747596600292975
0.171632488407461 0.179392445070066 0.766774514614216
0.173894493579455 0.177656747454647 0.772181176410498
0.172028240257696 0.179088773994838 0.779154520188011
0.172930191102916 0.178396682769471 0.791289556629427
0.168389564406616 0.181880828175879 0.797277526304265
0.167407721957528 0.182634222385008 0.811782537872012
0.1678647923437 0.182283499942292 0.823032959146159
0.172650096333864 0.178611607044956 0.8221618721806
0.171828006018449 0.17924241913053 0.84306262109066
0.170644392063128 0.180150638061796 0.849826346360706
0.170556700518834 0.178579566758482 0.85457233923452
0.166726241670982 0.175541941409275 0.868920325705761
0.169505351197463 0.172889886385805 0.870167602405209
0.168827257978285 0.170443460219636 0.877289563876331
0.167552693198651 0.16772063832412 0.886173766629788
0.171252160074737 0.160498952707953 0.890689299329436
0.173429585755045 0.155653324309403 0.894388033709715
0.167872717316201 0.156419478199857 0.906316549416155
0.169534294325311 0.153888334737036 0.906990247520203
0.167088140980044 0.147891360642831 0.923909162523403
0.175650062170054 0.136622512431861 0.924113141687796
0.171388915373081 0.138608576689951 0.93068402368112
0.168694244781201 0.136274014352644 0.941453207803037
0.168443519946679 0.134519924740044 0.945286206087127
0.170657050060914 0.128894410956105 0.950334850843054
0.176131956529026 0.118096968232145 0.957081160440934
0.168750087697774 0.124724480042806 0.962593892833468
0.168658737589704 0.119190209475298 0.973007553259731
0.169403549854741 0.115040282998411 0.979850608701468
0.170303306885489 0.113867696806548 0.988827868156155
0.173620656743565 0.109544442300912 0.989294619659562
0.172828082729223 0.0484298065210857 0.962659824457921
0.179238676239373 0.0969870766736821 1.0
0.181975827584303 0.0233978718309707 0.962659824457922
0.182694131273691 0.00555205255821667 0.962659824457922
0.183148662650393 -0.00919440102073989 0.962659824457922
0.184858279195706 -0.0171386125486629 0.962659824457922
0.183396841442096 -0.0463738908096279 0.962659824457922
0.186857062103975 -0.0575275673844727 0.962659824457922
0.186396393665436 -0.0975813709569684 0.951996711577777
0.189112418834633 -0.0883995743720442 0.957265840710536
0.187706391436178 -0.0810352981445761 0.980984571000678
0.188920154282061 -0.067710091076792 1.0
0.187397949045355 -0.0724938389634839 1.0
0.174271782303305 0.177367243634578 0.166735661826058
0.175817773161465 0.176180963125942 0.169439319421612
0.180885228877651 0.16968705467325 0.178791245138156
0.183705106452932 0.166012118668838 0.188672051587667
0.175095138391187 0.176735460287628 0.209388289788096
0.18406681034898 0.165540736974053 0.202746934452287
0.183457128599569 0.166335289699243 0.208994597924886
0.179624993957548 0.171329424796869 0.230255175375831
0.182143834394738 0.168046808028985 0.23481126445429
0.180588388622831 0.170073904425013 0.246072843785387
0.176847987637978 0.174948489893073 0.255031987811457
0.177741392636564 0.173784181830693 0.266965921860458
0.174978252072921 0.176825150314159 0.28700115263507
0.176451263690379 0.175465510607597 0.290301667240205
0.18015357219238 0.170640568229704 0.285912363704117
0.179728770285364 0.171194180853359 0.302062624573828
0.179985443061906 0.170859678378452 0.311886392983425
0.183655545942819 0.166076707183108 0.317439216129604
0.174262876696339 0.177374077147147 0.337047660568373
0.177202668256231 0.174486261112111 0.352319061318022
0.182058775094324 0.168157659467481 0.347644775140813
0.178395315619903 0.172931972806921 0.363999220342518
0.182374481364525 0.167746223045789 0.363184844674457
0.177068271189883 0.174661410779011 0.385336491046445
0.184072349072878 0.165533518768535 0.38219313790748
0.174380006265686 0.177284200467496 0.401591214898441
0.182964927525309 0.16697673862776 0.397018375996295
0.183805073434877 0.165881839161521 0.416969303963981
0.174828322731486 0.176940195144132 0.437911420687986
0.182703757089115 0.167317102566843 0.437454414778604
0.181165220653478 0.169322162286806 0.449294407493603
0.176128438717773 0.175886224302886 0.458896013275778
0.174782734278599 0.176975176394373 0.469712362095336
0.179270083442186 0.171791953185578 0.478080602854072
0.18026853642689 0.170490743922322 0.479153576042402
0.176423799546002 0.175501302577393 0.496441843562078
0.174741994243774 0.177006437322585 0.508912372853376
0.175009978443505 0.176800805813781 0.513102291201673
0.178198140562782 0.173188936344253 0.525993263693419
0.183866339017054 0.165801996300347 0.523741953588408
0.18048382680308 0.170210172041542 0.538845488311678
0.175006250291364 0.176803666525533 0.551080146717223
0.179802307869223 0.171098344808216 0.561792199242225
0.17816380336026 0.173233685457812 0.570666781799935
0.180037015621593 0.170792467710126 0.571240583336791
0.183718346813951 0.165994863494412 0.586510713405394
0.179972111750734 0.170877052081425 0.598873948947442
0.175148122063312 0.176694804486084 0.612831548731197
0.182598744077659 0.16745395818785 0.606694820836716
0.179967884981819 0.170882560513919 0.62285938091559
0.174884975401926 0.176896724021163 0.636894700336117
0.177286741246902 0.174376695057497 0.64464730896676
0.184036310691722 0.165580484901254 0.648736435935186
0.177598844696245 0.173969953923363 0.665135543854635
0.181317866602337 0.169123230213191 0.67381472172833
0.180777967491984 0.169826840432578 0.675041283366146
0.177163141800366 0.174537772992293 0.700476655473618
0.180359121575123 0.170372691058741 0.701602228035149
0.175303518799509 0.176575564376557 0.711096591558633
0.180377909558327 0.170348206082326 0.717276952524512
0.176599488127935 0.1752723407597 0.730579728342401
0.180839725769075 0.16974635547889 0.739148455902846
0.175608609497914 0.176341460049889 0.746763685303601
0.174298751144192 0.17734654971513 0.75472821808095
0.183029378337798 0.166892744693623 0.765442587770342
0.182813220665821 0.167174446856278 0.771289295706261
0.183499370309938 0.166280239230499 0.773878228000837
0.183313296832094 0.166522734908037 0.788702989252775
0.179636922445698 0.171313879288452 0.798093832045274
0.175266171601773 0.176604221889305 0.810938544703816
0.178523915946348 0.172764377598543 0.827440465092574
0.180026756531342 0.170805837616842 0.831719722109283
0.18224199872923 0.167918877777566 0.841520316215177
0.178451045109084 0.17239527328143 0.851494137484495
0.17715491666332 0.171764639981131 0.855767273942149
0.181004058347411 0.163117385940338 0.862455649869029
0.181012448431924 0.16087458691735 0.866566841392351
0.184096131187362 0.152304293292843 0.8749510116697
0.183898961756582 0.149031243231592 0.881453435786474
0.181883281483887 0.148213211491081 0.88779912256241
0.183550369210632 0.142559596517021 0.894211319135295
0.179806613403448 0.142854359905976 0.902655602932734
0.18202227255252 0.133872934047073 0.91388087182484
0.181984231448585 0.132870115732559 0.915819427881806
0.183584074328236 0.125136813496369 0.926223926089549
0.176855825290411 0.128243630905491 0.936652851722531
0.186273832456595 0.116617848277754 0.935459201685878
0.178198255449964 0.122515419027458 0.94398183114956
0.184125093004755 0.113556318470992 0.946256930396798
0.181401945694823 0.113729600012982 0.952474918835821
0.179560194363107 0.107495708133272 0.968379320698464
0.17911197028257 0.104783379778877 0.974451552351393
0.189477072532148 0.0870102522157076 0.966995127883131
0.187257357295385 0.085322041357267 0.975155339023997
0.184080094345481 0.0897899537621318 0.997577606866117
0.184678398442263 0.0785267689941908 1.0
0.187505392893153 0.0733472668443438 1.0
0.187459281081974 0.00666490781606994 0.962659824457922
0.192208333217926 -0.00199689644689638 0.962659824457922
0.192346862488687 -0.0178478544921031 0.962659824457922
0.197408560307375 -0.0563059799215036 0.950213099277229
0.198120372832108 -0.0640414569640832 0.962507388729087
0.198194324489024 -0.0591124850596818 0.97204385456235
0.194814959530537 -0.0638736966421202 0.979549784433564
0.189829427759709 -0.075909835058896 0.98042983528512
0.19176578695052 -0.0605286030845488 1.0
0.188776001256377 0.159403599897979 0.148948056736891
0.190276787225738 0.157447737543505 0.157575648961184
0.186121500032769 0.162863013244824 0.179217720456395
0.190961153391349 0.156555854192165 0.176435080312179
0.187716996324568 0.160783721995077 0.19232075882936
0.18457680947513 0.164876093172727 0.201044756186097
0.18913831575803 0.158931422446477 0.209982996234726
0.188541158384631 0.15970965308707 0.215863000301292
0.192110923879663 0.15505744411885 0.222117577705562
0.194547474578647 0.151882069425721 0.230488218397311
0.193775482523499 0.152888149059622 0.243910579686965
0.190853060421441 0.156696723693176 0.249294860465287
0.19189521440696 0.155338562176841 0.260640426942472
0.192945261704521 0.153970113895975 0.265531382672941
0.190725850720061 0.156862506603686 0.278377993033784
0.188896546744087 0.159246501959815 0.289615849722839
0.193624597295925 0.153084786516583 0.291712154567039
0.190252305581649 0.15747964264325 0.313367366086236
0.191296205083012 0.156119206326377 0.321543835361378
0.187726534361433 0.160771291783427 0.334484388139232
0.190030144425695 0.157769168698548 0.332829741617701
0.183969306316073 0.165667806703691 0.362275131140887
0.187216354948455 0.161436170539122 0.356571485199509
0.192654545115962 0.154348983130492 0.366727433039532
0.184774054418117 0.164619038558361 0.381875704179663
0.184510725334394 0.164962215701677 0.392458330509218
0.187757990372325 0.160730297511906 0.398298911416647
0.190983049109502 0.156527319136713 0.401415001078268
0.193195019133719 0.153644623677188 0.406853320843139
0.187282461811925 0.161350018397329 0.428577748993337
0.192388827955893 0.154695272475492 0.425086244828895
0.188296405756812 0.160028620921713 0.451825566797528
0.19473457451358 0.151638236043259 0.443411837723783
0.189452752033247 0.158521641114473 0.460354881649984
0.186279175610497 0.162657526431251 0.479962778178664
0.188836899609629 0.159324235618857 0.481176823953433
0.187139360006599 0.161536512300929 0.492633251795941
0.189271780085973 0.158757488347933 0.498237384154375
0.18726709726949 0.161370041858872 0.50871264700024
0.186070095339398 0.162930005145507 0.522452443476459
0.187334020241863 0.16128282614325 0.525653650804437
0.192148699278032 0.155008214261228 0.531811073388016
0.192546155070066 0.154490239788466 0.545782731604451
0.190380224790369 0.157312935084772 0.555322338462938
0.194201003598847 0.152333599197549 0.561231833857039
0.187190508811011 0.161469853881228 0.578817660970404
0.189044530662065 0.159053645563134 0.5923156667745
0.190895124139301 0.156641905188784 0.597760283784758
0.185267561909219 0.16397588707427 0.605668054781754
0.19312783028113 0.153732185894654 0.608066488768599
0.187336354086338 0.161279784617913 0.62265482242688
0.193996743300042 0.152599796401617 0.622299398286077
0.193293915679619 0.153515739189285 0.640265922202538
0.190776741018752 0.1567961850752 0.649163851982642
0.19151177201477 0.155838274031364 0.66066378833546
0.19416663072347 0.152378394800879 0.667635797030416
0.192227288904105 0.154905794266487 0.672340740444429
0.192390576536605 0.154692993680742 0.691505558657219
0.194536747670805 0.151896049004192 0.690219210108931
0.184660725433661 0.164766731766383 0.714521647912054
0.194412716195433 0.152057689969929 0.712247108163392
0.185152307086445 0.164126090083651 0.733749888230233
0.193098728233934 0.153770112420963 0.734255030587451
0.188783862021615 0.159393355549272 0.743059104755293
0.193543953905435 0.153189883029221 0.74605725957759
0.184729657079434 0.16467689829662 0.771450859040042
0.192367507818936 0.154723057418927 0.768091041380813
0.185495697120497 0.163678575478494 0.782566691065041
0.192640597376998 0.154367160177802 0.794448113167692
0.187068652215203 0.161628660488734 0.797684405108017
0.184487104016876 0.164992999602006 0.81813023206959
0.192253629650091 0.154871466337978 0.818632630135372
0.193288390634193 0.15352293956867 0.830325914133124
0.185739854560512 0.163360383307699 0.846903947325522
0.188690047225219 0.159515617372282 0.84882373756739
0.194276980365899 0.150185120445301 0.854414498920813
0.185801099530385 0.156923800710065 0.862348736660026
0.190893591935293 0.145039337050097 0.872015408036113
0.195562732520241 0.140188244574659 0.869742602998676
0.187247522304907 0.143169112693891 0.884213187647173
0.188256403532051 0.135948614905407 0.895091738942636
0.191634160231162 0.130899471881495 0.896283844458307
0.19405899256362 0.123844145043965 0.90345901508913
0.191081928943268 0.12422858179835 0.909897597351448
0.18796291826789 0.121218243018812 0.922930260617195
0.19116910255055 0.11712013674284 0.922782391645302
0.1923485985749 0.111717906210837 0.929902038615255
0.189669572541502 0.110004315310824 0.939489810222523
0.197824989027519 0.0931135039792285 0.936590766791231
0.196067529297317 0.0877338984930848 0.947733192687871
0.190686864087834 0.0943552810044528 0.955107863232354
0.189209369506123 0.0919993333668312 0.961966366070534
0.19392679173535 0.0790907384568385 0.963726147938475
0.198474694930969 0.0667581195631664 0.965292874249272
0.195118174461748 0.0651489381869718 0.976539574169098
0.192945129796642 0.0683878649450211 0.98748582006287
0.20081966292534 0.0408143089549476 0.98119435129049
0.198216489933245 0.0539822404345045 1.0
0.20071419145875 0.0416154442810781 0.998736670811693
0.19614001443042 0.0371917018068278 1.0
0.198412038196258 0.00903865966293643 1.0
0.20223157878359 0.00281930131165862 1.0
0.200642049153189 -0.0169851976093197 1.0
0.199702563097115 -0.0424694829380197 1.0
0.198865038400084 0.146255310704763 0.137832287453271
0.204402153816159 0.139039201402184 0.135524245584982
0.199323483033858 0.145657854025986 0.154871194924713
0.197138240267239 0.148505717845261 0.160923689580635
0.194862661256098 0.151471310150486 0.173863162653144
0.20167888034375 0.142588240488612 0.181366189818401
0.202101024752192 0.142038091184528 0.189598076110099
0.197685700182848 0.147792254192626 0.212257451304108
0.196073789668435 0.149892936873758 0.211401376503129
0.200856928451141 0.143659429050315 0.218160579027881
0.200968051692947 0.143514610422081 0.223630837473445
0.197777873112295 0.147672132092282 0.244343738412137
0.195135223217825 0.151116100486292 0.254557863913363
0.194930618277955 0.151382746835338 0.273545852569472
0.199841346444248 0.1449829612899 0.261551083635084
0.195528652587067 0.150603373349875 0.282986324407429
0.202081350352113 0.142063731361906 0.290963862257778
0.197086857406137 0.148572681293579 0.297586409672664
0.202437729020626 0.141599289638761 0.304758252910485
0.198792730609537 0.146349544052059 0.313403582039073
0.196505847828017 0.149329867717648 0.3299244653665
0.196747718578723 0.14901465561838 0.340451959928539
0.20355995160998 0.140136780686339 0.342787506130082
0.201389519258851 0.142965343196365 0.35260141767251
0.201156113455891 0.143269523560952 0.360994062299265
0.194649616784443 0.15174895511149 0.381737458432477
0.201853845097575 0.142360221982075 0.37961678880106
0.194924834231383 0.151390284751589 0.397711045809135
0.196077585816105 0.149887989637797 0.405259034056807
0.201885198383705 0.142319361584068 0.407830153333119
0.199383502772849 0.145579634779261 0.422685411981995
0.195345673974573 0.150841835720364 0.43025786782846
0.196226273367585 0.149694216248082 0.439899078775456
0.195080113544582 0.151187920810751 0.458165678994032
0.201663428617698 0.142608377570057 0.459690289079619
0.200411072611705 0.144240479692898 0.464177541466292
0.196269400103107 0.149638012392102 0.481508499824133
0.194988375413563 0.151307476270752 0.493040569079477
0.198817609814683 0.146317120840655 0.50095123220675
0.20500872360333 0.138248704265144 0.5026686238451
0.197695726072123 0.147779188199337 0.524997473536755
0.19769753971041 0.147776824619904 0.523203395995517
0.196195996674451 0.149733673602779 0.545489463673534
0.200689732422303 0.143877323157335 0.54191098905619
0.19961444279112 0.145278667887847 0.554721508747764
0.202413671332583 0.14163064222823 0.555430195261106
0.20189398268045 0.142307913665668 0.568334162342728
0.199448882411813 0.145494430374896 0.583186205977675
0.202808224052992 0.14111645111207 0.589670184671673
0.202683943971745 0.14127841606729 0.599824707375639
0.202611133919812 0.141373303974365 0.613021179133152
0.202367064569816 0.141691381344015 0.616695958676562
0.198185069920029 0.147141462880703 0.628385808506611
0.194827393609578 0.15151727184227 0.644040771097032
0.197828933519436 0.147605588874148 0.651742519894273
0.199876268719216 0.144937449695084 0.661050389093011
0.204269106711905 0.13921259176423 0.666012444264707
0.201254272616855 0.143141600051806 0.669751452254779
0.198778415348618 0.146368200063307 0.688560282302638
0.198778120241218 0.146368584654758 0.69539067915249
0.20409013086218 0.139445837632718 0.702884853901235
0.203506746269872 0.140206119235538 0.711428500333362
0.200443609714754 0.144198076514646 0.719884081901873
0.197796770317629 0.147647504774815 0.735689103862826
0.201817041540631 0.142408185311296 0.744208159456252
0.195196572813186 0.151036148137004 0.757259333715373
0.200561560314264 0.144044360300622 0.760968720392828
0.2012494512721 0.143147883350623 0.772910856016505
0.201976164679785 0.142200811998943 0.777639248281392
0.197864741268013 0.147558923307657 0.788866558578783
0.195358428016833 0.150825214328884 0.807578439956311
0.201019230227878 0.143447913256815 0.81110392532157
0.202172726098075 0.141944648171306 0.824270170900704
0.196442097710303 0.149412948488575 0.833846634163193
0.204443447715072 0.138985386145376 0.837427164060692
0.195390423999556 0.149802353239187 0.85244664269415
0.19721972343067 0.143607339234048 0.859466714676412
0.204721814642177 0.135608020207568 0.856192304926599
0.19795119596289 0.137656558917031 0.868672338119314
0.195595757090126 0.13363201875475 0.881740175634359
0.196263975228816 0.130382972889939 0.88612093577829
0.20246750377238 0.121483505047305 0.887621965302966
0.199179235653672 0.121796283416166 0.894939622138493
0.206278767127547 0.106625359576903 0.897311620741416
0.202347201941837 0.109279198929993 0.905229496021741
0.207357109949479 0.0931608518903744 0.909888372055494
0.198906106272996 0.100775031682833 0.924696726182649
0.204218097542407 0.0870214018570854 0.925772871530811
0.207016938671708 0.0773017111678833 0.929203539048077
0.199572986390463 0.0860233607034007 0.939914223559338
0.204555204978664 0.0712745236704174 0.943064673492368
0.209204106300922 0.0640786280960954 0.938400950405922
0.204809493904729 0.0623739430120468 0.952660282524597
0.2027505096572 0.0622167772851541 0.958598277264375
0.209789615915541 0.030827164895506 0.955898541170531
0.206866917958973 0.0299749261983188 0.965003233099313
0.21000361133028 0.0183750061138351 0.9601746283382
0.21516738605518 -0.0153753044520373 0.94586805881088
0.209941935141865 0.131819617818532 0.123532292974187
0.20878519860277 0.133327106225972 0.129615532301027
0.208354278321622 0.133888692470037 0.143933571552588
0.212270064177292 0.128785540988315 0.149008359171942
0.211117232014531 0.130287941113453 0.158983275316602
0.214911250294252 0.125343480226296 0.166684088627547
0.213861242327393 0.126711877250392 0.167926181042681
0.213233152832027 0.127530419417168 0.182434974734605
0.211140126777758 0.130258104077109 0.198118432835213
0.211296237977662 0.130054656000409 0.209735327696892
0.206005071061725 0.136950238977197 0.22137901614253
0.210657269399782 0.13088737606355 0.225207443639796
0.210794313716469 0.130708776432841 0.232258971002971
0.210085830913716 0.13163208919761 0.249721160422006
0.211720306405269 0.129501999265732 0.252062815745514
0.205637302960435 0.13742952369812 0.266756885248323
0.206506852715398 0.136296304394504 0.284418699113952
0.21366438405142 0.126968427950494 0.27319746025323
0.215153263099679 0.125028082997712 0.289952337502251
0.212804776010285 0.1280886909604 0.294816158048832
0.211799800893601 0.129398400031537 0.307448060981805
0.211617340622671 0.129636186886147 0.324911206287568
0.214264636412463 0.126186163843475 0.328802865914655
0.211843565645376 0.129341364696587 0.342256872340027
0.206300765232566 0.136564882831155 0.362050419097258
0.205749483313824 0.137283327415249 0.370403692450708
0.205739329852722 0.137296559663379 0.373036180118975
0.212277665578165 0.128775634649828 0.374904713076638
0.205650428143007 0.137412418627169 0.398174401708328
0.211843947824566 0.12934086663097 0.394769297694487
0.208241821026265 0.134035249670707 0.415352381653733
0.212085697833662 0.129025811885231 0.415027255627706
0.212243104133482 0.12882067600146 0.42176618953244
0.210538070178658 0.131042719512943 0.434072925900467
0.215334550299708 0.124791824918862 0.441179901267395
0.211504748853324 0.129782919336734 0.455217358766233
0.207208978255333 0.135381276575941 0.463454389809874
0.214127910475213 0.126364348554024 0.47101129085558
0.210625501212895 0.130928777170752 0.488178881975648
0.207452216221226 0.135064282687151 0.50279259442698
0.211039846641214 0.130388791695445 0.507938404175993
0.205557971747631 0.137532910147504 0.517288179662549
0.205288488620251 0.137884107396659 0.527997113073387
0.207515803467902 0.134981414173894 0.536168146538549
0.213623149969165 0.127022165252715 0.545513750631808
0.209824453440136 0.13197272295307 0.545478175027336
0.209261744224823 0.132706059879996 0.565741076268387
0.209132669089487 0.132874273871369 0.573578266554758
0.212517396623048 0.128463211069478 0.573969992059845
0.210845248553354 0.130642396861051 0.588752781596188
0.213907202157906 0.126651981233137 0.59684854275627
0.212440295807127 0.128563690809053 0.604838409597636
0.214667111330327 0.125661648318582 0.606648420049382
0.210371248424803 0.131260125855309 0.628081830218781
0.205882282907747 0.137110259614945 0.640002200640612
0.211086336990218 0.130328204293032 0.647828876595378
0.212589220055043 0.128369608950537 0.658559773868639
0.207547026477268 0.134940723555871 0.666428027627314
0.207499889025447 0.135002154279095 0.678126899451726
0.215501698308802 0.124573993392391 0.684282394080552
0.211206944700138 0.130171025265304 0.699639838902243
0.206348244227149 0.136503007000738 0.709055380751328
0.211894210513668 0.129275363019224 0.717302459552816
0.210378066215328 0.13125124073771 0.718757618075705
0.214341172395921 0.126086420207897 0.72783439161695
0.210009229853339 0.131731917643081 0.741559271641291
0.213718144162101 0.126898366410208 0.749835224986164
0.21492956687044 0.125319609599464 0.757167866101093
0.209091794986116 0.132927542039975 0.778670815289401
0.206922885723007 0.135754119623049 0.79054798756265
0.209840931562822 0.131951248245487 0.795960362957538
0.205147225604029 0.138068204943643 0.804234517901576
0.205158165237734 0.138053948135429 0.812778472850595
0.209883658724929 0.13189556512372 0.818585738682151
0.204950814691433 0.138324172628441 0.832947494037667
0.207158455265982 0.135447119417575 0.841236188952672
0.205315958640002 0.136950525640068 0.852293051318957
0.207599373814582 0.12934323731476 0.860824444537935
0.215561496738914 0.118632378306855 0.857457631234893
0.207277588481804 0.122996244615697 0.873288356474391
0.214355716724156 0.110959998946136 0.869712739216093
0.212165293240973 0.11198473064782 0.874649593424596
0.21338757036276 0.102447818810159 0.882275982259263
0.208501990665879 0.102887826808641 0.895424378558135
0.211956444586057 0.0896070862451683 0.901145786325697
0.208445821562895 0.0921600492498098 0.908003705108
0.218958705865239 0.0761170698057708 0.897191436060676
0.218878460866555 0.0689751285365331 0.90568582466432
0.210014025237932 0.0721329394152783 0.926810233123215
0.218583331269485 0.0564513475584038 0.919396932170081
0.217323391822475 0.0473080837976696 0.926787951041716
0.212902001997947 0.0568074431298147 0.936300277370628
0.221023442310656 0.0205483905342562 0.926256740935574
0.220229938095397 0.0165393683101105 0.930220646947428
0.226200293080936 -0.0219393860253921 0.910176804533114
0.217882396295596 0.00713716047502104 0.940976744779806
0.215779031274208 0.00703845718828836 0.947325823446626
0.22588818368833 0.0995897957882837 0.0856900277617477
0.217988740320978 0.118660739100943 0.12195841238882
0.226412804612789 0.0983232488373499 0.108764993063421
0.223545619109068 0.105245246966272 0.131603891866956
0.220053429262088 0.113676139057234 0.148571823718666
0.227093181690143 0.0966806732696737 0.133428496021674
0.2261029840134 0.0990712219302963 0.146569192479444
0.224488874004785 0.102968028204258 0.159575453539018
0.223357320224472 0.105699840687245 0.173060484492364
0.22769114438207 0.0952370636290298 0.168705334717687
0.2169810669486 0.121093477822979 0.211236438939942
0.225568937814519 0.10036052350657 0.188380824912208
0.221965294415379 0.10906048827473 0.219474722397104
0.221437233222709 0.110335340767837 0.220485700344118
0.2195111118126 0.114985409198898 0.234932873212514
0.221143600565905 0.111044232710247 0.245193187373064
0.22319175207368 0.106099557562383 0.250053949414876
0.218184096145929 0.118189108418857 0.266692141541985
0.219429067581212 0.11518348149503 0.278620763608365
0.226352659582483 0.0984684517852228 0.279264619847879
0.227339174259317 0.0960867946729304 0.271627991538261
0.223996246064614 0.104157337258623 0.297168658283267
0.216815888485865 0.121492253907927 0.321881709342225
0.22107559339616 0.111208416541786 0.318849727510459
0.22459131424313 0.102720715591513 0.322072500150699
0.215553972471524 0.124505868377188 0.362316749429633
0.221376562635334 0.110481812522713 0.35578491320836
0.218565390849211 0.117268581574932 0.36488773192479
0.226504586223327 0.0981016684284132 0.361015294191768
0.218834502359796 0.116618888916288 0.389373089366579
0.221707682418614 0.109682418651149 0.387965006218535
0.225066762635101 0.101572881635408 0.394426333222031
0.22495336684197 0.1018466432971 0.401848024161922
0.218934713500061 0.116376957822358 0.425674440635628
0.221352218555563 0.11054058433026 0.429423506951844
0.221521237287892 0.110132537014376 0.442534826846675
0.215886057783743 0.123737063799701 0.457385701447228
0.22280884999181 0.107023964961495 0.451727854791275
0.219058029752513 0.116079246053229 0.472384248440054
0.226403981891003 0.0983445487719429 0.458236053011234
0.223024517708467 0.106503297034974 0.474594076365127
0.218929771330884 0.116388889274213 0.498325989221174
0.22309214414234 0.106340032381144 0.505796262517137
0.218127614029722 0.118325468309835 0.522952162514289
0.217739970953653 0.119261321481442 0.531626509630885
0.220751358131948 0.111991189714044 0.542317867734937
0.218969174029119 0.116293762745741 0.548035458276452
0.222950856424498 0.106681131105755 0.550675854620634
0.218438105514827 0.117575875555493 0.573539763686095
0.224478885538239 0.102992142495659 0.567664892094316
0.217979850562401 0.118682200876665 0.591373788574337
0.21718694298532 0.120596449102962 0.603161275829564
0.224929307642134 0.101904727343645 0.59191458151009
0.222157064998518 0.10859751313205 0.607499685889175
0.218716023620165 0.116904921896357 0.628836755380352
0.223212892036951 0.106048521176345 0.627757206994791
0.217317315878976 0.120281701094932 0.646407295132217
0.216922513672561 0.121234837936114 0.656913174592765
0.217878719086453 0.118926353857483 0.665724711755048
0.218051445510599 0.118509355381727 0.673815651370037
0.219034262586588 0.116136625067544 0.683839555595426
0.215558686645205 0.124499724746435 0.705075247937938
0.216232403148028 0.122900912123978 0.707925302690319
0.219202987045718 0.115729288190008 0.713526463858049
0.215860628867796 0.123798454633457 0.734809304290793
0.216744162530407 0.121665415682367 0.732512788326428
0.226228040693693 0.0987693083966682 0.727619501396549
0.217337208530834 0.120233675985025 0.755999179832045
0.216389628517076 0.122521336505673 0.767398580269282
0.224078191295014 0.103959503972018 0.760010820840492
0.225978431234136 0.0993719189392276 0.772727403629303
0.22768160745777 0.0952600878010195 0.771287971526644
0.218813650497293 0.116669229765543 0.80257036083323
0.219769506074136 0.114361590268259 0.80522977905964
0.225252180594985 0.101125243081948 0.806789259431246
0.21777410700122 0.119178909772439 0.830896317788475
0.219088377148312 0.116005980958707 0.841705214254413
0.22618976297191 0.0988617189917334 0.834314927264738
0.224528813632674 0.10287160541293 0.841317138628755
0.222052065852343 0.104975798521384 0.855126617696206
0.218152305631103 0.102226307798561 0.869212403134807
0.219785336989754 0.0934050515887529 0.874861807641318
0.224498461496166 0.0858130921353629 0.870477169967234
0.218774062221787 0.0885203961911283 0.883345101657695
0.229977851049057 0.0691457924966436 0.874459247922454
0.220143971014233 0.0761655258493344 0.893821852193101
0.220190900858953 0.0698720733360297 0.900978203226907
0.231139270162442 0.0350064515839407 0.890198937837831
0.223641108986786 0.0458072024522824 0.908427583881888
0.230053380734106 0.0209015325453283 0.899027449581944
0.222733550228543 0.0365743983699144 0.914796825308154
0.229025080309222 -0.00608521760724523 0.907964165456514
0.233314753093438 0.0816604712085663 0.0681233525561565
0.227670681390232 0.0952864656614506 0.0888663006415289
0.227910387361731 0.0947077642540779 0.110065866644353
0.22866446388693 0.0928872624798745 0.10977495951277
0.229678301749455 0.0904396413621198 0.115133511910078
0.235670633982463 0.0759728716149455 0.111612805040893
0.228416442631251 0.0934860387590905 0.150397485113522
0.22967869660316 0.0904386881009503 0.15032538011951
0.237604213557207 0.0713047975816719 0.138432189868273
0.237766545376936 0.0709128939008775 0.145874698618566
0.236358855960818 0.0743113567808779 0.163795268704466
0.237287593302063 0.0720691864957616 0.177090866952985
0.236468972661926 0.0740455115476198 0.18836424571147
0.233436678993521 0.0813661160469816 0.201871518040637
0.237307801034159 0.0720204007148701 0.19861635111035
0.231355441444978 0.0863906679631946 0.221364040388735
0.230080816524241 0.0894678847337762 0.237021097837238
0.235766029968888 0.0757425653307234 0.230059253687087
0.231347285295084 0.0864103586508839 0.249411124492977
0.231451476176442 0.0861588196120338 0.267286851997929
0.232487048223497 0.0836587275312189 0.269457446922796
0.236106522694522 0.0749205431746076 0.264570173322489
0.229489793756474 0.0908947399153895 0.290063377266833
0.23490205774383 0.0778283787939719 0.297068182447278
0.231098240783384 0.0870116052886662 0.312798533288554
0.238012197809051 0.0703198364676337 0.302371543910376
0.237761805171449 0.070924337769251 0.310420564233186
0.235911838039984 0.0753905535079777 0.327686689599037
0.239562377344456 0.0665773720091463 0.331648130129554
0.232971380689297 0.0824894455235875 0.360495571941994
0.231767853543186 0.0853950170824123 0.367859586952675
0.231222225530396 0.0867122796309019 0.377999614606946
0.233246318804924 0.0818256861960286 0.388778588700283
0.233039472715476 0.0823250568304956 0.397795068376962
0.228245562863765 0.0938985790112905 0.415571807035032
0.2394223368093 0.0669154597684027 0.396512498052096
0.236333944057819 0.0743714994349639 0.416108846549405
0.231887614173854 0.085105889343617 0.432999110788987
0.230818613333645 0.087686685670237 0.448487829581069
0.230639655897297 0.0881187271401562 0.450600164243991
0.236905064367158 0.0729926930384099 0.457458587449159
0.239476659664759 0.066784312794007 0.461243522332721
0.232128423742544 0.0845245236169359 0.484279009331486
0.238994334912471 0.0679487477524483 0.480263739140101
0.231214858264855 0.086730065783289 0.506901271432265
0.231598181427823 0.0858046418044804 0.512009522350759
0.238263251911781 0.0697137382479333 0.514553156440001
0.23475993094211 0.0781715032462608 0.524227067886884
0.237368448592919 0.0718739845559883 0.53456224654628
0.2290257820468 0.092014963277984 0.554363986977042
0.237056021316717 0.0726282507234488 0.551077232708697
0.231630413288195 0.0857268272100277 0.576868098571304
0.23327390281568 0.0817590925031569 0.574981265485807
0.234618790397605 0.0785122466630054 0.580663248710751
0.236893824726764 0.073019827930684 0.588218420853863
0.231113710354451 0.0869742584403903 0.613742338310227
0.229640497310997 0.0905309093501632 0.626023644727892
0.228040882724322 0.0943927205798823 0.643710962873517
0.230473733791107 0.0885192985392167 0.640341803687335
0.227761355388174 0.0950675592658665 0.654150040612696
0.233952662587378 0.0801204214567286 0.654816803264794
0.229153077710503 0.0917076443602428 0.671103018350555
0.232380450421926 0.083916077389493 0.679862901831822
0.227622278251168 0.095403321176242 0.702353436959939
0.231410354851382 0.0862580952726973 0.692654455745886
0.231918299933203 0.0850318073672231 0.699682655267893
0.236495438195307 0.0739816180979956 0.710434433880917
0.229507517127356 0.0908519519130355 0.724619844180876
0.234918631219617 0.0777883668839516 0.733242961433228
0.227652819049812 0.0953295891659487 0.757295966588378
0.237517727503072 0.0715135933865193 0.747011647018777
0.233864782561999 0.0803325826058624 0.76286129638314
0.231911227666284 0.0850488813299361 0.776634434242689
0.227994542224807 0.0945045964422994 0.791937557645685
0.231405280930116 0.0862703448022311 0.795845452872169
0.237170784900113 0.072351186923949 0.793351463366308
0.227524389610474 0.0956396452602071 0.823620980347562
0.230517239752324 0.0884142658576044 0.826366723812991
0.228804609897109 0.0925489200813886 0.834925626657553
0.231561063752374 0.0858942517999518 0.849067077730507
0.237039357552202 0.0726684806097424 0.844071993015438
0.236295371467738 0.0717785465213608 0.853749657028081
0.234377292813054 0.0697523978942696 0.861457943856184
0.238001993971125 0.0553181932201451 0.861588491861514
0.236683825100233 0.0499261382765587 0.867672630975545
0.230666018456599 0.0560701023558938 0.883299446258052
0.235844859568412 0.0342630994701563 0.87637576210702
0.245096019643913 -0.00529765569636211 0.860062400930159
0.236300973182455 0.00839602526350099 0.885223816038646
0.248120563335956 0.00618249021336081 0.06083769563533
0.247261748893943 0.0127058335433539 0.108315800014
0.240263208501574 0.0648854159246983 0.180047032478463
0.241437074593391 0.0569486273170516 0.196312418590355
0.246044454340922 0.0219521036508591 0.232005103213948
0.248817265865875 0.000890509106386673 0.225644845285578
0.240338392028537 0.0647039068342375 0.312793033528933
0.245672594627568 0.0247766585979206 0.299914327554
0.244635542948096 0.032653848157381 0.336926280695039
0.240111663656033 0.0652512775461119 0.381082132036542
0.244976934603082 0.0300607210899709 0.381240403796445
0.242414504374611 0.0495243110364479 0.440736965870867
0.242255752246266 0.0507301531682312 0.455887272726139
0.242604416693526 0.0480817837589948 0.52035478151367
0.240094407655465 0.0652929372167152 0.549607601043703
0.239896418071905 0.0657709263545545 0.566214715363108
