ply
format ascii 1.0
element vertex 872
property float x
property float y
property float z
end_header
0.179767418158308 0.214535964270218 0.285971680028897
0.180065294921699 0.214307395390578 0.291156281389649
0.181000929919848 0.213589457405599 0.304252439369038
0.174695597299122 0.218427709293666 0.319727910421138
0.179046634842077 0.215089040761248 0.3271528973366
0.175271803586747 0.217985570658528 0.333024187552542
0.180059546529261 0.214311806287232 0.344796909429331
0.173556939898643 0.219301431847116 0.35307526528763
0.173713540348327 0.219181268095744 0.374864625559049
0.178777477420751 0.215295572514646 0.369268154259505
0.174183488193513 0.218820664431191 0.387271729440204
0.172604762089737 0.220032063577245 0.395406885546277
0.178790655618714 0.215285460527696 0.397788045753205
0.179459850550895 0.214771969196015 0.410633523871353
0.179881996283104 0.21444804538283 0.417614098124897
0.17727977154915 0.21644480264998 0.432080946116199
0.180228555504012 0.214182121139695 0.43525869919882
0.178638158780299 0.215402475467393 0.444261096811216
0.179185655085238 0.214982366776795 0.457844567419202
0.179060167098119 0.215078657095978 0.463541188688474
0.178372792396107 0.215606098255687 0.472460477104597
0.179807481010263 0.214505222962698 0.490038327773275
0.174093908511551 0.218889401338734 0.494699916494624
0.178083522035276 0.215828063210375 0.499909839412896
0.175819596606478 0.217565234290663 0.518179496476849
0.173131099891139 0.219628190377436 0.528530928181384
0.177156605035442 0.216539311639964 0.527929597964288
0.177943598245106 0.215935430510832 0.539555321700245
0.171742275706279 0.220693872656036 0.559205443984162
0.177905327099915 0.215964796993398 0.564916219911269
0.176259058464479 0.217228023346831 0.575244947852123
0.173109718288601 0.219644597058108 0.576007490124131
0.174524705919991 0.218558838860887 0.590802682342943
0.1793697608012 0.214841097492296 0.594941158061475
0.180401929208809 0.214049086816998 0.609039576242681
0.175919127908067 0.217488861236804 0.620315941120367
0.177426196696975 0.216332446682334 0.626182829863494
0.175935288852204 0.217476460508217 0.636536575257886
0.180036991544018 0.214329113336122 0.642365242026646
0.175371126920898 0.217909357183699 0.650805778394459
0.172178047544577 0.220359493163908 0.666412831639629
0.180656098684257 0.213854055718967 0.66226481723575
0.180955145686438 0.213624588883519 0.68135798801081
0.171665210423517 0.220753006927335 0.688433159241306
0.175737750106537 0.217628037318939 0.695413269853458
0.172019347156751 0.22048126825449 0.710399631001773
0.175598463101848 0.217734915996712 0.717275068687615
0.177913887535377 0.215958228340239 0.725024132740502
0.178440629675515 0.215554044880405 0.739788072403032
0.171389318178617 0.220964706492622 0.746680466768442
0.172046706389349 0.220460274776948 0.756136353501406
0.175828809431757 0.21755816504119 0.765708767773435
0.180663522562457 0.213848359176868 0.767937137400763
0.175200468172842 0.218040308246817 0.782763369099585
0.171341587269773 0.221001331707138 0.793324131537186
0.180315712984233 0.214115242852917 0.798346567314122
0.177765897235314 0.216071785291436 0.807494959668002
0.175833122762447 0.217554855306144 0.817164333202875
0.171762195140989 0.220678587936198 0.828964497735027
0.172196890896174 0.220345034151684 0.840383416226155
0.179253195463556 0.213256249459237 0.84883337986096
0.178854892439331 0.212128172082798 0.851127880578498
0.172457393584353 0.210565360904789 0.861485313882941
0.176549254101795 0.204580152529251 0.866039108630622
0.177443581310604 0.200498556274226 0.871473028796945
0.172994757106582 0.198933917917363 0.879440357693363
0.179772894083237 0.192618727584193 0.881223430112025
0.17905136161389 0.185997949159523 0.892705375376776
0.176441654368646 0.182637363076029 0.901288447360606
0.181226746756687 0.175733974501152 0.904415046603025
0.176492540498583 0.173178026333738 0.915130440296226
0.17528191959816 0.171233067438786 0.919456381505824
0.181689424596505 0.162898800730515 0.919436541002968
0.182153870788438 0.155911487087134 0.927273864594192
0.180229913185938 0.155738499423101 0.93056539692574
0.176704433395966 0.153190843609267 0.939336163572977
0.182504904925766 0.144538726134239 0.940678148307652
0.182346064804948 0.138975499703975 0.947764158127991
0.179882815339313 0.135417585382088 0.956075559717599
0.183569724231566 0.130379784561699 0.956361601527864
0.178887530848618 0.128392121363941 0.966295883585835
0.177942388276608 0.121731658828529 0.975987728073916
0.186636671044273 0.108681698153385 0.978099140366669
0.184809822017665 0.105115671439811 0.98467946466855
0.179019879140446 0.105629039021978 0.994037794632057
0.186180809259998 0.0910369026834603 0.992992755017182
0.188327000759707 0.0794221930073355 0.997959112020516
0.18795424431105 0.036625627554757 0.974358974358974
0.183891415291458 0.02255734012336 0.974358974358975
0.193529923141529 0.0133231947204506 0.974358974358975
0.190212306515762 -0.01057098873483 0.974358974358974
0.187185508502722 -0.0271688083375414 0.974358974358974
0.190029939082756 -0.0410610762423431 0.974358974358974
0.194573687231858 -0.053393870968298 0.975169463119362
0.189188860138733 -0.0663939935675555 0.975848635305287
0.193127498291044 -0.0568852799229649 0.991002388730514
0.190392889561959 0.206382753302199 0.198672221206831
0.187890102956573 0.208303209009663 0.205020049752563
0.190027612279989 0.20666304041875 0.22015717816094
0.187781902452558 0.208386234176507 0.228725285986958
0.190137028722736 0.206579082229302 0.236944350216504
0.185772903859714 0.209927793015608 0.249531894942527
0.187889374002079 0.208303768356119 0.255380102831042
0.186879339349277 0.209078795204009 0.259636399149614
0.184951732691417 0.210557899814793 0.278461269104748
0.183264771620817 0.211852350571934 0.280061578801505
0.188754866197908 0.207639652836375 0.294097523045376
0.187043729871392 0.208952653919822 0.309325605724988
0.1840835755738 0.211224060200946 0.316701901035683
0.18572474790664 0.209964744378034 0.318227092584611
0.187260602957131 0.208786241348168 0.328776765604494
0.181308463691999 0.213353478442513 0.350931375434142
0.185005335829546 0.210516768680265 0.351066807040797
0.186176248611492 0.209618295702109 0.364761225119065
0.187711516509804 0.208440243209956 0.372339641226393
0.188850339363717 0.207566393699622 0.382922691001508
0.189721856294109 0.206897655238452 0.380702155510905
0.188819361482292 0.207590163864069 0.395256650311879
0.184852795267703 0.210633817170129 0.40582911291509
0.183126959149098 0.211958097800764 0.421997654650727
0.18347709653664 0.211689427933803 0.425119332653913
0.182202460591614 0.212667490494269 0.436851315863153
0.187288288397759 0.2087649975624 0.448868484576162
0.182845730824201 0.212173891884242 0.448395085299407
0.190728472988055 0.206125251082636 0.462982386361634
0.186592052080246 0.209299238478839 0.464281550906352
0.187368623982553 0.208703353900093 0.472005071812186
0.190398971298606 0.206378086621535 0.488782563780211
0.18187578666391 0.212918156215265 0.49637229511365
0.187044214989543 0.208952281675572 0.504529302323787
0.184346142847984 0.211022585245305 0.517073299339904
0.181989103498429 0.212831205149946 0.52369892571136
0.188095972571272 0.208145239698299 0.535870958531936
0.188849450135622 0.207567076028337 0.548634817746889
0.187528776619878 0.208580464459277 0.55776912574931
0.187505009826508 0.208598701361248 0.561577049835819
0.18994525006269 0.206726239170873 0.566793460645231
0.181816266253706 0.21296382783235 0.583237730429389
0.182462046673084 0.212468303088253 0.58843322497732
0.186587999231145 0.209302348339332 0.601704243833856
0.190713305157117 0.206136889768664 0.605132136800651
0.187461826887621 0.208631836795677 0.61776994263489
0.186450464612549 0.209407882363961 0.621652769691825
0.181330378776077 0.213336662407057 0.646339159038984
0.18246222224509 0.212468168367115 0.652441189238268
0.187845042006269 0.208337785492935 0.660634350556158
0.190584325682163 0.206235859200692 0.661052006637388
0.190056687848492 0.206640729950347 0.678445607494225
0.18663411902236 0.209266959378853 0.676207684584362
0.183216109540215 0.211889690299671 0.702032411946734
0.185390503422705 0.21022121919114 0.704341848039371
0.18879202001769 0.20761114370775 0.702852287725725
0.182434690047589 0.212489294565296 0.726408662734119
0.190247369808324 0.206494414536447 0.720820876111673
0.181289839769627 0.213367769080771 0.743866435117066
0.185381039595032 0.210228481041523 0.746736700692642
0.183010270070618 0.212047636479884 0.762972847718761
0.189379457261383 0.207160387256921 0.766240897476791
0.183855078513092 0.211399392162302 0.778472815930774
0.181974721376902 0.212842240939938 0.785135688877125
0.190292187362559 0.206460024817546 0.796658436934508
0.190612225745299 0.206214450729281 0.799808217659544
0.182656987279252 0.212318719900087 0.820891686898533
0.189847067725964 0.206801577127585 0.827393675379526
0.184710560598328 0.210742957670567 0.836363000815328
0.187319056679859 0.208741388229171 0.844162405344397
0.189819969127838 0.204635194036248 0.849654199851332
0.191139247427106 0.202161628906728 0.851992777538051
0.185586416639562 0.200792617093178 0.861002777941419
0.190604449587068 0.190743094087354 0.870923728523082
0.191520106046687 0.189817234764142 0.870646922382494
0.189304222720391 0.185736231813929 0.879204807529015
0.192826584521416 0.179839496777122 0.880808986193744
0.192653103759394 0.171190018450523 0.891708433129845
0.185424649501441 0.175572187052956 0.897895409793104
0.188640769734648 0.167731938621948 0.902376387395375
0.191286407104391 0.160278204525795 0.907295714067684
0.191301239282686 0.152938899999203 0.916284854113597
0.1926724117471 0.149236084650688 0.918637595962583
0.189948163657743 0.149075452073822 0.923194739433743
0.193856634170552 0.140511734731076 0.927456121488823
0.187815360270361 0.135783870383865 0.942930519679499
0.192294661012335 0.131075593100589 0.941543754513908
0.189828080274296 0.124736374486581 0.953276009279595
0.188214956519026 0.121117610838808 0.960301595844607
0.195846592029744 0.114769279375374 0.955883873233635
0.19724971510513 0.10127736958289 0.964458253239429
0.190065953774211 0.107633703559143 0.972939746301916
0.194508695687619 0.0917891723224817 0.976891315072207
0.196562964855702 0.0794483785385115 0.982589504038126
0.19002399431283 0.0887669788885174 0.987582514094267
0.19028204552588 0.0765547508506181 0.996529071348387
0.195758833308827 0.061719627333364 0.997774251740395
0.199433752981019 0.0522169012874001 0.997639933352851
0.19451704591125 0.0151294748651052 0.974358974358974
0.201357019344607 0.020197193940322 1.0
0.197420523972643 -0.0287766246667163 0.974358974358974
0.201298112248253 -0.00474707799910499 0.997600310522862
0.203614506933564 -0.0184709582450459 0.998163900817697
0.200023827234865 -0.029265619904035 1.0
0.199719427517482 -0.051441139371624 0.997272846267415
0.19200901203353 0.205142658913883 0.193991895393587
0.19678215596797 0.201480096755479 0.198670438610438
0.191748036319259 0.20534291262265 0.211924489376722
0.196224288897569 0.201908163214302 0.217035889257989
0.19325286649279 0.204188215818175 0.231492679391187
0.192237804655444 0.204967100160438 0.245008459380484
0.193199952353494 0.204228818265302 0.247466405635845
0.192997921536882 0.204383841963292 0.25585185556274
0.19475814441211 0.203033175446272 0.263132944453906
0.200367638897836 0.198231939274267 0.272965015860396
0.199100963892818 0.199700812854803 0.283262837969368
0.194394138723379 0.203312486835013 0.298607758433472
0.199522191181744 0.199333748189289 0.309474981914012
0.199881637687376 0.198865308382971 0.309253292402251
0.192413097058432 0.204832593568838 0.322031495141216
0.19468403048427 0.203090045063289 0.341438601607897
0.191934362693866 0.205199939366841 0.341264392480984
0.197449655899009 0.200967906043918 0.356113164762062
0.197061459505699 0.201265779613141 0.3641822095645
0.196622699847715 0.201602451739949 0.36861068151141
0.198408425875017 0.200232215966064 0.378291184147959
0.197727919501596 0.200754386871881 0.394351419274473
0.199004184408539 0.199775074364973 0.401382224617156
0.194104575597244 0.20353467643642 0.406308822359565
0.191845219991131 0.205268340968432 0.419619736474934
0.200499954151032 0.198059502679088 0.41868949507309
0.191864758149024 0.205253348812585 0.43831116352385
0.198590319534555 0.200092644052158 0.442655235477807
0.194077772321131 0.203555243313548 0.459663519885369
0.191230094247546 0.205740343552485 0.472381391314061
0.194773322210656 0.203021529111829 0.469476651495372
0.196643272730659 0.201586665611645 0.48177189391907
0.192473122763926 0.20478653422504 0.491662393332802
0.192514789014498 0.204754562586488 0.502003239834396
0.193420071882644 0.204059914610004 0.508861413785224
0.200410693323021 0.198175829654953 0.518095940109994
0.197360732363831 0.201036139472327 0.532794942347463
0.191803966174651 0.205299996135173 0.544664551019328
0.199257650915228 0.199580582673842 0.54732003170216
0.196211051504976 0.201918320622889 0.552821136650013
0.199440374180821 0.199440374180821 0.568572949791166
0.193017624880113 0.204368723056278 0.577599193004003
0.19837262927828 0.200259683660818 0.584602363300914
0.199388443681712 0.199480221854288 0.587311137015438
0.193855245198919 0.203725994379978 0.598896267846621
0.191433652282212 0.205584147978866 0.615164164902513
0.196490289447222 0.201704053813736 0.62609723987906
0.192573289892587 0.204709673283909 0.639178075221801
0.199735118622371 0.19905625574609 0.638720587644643
0.198119568887351 0.200453863728366 0.644802957978453
0.200665775389484 0.197843400233781 0.655857734005434
0.193968441660591 0.203639135679993 0.6700188480665
0.198911951984011 0.19984584679348 0.676134570558749
0.193050322683881 0.204343633148998 0.686621313533926
0.196177334758568 0.201944192392355 0.700660231438884
0.195510646686216 0.202455760142835 0.702051679765441
0.197393878569228 0.201010705494377 0.710824776181619
0.196627639947839 0.2015986610678 0.724178908886049
0.192123494548685 0.205054813390352 0.734452605556536
0.196700777628805 0.201542540551357 0.74284644857134
0.192594178744859 0.204693644703814 0.753370315704794
0.19792486591776 0.200603264571574 0.758135358725148
0.200076796814135 0.198610972057236 0.771603872966075
0.19879146750722 0.199938297784155 0.77737931842351
0.194330970626963 0.203360957420172 0.782791756268196
0.19373420934926 0.203818868453934 0.793262652429897
0.200102180152834 0.198577891846196 0.811783169606277
0.197442696175235 0.2009732464278 0.817599859116866
0.191494297297317 0.20553761342209 0.82865972064986
0.196856950879041 0.201422704601651 0.83452471328393
0.197281510219706 0.20109692876156 0.843200944678289
0.193669819657254 0.200059023509909 0.852250168045214
0.200947304234907 0.18710771646816 0.858887016875804
0.197082269974733 0.186647962830154 0.865637201888972
0.194061195977205 0.184916466110431 0.872598451473435
0.193232784436239 0.181174596820885 0.878519363212211
0.192992863536851 0.177133068677067 0.883866445230413
0.199232618675961 0.167439847244218 0.885783906878517
0.197337306387503 0.165766555230905 0.890872012269714
0.202105690852865 0.154812806194146 0.896692217276849
0.196146696042879 0.156111328604837 0.904634359562992
0.198083189085373 0.149482889633008 0.909675113424809
0.195814912421674 0.146315760847744 0.917194584972339
0.201199244836441 0.138162878174799 0.918589483321139
0.205333093691273 0.128760089531878 0.923520573992797
0.197323726410063 0.134499552418884 0.929290526047151
0.199638818578445 0.123485904122034 0.939110533917636
0.206419281352685 0.109989131748138 0.940643672952818
0.197307161612264 0.112566594884791 0.955636233357517
0.203377040734724 0.101119201834879 0.953160837155685
0.19911772528637 0.0991649339524685 0.962607575927936
0.201082707330722 0.0936547849777038 0.963199108632176
0.204596308213096 0.0793051060420649 0.967728337710387
0.206884346325757 0.0762005558747684 0.965860736789767
0.201437848408495 0.0702978827065577 0.980568086561416
0.203669220997686 0.0597780897497036 0.984530447129239
0.212661862656535 0.0350672482901315 0.975699303301514
0.207189226884194 0.0368337475060478 0.986179446778673
0.207836136009984 0.0294253818436888 0.986836288212073
0.210922183910078 0.00778703145900957 0.986361678155513
0.213008831000066 -0.025072552261172 0.977637020004131
0.209437312833385 0.186412110078063 0.177496385871436
0.201207247624829 0.19713773987799 0.190310240772608
0.200723197959971 0.197768565682948 0.209037316929353
0.209408783891063 0.186449289719557 0.204909377936761
0.204130223697483 0.1933284432959 0.215583457342222
0.208471446163427 0.187670852029135 0.228058648628088
0.208527407720175 0.187597921508476 0.240363008679059
0.206408630520162 0.190359165714931 0.249982691904609
0.20882416477335 0.187211180187209 0.24826035702238
0.210482813160296 0.185049587524719 0.252767812461106
0.201098740251152 0.197279149440507 0.282933821238399
0.208612444280309 0.187487099705691 0.277314718166719
0.205958981743403 0.19094515940967 0.289592664560683
0.209240663901753 0.186668387955308 0.298124137937744
0.206048369217848 0.190828667384959 0.308700625163671
0.201305903246046 0.197009169369248 0.332024804294492
0.206650065912342 0.19004452098594 0.328788672811593
0.210957743141744 0.184430646722572 0.32949058473838
0.20445588737499 0.19290403012836 0.359173810719724
0.209517105744237 0.186308121932068 0.356799390472429
0.205341176885183 0.191750298376366 0.368565261269892
0.205724811880414 0.191250335516671 0.384630278439376
0.202177876577513 0.195872791599239 0.391508878493386
0.203098155038108 0.194673461359311 0.398771242110679
0.207989130141021 0.188299418507261 0.401647976980258
0.208311324252508 0.187879526966192 0.40802232696482
0.206618858710657 0.190085191002992 0.424923924299272
0.20655188575203 0.190172471861968 0.434424251885401
0.203476860977745 0.194179922169931 0.446260879941354
0.210331830219539 0.18524635232398 0.448214291638202
0.209455467310918 0.186388450702311 0.462881674593306
0.21075899414214 0.184689661461684 0.460531722546707
0.201430961457525 0.196846190334966 0.481214702582146
0.204626528014876 0.192681646916824 0.490196039006938
0.207864499502169 0.188461840318047 0.499339599277681
0.203107327912305 0.194661507036917 0.514235882938089
0.204040683871504 0.193445133868996 0.522372738356293
0.211421250245191 0.183826592504869 0.518819508634574
0.210058728354536 0.185602265603822 0.53147265049621
0.203126137409425 0.19463699402302 0.54800689019876
0.201422502479212 0.196857214290132 0.561436198001049
0.209743294657971 0.186013346800634 0.564689927282778
0.204384393746731 0.192997202438704 0.580189812217232
0.205451592605122 0.191606401808582 0.583248471673943
0.205360898122446 0.191724597159582 0.594329285995083
0.209618775220966 0.186175623690351 0.595181581333061
0.209854136382132 0.185868895053339 0.606414793736151
0.208817079272207 0.187220414192078 0.614050426792361
0.205678453991738 0.191310750293426 0.631675689122775
0.203355819643348 0.19433766630808 0.644592356645091
0.20615039661145 0.190695702696892 0.650648054586355
0.207751439717423 0.188609182698176 0.658838339439915
0.205863321784778 0.191069825894915 0.667248465007167
0.202571009062997 0.195360451369267 0.677665948789865
0.211215792236023 0.18409435059547 0.678524725459086
0.200710761092062 0.197784773724767 0.701589145241916
0.208417989371579 0.18774051827662 0.707344437548368
0.205454367739416 0.191602785183157 0.714931725191105
0.206008829978534 0.190880195924856 0.725481546003792
0.202690889939559 0.195204219569213 0.739479102770768
0.200497930839217 0.198062139510383 0.756970768989209
0.204381458035944 0.193001028331489 0.750036029785289
0.203918505051186 0.193604360407659 0.763358683655007
0.201851508677562 0.196298122527335 0.775021646969267
0.203751149032324 0.193822463017738 0.781755772070549
0.20399890310395 0.193499583625369 0.792554295259752
0.208242671861139 0.18796899650453 0.797409421963067
0.200875805145144 0.197569684127154 0.820647605145972
0.205789203172194 0.191166419151435 0.819297932356078
0.208145241244551 0.188095970556159 0.818610657818663
0.210406262259809 0.185149350600548 0.830099389061457
0.20252094940026 0.192385460070952 0.849887336591493
0.208379526730035 0.185112556189271 0.849442614867745
0.210382816708792 0.17720521086738 0.855947000874916
0.206761916229966 0.175806089042288 0.863460045798419
0.20979472221237 0.165284233983884 0.871527489426177
0.202950244817233 0.170091779577916 0.876577574964295
0.210381535176388 0.155973561252443 0.88202212934934
0.2038886779572 0.160180201730456 0.887247411349523
0.207419792715027 0.152186042192992 0.891413279520578
0.214226394725266 0.139157837902856 0.896519015439605
0.211050720453288 0.13840388219317 0.90252723851408
0.205678317588445 0.136142996854902 0.913901655321786
0.213657877532871 0.129170355422278 0.909693785666615
0.213760399544106 0.118828096487016 0.920138580630199
0.208609157472646 0.120930165961167 0.927892938815934
0.216904232993782 0.103903491673819 0.92580077270599
0.21312434067916 0.100866489902376 0.935189848362946
0.216299294974451 0.0893548500353592 0.938159329821236
0.216113008091179 0.0857386644646074 0.941298104362381
0.214384215723658 0.0867529276812804 0.943737078434143
0.217857844826389 0.0710572255190924 0.949379894195741
0.218286070319073 0.064148660228532 0.953915022265303
0.21965745414329 0.0479355256204414 0.958319838627638
0.211207408381286 0.0578248317292202 0.971989361296678
0.213877696667517 0.0499319566929049 0.969353683305283
0.218067885169096 0.0281886628023534 0.966698424195062
0.216322280704806 0.0175600958572582 0.972988187891835
0.220425909578835 0.000290428198479219 0.969328119903341
0.228361840451295 -0.0526526453604418 0.93966902482125
0.214135338359845 0.180289524009725 0.166451510161168
0.22069518991403 0.171740559022238 0.168405537224803
0.212670627519671 0.182198372340515 0.187256661750993
0.212937144697089 0.181851040392606 0.207810195399308
0.218155301126778 0.175050606533981 0.199141446295322
0.214059270056537 0.180388658152664 0.213362864591796
0.213549364684982 0.181053179770624 0.224532316952067
0.214284241619115 0.180095469504146 0.236084271389636
0.220521225955138 0.171967273267426 0.233383447711602
0.214889263534327 0.179306989593116 0.258540784554079
0.21513272331079 0.178989706635163 0.264246393162006
0.220896169124662 0.171478637815529 0.269008802240796
0.216620236491009 0.177051141716267 0.288309259021738
0.217525742606242 0.175871063171631 0.285703228563634
0.216317629699738 0.177445506564644 0.295223218630623
0.21330842377227 0.181367180081425 0.313719570660081
0.218796465992996 0.174215024212152 0.317428378809118
0.215418930190248 0.178616714567972 0.332910725017715
0.219061228945369 0.17386997841483 0.333921718323395
0.220994767332419 0.171350142129465 0.339940042013156
0.216057293345867 0.177784783506482 0.357552837251349
0.219659770524888 0.173089943841701 0.359937179007241
0.216764526793129 0.176863098933487 0.375285359159045
0.216038927794523 0.177808717958981 0.392244201893134
0.211511623968342 0.18370881517582 0.392969095634663
0.219574412546976 0.17320118452429 0.397745991283822
0.2159243679018 0.177958015317886 0.412538948478687
0.221166318392719 0.171126572434944 0.415090459472351
0.214076476906588 0.180366233749091 0.428244492991526
0.221150974155178 0.171146569434633 0.437378035733783
0.219011481273674 0.173934810842823 0.442382178417414
0.215566023853391 0.17842501837398 0.466812399801918
0.215199090374156 0.178903215394264 0.466411652620483
0.211023106980046 0.184345462910032 0.487593054508575
0.210783104838583 0.184658239790322 0.498975313573784
0.214301484376695 0.180072998304969 0.495714180859514
0.213586657506523 0.181004578819365 0.508317759651919
0.219543454348911 0.173241530033506 0.517393210567913
0.211558749729762 0.183647399687823 0.529554798478337
0.214345797902615 0.18001524779363 0.535868753514883
0.216280525366741 0.177493861872848 0.546131042137719
0.216763639326146 0.176864255502978 0.545140458975584
0.219307013887288 0.173549665242259 0.558366241660835
0.211165678197857 0.184159660481543 0.583790500457625
0.215906229979023 0.17798165311906 0.582208800414391
0.219686072305216 0.173055666694226 0.582159180308747
0.220304588976587 0.172249600074571 0.59610994159082
0.215737867728418 0.178201067075877 0.612718299532343
0.214157931573336 0.180260079960649 0.624421960508438
0.213716956262631 0.180834770174357 0.624883205553023
0.212079801227151 0.182968352155868 0.646085434722597
0.211187023408275 0.184131842861738 0.654595568567964
0.211317643638438 0.183961615263583 0.664671903199135
0.220783029342842 0.171626084449875 0.663616890125754
0.212765242235216 0.182075068042572 0.678677982068994
0.212495386244225 0.182426751217045 0.682441403681896
0.213199699476651 0.18150887234212 0.700023019438874
0.21637106789189 0.177375864556754 0.703228300962833
0.21790956015419 0.175370862404604 0.717144162120287
0.212670791425531 0.182198158734239 0.723748055153985
0.212651530822609 0.182223259640664 0.742694453872384
0.220197397618299 0.17238929457244 0.73213062606868
0.218268809479872 0.174902679568199 0.749243791808387
0.217822080659566 0.175484867901601 0.761532873036362
0.211170850392094 0.18415291994678 0.777284480872085
0.220124546446971 0.172484236067356 0.775136716899776
0.214352470340873 0.180006552102793 0.796224407722541
0.220689090890961 0.171748507423852 0.791936688458023
0.216783950420865 0.176837785568991 0.814553212853821
0.216428274633267 0.177301311279893 0.816304732201783
0.212174077675747 0.182845488695997 0.834527914837176
0.221401056266202 0.170820656082254 0.831169499972383
0.218575689504189 0.174502745734091 0.842298503627878
0.215140236773106 0.171784038118796 0.854990590189194
0.216721264896947 0.168677742597709 0.856274935858836
0.221280779278953 0.159368628482784 0.860409757120596
0.214031271374296 0.160232625150682 0.870950844515368
0.222635006348268 0.147381655727731 0.872962802352538
0.222233129242684 0.141979559457635 0.880239895672946
0.217552443023623 0.14100251252022 0.888930699780008
0.219031320888104 0.139190609918922 0.888788974748964
0.218471087543868 0.134868204297047 0.89499360989904
0.223954839286299 0.120711047839119 0.899685585401434
0.216364847252167 0.120663782689664 0.913867565975001
0.225566903897655 0.107847270479532 0.906611640712007
0.220699039652121 0.108588633038802 0.915111584861892
0.223872641621921 0.0955899239470514 0.919231561245614
0.220974000064419 0.0961697211350028 0.924186182374413
0.222797294416686 0.0856924215207542 0.928876276065099
0.22340822801646 0.0764061884330726 0.934906381459037
0.221215630088067 0.0762095434576736 0.939144537719791
0.229647845101518 0.0561877567514 0.936166203033066
0.227601909198469 0.0451417222977247 0.943166550887689
0.228920772470761 0.0336695384001544 0.943549507668898
0.228719600878304 0.0291710574272507 0.945136323364677
0.225496608495606 0.0206800212192414 0.953818040377852
0.230050245908907 0.00205652846896645 0.949614424219998
0.23169873500521 -0.0336772113067177 0.937991562285375
0.226485958457138 0.16419388252861 0.159763889115788
0.227962716943799 0.162269333399235 0.16797690624831
0.231146477472002 0.15812017589783 0.170070478977632
0.22441444150173 0.166893535985168 0.189253499948795
0.226675512098173 0.163946851414098 0.184521244491291
0.231081639468373 0.158204674429284 0.196047216286953
0.230010140496479 0.15960107907643 0.207665705924318
0.231408328634713 0.157778924818678 0.21553169049957
0.22942228817119 0.16036718314223 0.227113117476097
0.225397556838655 0.165612315133658 0.244513933990221
0.22995361494843 0.15967474460486 0.243583111016957
0.229272580491277 0.160562285989202 0.257092296324049
0.228516662226151 0.161547417852108 0.263851184016609
0.221996715776601 0.170044377494728 0.289452628082306
0.229928061066665 0.159708047071952 0.287596887451953
0.221921247530622 0.170142729627731 0.309532115669989
0.229259398417463 0.160579465202263 0.29979195822027
0.225381330448755 0.165633461776686 0.309581292272994
0.222989619022468 0.168750400791937 0.323842056435742
0.231621594141166 0.157500991799515 0.333922142998921
0.229557276326194 0.160191263153595 0.34093931926349
0.230773506005684 0.158606241776081 0.341835741629573
0.229158367905229 0.160711130729238 0.356826407132062
0.231553901200482 0.157589210957378 0.361709352455282
0.230701667930498 0.1586998629784 0.375746649696701
0.229490094067347 0.16027881677793 0.38126373500127
0.227208433070936 0.163252335280675 0.405209835010792
0.229007246197875 0.160908076372648 0.410658085277992
0.231636149081696 0.157482023431717 0.412026962820441
0.222718675351559 0.169103501458477 0.435300753508175
0.229609456552711 0.160123260558438 0.435577077398369
0.231618590549802 0.157504906155992 0.448705871572621
0.231311707215401 0.157904844303885 0.449802283942716
0.224187779442105 0.167188927732332 0.466031407797992
0.229948548295039 0.159681347596115 0.470310340226388
0.232097769884748 0.156880427488549 0.480342979267787
0.230333902839011 0.159179143776872 0.484727724597529
0.222225498880439 0.169746221548929 0.506818430362915
0.226454167728162 0.164235313013233 0.516449486676349
0.229572303216891 0.160171679728365 0.525059641367274
0.223042236142302 0.168681828826323 0.535559454024121
0.231408768792925 0.157778351193328 0.535842165747061
0.231215770764011 0.158029871121516 0.546039355846448
0.222949796169649 0.16880229894415 0.563875045578711
0.225508400902492 0.165467860337237 0.564874901747589
0.231820630556546 0.157241602492874 0.579169128078171
0.2297920080502 0.15988535481506 0.583476596745615
0.230807977692995 0.158561317398533 0.593892724310696
0.226226211767581 0.164532391004952 0.609209255758449
0.227081777838112 0.163417395593694 0.613776610292344
0.22737942971463 0.163029488115942 0.628151909776834
0.226210690453081 0.164552618775828 0.635263681949275
0.226890045582642 0.163667265933815 0.644272544913053
0.222498457971753 0.169390494335381 0.660027315865069
0.22904076860629 0.160864389119443 0.659107142969347
0.230220040755849 0.159327531732653 0.674695486808648
0.226070304851822 0.16473557285337 0.682398026995118
0.223424700715196 0.168183391290715 0.700300652921423
0.223504651986315 0.168079196765601 0.707222205757451
0.221734427989838 0.170386197593424 0.716023677360828
0.231223070514451 0.158020357901527 0.717429152154622
0.229572468036105 0.160171464931782 0.728208551252702
0.229831388458403 0.159834033267897 0.736144213344233
0.223795631594262 0.167699984757547 0.752564798720631
0.231416233698005 0.157768622739622 0.754665750756968
0.222021429026549 0.17001217056035 0.774770947627035
0.222747181642525 0.169066351336803 0.781194598327451
0.222641134356533 0.169204554850631 0.796373418957894
0.229672561067806 0.160041021153226 0.791561219225275
0.228276098294766 0.161860926871279 0.802369795256138
0.223772123373123 0.167730621267805 0.825140716026964
0.229889755621157 0.159757967700455 0.814933448133237
0.221848891770513 0.170237025490177 0.8380922179188
0.224416560587441 0.16355600412231 0.850249040070439
0.225092275127212 0.162239419673629 0.850784431303012
0.229719836885874 0.153802456431119 0.853739323256027
0.232802674160304 0.145166287752866 0.859411019678145
0.233959138882077 0.140630128326897 0.863130749975322
0.229461395921986 0.139305365485808 0.871955777148971
0.225450912122692 0.138378276387898 0.879512640769655
0.226780717883619 0.129902771019623 0.887323240681629
0.234945911376214 0.113126545407422 0.885056505351866
0.22621851919144 0.118304879008556 0.897324250684414
0.234033066544127 0.105849465093592 0.892375473597442
0.233216919340112 0.101558884538761 0.897208734395317
0.230326385699889 0.0944526824837716 0.908081614717178
0.228191980940288 0.0890353967468322 0.916241500413291
0.2388324275141 0.0693487857462879 0.911608361392696
0.232648389858011 0.0715955502986057 0.921399135317162
0.236018334226362 0.0602205966296418 0.922363357898696
0.238104486388127 0.0512323950169026 0.920557691957439
0.237283599470768 0.0402778745083578 0.9250838457618
0.23921670504602 0.0267919289194961 0.924768551449499
0.242600265665892 0.00650633235780871 0.923342729114549
0.237346109304807 0.0127877153420796 0.932197122320353
0.242753875208527 -0.0524530050033427 0.910937521610047
0.23676228466246 0.150801513478242 0.139384709568369
0.236881487234647 0.15064616566166 0.151915818496115
0.239849028708202 0.146778790318363 0.159327556252403
0.24271183365747 0.143047910270982 0.162003736764078
0.237194958984485 0.150237641323601 0.180597506386864
0.241371905611234 0.144794138498619 0.185067367598632
0.235723852807152 0.152154824220045 0.194536192916141
0.237836393427783 0.149401707682082 0.209983984376438
0.239007286974887 0.147875769502599 0.222156555919333
0.24195343130855 0.144036279454918 0.22063285104182
0.23563417678623 0.152271692285846 0.234124728771726
0.235139293389403 0.152916636885189 0.249185926679876
0.236255145931973 0.151462429539363 0.263611614971761
0.234789033910507 0.153373103925164 0.273098644252109
0.235338086404522 0.152657564783942 0.271315581011661
0.238437446426021 0.148618400164356 0.274521738301098
0.237033772857503 0.150447703174034 0.301383797262937
0.23543311692987 0.152533718592114 0.30733133994351
0.235621237209909 0.152288555470021 0.310182023328941
0.241339399726885 0.144836500991868 0.312656213791815
0.232125533483997 0.156844245261566 0.337280786419217
0.238465915714543 0.148581298265206 0.337186799169035
0.236630967397894 0.150972649469316 0.351858578541316
0.241091036362999 0.145160174429369 0.353508717386893
0.240598043014862 0.145802655869303 0.36410900458707
0.235634489037887 0.152271285351564 0.382722395817833
0.240122514567216 0.146422376607784 0.38238010632696
0.237438247471185 0.149920581594814 0.39256903588749
0.23677638260634 0.150783140680073 0.410303839379231
0.240974269361734 0.145312348148129 0.415868753181744
0.235266372735774 0.152751023856634 0.429338489189469
0.239708451658797 0.146961993895987 0.432956304737698
0.235436919144729 0.152528763449237 0.444619439159298
0.241460405712527 0.144678802921114 0.444568683415513
0.239430826411909 0.147323802161874 0.465671425859054
0.240416762460956 0.146038905286756 0.476182853347286
0.238824391683632 0.148114123286736 0.479026837674154
0.231849939460656 0.157203406385387 0.497702444965773
0.233188700293465 0.155458699299905 0.501882063147072
0.235301950136948 0.152704658484724 0.50868569677434
0.241268147572083 0.144929358607877 0.515363430335361
0.232755110367123 0.156023764693321 0.537522409078856
0.240260449619075 0.146242616148397 0.53812264939623
0.237190656601 0.150243248298922 0.552599510236715
0.235324885468668 0.152674768578492 0.553934995114653
0.23470972513938 0.153476461127986 0.573081149336095
0.23464862392818 0.153556089776733 0.581930446702417
0.239942471334605 0.14665701351673 0.584039968220351
0.239776274849006 0.14687360499364 0.59784698436718
0.237705135923952 0.14957276579145 0.61026762536748
0.233475446969558 0.155085003756042 0.624111885712056
0.242090348330807 0.143857845717538 0.619713616347917
0.236543747194439 0.151086317051483 0.636398492387926
0.240587684684807 0.145816155107852 0.633733792587406
0.237807734613436 0.149439056576093 0.655569799769546
0.241695832276015 0.144371989050137 0.655866883836449
0.240527020190505 0.145895214616057 0.669895253998734
0.235599272199761 0.152317180828561 0.684274205480809
0.234675948617529 0.153520479548269 0.68985457242785
0.238801519677115 0.148143930665957 0.702008804413803
0.238933814534153 0.147971520651568 0.701946815570002
0.238015280557302 0.149168577436018 0.718731429042394
0.233433985901673 0.155139036871694 0.731100083157496
0.236384704776904 0.151293585165372 0.738055355353875
0.233074705015121 0.155607260839026 0.745709809668457
0.234995577283702 0.153103931360625 0.755721267522882
0.242799146723388 0.142934121668097 0.760398050799103
0.237820742223211 0.149422104728996 0.782057015621175
0.237603505005787 0.149705213782668 0.786738496668925
0.240680641518967 0.145695011402994 0.788397541357018
0.241803222890159 0.144232034876979 0.799385461186982
0.240424858241018 0.146028354660767 0.809137866067147
0.237949898348238 0.149253785189802 0.815930916204014
0.241896770277748 0.14411012154791 0.830754429177628
0.239772030964778 0.146879135731246 0.841881413262105
0.236758781207671 0.145859387887345 0.852228525708776
0.234726923765484 0.144993678264548 0.856543423287388
0.233765100887567 0.141967724464115 0.861798681454788
0.239965727885345 0.126730273923151 0.865199370306614
0.238162832842031 0.125369092903413 0.869610224282815
0.243064465216037 0.107635089723823 0.874165175280232
0.241669900753385 0.104696967727357 0.879032375198509
0.239939058909231 0.103580864183241 0.883119750639959
0.242762774210146 0.0867452476126653 0.890853793978977
0.238629671519877 0.0903420844062524 0.895780016760738
0.238199819333014 0.0823712116717266 0.902734417774355
0.24607290629574 0.0680808985478071 0.899093029539795
0.24904829665415 0.0536609526374416 0.898030620072835
0.241601298760477 0.0536267325011122 0.912933626193012
0.248984688575264 0.0377469341898033 0.902348076781174
0.244166292408785 0.0351289024382765 0.912674209951835
0.254144478618429 -0.00335362412427888 0.901084427035691
0.251356290545644 -0.00904046648550886 0.905163429180777
0.247205104047324 -0.0132903772780031 0.912346779436707
0.248281645486669 0.131325161791526 0.127636410274105
0.247023226344181 0.134363254352471 0.135594116284581
0.244667031306524 0.140051612367978 0.151598013588993
0.250152763577146 0.126807883120696 0.149328161396352
0.243646501999673 0.141829826772232 0.175042242629172
0.249256720980324 0.128971121310408 0.165764589989406
0.244833288670986 0.139650231583849 0.187644913044366
0.246333889950691 0.136027459622671 0.193529709230953
0.252413489992207 0.121350006748641 0.187328343114747
0.254179105692242 0.117087433379677 0.201533262487589
0.249567254242051 0.128221427698377 0.217932048027886
0.247569712482852 0.133043920104843 0.230996300360129
0.253150398821351 0.119570951459088 0.232435603680373
0.252694206271296 0.120672297700485 0.233520248123493
0.252908601277993 0.12015470236761 0.243685519829461
0.250337047189236 0.126362983125065 0.255055389940949
0.247660139104881 0.132825610927539 0.280655929162312
0.247938914478094 0.132152587640675 0.284728289884436
0.245179107470164 0.138815351148751 0.309677492580677
0.25169818462576 0.123076906665554 0.293621819730204
0.249398578974972 0.128628645815797 0.311181718673953
0.249571802459904 0.128210447329153 0.316889009974245
0.24783644223988 0.132399977507937 0.333797202174463
0.253953131815851 0.117632982576801 0.33199567662241
0.243300486313066 0.142280763194419 0.362695724923628
0.254301467021612 0.116792026998801 0.348511117337813
0.247969443097974 0.13207888503252 0.369976685345114
0.249717361513884 0.127859036686908 0.372722301217351
0.245554002840483 0.137910273661256 0.395063193002572
0.242902247819267 0.14279975770398 0.405854919079216
0.251257991352567 0.124139627235763 0.395668067320363
0.25011891089293 0.126889610730052 0.4153100128607
0.251909752132408 0.122566137521646 0.414925005426357
0.250201450982577 0.126690341326187 0.436849307611893
0.248425964442667 0.130976745010648 0.447209979980008
0.252489648319727 0.121166144281453 0.450098705965942
0.250233296537262 0.126613459356164 0.459839954111592
0.24661663347168 0.135344856379625 0.482839032252154
0.250585541079136 0.125763065805902 0.480560277877247
0.246754837773905 0.135011201678815 0.500373965610978
0.251072180740061 0.124588213736506 0.493304102730212
0.250307998870879 0.126433111969206 0.514587392165646
0.253236758123989 0.119362461659422 0.519497515800368
0.252981599746321 0.119978468475342 0.523907056216026
0.244352290336455 0.140811464286554 0.552541094477833
0.248608746960494 0.130535468977145 0.55351540833424
0.254608392809106 0.116051042599992 0.546444602593238
0.249100984218281 0.129347103113491 0.565958765514472
0.243302298289097 0.142278401781281 0.592364731835057
0.253261968648641 0.119301598068893 0.580139278266196
0.252665399530419 0.120741843324998 0.58540518634523
0.248035272223814 0.131919959464117 0.615633033929265
0.243039344627161 0.142621089665398 0.635141847846183
0.248565828864629 0.130639082426254 0.635446504525539
0.248505634479562 0.130784404527063 0.640219880893082
0.254056012185056 0.117384607394166 0.632836924961784
0.242623104605042 0.143163544223415 0.667782964379697
0.252705190340504 0.120645779811633 0.657474220108631
0.247220581280509 0.133886797388585 0.67861135032682
0.252159909276857 0.121962204750793 0.678275499960848
0.254155654871637 0.117144048668828 0.683270189474126
0.243218187798171 0.142388016707177 0.708770113747416
0.246522059066151 0.135573179192108 0.72262909176126
0.246086807913757 0.136623968427257 0.721208525318954
0.243314123845104 0.142262990416645 0.74322032441125
0.246889773017702 0.134685439183199 0.746208222573241
0.251189267987615 0.12430554011548 0.742943883683511
0.245258434974699 0.138623837611432 0.76725261569363
0.248395399841494 0.131050534485327 0.774481578707316
0.250335751483827 0.126366111234635 0.779547041917961
0.245749531249462 0.137438226324471 0.797245390430326
0.250312503320111 0.126422237266779 0.802760885457709
0.24460179030498 0.140209118078728 0.821267207001138
0.248152071293684 0.131637981565565 0.817146922961594
0.251419121367958 0.123750624967301 0.824496562966895
0.249283740911698 0.128905889425629 0.833496873866476
0.243598886596863 0.139018442337516 0.848942128472591
0.248109116417707 0.125189716672564 0.851211775990336
0.248826688120209 0.116606737790317 0.856500247617275
0.248636137096221 0.109739353003878 0.862156801363535
0.250532221687139 0.103432775824325 0.863491558104663
0.249999061163875 0.0933648797998079 0.872257336760923
0.251962363445308 0.0844038230093005 0.875516001441524
0.253581590330758 0.0813676510588788 0.874842080202458
0.25489694709461 0.073948742755322 0.878117828890456
0.257396860175976 0.0612995922718119 0.879322201057113
0.256944092935377 0.0485079921713693 0.883595827741035
0.258073602154157 0.0332547308084102 0.885353069213048
0.260938025305005 0.0148296670777628 0.884475634228045
0.258120271215094 0.0180611410710175 0.889260279163667
0.255454739685452 0.00529078895550988 0.897953839725105
0.268093647012337 -0.0592310293287718 0.858473290340126
0.265225428847512 -0.0649967847576458 0.862691574464397
0.258536428224031 0.106567926227798 0.10012012295314
0.262466589084147 0.0970796785769971 0.0963565814899999
0.255874606361396 0.112994132669191 0.121192783602061
0.258023162283428 0.107807059822706 0.132794247331665
0.256792959923042 0.110777031045612 0.134920712750659
0.261861477318146 0.0985405476092281 0.132173293460397
0.256022599823152 0.112636844846678 0.158644665668777
0.266098092796417 0.0883124530630262 0.1504436240552
0.265083908192634 0.0907609112882294 0.155717220021949
0.256650769945113 0.111120308018763 0.192754991618224
0.262321658185331 0.0974295727185259 0.188521236687806
0.263740984547132 0.0940030157664315 0.187356708414812
0.264921145750547 0.0911538545833622 0.198641310647015
0.265485200589929 0.0897921057402019 0.197221616370158
0.258558019918727 0.106515799265629 0.225560265626596
0.261136058925603 0.100291862530901 0.236302629956545
0.261693129115353 0.0989469761236125 0.242506588718755
0.26261730036671 0.0967158293546321 0.259462629045207
0.255646307721934 0.113545294340852 0.276738879142065
0.263213238592323 0.0952771072080191 0.266794723579415
0.259795747043586 0.103527661654275 0.282772402964525
0.265776783208458 0.0890881630279988 0.282033761772889
0.265327617098571 0.0901725459422453 0.294636335681314
0.257828308788114 0.108277477773767 0.317286125851246
0.257496765333842 0.109077894477587 0.329797178791788
0.260505704631877 0.101813672415914 0.335222700587617
0.257730331310991 0.108514016327846 0.34816989225634
0.263858968911481 0.0937181763138719 0.342203849909356
0.25751206904167 0.109040948058595 0.370624442752797
0.265366724894586 0.0900781313707116 0.359343472526265
0.266013895050249 0.088515724403747 0.369823794325923
0.261309221935279 0.0998738100444394 0.389487959803687
0.264952371449315 0.0910784690778995 0.396015265526374
0.256874126271636 0.110581078146028 0.413530122844746
0.258781949155386 0.105975186265474 0.428090478363438
0.259435443016541 0.104397512522947 0.430590774729237
0.266810889258682 0.0865916101766142 0.429697480026549
0.254819367845053 0.115541703806885 0.459250654468208
0.259070303336165 0.10527903769147 0.458436970471216
0.266442595362338 0.0874807502961089 0.457925958950459
0.266198303723245 0.0880705224843822 0.474063648465967
0.259730905835087 0.103684202179234 0.487829437915829
0.264240168164889 0.0927978799063297 0.495811583777536
0.266113928697995 0.088274221814665 0.494567072272702
0.265505579837848 0.0897429058834865 0.513382616005691
0.256802550961871 0.110753876229594 0.530205890538007
0.255603314689464 0.113649088702929 0.546950944980878
0.257857704136131 0.108206511125914 0.557947840435162
0.257461731323697 0.109162474060023 0.565095728517975
0.256765846901939 0.110842487668875 0.570168373666621
0.266673063247573 0.0869243516018823 0.558271065712043
0.259632114259949 0.103922706139781 0.59287759878575
0.255550071439739 0.113777629278521 0.599865849159895
0.266733734689607 0.0867778777836756 0.592067703590923
0.257434711995303 0.109227704489079 0.616868385125476
0.262997754503263 0.0957973318183029 0.615948446968263
0.260033823798769 0.102952893523029 0.639422931606485
0.264512950738366 0.0921393245178623 0.630262264764385
0.263514807725008 0.0945490549178979 0.640052990841553
0.25801846414258 0.107818402138057 0.668800995702343
0.261537428588241 0.0993228704478351 0.664412537376197
0.258178154646606 0.107432875157456 0.686823831432866
0.256235083579832 0.112123863679517 0.699756115372734
0.25442867099313 0.116484929445576 0.715117133931147
0.259533042864365 0.104161885646643 0.706861390214627
0.261394901247863 0.0996669618859835 0.719809406466763
0.265156805243676 0.0905849222389475 0.719189372920046
0.264324272724136 0.092594833538738 0.732007990004771
0.260049394311689 0.102915302979563 0.754265482543416
0.256851170023138 0.110636499432494 0.764358117127284
0.256192151091954 0.112227511874019 0.776489210328883
0.258324162282577 0.107080381542485 0.783793239825152
0.266856311117496 0.0864819521090377 0.771136784368532
0.259286405847522 0.104757320077689 0.792159602321386
0.256488828639053 0.11151126891616 0.813458724961823
0.26648865635163 0.0873695492310619 0.808249382001298
0.263106760799042 0.0955341673406508 0.817262185972434
0.256379873667522 0.111774309486119 0.844725108103847
0.259106864000775 0.103511510798665 0.847450187752747
0.260360211154432 0.0976836109932335 0.8496132912402
0.262833295738942 0.0891012111164439 0.851629560731166
0.257817160731281 0.0885623739829431 0.861394114864653
0.266501348064521 0.0658581911290217 0.85991292342992
0.260167041781047 0.069421085479775 0.871643408117036
0.267939519703389 0.0449304710471677 0.862546953387356
0.271133478083779 0.029495273963785 0.86022320112014
0.269647820942862 0.0224129554726676 0.865059325238102
0.271740612098381 0.00555913133845501 0.865311439009401
0.267796626885272 -0.00240392987823518 0.874030189740877
