ply
format ascii 1.0
element vertex 862
property float x
property float y
property float z
end_header
0.267739881963253 0.110630250467381 0.973413397230134
0.267662541676363 0.109446792005347 0.979945776236628
0.268136442408138 0.108302694431476 0.983999771543457
0.266428216420369 0.112426716778747 0.99688385471899
0.221401082790881 0.0671263008130765 0.962499999999999
0.221059459024729 0.0631092352988115 0.962499999999999
0.207822982929219 0.0474634408253808 0.9625
0.196050604221978 0.0413932834074685 0.962499999999999
0.198800075490944 0.0326027857501157 0.962499999999999
0.182528585077699 0.0286202256712772 0.962499999999999
0.172145290465786 0.0126975756963604 0.962499999999999
0.16829358747761 0.00273850012041632 0.962499999999999
0.154112472773304 -0.0115522951336423 0.962499999999999
0.139646715041435 -0.0182119485155816 0.962499999999999
0.136880606348304 -0.0308447398563526 0.962499999999999
0.12412803743259 -0.0388705000735258 0.962499999999999
0.117556995486628 -0.0489990307621361 0.962499999999999
0.108731228356667 -0.0615067724752798 0.962499999999999
0.0966147881809609 -0.0750201637047972 0.962499999999999
0.0892516681049678 -0.0858002501921043 0.9625
0.0804938188574224 -0.0902658117092567 0.963398824353732
0.0804938188574228 -0.0857937211554057 0.978800959818094
0.0804938188574224 -0.0952727292555877 0.981617302734869
0.0789808711697017 -0.0960684729358703 0.987499999999998
0.0690426309431242 -0.104176742414027 0.987499999999998
0.0276681002261667 -0.149544780220566 0.962499999999999
0.0131975052922635 -0.157130197706788 0.962499999999999
-0.000441960725349034 -0.183055327233688 0.962499999999999
-0.00466468555382733 -0.183274454933931 0.962499999999999
-0.0180650523338645 -0.197880806681936 0.962499999999999
-0.0256695744318478 -0.196010695694881 0.965398742557897
-0.0202145363217556 -0.197940225123281 0.987499999999998
-0.0270678706332064 -0.211805197757027 0.987499999999998
-0.0682907218590962 -0.249742777107918 0.962499999999999
-0.0665350230472278 -0.253001719040644 0.962499999999999
-0.0886172009269026 -0.265111980539626 0.960489473107646
-0.0887879890988042 -0.265041237762531 0.976929596645777
-0.0857556648501409 -0.26629726759184 0.986004597354838
-0.0838891758763307 -0.267070392638812 0.999913225971345
0.29997691212602 0.139381762071904 0.302863255345823
0.301427968271336 0.135878602646119 0.306413559160893
0.300270329966035 0.138673388743098 0.316393915034155
0.30012529422726 0.139023535990678 0.329058803542719
0.302528467294245 0.133221762979632 0.33273105608561
0.301213282312166 0.136396900400399 0.345434644489874
0.301441571649937 0.135845761185006 0.351335344448706
0.303072670630249 0.131907939905162 0.363981527191786
0.301066623598167 0.136750965856774 0.378161803557142
0.29971038412321 0.140025217591041 0.386367848555655
0.300631215545953 0.137802133881596 0.394771196240882
0.301342987256819 0.136083764963909 0.400202174858953
0.303025874065181 0.132020916807223 0.404012194210719
0.300299869335914 0.138602074395713 0.41714797560396
0.301956624270979 0.134602314161948 0.421137110569104
0.301824309213248 0.134921750968828 0.433311942517114
0.301634243059436 0.135380611255113 0.44336151861901
0.302417817406752 0.133488895438693 0.453855594234458
0.302394857636231 0.133544325228075 0.458155919462603
0.30063827978221 0.137785079306615 0.471522922179999
0.301377951832982 0.135999353009933 0.477839048662355
0.301725155216238 0.135161129893175 0.486798039123394
0.302132761051233 0.134177082358226 0.498885127457487
0.299741892454216 0.139949149751 0.506234769519164
0.29877625937147 0.142280394235638 0.519953787057203
0.302577003008038 0.133104587401134 0.523869265552937
0.30195222251546 0.134612940939822 0.524665987834547
0.30138330863345 0.135986420549592 0.540425517530184
0.302536198151629 0.133203099038886 0.547595236932929
0.30213045068806 0.134182660068332 0.55482450082622
0.298732362700321 0.14238637017447 0.57562432767492
0.299697396704178 0.140056571994207 0.583505071718901
0.300555991419825 0.137983740987111 0.585633557372095
0.302673574826239 0.132871442407889 0.593866048441104
0.30107998282096 0.136718713839922 0.608085946447296
0.301280371384909 0.136234933051093 0.613871686234032
0.302474885949989 0.133351119787626 0.617278575752662
0.300126100588706 0.139021589261937 0.633824088806373
0.302067071439743 0.134335671109196 0.640757329585977
0.301223958956079 0.136371124701861 0.643041649178401
0.301427300342143 0.135880215169835 0.664774732590509
0.299891782979447 0.139587282012114 0.66454003373177
0.300095685210606 0.139095018480252 0.674673452624092
0.300324656545835 0.138542232777349 0.689392025876241
0.301646548809425 0.135350902546591 0.697017289180087
0.303535102772331 0.130791529956072 0.70221552491631
0.30210754682718 0.134237954879901 0.709611495882361
0.300537796955256 0.138027666310235 0.726477644426999
0.301103003320774 0.13666313743706 0.728362128445612
0.300359862020144 0.138457239243799 0.738536196438101
0.301761120128445 0.135074302914357 0.751938164760324
0.299970154082808 0.13939807743148 0.758858807193983
0.302064795627158 0.134341165406802 0.769884943628261
0.301021988414612 0.136858724722271 0.776699869793557
0.300320744584312 0.13855167708791 0.781887296675257
0.301683391601643 0.135261956177944 0.786811211540018
0.300292394203284 0.138620120962289 0.804672440813929
0.302368275018217 0.133608501345006 0.808029238124324
0.302358387966748 0.133632370798755 0.815936188978607
0.300971316330979 0.13698105795381 0.827351325650414
0.303014162579186 0.132049190835547 0.839007425392208
0.301049945226994 0.134502645862195 0.852650082679725
0.301724355027073 0.13124644098733 0.854535277524496
0.297181849490943 0.135844207624224 0.861910086356382
0.299682832263208 0.127377426332037 0.864722618352055
0.295568264101483 0.127877653870964 0.875645877906332
0.294420092587213 0.124122945772651 0.883203444166681
0.291193570863328 0.126144220585293 0.889882814098922
0.288062546046049 0.123746121318279 0.901412661349859
0.285425059159299 0.126365391165282 0.90575289961971
0.284338312519719 0.125539525536636 0.909747276278076
0.282731911037224 0.116797605511768 0.92436082545082
0.280211591973481 0.121164641688429 0.926349676764645
0.28081049428632 0.115678945052445 0.931027612035671
0.280208790998589 0.108879962257426 0.940582634854773
0.279954824465234 0.105577087748362 0.945117198180359
0.275774306132208 0.108446630127673 0.953481260884689
0.274997890185369 0.107497552178506 0.95675076557809
0.270836662860531 0.104383539269186 0.97198959761097
0.270027406393845 0.103737503531223 0.978929388946924
0.270660261864844 0.102209655270115 0.987097096992196
0.269489799146703 0.105035402238505 0.993472855416102
0.225465098475822 0.0580258513374882 0.962499999999999
0.224369555172454 0.053951054654404 0.962499999999999
0.211212480858417 0.0382251162589709 0.962499999999999
0.207424828466341 0.042333668708311 0.962499999999999
0.202465191204384 0.0258735108721778 0.962499999999999
0.186517351568388 0.0163571355764697 0.962499999999999
0.185458053286239 0.00519695262177618 0.962499999999999
0.168622345170971 -0.00970358772146854 0.962499999999999
0.158616275185418 -0.0113240363224786 0.962499999999999
0.150935682362021 -0.0221385350423791 0.962499999999999
0.139358668764544 -0.0362574538348868 0.962499999999999
0.136171520599189 -0.049864234349468 0.962499999999999
0.120277930181764 -0.0579291283679803 0.962499999999999
0.114409030813168 -0.0591965721131656 0.9625
0.107488531270704 -0.0739626541376701 0.962499999999999
0.0939309084580918 -0.0874985706404577 0.962499999999999
0.0883702061533434 -0.0968143205521596 0.9625
0.0804938188574228 -0.10703959866331 0.969699897692155
0.0804938188574224 -0.102214305741355 0.984633192346683
0.0804938188574224 -0.0984497708790848 0.987010034202186
0.0608440673353962 -0.11882635082793 0.987499999999998
0.0338096272772595 -0.156980761942056 0.9625
0.0210619578583448 -0.16979731182832 0.962499999999999
0.0198228392077208 -0.172612040110165 0.962499999999999
-0.00259717416405794 -0.19335656231919 0.962499999999999
-0.00563021808132189 -0.200918222027905 0.966276930771984
-0.00724091163622466 -0.200753996882729 0.982895893636418
-0.00639563608992133 -0.200840180563593 0.987016925796567
-0.0122132790362786 -0.203231996622909 0.987499999999998
-0.0234572384503888 -0.216975778987171 0.987499999999998
-0.0705643412431756 -0.271960028234727 0.956919717156019
-0.0702117947789638 -0.272006441857256 0.967382707774298
-0.068600583729345 -0.272218561816079 0.980868130262138
-0.0695222735658482 -0.272097219047103 0.992384520528271
-0.0750474803197257 -0.270732742852732 0.997967425853267
0.305108004099941 0.126994210238682 0.296522527673525
0.305720991895287 0.125514326789588 0.300953226186398
0.304628246891783 0.128152446597263 0.3154791354181
0.303690685816529 0.130415919260694 0.323927343133094
0.305414282025986 0.126254789915768 0.331434697812092
0.304810212830833 0.127713141959318 0.347356536802439
0.303459668330815 0.13097364480785 0.357095626797443
0.303274122603532 0.131421591819097 0.363121648444526
0.306438617087335 0.123781826318244 0.3681796127813
0.305628292676356 0.125738122501151 0.380834057935468
0.304022973188471 0.129613706580747 0.395458276820887
0.304024598618963 0.129609782444406 0.392849714194002
0.3067351859847 0.123065845664048 0.397869105868021
0.306719285731696 0.123104232270495 0.412520316122426
0.303439803930308 0.131021601712961 0.42140088899222
0.303502491800981 0.130870259805388 0.438511894041442
0.305280904832289 0.126576790945702 0.435373662410778
0.304991394791105 0.127275730013572 0.450641762741289
0.305594241669993 0.125820328902525 0.451119674288775
0.303954648825942 0.129778656183403 0.467828812485245
0.302483161799857 0.133331140118634 0.479927586682014
0.304358356181694 0.128804020409918 0.483559251557883
0.302641960461215 0.132947766236696 0.494551330504943
0.305598830755778 0.125809249869387 0.505120761518033
0.304762981365731 0.127827168802937 0.511836887357762
0.304203967241968 0.129176748282084 0.518881257888499
0.302839014690997 0.132472035242633 0.533861606195898
0.305708821907472 0.125543707739225 0.544297022178679
0.304239759637863 0.129090337794484 0.556006431947344
0.305185912094406 0.126806123701825 0.552657294654533
0.304806657952945 0.127721724193726 0.566059091055456
0.304857599521166 0.127598740368838 0.573255105429042
0.306281737621289 0.12416056685283 0.584421505317046
0.304538384892771 0.12836939265402 0.589936854959656
0.302834978799249 0.132481778747227 0.605027536320299
0.304163067582904 0.129275488793693 0.609934857931554
0.30578969017628 0.125348474467902 0.619968049038208
0.303502588548439 0.130870026236362 0.632154342475085
0.304366900475009 0.128783392661116 0.635071060880414
0.30563305462928 0.125726626129818 0.640711330999961
0.305356874055148 0.126393385017553 0.65351782393069
0.303123187435059 0.131785981549863 0.66216433536548
0.305541589761263 0.125947441854668 0.666692626227356
0.305931235375861 0.125006754127386 0.684386506766531
0.304773220735088 0.127802448778567 0.696943685245512
0.306045024105548 0.124732043832929 0.699495567462184
0.306080599508497 0.124646157212642 0.715031542537525
0.30751095288604 0.121192978689592 0.7155786761076
0.302795712891572 0.132576575034081 0.733028989757381
0.303603946148718 0.130625327343117 0.735405852511063
0.307259399555419 0.121800282152037 0.740461389534294
0.305581196631367 0.125851822411698 0.747262259987182
0.303855343730559 0.13001839989149 0.768281232296249
0.303924104466972 0.129852396789084 0.777531378696509
0.304928151252258 0.127428413422787 0.782987009618967
0.306564938969334 0.123476858317499 0.791915353646514
0.30643219205038 0.1237973377296 0.802966487639376
0.304799003219774 0.127740204354363 0.812180823097618
0.304865865332299 0.127578784935497 0.817003538575538
0.305400558903463 0.126287920464282 0.825064238073696
0.303043794529804 0.131977652978485 0.834617637712589
0.303559567492674 0.129156848025327 0.851824498551095
0.305414139513671 0.124720713368983 0.851776792736101
0.305033161594768 0.118930975763243 0.859546103348636
0.303516571754306 0.117829526764772 0.865061243929228
0.299763852853602 0.122452922608778 0.87019848330281
0.298557252259494 0.117151964539668 0.879709881900916
0.294388530020866 0.119881111157772 0.888203540198342
0.294473486334596 0.115175053869907 0.893415451087749
0.293417405368418 0.112274119422455 0.899726940174053
0.292339091615722 0.109715332663907 0.905704390001535
0.286882732415943 0.112706591585557 0.917494193471019
0.289085155740665 0.104199304671768 0.921188268569523
0.285967745154216 0.102134585562539 0.93229401667666
0.281679112687076 0.103703103342691 0.942466848637364
0.280169487698713 0.104867067939234 0.945339267564153
0.278424383555286 0.103955975548226 0.951272807713492
0.275357111679205 0.102749859310019 0.961244165286301
0.274273623519924 0.100054061298917 0.967394733560302
0.274791046573406 0.0965540553300668 0.970001104612051
0.27309138815748 0.0963403972025921 0.986410874156592
0.274450637939588 0.0930588779439732 0.99057655363772
0.2752052006211 0.089429683628714 0.999999999999999
0.269181088605271 0.0879600050026857 0.999999999999999
0.228009139921604 0.0429477348900475 0.962499999999999
0.212881148995199 0.0242235479571064 0.962499999999999
0.207074340469423 0.0172351044702805 0.962499999999999
0.198610792591747 0.008592815829237 0.962499999999999
0.186302078648908 -0.00208045871214161 0.962499999999999
0.170855817818898 -0.0124306816012209 0.962499999999999
0.168970082260895 -0.0199316816379034 0.962499999999999
0.158936441966932 -0.0365697908131817 0.962499999999999
0.145452589655233 -0.046093368450698 0.962499999999999
0.143558476754162 -0.0488291186320738 0.962499999999999
0.128529459770809 -0.0698678481405055 0.962499999999999
0.119922350222009 -0.0697351718829056 0.962499999999999
0.110757361174316 -0.0768223621782444 0.962499999999999
0.0990983104775769 -0.0908671715525791 0.962499999999999
0.0957481102026445 -0.103647684484007 0.962499999999999
0.0804938188574224 -0.114956351532129 0.966076993544091
0.0804938188574224 -0.117962306392146 0.974580232303374
0.0804938188574224 -0.122330271950238 0.983935435292088
0.0754040488240554 -0.116112609424446 0.987499999999998
0.0639734281346355 -0.133407114296704 0.987499999999998
0.0291294287217315 -0.173506401988893 0.962499999999999
0.0269128745766312 -0.181154102415688 0.962499999999999
0.00565181945567159 -0.199086499488089 0.962499999999999
0.0057350722647759 -0.200907531171506 0.97123491507955
0.00911501857633671 -0.200562914300088 0.980152352792379
0.00761648751802187 -0.200715703438564 0.987288878561777
-0.0041122900891251 -0.21194095729572 0.987499999999998
-0.0379947939149229 -0.259069843143011 0.962499999999999
-0.0522908066697533 -0.263850749061062 0.962499999999999
-0.05687325348448 -0.273762494132848 0.975082291089993
-0.0646523824969131 -0.272738352369306 0.982657339625855
-0.0557767478329423 -0.273906851840492 0.988230089212722
-0.0683339525539305 -0.279957340318384 0.999999999999999
-0.0727062126063636 -0.280866246564902 1.0
0.308538539028984 0.11871216628679 0.292888546657965
0.309075736660518 0.117415256479065 0.299168859366056
0.308291499080645 0.119308573480519 0.310121778473841
0.309640559216375 0.116051654204381 0.318808133891311
0.306745315966082 0.123041389725608 0.33070198068271
0.310257146533716 0.114563080740472 0.339854738313139
0.308903282576811 0.117831597466838 0.343176354445682
0.306615496438627 0.123354801789451 0.354474149638332
0.308666614135308 0.118402965628101 0.359403237489704
0.30813930339597 0.119676006366595 0.38255278913245
0.307435399828463 0.121375379905873 0.38356883499546
0.30909443310971 0.117370119257859 0.393887000391674
0.310932896056339 0.112931677078187 0.402083568144619
0.309245318676823 0.117005849275369 0.416696300710796
0.309064767649834 0.117441738013426 0.416383199561619
0.310221780884481 0.114648460970495 0.428730230869893
0.310101952021942 0.114937753435601 0.43144823028202
0.308060309859855 0.119866713632824 0.449594066466474
0.308600754808395 0.118561964108342 0.454770041190797
0.310652683016703 0.113608171198831 0.467589547542095
0.308259196294133 0.119386559305817 0.476125704247317
0.307987618766024 0.120042205457414 0.481279660874107
0.310035791355921 0.115097479412805 0.482842703019282
0.309009974672122 0.117574019963342 0.493151700994635
0.309484158396971 0.116429239183754 0.508468351015225
0.308764153043885 0.118167485872156 0.521570297719156
0.311144739719073 0.11242024123451 0.527515848674284
0.309721898368107 0.115855284121118 0.528939624718737
0.307077142587987 0.122240289394651 0.544106611415553
0.307494874860052 0.121231794477989 0.557312146252219
0.308957359504163 0.117701044215413 0.567258920156131
0.309299258454574 0.11687562713237 0.571975850246578
0.309051477150485 0.117473824117205 0.578069386968124
0.310473558353738 0.114040616389516 0.581937118865748
0.309556372626126 0.11625489861233 0.59723923425699
0.310602894357213 0.113728371655822 0.609002978975066
0.309237778811583 0.117024052120288 0.617788566159108
0.307807887548838 0.120476114999526 0.62963116694759
0.307507846362949 0.121200478499771 0.638005247726423
0.309681281892762 0.115953340966751 0.63840028124965
0.308487178118754 0.118836162492844 0.656473926606382
0.307678478122138 0.120788536992564 0.668420813094475
0.311005330612176 0.112756804591101 0.66562279339486
0.307097860603111 0.122190271681552 0.682574367549408
0.310011662229391 0.115155732277321 0.688612710315773
0.306867277553147 0.122746948408027 0.696344533889703
0.307210370340613 0.121918649147375 0.707111025922173
0.308333010677816 0.119208355619632 0.719504735134641
0.309415399976844 0.11659523669415 0.723496745461404
0.309794030792745 0.115681141043271 0.733894056066484
0.309498691395476 0.116394153421662 0.744851221223159
0.30723903476208 0.121849447112313 0.753966276201551
0.309494135141098 0.116405153192773 0.759658739229897
0.310806336975792 0.113237217726883 0.767397946022448
0.309900806717908 0.115423361156607 0.778619072764528
0.30966221119782 0.115999381697127 0.788028124724399
0.308203123796728 0.119521930289529 0.797454983561961
0.30875832895369 0.118181546469693 0.808058504456811
0.308974834322767 0.117658856271343 0.817396108177591
0.307691240110966 0.120757726826054 0.822439203384239
0.308710997919545 0.118295813694246 0.826975938620233
0.306919785065979 0.122620184058422 0.838370139830829
0.308469154383154 0.116089894700123 0.853230445747791
0.309250109970794 0.114235310049912 0.853194770348809
0.30616651683859 0.116390124393934 0.859319942542502
0.303823977021029 0.111356391695621 0.871697486239086
0.302281324745771 0.107874133140807 0.880042360351029
0.300081761121826 0.110257669855909 0.883431328850286
0.299179857426765 0.103719038043694 0.893524103221253
0.297761847703433 0.102013266929762 0.899463436556275
0.29576483066531 0.0982434416010268 0.909411502228609
0.293875867177196 0.0982040654171467 0.914737799391794
0.288921601386821 0.100313118276612 0.926145529630544
0.290786944124975 0.0957186213515752 0.926251090346195
0.286977922329897 0.098298349905001 0.933912205946083
0.286909079188657 0.0904471738162481 0.943195983296971
0.28283160036583 0.0948341508174323 0.949514869682374
0.284729163444706 0.0852426443067141 0.955316677783517
0.281868553494491 0.0854029777696315 0.963128010891882
0.277796633024031 0.084980931231479 0.975032047120711
0.278194826914598 0.0840196061404159 0.976173011996709
0.276019330972108 0.089271717949664 0.990929216357352
0.278580528315168 0.0830884405881349 0.991994791939375
0.233247410359018 0.035164392136806 0.962499999999999
0.236282510960981 0.0321428174418226 0.962499999999999
0.222890723955485 0.0192047946781102 0.962499999999999
0.20629783063745 0.00757384295946692 0.962499999999999
0.203642860029691 0.00413667255537969 0.962499999999999
0.190977312182532 -0.010571441271947 0.962499999999999
0.17630220929073 -0.0243158747630408 0.962499999999999
0.170799412766697 -0.031983140993379 0.962499999999999
0.165330431657998 -0.0471943441941834 0.962499999999999
0.157484390460122 -0.0491572657617427 0.962499999999999
0.148974346905598 -0.0650385838251047 0.962499999999999
0.140961485162737 -0.0621721064742761 0.962499999999999
0.13345313747215 -0.0830408977830298 0.9625
0.120743628198455 -0.0927881913950498 0.962499999999999
0.103900126237319 -0.106765284894299 0.962499999999999
0.0991101257764621 -0.106497166052132 0.962499999999999
0.0856412677646137 -0.130537837706637 0.962499999999999
0.080751699148501 -0.136364812714762 0.962499999999999
0.0804938188574224 -0.128262229442801 0.977904203190825
0.0804938188574224 -0.136209335660619 0.986663905559779
0.0757799330794383 -0.141256686180891 0.987499999999998
0.0629082477490082 -0.16260392520396 0.987499999999998
0.024317497479037 -0.193506689828578 0.962499999999999
0.0340265905096857 -0.191357598926348 0.97589854317059
0.0161115841288919 -0.199150555908649 0.979872438734597
0.0252433028638007 -0.197106009917527 0.987499999999998
0.00929496688417101 -0.205819010823217 0.987499999999998
-0.027816855753663 -0.251235197008208 0.962499999999999
-0.0345307042784345 -0.264076060649195 0.962499999999999
-0.0467868231526994 -0.275090397877768 0.971348136259624
-0.049526793299798 -0.274729673964588 0.977048829630788
-0.0477410643948361 -0.27496476963494 0.987487647475583
-0.0468153314279603 -0.27619977868367 0.999999999999999
0.313053982042049 0.107810922524526 0.285809841759685
0.311369978962448 0.111876465598376 0.303834880078011
0.312074719526044 0.110175071371788 0.302182390040804
0.313116377300597 0.107660287045112 0.323467305510279
0.310473288660124 0.114041267487496 0.325668071805795
0.312794545792013 0.108437257037934 0.341912957808918
0.312439996810487 0.10929321399766 0.342712145661919
0.311401997681761 0.111799165571961 0.34805466734052
0.31259969079242 0.108907678620646 0.35417119008252
0.312082677988939 0.110155857942731 0.377829435142891
0.313109179206083 0.107677664782513 0.378809103613344
0.314791585347741 0.103615977057899 0.383555628519793
0.311539299353692 0.11146769001345 0.400917143261227
0.312786816981622 0.108455916036801 0.410409155651753
0.312311287717518 0.109603945235507 0.421428331387344
0.311615321413232 0.111284156526268 0.428768659381434
0.312487172517323 0.109179321766402 0.432987843238886
0.311617975597044 0.111277748759711 0.449872176645487
0.310650334618523 0.113613840733565 0.451057837727997
0.311557859185075 0.11142288261681 0.459466703121093
0.312500018984918 0.109148307650107 0.470595385041455
0.311746874565234 0.110966559122531 0.477234879717506
0.311128921657658 0.11245842941291 0.490237750292407
0.311983336479416 0.11039568956233 0.495541942341715
0.312948617199189 0.108065295757155 0.496192112332371
0.310365140894932 0.114302359288963 0.515121089986532
0.312190234543534 0.109896193449906 0.523218416837947
0.313850211820669 0.105888653794216 0.530257269382353
0.311806701422269 0.110822124312884 0.535499467108156
0.311263161269482 0.112134346321437 0.55365815173016
0.311232855963822 0.112207509801373 0.56005695940326
0.310892019407902 0.113030362037227 0.572296649726665
0.312192369405403 0.109891039437431 0.578350154104049
0.311457614641511 0.111664894353435 0.591536838025225
0.313191951024242 0.107477835936528 0.591182604461983
0.313237492745604 0.107367888495162 0.598127184647464
0.31137468748452 0.111865098220533 0.611509853798712
0.31256231680536 0.108997907407087 0.627825024712995
0.312423316753646 0.109333483217106 0.629410516878986
0.311685040927347 0.111115838729732 0.643274986775792
0.31164256998195 0.111218372662115 0.653588486361821
0.310433924299423 0.114136301460977 0.657308177101043
0.314865425830773 0.103437710362312 0.66668282322926
0.311386378556716 0.111836873475478 0.676356796951244
0.312314834086433 0.109595383543574 0.691161214919994
0.313519247771929 0.106687671689343 0.693661680886085
0.313591151164462 0.106514081543907 0.701783246786272
0.312780389112578 0.108471434285425 0.714618387237449
0.313645715062428 0.106382352641424 0.720755404634205
0.313491297485798 0.106755149649192 0.73000648634944
0.311094856203741 0.112540670693765 0.73683570044691
0.312093745656483 0.110129138229645 0.755461259519702
0.31407268875149 0.105351546970514 0.760156011991704
0.314673364677388 0.103901387003621 0.767924711292629
0.310871643521231 0.113079553779173 0.776091038953006
0.310331992595723 0.114382386362483 0.785712812117464
0.313105802221926 0.107685817543463 0.785659007775974
0.31250166511097 0.109144333550266 0.805117386442169
0.312283013601248 0.109672204990468 0.818972822449606
0.311853074402343 0.110710170035462 0.825812147451859
0.315135153166897 0.102786530969298 0.825473883449044
0.310213620186923 0.11466816263722 0.843430725179108
0.311400856455961 0.111801920734767 0.846568217137559
0.314777831746245 0.103649181189162 0.849621288314793
0.306935092535372 0.108069328543323 0.866806468895315
0.309511600765571 0.0993058534308221 0.869751423942805
0.302925414827817 0.105782999907889 0.880663213029391
0.304592329907468 0.0999187353484683 0.882793825208053
0.300445054320403 0.100960230010097 0.893181756234032
0.299920209857897 0.096435133529499 0.899888853913378
0.297323859907818 0.098670099545937 0.904559098841328
0.297831817346366 0.0937944332807586 0.908784886703988
0.292883068330594 0.0941364975845977 0.922223290870519
0.296185268748072 0.086518416706444 0.921813216509101
0.291496036994981 0.0852665458428951 0.936371833935861
0.289539533031522 0.0855921772119897 0.94146428123981
0.290004422086064 0.0804291263263361 0.946143248106032
0.289348764790951 0.0795273645297184 0.949020375292363
0.287833110260618 0.0733903497303575 0.957514600695705
0.284921580309301 0.0728768602786299 0.966451997056071
0.280191558587607 0.079199069455018 0.980104956110123
0.282092595226129 0.0727222925199891 0.983232705128769
0.281728366000979 0.0754888881549019 0.998433033399005
0.281705591983903 0.0741658808278549 0.999999999999999
0.236824290562004 0.0236816902997932 0.962499999999999
0.223042992577071 0.0129667296171785 0.962499999999999
0.216680183900246 0.0117765869370259 0.962499999999999
0.204162699993108 -0.00841922462073287 0.962499999999999
0.199900484719817 -0.00974117175274176 0.962499999999999
0.196280216916368 -0.01807037590298 0.962499999999999
0.180665234602757 -0.0408538626682491 0.962499999999999
0.177215178056495 -0.0449810127751221 0.962499999999999
0.165459466624973 -0.058810490817255 0.962499999999999
0.154406627800577 -0.0622816431035631 0.962499999999999
0.135758388747854 -0.0815995283660748 0.962499999999999
0.131193668029108 -0.0871001752147179 0.962499999999999
0.124722608100476 -0.101203068187018 0.962499999999999
0.115250339053273 -0.114474517132519 0.962499999999999
0.110059151746015 -0.116935911120288 0.962499999999999
0.100152115024648 -0.134171100425034 0.962499999999999
0.0901983254412874 -0.138339722647666 0.962499999999999
0.0804938188574228 -0.151791961741605 0.969711562238672
0.0804938188574224 -0.151112022121618 0.971782131611539
0.0804938188574221 -0.151531502479786 0.979998345256663
0.0690049832575007 -0.160561971450806 0.987499999999998
0.061799619538626 -0.163926471085666 0.987499999999998
0.047472589384241 -0.182866544613484 0.987499999999998
0.033615395901069 -0.198694985672953 0.987499999999998
-0.00203983758271743 -0.247209256479611 0.962499999999999
0.0222063999259209 -0.212593303730695 0.987499999999998
-0.0213175137008096 -0.262436212794083 0.962499999999999
-0.0330314105362311 -0.276901332304071 0.960703120225714
-0.0325725918682971 -0.276961736927645 0.966634462578869
-0.0371729375585911 -0.276356089927752 0.98374833808318
-0.0303913148586996 -0.277248907493888 0.994408165750463
-0.0397766408028212 -0.283177704160324 0.999999999999999
0.315635444708975 0.101578720343274 0.286460011435276
0.316180533766725 0.100262758947353 0.300913702744685
0.317222926670681 0.0977461998613006 0.303755591588007
0.317334328527434 0.0974772519878533 0.304986133218822
0.316293870077937 0.0999891408877151 0.32261963749014
0.315160716267348 0.102724816185494 0.327878458978857
0.315700744805059 0.101421071965683 0.342257710914482
0.315930432301495 0.100866557296679 0.348048457328124
0.316480049595095 0.0995396637723561 0.355288485199554
0.317734826278279 0.0965103648860626 0.363285415984435
0.316916277162831 0.0984865172620459 0.370226316504449
0.316415332950356 0.0996959035737974 0.380691116475449
0.314924879954268 0.103294175411032 0.392684348047846
0.316749043691365 0.0988902545769419 0.408527766991253
0.314246881607631 0.104931008214749 0.418032884786102
0.318082372918467 0.095671313073764 0.420916197379786
0.317755299374394 0.0964609384597586 0.422921484010754
0.317092037088776 0.0980621952651082 0.44539909434727
0.315832057859951 0.101104054207646 0.444578344606799
0.31537461273396 0.102208424434855 0.458043381891638
0.318019277261348 0.0958236394649089 0.465290926803165
0.316763806398877 0.0988546142482497 0.476323294515122
0.317933268960474 0.0960312818713558 0.484368143742832
0.317681322167582 0.0966395352357503 0.491659514870932
0.314387117252958 0.104592449417873 0.498621275880693
0.317708970042695 0.0965727873606833 0.510165360949955
0.31651844360562 0.0994469724314318 0.522894869202646
0.317029836391049 0.0982123610331509 0.533001562151064
0.317025997260368 0.0982216295145067 0.536692420101495
0.316235287433439 0.100130571902583 0.550135885715809
0.317058368495788 0.0981434784389263 0.553221228367345
0.317502509361455 0.0970712275374289 0.565177900370175
0.318781531516408 0.0939833949043659 0.572318023752352
0.314783183274099 0.103636261458038 0.579805595386522
0.316622631308139 0.0991954410669788 0.59199393992789
0.316803382748709 0.0987590684877359 0.594695673002813
0.316465761025984 0.0995741594296891 0.613961720309882
0.316538942515255 0.099397483685778 0.621600104579596
0.314706998863737 0.103820186894777 0.63316131399319
0.31470385230828 0.103827783351635 0.639019761058866
0.315719753156734 0.101375181745271 0.640763952404862
0.318370504635454 0.0949757015748638 0.652487873394988
0.31669180839536 0.0990284328048051 0.662423245573239
0.315907514248075 0.100921886372071 0.66867738863425
0.31430839236803 0.104782508102761 0.687940089973619
0.31711596697604 0.0980044234067304 0.689334997761102
0.317969736027415 0.0959432425837656 0.700064222264407
0.318185287892241 0.0954228543483082 0.710516580428693
0.315775311868098 0.101241051150789 0.71971602574887
0.317009265810992 0.0982620228065107 0.725172059098698
0.316157785363347 0.100317678451308 0.739443337206691
0.316776401464754 0.0988242070693909 0.746450952789479
0.315646880362054 0.101551112234516 0.755454315083528
0.317321353658741 0.0975085760918221 0.763897143748231
0.314712208339116 0.103807610108665 0.775011748414587
0.317619424626306 0.0967889691193776 0.784746103823632
0.316245784047014 0.10010523083573 0.793393127094716
0.31573887794063 0.10132901043261 0.798613997669129
0.31513755113601 0.102780741759745 0.808690419625901
0.316831121520691 0.0986921011682143 0.815510086062326
0.315134596621016 0.102787874589915 0.826614137626322
0.314674491857792 0.103898665749402 0.836929653949204
0.317360141639947 0.0974149336215371 0.842351946122309
0.316180100036888 0.0967739876602288 0.8540410588739
0.315189107136642 0.0932144893126862 0.860933179226557
0.312767042511131 0.096921727076675 0.863411372902434
0.310366332275906 0.0907181845602581 0.877306124406183
0.309739844052536 0.0896654213806296 0.880276560924311
0.30917584158397 0.0859899699630742 0.886109274702113
0.305132185985117 0.0876742412830182 0.895463222768185
0.304460169169504 0.0833332626563878 0.902368548331975
0.302422790775251 0.0843356611539206 0.90690341746848
0.301674099929889 0.0740358315571622 0.915736693803952
0.297124397999423 0.0845632496950038 0.921451827967262
0.29676243919148 0.0727987362423504 0.930960276083026
0.293513818749589 0.0747751326927906 0.939925544821928
0.29287775233567 0.0735618213393724 0.942312950473772
0.29105269835099 0.0677376716875703 0.950088403971758
0.287693795388943 0.0691153752156342 0.959620978526687
0.284231861982576 0.069629392104862 0.969803763923982
0.284408511237813 0.0595294238507695 0.973262874296885
0.284102093905814 0.0591326668023199 0.97433882846197
0.284142555105118 0.0571513013382419 0.989896558641095
0.282927746901667 0.0636253665399548 0.999999999999999
0.276926200162721 0.05496327274693 0.999999999999999
0.225365160307358 0.00208746968349875 0.962499999999999
0.226127439429231 -0.00156258887201308 0.962499999999999
0.214655309553986 -0.0170599988746914 0.962499999999999
0.209971311773821 -0.0198012634085209 0.962499999999999
0.197389048017505 -0.0286009426626962 0.962499999999999
0.192735995843435 -0.036828351807857 0.962499999999999
0.184260124042211 -0.0525607687211575 0.962499999999999
0.170302919762016 -0.0678309378402188 0.962499999999999
0.164901779174368 -0.0696721341334672 0.962499999999999
0.158712388754116 -0.0852908551488651 0.962499999999999
0.143455881734986 -0.0997751838225799 0.962499999999999
0.12430346866302 -0.115041090231592 0.962499999999999
0.122727223909007 -0.113329149943194 0.962499999999999
0.11500746458042 -0.1207068638656 0.962499999999999
0.0932301102142964 -0.148978642586419 0.9625
0.0873479456870233 -0.150309623766745 0.962499999999999
0.0794413220418901 -0.165805740900538 0.962499999999999
0.0789475199708951 -0.163558704051498 0.971310036337572
0.0717214065366515 -0.180507054419939 0.968229550319926
0.0724765535655633 -0.179180998908909 0.984076910813163
0.0664868813712709 -0.182256715869735 0.987499999999998
0.0587575911100827 -0.189563124287511 0.987499999999998
0.0421593003922631 -0.204234100154972 0.987499999999998
0.00416474366064112 -0.250035562375553 0.962499999999999
0.00545247945657676 -0.250175682864573 0.962499999999999
-0.0185271211536448 -0.278810858227019 0.955900301009979
-0.0168963868407399 -0.279025548472214 0.96202976803944
-0.0229130496882761 -0.278233439781195 0.976288439023317
-0.0211987594624036 -0.278459130371021 0.989091090156818
-0.0260387669629034 -0.277821931295238 0.995833296574904
0.320416676252702 0.0900358063055605 0.291585943533075
0.321215075494654 0.0881083000274513 0.29188549378877
0.322197275140221 0.0845867598198813 0.292756030927253
0.319743239468632 0.0916616265230658 0.303817528722604
0.322031062410401 0.0858492708460023 0.317382504617275
0.319789605642088 0.0915496886782715 0.325617376423997
0.320205490505038 0.0905456538017513 0.341544974151239
0.322164004735649 0.0848394736322433 0.342294811446135
0.31954443371421 0.0921415860716676 0.358997119942533
0.320130283970299 0.0907272184378984 0.36854996135043
0.318927900401521 0.0936300291568163 0.371673142397084
0.321919324970079 0.0864080913925876 0.378712064796507
0.319977883431079 0.091095145886598 0.385023730628633
0.320337621809367 0.0902266606148255 0.397945361362962
0.319829751239412 0.0914527686327423 0.409358934629121
0.32015359523245 0.0906709400726569 0.412455370010756
0.319211027587137 0.0929464996654252 0.428427162291043
0.320492881943241 0.0898518294939336 0.425196384856742
0.321613622072771 0.0871461234733247 0.441663427589709
0.319746764069978 0.0916531173826936 0.459700017602344
0.321353285380386 0.087774631846865 0.453024673809599
0.320559065638257 0.0896920479198164 0.467000246303063
0.320707549253164 0.0893335767629172 0.47716024355803
0.320343085846809 0.0902134692615305 0.486395669519961
0.320374904684752 0.0901366517914288 0.501784296971529
0.321635016331305 0.087094473164214 0.500704714395784
0.319788797935586 0.0915516386542632 0.519423212190399
0.318764258085346 0.0940250966559048 0.527314795387523
0.321648111939576 0.0870628575691198 0.533513422758786
0.320884135841858 0.0889072590255608 0.53888593498715
0.319800173326459 0.0915241760313398 0.552237446475093
0.322186965834274 0.0846650667729325 0.559246625406654
0.320226733324347 0.0904943690992729 0.570870318311757
0.320543518935866 0.0897295809795791 0.578769092199376
0.321631124087746 0.0871038698714029 0.588457081792366
0.319032716426815 0.0933769808869995 0.601658945923538
0.319823120923322 0.0914687756317674 0.614779779594969
0.320341894707462 0.0902163449262956 0.606077120994114
0.321081496645487 0.0884307878967585 0.624080551215655
0.318849790845894 0.0938186023053614 0.634305495155811
0.32025196336925 0.0904334583826887 0.635112883517148
0.319905365524374 0.0912702196004766 0.650758524896256
0.317689939811741 0.0966187304023453 0.660000372219981
0.319364820039608 0.0925752118408788 0.674014637706387
0.319045264760769 0.0933466865289796 0.678050334255267
0.319591483363717 0.0920279981697205 0.696123625055505
0.320039156871165 0.0909472187165264 0.702384768427888
0.320032104922697 0.0909642436261593 0.707239453181837
0.320660291509839 0.0894476670477792 0.718980503457634
0.321286521597965 0.0879358138758623 0.723077502758632
0.320224455564257 0.0904998680985744 0.739673505546336
0.319941359210369 0.0911833231555899 0.743980555512617
0.318342777960836 0.0950426396887683 0.757361312946122
0.320594770987774 0.089605847580765 0.760337802701743
0.319619014613535 0.0919615318530218 0.774361032789029
0.318695180478176 0.09419186475199 0.781558020449184
0.320542439570514 0.0897321867980517 0.787244468093566
0.32152075255359 0.0873703303260628 0.795476073045158
0.320306917591052 0.0903007871551044 0.80120465087926
0.321993788854957 0.0861323916080632 0.809138054587399
0.319257152344991 0.0928351446494541 0.823147396831974
0.320471957864163 0.0899023446894209 0.831535250897892
0.320805334127111 0.0890975031940399 0.833906413984388
0.318657270556355 0.0891809304973136 0.855908424553473
0.320346142988026 0.0835979639912048 0.855943928777931
0.31618153692022 0.089717490553849 0.862208160639808
0.316476218027844 0.0822054521169984 0.868103686656958
0.310036568654278 0.0872890310455192 0.882198808288195
0.311428561960843 0.0804653688169358 0.883933913795348
0.30717431641251 0.0812431018122993 0.896389478966461
0.307328965789069 0.0749991331309049 0.898391633052073
0.304549814521798 0.0769580200011473 0.905955409807012
0.303521293944876 0.0707657645261981 0.911486649234703
0.302235858985438 0.0692768476028957 0.915931013007979
0.299161562739016 0.0683688633567204 0.92551251692858
0.298289528884519 0.0637167282103309 0.929966014125481
0.294827980237248 0.0649445262131805 0.93986573204647
0.292862380264425 0.0597722713139538 0.947805352791866
0.29150298587479 0.0520589426685272 0.95492997290342
0.289230045187933 0.0509356445309992 0.962192449980011
0.287442823519533 0.0570084613888524 0.965155610465029
0.286366432475804 0.0459269862725843 0.972761495224246
0.28507140946913 0.0500959519826737 0.981939178864252
0.284341840832366 0.0556375759558919 0.992920184460945
0.282291546007915 0.0505907515436801 0.999999999999999
0.239918361476373 0.00472699375557732 0.962499999999999
0.225202114056925 -0.0172007932969896 0.962499999999999
0.226702902311978 -0.0144667664410838 0.962499999999999
0.208533136667492 -0.0306314896689781 0.962499999999999
0.205072942084117 -0.0387596726814014 0.962499999999999
0.194394143056565 -0.0493516373650177 0.962499999999999
0.181933641646388 -0.0636624130510636 0.962499999999999
0.178134880838391 -0.065785186675466 0.9625
0.166100224545036 -0.0816204546407796 0.962499999999999
0.157462056700897 -0.0896870352518377 0.962499999999999
0.157596949543131 -0.0967067921619406 0.962499999999999
0.145082646494587 -0.116756750281358 0.962499999999999
0.132567201118771 -0.122037351119112 0.962499999999999
0.127200219999757 -0.125571543638433 0.962499999999999
0.106093057947753 -0.147903630432968 0.962499999999999
0.0970909269754683 -0.160830185605154 0.962499999999999
0.0831651297298712 -0.173948135888849 0.962499999999999
0.0789224671820993 -0.176643277375885 0.962499999999999
0.0672846965483567 -0.195273382892578 0.962499999999999
0.0548815912953914 -0.204272504168357 0.962499999999999
0.046146754232466 -0.219882767235828 0.962499999999999
0.0393410149936538 -0.225504311609213 0.962499999999999
0.0241254389303793 -0.235585903287921 0.962499999999999
0.00998486407529658 -0.257712235436398 0.962499999999999
0.0110454360175118 -0.25981485400918 0.962499999999999
-0.00738137992863363 -0.280278222896754 0.95698892749273
-0.0101534357648636 -0.279913274822463 0.970535191962219
-0.00313907332961155 -0.280836733156047 0.97779680062708
-0.0133233931265555 -0.279495942018551 0.992672575617762
-0.0188338075860902 -0.283762942136234 0.999999999999999
0.322486811691623 0.0823875113687852 0.277439581231697
0.322830563938102 0.0797764538288298 0.285445415530812
0.322998516268871 0.0785007292216511 0.284911763556341
0.323296557316972 0.0762368827047828 0.299944012050259
0.322812704920855 0.0799121065325394 0.318063717721455
0.323523508130327 0.0745130201308488 0.323275453204786
0.322415894169598 0.0829261834283789 0.329823211100424
0.3237858058598 0.0725206710734547 0.337039581873636
0.323042566663369 0.0781661332564789 0.352789308345381
0.322825984862459 0.0798112353614786 0.354791899287604
0.323155875564959 0.0773054667012164 0.371031704625018
0.322853629514704 0.0796012533805 0.378547250888321
0.323620613692584 0.0737754301569742 0.378143806194681
0.322256650448908 0.0841357595747319 0.396042606714239
0.322929091244068 0.0790280646393258 0.394780913541871
0.322071308557221 0.0855435710107707 0.415342519817159
0.322764303765351 0.0802797498085183 0.422904183852266
0.32234645004029 0.0834536639591664 0.438799967573366
0.32287635375058 0.0794286456723884 0.437169347829339
0.32283504663212 0.0797424043873095 0.446621908190223
0.323406456933831 0.07540211223804 0.450178969538754
0.322844464499854 0.0796708685797368 0.460941000907176
0.322437918996054 0.0827588882622382 0.476010036713714
0.323883403449308 0.0717793437815545 0.47745614169514
0.322237466129892 0.0842814789447902 0.493973673231045
0.322852118899391 0.0796127276429755 0.497631751764678
0.322103274266687 0.0853007673416279 0.514008559900911
0.322334950973901 0.0835410080399865 0.521384819932194
0.323175595043648 0.0771556823898644 0.525378241989719
0.322274751639251 0.083998267383734 0.542350372898173
0.322674390885265 0.0809627059372151 0.545300259144734
0.323340965404434 0.0758995697918065 0.553047647676619
0.322960083741905 0.0787926532464187 0.56733923361396
0.322324287153882 0.08362200779475 0.578998803356728
0.322289863335059 0.0838834826581532 0.585224655746448
0.322293678826436 0.0838545011238342 0.592716428776927
0.322707394779434 0.080712016472352 0.605532323205022
0.323004809547105 0.0784529270276247 0.611269972450147
0.322226564229326 0.0843642871008541 0.62432545443482
0.323246964200803 0.0766135798208854 0.632889992241208
0.321996008021577 0.0861155353640803 0.64509254941896
0.322280077267022 0.0839578152246902 0.648399368177506
0.323325820993388 0.0760146030142891 0.646723048134353
0.322657983183533 0.0810873348051289 0.667812144522835
0.323156429550753 0.0773012587613478 0.676569796814739
0.322704903646769 0.0807309385035315 0.68438958813407
0.322937982332815 0.0789605301154165 0.689883058857285
0.322295822899441 0.0838382152724839 0.708558710557406
0.322682349436232 0.0809022547409836 0.717004087647949
0.323314306444855 0.0761020646936698 0.717003703896503
0.322057221331273 0.0856505741152035 0.725962677264809
0.323150687191888 0.0773448763073129 0.739100979636605
0.322804387010168 0.07997528733685 0.743982486373189
0.323231029667659 0.0767346146165463 0.751735693426707
0.322795264135921 0.0800445824464336 0.762766658691275
0.322462371471203 0.0825731532735551 0.782566694679904
0.322762672624591 0.0802921395526544 0.789414113986564
0.322590030388895 0.0816034875244747 0.79218234923497
0.32270450080064 0.0807339984236718 0.805691713790057
0.322716968199114 0.0806392991304425 0.807436757172519
0.323010832320848 0.0784071795191954 0.818458258248085
0.322467068419432 0.0825374764097313 0.834948082906642
0.323497393819666 0.0747113780134524 0.830943976273755
0.322937508768701 0.0789641271919774 0.849258360307833
0.321121651376233 0.0826981610072892 0.853972787543819
0.318973016001207 0.0815786542972037 0.860860851232244
0.318339796470914 0.0720868662135887 0.866509362646455
0.314508239525146 0.0731047658519183 0.877602006394719
0.313867348471239 0.0718913837125068 0.880003913923986
0.313437890376259 0.0664935145889431 0.883424217064225
0.309567016886569 0.0642836897697479 0.89590962440333
0.306872652366353 0.0630543182367613 0.904478267462323
0.305161731837291 0.0592608787296417 0.911109276406182
0.302701033285237 0.0593036980159163 0.918474460264395
0.301070372299582 0.0595165059706633 0.923282393125115
0.300383511722012 0.0587086345042972 0.925662049746655
0.298426505092079 0.0502851757731369 0.934859977777299
0.297142953711646 0.0439948218024409 0.941195054351452
0.294349728178401 0.0457715608512766 0.948872994551165
0.290891874660301 0.0470149760501777 0.958755458956044
0.291330980999536 0.0431395515559005 0.958968767879989
0.288662990466341 0.0383967512565002 0.968845943994498
0.286608296447074 0.0384221363991622 0.976592018556772
0.287479232115134 0.0318067232165806 0.986915274663835
0.287305059704905 0.0331296940178956 0.992903784543983
0.28065762543835 0.0335619189953553 0.999999999999999
0.236332693210287 -0.0122908274871777 0.962499999999999
0.230384637039398 -0.0283820768965556 0.962499999999999
0.216655628420238 -0.0342377354349782 0.962499999999999
0.213776903563197 -0.0471632620383587 0.9625
0.19730475730529 -0.0611483824175254 0.962499999999999
0.198187763151281 -0.0670423007725813 0.962499999999999
0.18935115642605 -0.0785016403359992 0.962499999999999
0.176138054118701 -0.0895988336814293 0.9625
0.168806028594724 -0.094260198319703 0.962499999999999
0.156722226200817 -0.108283718371526 0.962499999999999
0.145996664679362 -0.12133498305044 0.962499999999999
0.142360012355754 -0.124523731213797 0.962499999999999
0.12886435633033 -0.143260259701471 0.962499999999999
0.117091876348112 -0.149309838163716 0.962499999999999
0.104717708785058 -0.157379671077064 0.962499999999999
0.0913183178911591 -0.186356142202278 0.962499999999999
0.0852903090024216 -0.192429316597398 0.962499999999999
0.0811354445649311 -0.193656455751624 0.962499999999999
0.0749990913876256 -0.210728687621763 0.962499999999999
0.0545540158620857 -0.229825046290383 0.962499999999999
0.039507229132123 -0.24462395927385 0.962499999999999
0.0285755827958855 -0.25619798578808 0.962499999999999
0.0190101946693873 -0.264770712103703 0.962499999999999
0.00187800806102009 -0.281002755548278 0.957519129716731
0.00307701864522632 -0.280844902810234 0.958620843045893
0.00085694938940789 -0.281137180472579 0.972748102323875
0.00313955784785314 -0.280836669368011 0.98741255166913
0.00660454154406632 -0.280380495610304 0.996619478628158
0.324512201341149 0.0670031496085253 0.266379301508384
0.324430724358743 0.067622028732731 0.283339075867384
0.325072440610101 0.0627477098772713 0.286610507106142
0.323996624196257 0.0709193468272684 0.289657419345326
0.324738572455811 0.0652836902833335 0.298963309727097
0.324075401223825 0.0703209758961296 0.317257929106736
0.325166389305253 0.0620340986896889 0.321190915798094
0.324352816241215 0.068213799636857 0.333474281036482
0.323599556919842 0.073935372225129 0.346597484596332
0.324953706396144 0.0636495857712582 0.347918472758344
0.324600703018956 0.0663309126253415 0.358528711626035
0.324399928362582 0.0678559475472282 0.372653570208966
