ply
format ascii 1.0
element vertex 832
property float x
property float y
property float z
end_header
-0.102551450262669 -0.251530616260444 0.433743845682606
-0.103748507190898 -0.251034779045839 0.449579994474775
-0.0983633619569467 -0.253265379237089 0.454017029888621
-0.100380625749792 -0.252429801215209 0.463465565930721
-0.100353200916523 -0.252441160953095 0.477203670506238
-0.098765109053922 -0.253098970140878 0.48260420947219
-0.101682113330236 -0.251890707408128 0.487911788415853
-0.100527391482558 -0.252369008858205 0.499241460598584
-0.0962544398550843 -0.254138923373669 0.511197868405812
-0.102094432431387 -0.251719919244407 0.511453806052091
-0.0988497725229893 -0.253063901383753 0.532295571578277
-0.105180230682205 -0.25044173975817 0.532930803094122
-0.100210786144666 -0.25250015108308 0.545374243384124
-0.101544192859767 -0.251947835937526 0.557947650471246
-0.0966993285667735 -0.253954644435541 0.566710295405261
-0.103163052791339 -0.251277282198286 0.574887298570221
-0.104188164080388 -0.25085266719942 0.580249614299338
-0.0988268234268088 -0.253073407210635 0.595710910417524
-0.0995739592682047 -0.252763933412194 0.60500700084851
-0.10179897054478 -0.251842303565003 0.607079037630943
-0.102577562303968 -0.251519800298795 0.621299325308926
-0.103240874481228 -0.251245047398887 0.627812641778637
-0.0963257843500904 -0.254109371516236 0.644261572815929
-0.101852823822497 -0.251819996806995 0.646866917785538
-0.105261310227312 -0.250408155510956 0.65810265366532
-0.10322256375726 -0.251252631949092 0.664277471305071
-0.0995379371996784 -0.252778854241522 0.673044142927831
-0.103942436734935 -0.250954450798553 0.68827592316323
-0.103500435983576 -0.251137533504345 0.692870953921734
-0.101243197977478 -0.252072512099975 0.703238253096216
-0.0991947210973249 -0.252921019005942 0.715304453209554
-0.101645568992739 -0.251905844568348 0.720084868330188
-0.0992210725849804 -0.252910103862366 0.723148898064461
-0.100124405650288 -0.252535931055376 0.736251580138269
-0.0973715816655436 -0.253676188084683 0.75458499222416
-0.10423300711042 -0.250834092608203 0.754391377778221
-0.101503847020049 -0.251964547731523 0.759919415141838
-0.0973590295692443 -0.253681387333206 0.778448497250172
-0.102146937056646 -0.251698171116537 0.787310307278707
-0.103060328344835 -0.251319832057215 0.788294194404041
-0.104690995271576 -0.250644387700446 0.798295511029434
-0.0965287629221003 -0.254025295038839 0.817842094249196
-0.096181660016071 -0.254169069770056 0.828039174938314
-0.104915339371001 -0.250551461331826 0.830814436477732
-0.10479503921161 -0.250601291289401 0.835828308334154
-0.102650389232971 -0.251489634397097 0.839910259331426
-0.0973529616539666 -0.253683900746009 0.851146696556068
-0.100626710086665 -0.252327869745389 0.864740516889277
-0.103515210211678 -0.251131413818691 0.870268886105308
-0.104893508065061 -0.25056050415483 0.883058169026792
-0.101470448176516 -0.251978381985481 0.893014556672729
-0.104796640783838 -0.250600627896463 0.894550243011481
-0.105343695998376 -0.250374030207234 0.910963365871626
-0.101040891311125 -0.252156310264936 0.920808846737302
-0.0964923420438298 -0.254040381060572 0.927888107286736
-0.105316746140905 -0.246429685230439 0.935161262172252
-0.0992535603006902 -0.24204776227086 0.941529911876051
-0.0975054331252948 -0.236051291261473 0.947738908016611
-0.103873012009702 -0.228570188474318 0.952213778818936
-0.105201558791973 -0.225701959770809 0.954355263769973
-0.0982598616347898 -0.218761596332853 0.96342379599304
-0.10132370237575 -0.213416666432204 0.967189386239986
-0.0980746463215454 -0.21020548796376 0.971399488224992
-0.104102966158841 -0.202980456158895 0.975767609104519
-0.104006364616427 -0.195410854678995 0.982797976790889
-0.0985488229937523 -0.193879397100495 0.987819192408938
-0.103292207605471 -0.19191462286277 0.993786661582564
-0.102483740796456 -0.186842758890503 1.0
-0.103462282649028 -0.151815431610002 0.986301369863014
-0.103244790576003 -0.137880936124882 0.986301369863014
-0.101065680679107 -0.122027393176885 0.986460957653765
-0.108480333058629 -0.0989440058773274 0.979452054794521
-0.107525597631385 -0.0759457157200013 0.979452054794521
-0.107697083738033 -0.0664468538684973 0.979452054794521
-0.111589691072833 -0.0604636913080093 0.979452054794521
-0.110149227865976 -0.0498139021596706 0.979452054794521
-0.105149104040561 -0.0256529493601559 0.97945205479452
-0.110551356358573 -0.0220970429127695 0.979452054794521
-0.107905661052864 -0.00177139602830391 0.979452054794521
-0.111770711195443 0.000785533847268144 0.986301369863013
-0.11019183210306 0.0214915878652335 0.986301369863014
-0.113238949521187 0.0324849478415036 0.986301369863014
-0.113213949128393 0.0471137441670112 0.986301369863014
-0.11238855186545 0.0758540599137541 0.986301369863014
-0.107701594293161 0.0805738297503033 0.986301369863014
-0.118943823299363 0.110293820867226 0.986301369863014
-0.112487369153214 0.107476444812525 0.986301369863014
-0.114675533206955 0.126682115648523 0.986301369863014
-0.111011495961292 0.148517080076017 0.986301369863014
-0.113298516203961 0.168891145763272 0.986301369863014
-0.11774926331018 0.174327978097214 0.988461838459907
-0.11334935203404 0.177704148764109 0.991691977240487
-0.0917196593001538 -0.256017290981907 0.248724571312119
-0.0886709984620023 -0.257280087648145 0.262741907712657
-0.0933355855040347 -0.255347952432466 0.270164137701068
-0.0919573759435346 -0.255918825524217 0.272432586690445
-0.0948606751605965 -0.254716239612883 0.282853992665917
-0.0895630349731716 -0.256910594027087 0.294819464024945
-0.0914087211552738 -0.256146085778576 0.308931265323307
-0.0884521412507297 -0.257370741273278 0.311904645255113
-0.0940764521278483 -0.255041075428973 0.316653807200247
-0.091059339816941 -0.256290804267353 0.331281336141529
-0.0887872179517563 -0.257231947959277 0.347029630000344
-0.0887085047582974 -0.257264552031545 0.347011602304057
-0.0932913289337944 -0.255366284104083 0.355372709884928
-0.0900257389148882 -0.256718935779064 0.364500687445551
-0.087657365821217 -0.257699948035222 0.375684162342728
-0.0897601009001835 -0.256828966647437 0.388937976453455
-0.0947339859809865 -0.254768715989283 0.389143704003133
-0.0903594911805421 -0.256580691064158 0.408875040914193
-0.0878189934743718 -0.257632999669231 0.418937644035225
-0.0882178508358404 -0.257467787540659 0.419415017232962
-0.0912440930349283 -0.256214276978771 0.42365498637866
-0.0867931457167821 -0.258057919723355 0.444863132984987
-0.0895524700870097 -0.25691497014622 0.452278132226621
-0.0960359954738456 -0.254229405999003 0.448634031077248
-0.0929712265453287 -0.255498874854734 0.461957778886126
-0.0920221891644194 -0.255891979009105 0.470497251266822
-0.0953986569446838 -0.254493400261604 0.489418738454913
-0.090959551311549 -0.256332138019656 0.49263327094909
-0.0887634109205841 -0.257241809154468 0.501508471947109
-0.0928949160551527 -0.255530483694716 0.511919082397583
-0.0927266609138627 -0.255600177256177 0.521670739185599
-0.0928871006160103 -0.255533720955605 0.531891435406689
-0.0946189972163604 -0.254816345895112 0.535108358692581
-0.0933055524204671 -0.255360392542999 0.547867019084412
-0.0889217172054475 -0.257176236544269 0.553433737968916
-0.0924367017405208 -0.25572028227831 0.566256409143183
-0.0940608747186445 -0.255047527803131 0.574600626693318
-0.0875889914069323 -0.257728269644938 0.584604018503252
-0.0949918094766731 -0.254661922000671 0.596065604989851
-0.087430178620122 -0.257794052055114 0.604113626854287
-0.0926398813745025 -0.255636122518317 0.612955739104306
-0.0911391430144011 -0.256257748700644 0.624859017863407
-0.0956402880937966 -0.254393313362549 0.62446696065905
-0.0889973951409023 -0.257144889717032 0.641483374543533
-0.0901780733052516 -0.25665583680856 0.644365343807075
-0.0872429580169333 -0.25787160136811 0.661352257142219
-0.0921627590860806 -0.255833753041092 0.665653182807262
-0.0956385395205585 -0.2543940376453 0.673763311424578
-0.0959452008374895 -0.254267014368772 0.686826273863522
-0.0942823490241677 -0.254955790142067 0.688833547147156
-0.0874958952279286 -0.257766831344887 0.707878547130884
-0.0955353538856877 -0.254436778534706 0.719031244223411
-0.0888324540046888 -0.257213210572644 0.722232785579185
-0.0927248287262314 -0.255600936173143 0.729959695000403
-0.0916850714155564 -0.256031617752801 0.741566986610469
-0.0893374462111655 -0.257004035951829 0.747365744122356
-0.0956727067420507 -0.254379885118769 0.757649318168575
-0.0956418723117491 -0.254392657157988 0.767739637670841
-0.0933744889274376 -0.25533183810687 0.781687209127992
-0.0939470309778313 -0.255094683424567 0.79208677516813
-0.0873291579575678 -0.257835896183623 0.796473267653285
-0.0934228919359163 -0.255311788924298 0.808119776644811
-0.0934237798196068 -0.255311421150832 0.817170709501945
-0.0885387779842117 -0.25733485516327 0.821062391518677
-0.0953838443755379 -0.254499535828638 0.830931407413359
-0.0934004751775162 -0.255321074249652 0.843991282058629
-0.0906409410468249 -0.256464110712415 0.84588786971593
-0.0929786380332235 -0.25549580491593 0.859110905514409
-0.0930502781577201 -0.255466130604753 0.867175068252412
-0.0924141994820476 -0.255729603018954 0.873173929565365
-0.095461977787506 -0.254467171909726 0.885945905791657
-0.0939779403519855 -0.255081880342588 0.89110706414989
-0.0878403315883793 -0.257624161133014 0.903475301863217
-0.0945703982177891 -0.254836476259438 0.913775803136222
-0.0906737872464051 -0.256450505371076 0.921935096602291
-0.0905686662597964 -0.25490854795906 0.932971660268006
-0.0903617231335732 -0.24737389339075 0.940011967114055
-0.0911104231905167 -0.247884765280526 0.939253467923754
-0.0916318495203846 -0.235172262028746 0.950798748267418
-0.0927745509872661 -0.232390272110022 0.952931678893464
-0.0957521543343205 -0.225488378245043 0.958168717901811
-0.0965131107161658 -0.221249225319867 0.961793979124482
-0.0926899434001788 -0.218280842120553 0.965999470397966
-0.0911854511264287 -0.208311778222483 0.975785428758975
-0.0921181520506731 -0.203274062057102 0.980082742423713
-0.091939746606348 -0.200976237182408 0.982273928602525
-0.0970046499233656 -0.1945190145289 0.995374284231831
-0.0970098395820914 -0.194516864901872 1.0
-0.097402146168159 -0.159369832934519 0.986301369863014
-0.0991970540577371 -0.147456727751066 0.986301369863014
-0.0940078617168208 -0.120233464269336 0.979452054794521
-0.0986798664767155 -0.129254536659502 0.986301369863014
-0.0923123604996324 -0.0973677709395551 0.979452054794521
-0.0988488127540884 -0.0851591520611471 0.979452054794521
-0.101094254595223 -0.0735877878185114 0.979452054794521
-0.0985088046105624 -0.0491716486799664 0.979452054794521
-0.103002740686488 -0.0444249087841981 0.979452054794521
-0.102995105947974 -0.0273113168143273 0.97945205479452
-0.103526529203809 -0.0228516819849376 0.979452054794521
-0.095295663572083 0.00377953935788007 0.979452054794521
-0.102775656961796 0.0139004862504575 0.980145162536262
-0.106000205311088 0.0219374353248124 0.986301369863014
-0.0969445026255973 0.029139241338696 0.986301369863014
-0.0986647564188758 0.0568681570206861 0.986301369863014
-0.100984620229258 0.0737765053693171 0.986301369863014
-0.101647213986451 0.0785032689498535 0.986301369863014
-0.107795431672415 0.104826691867502 0.986301369863014
-0.0991048066279403 0.119040948202046 0.986301369863014
-0.106038108718951 0.139139788012412 0.986301369863014
-0.102392578998096 0.146418874649521 0.986301369863014
-0.101527886421496 0.167760088957472 0.986301369863014
-0.108486560652241 0.170268554317797 0.986301369863014
-0.102352921319314 0.184890042773965 0.997844976077773
-0.0778956644567154 -0.261743377132235 0.250978897182726
-0.084949495150975 -0.258821584791989 0.261469479083378
-0.0781393184782193 -0.261642452332001 0.273740536709574
-0.0834677379538828 -0.259435348719169 0.274178378625372
-0.0836818275437505 -0.259346669907483 0.288675951035896
-0.0811053760415568 -0.260413871062488 0.295284982072798
-0.0805615948933879 -0.260639112589022 0.309466993943328
-0.0840060865171383 -0.259212357442984 0.317483286535545
-0.0815255190512596 -0.260239842129733 0.32325160792611
-0.0842169364055449 -0.259125020559581 0.331109301259858
-0.0839655737329553 -0.259229138387642 0.345994223665452
-0.077967097972092 -0.261713788401358 0.358001510162644
-0.0816671075623156 -0.260181194248177 0.363568887206934
-0.0867384441834972 -0.258080577840324 0.367681713494451
-0.0778835946844208 -0.261748376595614 0.376052483572958
-0.0800310466412172 -0.260858872870564 0.391373054321458
-0.0818652067169082 -0.26009913889165 0.396598154098758
-0.0811863924387713 -0.260380312971987 0.398431615319631
-0.0827409406389802 -0.259736398024098 0.41529912243923
-0.0841040076501152 -0.259171797181662 0.430798543517787
-0.0790298588008977 -0.261273578452508 0.432638190734609
-0.086429516324667 -0.258208539949247 0.446304701978697
-0.0777444447477206 -0.261806014386599 0.449485359315303
-0.0837989901381311 -0.259298139571887 0.467333731626767
-0.086235960866324 -0.258288713245163 0.468966400177534
-0.0838141076848413 -0.259291877679009 0.47876385978542
-0.0845464923606052 -0.258988514013434 0.489480316442477
-0.0777247882225653 -0.261814156385907 0.495063158203389
-0.0855057925492448 -0.258591158864913 0.505896907665131
-0.0860043833817774 -0.258384635780003 0.517441683289693
-0.0826677444331947 -0.259766716885249 0.524450344040605
-0.085383716117888 -0.258641724578427 0.53802956846458
-0.0851880816427265 -0.258722759031307 0.546122489316591
-0.0789578206222635 -0.261303417643107 0.552107040123397
-0.0788863070259772 -0.261333039544582 0.558490714491335
-0.0779517862724939 -0.261720130714994 0.566239723237941
-0.0848569110806835 -0.258859934369564 0.578286040410189
-0.084005270006293 -0.25921269565285 0.587295488073059
-0.079763250177835 -0.260969797797653 0.602075130283045
-0.0804988470605837 -0.260665103592379 0.601867818254946
-0.0791226605886061 -0.261235138693426 0.619460244589655
-0.0818987799830536 -0.260085232389479 0.628483425205612
-0.0816250497944798 -0.260198615146018 0.634269350060282
-0.08658339085401 -0.258144803032289 0.640349499590914
-0.0789761746453363 -0.261295815157826 0.659183638490631
-0.0791611699436772 -0.261219187596278 0.662751836443662
-0.081964400782693 -0.260058051364295 0.675365571369258
-0.0799972674272411 -0.260872864679119 0.680384565015629
-0.0844859242184268 -0.259013602159372 0.682346309301215
-0.0804367901886332 -0.26069080839038 0.698384351320862
-0.080014723486253 -0.260865634142731 0.706614628677665
-0.0790507671460685 -0.261264917932371 0.715092789331249
-0.0856231377190598 -0.258542552904097 0.731392519704761
-0.0851409838849964 -0.258742267561316 0.735311077828863
-0.0843460868190425 -0.259071524706725 0.741803238031644
-0.0844603220334546 -0.259024206931614 0.750940814018366
-0.078753384577813 -0.261388097825356 0.76081883648229
-0.0783499788831959 -0.261555193935205 0.769567126755132
-0.0813006822531892 -0.260332972580814 0.783842004331544
-0.0816687062511466 -0.260180532049581 0.788125726857797
-0.0785654795256805 -0.261465930646388 0.802196911022255
-0.0825083405123843 -0.259832744151143 0.803124831765702
-0.0863315143980553 -0.258249133676388 0.812302951755868
-0.0787907211413207 -0.261372632514379 0.824309305435275
-0.0841405162821442 -0.259156674811132 0.839683389842901
-0.0860713813694701 -0.258356884304849 0.844240516157642
-0.084450610987482 -0.259028229378561 0.851118686209242
-0.0791681052338529 -0.261216314905028 0.861501703190009
-0.084191429541563 -0.259135585848576 0.875685574655909
-0.0813192553384928 -0.260325279356986 0.881985735793229
-0.0784621034803585 -0.261508750406385 0.893589922261517
-0.084467034209734 -0.259021426657166 0.894586555908739
-0.0829575532619148 -0.259646674137897 0.906955447405899
-0.0821564263380668 -0.259978511774937 0.914619723703517
-0.0812932167874534 -0.260336064877971 0.929070618033529
-0.0848471454551076 -0.259016296393399 0.931506849315069
-0.0800998270861609 -0.250643288777407 0.940918497234635
-0.0807466155037365 -0.246877802315123 0.944149837895436
-0.0813520764697386 -0.239215989817566 0.950996729763235
-0.0872706070458704 -0.23520158102157 0.952440636289556
-0.0859411658921345 -0.228908028234527 0.958763876000124
-0.0865060898117314 -0.220879940332783 0.965964675073171
-0.0806101379878437 -0.219553767803435 0.969446181810639
-0.0832692677142631 -0.213059200356871 0.974428774856223
-0.0802562370053498 -0.209505515745546 0.978864988267134
-0.0882946498417213 -0.20101393048303 0.983634022674758
-0.0885897387970894 -0.198004584843568 0.99000693016525
-0.0830306066387512 -0.196345496001253 1.0
-0.0855932466580668 -0.160745874181011 0.986301369863014
-0.0898245536387262 -0.139307807836415 0.986301369863014
-0.0888624770899421 -0.141128756656514 0.986301369863014
-0.0875260917770235 -0.11404850277753 0.979452054794521
-0.0906292854479278 -0.104813155174647 0.979452054794521
-0.0848174456367118 -0.0858919831102268 0.979452054794521
-0.0835368092569606 -0.0755185685040709 0.979452054794521
-0.091185154429451 -0.0579790552624219 0.979452054794521
-0.0873457353423718 -0.0458827899093765 0.979452054794521
-0.0890538355026831 -0.0342263303805702 0.979452054794521
-0.0927574572033747 -0.0144397762277175 0.979452054794521
-0.0937391342829668 0.00722239667519884 0.979452054794521
-0.0948359292804677 0.0183670203135126 0.979452054794521
-0.0859867711504011 0.0351420526353189 0.981970984668706
-0.0881365080968545 0.0329785964880495 0.984221704531879
-0.0879150953569827 0.0604746122775572 0.986301369863014
-0.0923548447051195 0.0608284462149233 0.986301369863014
-0.0966820120784852 0.0827720318919928 0.986301369863014
-0.0894561499292595 0.116640700259777 0.97945205479452
-0.0981503931560939 0.11859069958621 0.986301369863014
-0.0928652894224288 0.132210115741345 0.986301369863014
-0.0970298919784529 0.148385787581958 0.986301369863014
-0.0996125133247946 0.160214935364684 0.986301369863014
-0.0980373410243654 0.179050821004354 0.986301369863014
-0.0990879497512109 0.186242438278235 0.990113138390442
-0.090500350488812 0.189799538360947 1.00004652072289
-0.0716659713725176 -0.264323800497131 0.258702397747719
-0.075966011502093 -0.262542665556713 0.26404963461132
-0.0727763923215471 -0.2638638490801 0.264629175877513
-0.0707490275739126 -0.264703611054448 0.285376245473988
-0.0772032123884448 -0.262030200170206 0.292825314852983
-0.0722538897522678 -0.264080276730671 0.304890240349669
-0.074755695374131 -0.263043994911674 0.305711107320337
-0.0700834206246466 -0.264745945375023 0.315324099125975
-0.0718745174774445 -0.264237417872091 0.330974725557948
-0.0753861176163037 -0.262782865468944 0.340970319791919
-0.0706873935379481 -0.264666430832512 0.348768957605806
-0.0721709827632958 -0.264114617929919 0.355964631540879
-0.0734799702234565 -0.263572417570944 0.36360815122869
-0.0703849560027917 -0.26470624748938 0.369048599988349
-0.0755198458958721 -0.262727473401874 0.389578132071081
-0.0687172454425816 -0.264925805749883 0.389995127088685
-0.0742577674773274 -0.263250243399614 0.396537603033286
-0.0712822800531865 -0.264482730645363 0.415911534159211
-0.0745031543824838 -0.263148600815469 0.421679125931912
-0.0744005391303745 -0.263191105444599 0.423335133719986
-0.0682584441040874 -0.264986208091993 0.444222186447999
-0.0698934753615757 -0.264770952143311 0.445872534545997
-0.071327799107526 -0.264463876035709 0.460030751099326
-0.0718097880314406 -0.26426422968651 0.467355789564563
-0.0716828838740839 -0.26431679510961 0.474809271266156
-0.073414510646203 -0.263599531815629 0.481238279767629
-0.0708691086085764 -0.264653871861306 0.497728808125195
-0.0760826852180152 -0.262494337721205 0.498487231271841
-0.0702532547655336 -0.264723586286199 0.512838738483204
-0.0732142701720929 -0.263682474135741 0.519552422038311
-0.0729279400343385 -0.263801075962116 0.52179601807534
-0.0684408778773078 -0.264962190230104 0.541881804779385
-0.0762914595099395 -0.262407860578015 0.539276182476537
-0.0723215570429701 -0.264052248021133 0.555315124278439
-0.074009009769408 -0.263353282215979 0.565159856718796
-0.0730967525368052 -0.263731151534096 0.573865670399996
-0.0728125730179833 -0.26384886254494 0.584587681436347
-0.0759855359065818 -0.262534578283576 0.594166480378662
-0.0740839189550778 -0.263322253815328 0.598579643508984
-0.0700549456891755 -0.264749694171397 0.609911633649139
-0.0734512849914992 -0.26358429938306 0.624421265610346
-0.0685928534963154 -0.26494218226029 0.631272078133496
-0.0702914756358588 -0.264718554413161 0.639663636354264
-0.0770710052645917 -0.262084962153948 0.640785049371563
-0.0758630005811947 -0.262585334077221 0.651933351065139
-0.0758742574020893 -0.262580671349338 0.66264345505979
-0.0748737361611548 -0.262995100816775 0.674292985958641
-0.0758585383726103 -0.262587182384535 0.688859433982861
-0.0697915221611623 -0.264784374536783 0.688422559672651
-0.0713070312964946 -0.264472478344699 0.703368689039019
-0.0759396841641976 -0.262553570697131 0.710691052178372
-0.0690163355360732 -0.264886429792073 0.719416758467829
-0.0732668082715444 -0.263660712142407 0.726632113218007
-0.0775976684236518 -0.261866811130663 0.733228089934418
-0.073350999685658 -0.263625838916846 0.747886708998521
-0.0771472697151742 -0.26205337238419 0.748343797936301
-0.0691119765607122 -0.264873838412306 0.767652025462945
-0.07515382026116 -0.262879086183949 0.768415909382763
-0.0762390366744899 -0.262429574827437 0.78178305470788
-0.0736524720074255 -0.26350096499249 0.794299656962553
-0.0687553359457786 -0.264920791040004 0.803964390446189
-0.0688008715725122 -0.264914796161015 0.811338958454475
-0.0748531435283183 -0.263003630564581 0.817240567556937
-0.076696575471937 -0.262240056052222 0.826905078399474
-0.0695401937460257 -0.26481746255035 0.838070295007657
-0.0750236652535428 -0.262932998153314 0.849729860293354
-0.0725157828751787 -0.263971797047269 0.859291173956472
-0.0746677671590427 -0.263080415970879 0.86284852645817
-0.0749009111451042 -0.262983844569866 0.879622799257739
-0.0728043674457862 -0.263852261404232 0.888777090736409
-0.0750342312702657 -0.262928621565887 0.896691256200468
-0.0690611577279703 -0.264880528838562 0.897249707187592
-0.0699430133830544 -0.264764430339058 0.918997565964763
-0.0682930793823935 -0.2649816482711 0.924674152823036
-0.0706070502087178 -0.264295233867107 0.931938473025429
-0.0689709393813783 -0.26163488601008 0.93473650107647
-0.0695237292630126 -0.257446133037843 0.938680786075547
-0.0725875775936564 -0.245824474468164 0.948245314566492
-0.0720085634238147 -0.242986966583123 0.951088409154722
-0.0689824079675768 -0.238120041435421 0.956742921241812
-0.0725447863892605 -0.229642520063424 0.963211866522034
-0.0720762463300105 -0.229256555024044 0.963747754240257
-0.0773942012018304 -0.218330260338553 0.971807241042858
-0.0705610546907241 -0.213914516367789 0.978501788478981
-0.0772845564923725 -0.210397439140779 0.979178171396309
-0.0770895545669422 -0.202768117121485 0.988694282994294
-0.0777627907956609 -0.202489253544868 0.991168688884101
-0.0800274066481284 -0.172498976100774 0.986301369863014
-0.0728195600001335 -0.156968318494953 0.986301369863014
-0.0721604250269155 -0.130350985508781 0.979452054794521
-0.0769982658147883 -0.13075158343361 0.979452054794521
-0.0762706813510734 -0.110808276268431 0.979452054794521
-0.0789817076951101 -0.0965173482606654 0.979452054794521
-0.0814958274103575 -0.0813292782883978 0.979452054794521
-0.0829533585727043 -0.0665559182833899 0.97945205479452
-0.0835343290034321 -0.0501963473654148 0.979452054794521
-0.0782552633850196 -0.0465241438209619 0.979452054794521
-0.0765848395318448 -0.0314979459854344 0.979452054794521
-0.0770674887922648 -0.0130936149043129 0.979452054794521
-0.0844987087768925 -0.00279497180709717 0.979452054794521
-0.0789350136931833 0.0140343236533211 0.979452054794521
-0.0757945834851194 0.0230282443438504 0.979452054794521
-0.076152413489107 0.0380949652438207 0.97945205479452
-0.0824921283351829 0.0501208709844671 0.986301369863014
-0.0817903857526443 0.0824143098058822 0.979452054794521
-0.0832688188126782 0.0903018191047475 0.979452054794521
-0.0867564453107799 0.109982065444389 0.979452054794521
-0.0847087645356489 0.125783607879184 0.979452054794521
-0.0787759421664874 0.130959354549216 0.979452054794521
-0.0819073857146456 0.1553242824239 0.981510526518962
-0.0820676374785077 0.16477510540319 0.986301369863014
-0.0897716102080436 0.175231062756456 0.986301369863014
-0.0822880245667687 0.193201195136485 0.987034564762225
-0.088323446644104 0.190701241457407 0.998250183656681
-0.0629862834033768 -0.265680301215924 0.250573223860836
-0.0642234514521218 -0.265517424952371 0.266945855350756
-0.0679525969809529 -0.265026473629633 0.274646935438228
-0.0639695422350998 -0.265550852734952 0.285302751304766
-0.0619634703402721 -0.265814957110246 0.289556130634196
-0.0615795853359528 -0.265865496529851 0.301573309663531
-0.0633252693166491 -0.265635672873794 0.312232026708782
-0.066417139830575 -0.265228620398419 0.322537009529077
-0.0637441001644459 -0.265580532746616 0.33130764075512
-0.0617399322477506 -0.265844386458433 0.342402796031347
-0.0618630655361303 -0.265828175653482 0.345946157988802
-0.0636011895643222 -0.265599347284053 0.353006601485737
-0.0611245521283643 -0.265925402788115 0.372061575942406
-0.0665111204359907 -0.265216247616991 0.375280093370394
-0.0599172024453269 -0.266084353389349 0.380812294772949
-0.0666034728282076 -0.265204089193898 0.399039171933269
-0.0597080690478808 -0.266111886323451 0.397244630921702
-0.0648210627278929 -0.265438747935329 0.410270082360707
-0.0677596242045435 -0.265051878977614 0.426114946701113
-0.0642049079640521 -0.26551986624889 0.429307360827035
-0.0603036051041677 -0.266033482514238 0.445322596256818
-0.0614081496794954 -0.265888066462199 0.455739844012757
-0.0673240203539069 -0.265109227312509 0.452897051851763
-0.0642125301648206 -0.265518862767121 0.465176031313325
-0.0608638507069241 -0.265959724781372 0.473135035267335
-0.0620274853209537 -0.265806529378157 0.4849355170611
-0.061136930224194 -0.265923773180884 0.492603218775452
-0.0636018431941829 -0.26559926123205 0.503289135039258
-0.0656489881004678 -0.265329749492214 0.507842929936953
-0.0616141747272821 -0.265860942750093 0.519134467651917
-0.0663100828528113 -0.265242714716926 0.522687757676338
-0.0628971071451089 -0.26569204149305 0.539633766355795
-0.0633543093016466 -0.265631849687239 0.546573299658609
-0.061623468734634 -0.265859719170813 0.549328506408018
-0.0625623205187559 -0.265736116988568 0.571680937495397
-0.0601055909344433 -0.26605955157424 0.572277016455317
-0.0642813149174079 -0.265509807082647 0.580105215961469
-0.062978469769584 -0.265681329900328 0.590003334244352
-0.0604077169395373 -0.266019775931083 0.607144490880408
-0.0596773701803564 -0.266115927906034 0.61101037313936
-0.0673494939839534 -0.265105873645491 0.616180545257204
-0.0682384957245718 -0.264988834345979 0.63186632795765
-0.0611644095529233 -0.265920155458625 0.642522006901209
-0.0633862905043199 -0.265627639282032 0.648002968361181
-0.0617204445421735 -0.265846952063544 0.659823151414382
-0.0625239212091966 -0.265741172353578 0.668051550218074
-0.0597863865324032 -0.266101575631009 0.678085500212791
-0.0625323441267581 -0.265740063455443 0.688293740596153
-0.0649071515895487 -0.265427414121678 0.693926998262655
-0.0612772740588287 -0.265905296564534 0.705540423642983
-0.0599196494150389 -0.266084031239675 0.714458360233149
-0.0656218413071467 -0.265333323435356 0.720756662092982
-0.0621003189612549 -0.265796940647503 0.728200290627903
-0.0638053270855657 -0.26557247206953 0.734390533614289
-0.0675972046927744 -0.265073261911996 0.752957769688218
-0.0617566699698118 -0.26584218289552 0.7510177047373
-0.0679837469214479 -0.265022372662167 0.768936902629563
-0.065225565081171 -0.26538549419024 0.77513430170376
-0.0632286824862817 -0.265648388771246 0.782210383987541
-0.0640121487624372 -0.265545243479215 0.792712773122862
-0.0623923981977088 -0.26575848768653 0.80731999662562
-0.0676482201817637 -0.265066545595455 0.808231334423323
-0.0667447331782933 -0.265185491915999 0.822883586629802
-0.0661645690791207 -0.265261871968666 0.832845266310841
-0.0607108483536364 -0.26597986792332 0.836670685571526
-0.0611633793465921 -0.265920291087862 0.851454029780594
-0.0663210427524585 -0.265241271818764 0.85687297396301
-0.0632394362484261 -0.265646973011602 0.8723899229311
-0.0672787289800036 -0.265115190035003 0.874095687622869
-0.0660823957270024 -0.265272690295707 0.888583443674172
-0.0629207497359474 -0.265688928886917 0.893240200544825
-0.0632913425961207 -0.265640139411288 0.903175268175679
-0.0629504095819871 -0.265685024094108 0.912232848929397
-0.0667344255723074 -0.265186848938072 0.918171693441296
-0.0637764724928394 -0.26557627084873 0.931217739987582
-0.0659149126843706 -0.259210710252626 0.937538829202348
-0.0648078143103807 -0.253366970322824 0.943477080462126
-0.0677808097457685 -0.252992696680911 0.943462211198254
-0.0603183743108705 -0.246036234703863 0.951331090129971
-0.0646958404110401 -0.241448163452369 0.955308535814254
-0.0628004545047166 -0.235163567158744 0.961840078484318
-0.0617504686196775 -0.228096701740129 0.968770823006011
-0.0635481382994681 -0.226829236428958 0.969253869861848
-0.0650888971728943 -0.213620569027201 0.980867464431952
-0.0638825921751351 -0.209642650890746 0.98500421451725
-0.0676440126753602 -0.206680588676941 0.993992054815261
-0.0616387478478134 -0.209168050814153 0.997866677127528
-0.0652833706521713 -0.175164326319151 0.986301369863014
-0.0643050705137147 -0.161426285226412 0.986301369863014
-0.0632575099814896 -0.140273153522429 0.979452054794521
-0.0716157577629251 -0.13715539044927 0.979452054794521
-0.0641894089807206 -0.11584959458833 0.979452054794521
-0.0672081827381658 -0.0986313769021347 0.979452054794521
-0.0632197008452894 -0.0935601274515765 0.979452054794521
-0.0717999455816491 -0.0676946098035976 0.979452054794521
-0.0728092959924834 -0.0643537337032605 0.979452054794521
-0.0692963085105847 -0.047361418381035 0.979452054794521
-0.064536547208365 -0.0278170975277898 0.979452054794521
-0.0698439772711721 -0.0204775940223631 0.979452054794521
-0.0701540492385718 0.00405346496547602 0.979452054794521
-0.0729013374400659 0.0134913435958788 0.979452054794521
-0.0723814765870415 0.0370088398145457 0.979452054794521
-0.0747059355458266 0.0421727512761467 0.979452054794521
-0.0678442114191551 0.0672168112109 0.979452054794521
-0.0733770731172272 0.0793233321357149 0.979452054794521
-0.0684195129542687 0.089590491959771 0.979452054794521
-0.0697971710512005 0.104839182887616 0.979452054794521
-0.0683024745722254 0.120400903270385 0.979452054794521
-0.0730942156814038 0.137604736852692 0.97945205479452
-0.0707978046554803 0.16197930371988 0.979452054794521
-0.0766995906207689 0.162111213126798 0.983353803193032
-0.0765460612735804 0.189798756352612 0.986301369863014
-0.0698186839868891 0.19836616511852 0.986989343813626
-0.0722748401813988 0.197348791911447 0.999217065621975
-0.0511927397879757 -0.267232950688297 0.255031227555649
-0.0513444850451458 -0.267212973046194 0.268146809745682
-0.055563926378329 -0.266657473056256 0.267063103832043
-0.0569614628172159 -0.266473483893608 0.289933741247644
-0.0534975111666374 -0.266929521779928 0.287566128787284
-0.0511736302022352 -0.267235466512988 0.301530714406157
-0.0560540295631684 -0.266592949747897 0.316285907566743
-0.0508329531108753 -0.267280317502936 0.323751091758542
-0.0585384402041208 -0.266265870881983 0.332808799503561
-0.0517140326534158 -0.267164321180588 0.335350548181526
-0.0520567572977614 -0.267119200625175 0.346491413306337
-0.0535952867364426 -0.266916649381961 0.350285768978138
-0.0537376038034001 -0.266897912984646 0.375116530218376
-0.0574635085007435 -0.266407388325468 0.372409670645974
-0.0518328244132926 -0.267148681948707 0.382104693791858
-0.058213714356374 -0.26630862185087 0.396205847567302
-0.0560052655327849 -0.26659936965429 0.401258370520234
-0.0508269239174773 -0.267281111261305 0.412339682764917
-0.0556825769206414 -0.266641852416021 0.417000576452326
-0.0519811581319768 -0.267129153444166 0.432653100262474
-0.0528231493027444 -0.267018303203588 0.440932315256662
-0.0540861516428175 -0.266852025791058 0.450958765636945
-0.0575566630219838 -0.266395124300086 0.453833308970513
-0.050162628301085 -0.26736856743834 0.461218540148671
-0.0564863936727439 -0.266536027933004 0.479063579963009
-0.051338697595205 -0.267213734978433 0.481381615749032
-0.0590846981541496 -0.266193954658535 0.495595185110507
-0.0582127471623371 -0.266308749184381 0.503056183935399
-0.0539090233132742 -0.266875345178036 0.513010381691634
-0.0529238889924095 -0.267005040571837 0.527680778699358
-0.0551122726619696 -0.26671693439606 0.527532911370607
-0.051770873669296 -0.267156837918882 0.543589388781479
-0.0516581178061292 -0.267171682509885 0.543931558356559
-0.0509491626895102 -0.267265018221665 0.563098575944679
-0.0584848091466568 -0.266272931544647 0.571748817309929
-0.0509712602047914 -0.267262109028588 0.57022974083879
-0.0591120599182317 -0.266190352413955 0.584276622950201
-0.0581411625145931 -0.266318173482045 0.587300504395775
-0.0585104104374955 -0.266269561070766 0.609658718910161
-0.0506735624657234 -0.267301301679463 0.612921500672433
-0.050769408837262 -0.267288683265265 0.625922063691111
-0.0583898364849412 -0.266285434932764 0.638556268845697
-0.052777572191822 -0.267024303544074 0.640947113360376
-0.0578189660569602 -0.266360591450406 0.647130014440434
-0.0512992568834005 -0.267218927446648 0.659771703089402
-0.0527178908178681 -0.267032160746014 0.672348478392034
-0.0585387677116502 -0.266265827764799 0.678756338392937
-0.0523486559305211 -0.26708077144113 0.691389506990203
-0.0521211776178706 -0.267110719529137 0.695929225128173
-0.0514106825489593 -0.267204257979483 0.703084625448837
-0.0517435027017966 -0.267160441375114 0.713621778774397
-0.0574812642990744 -0.266405050730271 0.726345874587909
-0.0506922658385269 -0.26729883933372 0.729020457182016
-0.056017573046552 -0.266597749339362 0.742828121982701
-0.0507930134673078 -0.267285575656765 0.754551466477649
-0.0588204953239 -0.266228737621007 0.758963705658326
-0.0516766793254761 -0.267169238839504 0.763631917887925
-0.0574684169348845 -0.266406742117854 0.772227880903741
-0.0517377433602694 -0.267161199606811 0.791090213587548
-0.0550049981555321 -0.26673105735276 0.792508069593193
-0.053169724163011 -0.266972675757632 0.80916175885219
-0.0540404676128533 -0.266858040207703 0.808107212681636
-0.0515250359670336 -0.267189203066385 0.8256645542467
-0.0546763792373098 -0.266774320854099 0.833134037573301
-0.0502725781269151 -0.26735409226916 0.845975184059914
-0.0521994779087595 -0.267100411100279 0.845814101582756
-0.0535160209345126 -0.266927084922758 0.862791277388348
-0.0516790131078604 -0.267168931591224 0.875836988611111
-0.0554556201217231 -0.266671731845443 0.875715233058032
-0.0504748635773579 -0.267327460884384 0.891693798984224
-0.0534148600774896 -0.266940403002243 0.899231746983822
-0.0581116033132813 -0.266322065024725 0.902906745918773
-0.0542764801060723 -0.26682696857351 0.919088081825302
-0.0519237541021176 -0.267136710828069 0.920353107391077
-0.0537892965355569 -0.262595193248833 0.935766011431579
-0.0572104436488177 -0.261065289444867 0.936836277390698
-0.0533049912134759 -0.253321743692425 0.945023339871051
-0.056834428729927 -0.248348536718471 0.949493316330225
-0.0526944985340807 -0.247402116214812 0.950972009399798
-0.050960652456168 -0.238107668850548 0.960413253804853
-0.0548561885717046 -0.233888021100384 0.964088332387743
-0.0582915238714926 -0.230256732254147 0.967240153818829
-0.0550463691157289 -0.22788140161434 0.970018740869163
-0.0568342592523777 -0.218360008575057 0.979225310579436
-0.0565118474166006 -0.211734011059763 0.985836704956701
-0.0571683305938362 -0.211019758270217 0.990156989317671
-0.0528664270321645 -0.211745265276658 1.00009679784705
-0.0605682051966502 -0.181965959385124 0.986301369863014
-0.0533588440568946 -0.167149991770942 0.986301369863014
-0.053545331887577 -0.136535824959293 0.979452054794521
-0.0528110215645505 -0.122647670565582 0.979452054794521
-0.0530647056554205 -0.118947016633948 0.979452054794521
-0.0560762633926727 -0.108973826536656 0.979452054794521
-0.0617218463056347 -0.0925616315861472 0.979452054794521
-0.0548606273694887 -0.0777495083315739 0.979452054794521
-0.0576391867951646 -0.0589269364788718 0.979452054794521
-0.0617367334227478 -0.0430635194424258 0.97945205479452
-0.0555763060970245 -0.0356208311376117 0.97945205479452
-0.0573247674665493 -0.0135385531460051 0.979452054794521
-0.064195483465607 0.00693097835430761 0.979452054794521
-0.0588793707493692 0.0136655726816145 0.979452054794521
-0.0611099506597901 0.0330258855992996 0.979452054794521
-0.0646639139149919 0.053084190412832 0.979452054794521
-0.0627063611109137 0.0573413479449098 0.979452054794521
-0.0606425154941694 0.0837662195770813 0.97945205479452
-0.0572065721839938 0.087434388801875 0.979452054794521
-0.0626957044111309 0.101917623716535 0.979452054794521
-0.0664096824069631 0.126694156964012 0.979452054794521
-0.0629105383988608 0.139234709691542 0.979452054794521
-0.0673959683355218 0.165320912904006 0.979452054794521
-0.0586330554705699 0.17732951837206 0.979452054794521
-0.0687338294188791 0.174715552399528 0.986301369863014
-0.0631186706908423 0.193442770807275 0.986301369863014
-0.0616128575922251 0.201765129701669 0.99027476694417
-0.0438029647106774 -0.268205833033833 0.26705798195267
-0.0411022297364812 -0.268561391538507 0.273680383238768
-0.0445460966502275 -0.268107997857953 0.28281952086462
-0.0480722800158782 -0.267643767010914 0.286761956480687
-0.0491758755514101 -0.267498475902336 0.295236590889914
-0.0458481898977426 -0.267936574029827 0.303240473489507
-0.0455901505943597 -0.267970545548593 0.305769218540992
-0.0475033643464092 -0.267718666179717 0.319380025199387
-0.043170477465528 -0.268289101559349 0.328049415882775
-0.0464239187374119 -0.267860777890151 0.342708153808442
-0.0483211043146335 -0.267611008670523 0.354804165578241
-0.0450184432256286 -0.268045812251575 0.361102749355727
-0.0474164411488645 -0.267730109835772 0.369848059421582
-0.0464092076961774 -0.267862714635472 0.378583337721103
-0.0461129124900552 -0.267901722639381 0.386237788638932
-0.0437136833580563 -0.268217587146893 0.392361058997509
-0.0472059780261286 -0.26775781783153 0.403415466435512
-0.0441900871724148 -0.268154867394873 0.414890463752422
-0.0415497036152623 -0.26850248048476 0.42710496733429
-0.0422496827964754 -0.268410326477295 0.433185403629361
-0.0424301512074375 -0.268386567360256 0.442405480382142
-0.0448596976287405 -0.268066711505887 0.453159542578976
-0.047463576712043 -0.267723904321155 0.458557815876213
-0.0427743930654375 -0.268341247059876 0.467714107234101
-0.0458053093597346 -0.267942219359753 0.480396609533585
-0.0485883844549456 -0.267575820572496 0.482471372718143
-0.048402962137118 -0.267600231883746 0.498389834597212
-0.0489488817820472 -0.267528360199009 0.510115042047756
-0.0438098216447916 -0.26820493030133 0.511175097076236
-0.0421421443556888 -0.268424484181611 0.522488130148714
-0.0501400346931283 -0.267371541943257 0.530968103333669
-0.0437847183039905 -0.268208235218844 0.545012138231027
-0.0453912790980877 -0.267996727477776 0.555588774363734
-0.0445164820206926 -0.268111896697897 0.559103225321404
-0.043127683057756 -0.268294735550015 0.574944537558512
-0.0412303810330411 -0.268544520100246 0.585033698657092
-0.0414299003250729 -0.268518252887133 0.592451425307001
-0.0429406996465067 -0.268319352383113 0.600031087302955
-0.0487991835542189 -0.267548068344587 0.600264693846255
-0.0447439370620594 -0.268081951673612 0.616732888419878
-0.045490693398777 -0.267983639336794 0.624833899426071
-0.0410910239510621 -0.268562866808145 0.633673275024799
-0.0429120858655343 -0.268323119458843 0.640588581747854
-0.0475830208899487 -0.267708179196811 0.649602326470599
-0.0417177429929494 -0.268480357680995 0.661383917234893
-0.0418023113516778 -0.268469224045352 0.663279531113236
-0.0429587127889323 -0.268316980907923 0.674274394009957
-0.0410314718448111 -0.26857070699167 0.683051144164491
-0.0485769783099991 -0.267577322219966 0.697756474705586
-0.0452519325838825 -0.268015072794401 0.704269704203451
-0.0477537439859381 -0.267685703074828 0.709105519255764
-0.0471205567760507 -0.26776906375245 0.724308981260924
-0.0429279611520109 -0.268321029437729 0.736420652233846
-0.0447440310711905 -0.268081939297075 0.739191870044497
-0.0436035616090022 -0.268232084950195 0.75021683753064
-0.0426603270390092 -0.268356264137145 0.755181193753408
-0.0440049795629675 -0.268179237273978 0.770798957908076
-0.0426902327996048 -0.26835232696907 0.78034152370642
-0.0415018919602954 -0.268508775008551 0.793447679702743
-0.0491352305331135 -0.267503826920509 0.795129914137364
-0.0446265515067623 -0.268097405775148 0.80447309614885
-0.0452312150280151 -0.268017800312375 0.816345886360716
-0.0460398979266419 -0.267911335189015 0.822100420790489
-0.0462473103041662 -0.267884028831483 0.831048166741424
-0.0486820154457591 -0.267563493818703 0.846040612590374
-0.0416745114481183 -0.268486049221846 0.848474720240248
-0.043034938003678 -0.268306945668023 0.858153595122816
-0.0451316457290192 -0.268030908859271 0.871228120120404
-0.0424942459038888 -0.268378129133386 0.879938607477478
-0.0422780648588472 -0.268406589907897 0.890074414808476
-0.0463784510434508 -0.267866763825621 0.903322007959982
-0.0452047489703209 -0.268021284634972 0.91096662209888
-0.0487530575535227 -0.267554140947783 0.915399516182053
-0.0444359136121232 -0.268122503730113 0.921014167105835
-0.0413823654956506 -0.26852451096615 0.928677998579479
-0.0445481755512953 -0.258019342769571 0.941508923209577
-0.0436727676759268 -0.254249821131287 0.945360459724304
-0.0439208416693042 -0.255524396571716 0.944064408299712
-0.0460878408307885 -0.24442402593318 0.954786963579541
-0.0424074023115462 -0.240377005532632 0.959279754785156
-0.050109003723998 -0.23469317665288 0.963909697014551
-0.0506825665190625 -0.228816959859601 0.969660776990926
-0.0483786063162296 -0.22382174290313 0.974913986326169
-0.0427089862332188 -0.220559485696952 0.978888368390484
-0.045074150868458 -0.212963257935242 0.986110893436846
-0.0438003656844008 -0.212938834896371 0.994664363584509
-0.0507678185367893 -0.207699093176608 1.0
-0.0424468403861824 -0.174344136679422 0.986301369863014
-0.0454565777094279 -0.166687579279312 0.986301369863014
-0.0455272348747278 -0.140634283125773 0.979452054794521
-0.0497431175458883 -0.128584153982907 0.979452054794521
-0.0434863410341877 -0.114686639548015 0.979452054794521
-0.0458926357342776 -0.0994540409872813 0.979452054794521
-0.0464070131781441 -0.0876122877654776 0.979452054794521
-0.0493747921151326 -0.0636941191339796 0.979452054794521
-0.0500987394582769 -0.058110098982928 0.979452054794521
-0.0535536745135247 -0.0333132655648278 0.979452054794521
-0.0507878414574756 -0.0299682729857192 0.979452054794521
-0.050206589563441 -0.0113372415322626 0.979452054794521
-0.0518376375226378 -0.00353435942338452 0.979452054794521
-0.0513258764320742 0.0185029963989062 0.979452054794521
-0.0547374269593989 0.0287647180664924 0.979452054794521
-0.0496353380991906 0.0440787066516506 0.979452054794521
-0.0558005773997445 0.0651559887683942 0.979452054794521
-0.0521438211675234 0.0847813686805129 0.979452054794521
-0.0546511026048772 0.0968590812985777 0.979452054794521
-0.0562837705385173 0.110100540568792 0.979452054794521
-0.0554534545049514 0.125800676578474 0.979452054794521
-0.0505504312944018 0.131950725957648 0.986301369863014
-0.047121026197649 0.147861802363007 0.986301369863014
-0.0490089505663062 0.172097965397969 0.979452054794521
-0.0573960454146075 0.181690069776299 0.981810263508307
-0.0548139485134519 0.197884540637155 0.986301369863014
-0.0567042303090487 0.203798349694996 0.989165108471989
-0.0533470110564789 0.209302488610641 1.0
-0.0404831605970994 -0.268642893536886 0.258515172617842
-0.0337955268563793 -0.269523337221801 0.275833841160333
-0.0349488888639601 -0.269371494232881 0.276187331468885
-0.0373254341106887 -0.26905861611552 0.289461286020882
-0.0326241057706998 -0.269677557733458 0.296150099346428
-0.0355155383085957 -0.269296893418239 0.298899980225217
-0.034324635996245 -0.269453678682042 0.320447055046572
-0.0389698293795175 -0.268842127371357 0.321149765410895
-0.0365934906145862 -0.269154978304875 0.333300011518494
-0.0372045421776596 -0.269074531840442 0.344978826900185
-0.0381840917393601 -0.268945571694133 0.349886070092503
-0.0340810245181019 -0.269485750741581 0.35967153759093
-0.0323148550757572 -0.269718271359827 0.372049694612314
-0.0343294555209093 -0.269453044179583 0.375886739621866
-0.0402361969948374 -0.268675406911937 0.379043553695786
-0.0408030786166385 -0.26860077553059 0.400277324644959
-0.0373409492429082 -0.269056573509613 0.408079837444104
-0.0335701681039133 -0.269553006264417 0.408708923004253
-0.0379767008852762 -0.26897287521805 0.425720798786489
-0.0332664927444317 -0.269592985883948 0.438976590214275
-0.0357747189382964 -0.269262771641012 0.448717084386534
-0.0340965119116154 -0.269483711787543 0.449984578349031
-0.0382985271172747 -0.268930505990818 0.460948511358202
-0.0320803364879807 -0.269749146317639 0.470064347676388
-0.0386548916825467 -0.268883589705748 0.471487347158428
-0.0350702735460453 -0.269355513636316 0.492648360151714
-0.0371301238825964 -0.269084329194852 0.495244380002562
-0.0395255961380297 -0.268768959289524 0.512420387082373
-0.0371306557631779 -0.269084259171445 0.515302168730549
-0.0380269493826003 -0.268966259877877 0.52152428614044
-0.0379191653790669 -0.268980449911142 0.534902674071615
-0.0340886195435962 -0.269484750837504 0.546592252594221
-0.0401309155970391 -0.268689267470907 0.546140988339828
-0.0408198029517024 -0.268598573730109 0.558709819434366
-0.039612360277558 -0.268757536573853 0.574809863367398
-0.0356373428323847 -0.269280857548464 0.580995609534283
-0.0345675890370321 -0.269421693307426 0.587336977142505
-0.0383701445629604 -0.268921077375223 0.597847400846438
-0.035840576319377 -0.269254101352308 0.606654398491347
-0.0401817029900606 -0.268682581183769 0.618484716597408
-0.0350729797339759 -0.269355157359916 0.626989150247962
-0.0336385703620699 -0.26954400093629 0.629312901055982
-0.0347331133725193 -0.269399901615248 0.63653916213716
-0.0329828089328954 -0.269630333566262 0.653594836273717
-0.0348604968408488 -0.26938313126349 0.664425084741901
-0.0319802358753784 -0.269762324813299 0.669019221752586
-0.0333816637591322 -0.269577823332213 0.679437285055367
-0.0359994302409486 -0.269233187836782 0.683967641036964
-0.0329278296935758 -0.269637571720434 0.696371683659031
-0.0355487344521466 -0.26929252306303 0.704799211947612
-0.039877946181263 -0.268722571526306 0.718924224927715
-0.0382039709894789 -0.268942954541205 0.718686883682931
-0.036460179333716 -0.269172529067957 0.7342021873929
-0.0321067971684825 -0.269745662702964 0.749944865905199
-0.0342890119889509 -0.269458368671576 0.75211935579046
-0.0368605540751914 -0.269119818733272 0.762530551816382
